# .PCD v.7 - Point Cloud Data file format
VERSION .7
FIELDS x y z rgb
SIZE 4 4 4 4
TYPE F F F F
COUNT 1 1 1 1
WIDTH 160
HEIGHT 1
VIEWPOINT 0 0 0 1 0 0 0
POINTS 160
DATA ascii

 0.0883207 -0.0028056 0.0154078 16777215
 0.0876393 -0.0010481 0.0163248 16777215
 0.0919363 -0.0115594 0.0358163 16777215
 0.0957102 -0.0237522 0.0571768 16777215
 0.1030549 -0.0371442 0.0680790 16777215
 0.1147169 -0.0334873 0.0829677 16777215
 0.1334586 -0.0568224 0.1337002 16777215
 0.1442693 -0.0909671 0.1394990 16777215
 0.1645912 -0.0958765 0.1621115 16777215
 0.1943535 -0.0759329 0.2231985 16777215
 0.2214556 -0.0996187 0.2701532 16777215
 0.2802367 -0.1435640 0.3285945 16777215
 0.3521636 -0.1566684 0.4436953 16777215
 0.3855737 -0.2330073 0.4720132 16777215
 0.3898272 -0.1253357 0.6885800 16777215
 0.3936394 -0.1173264 0.7469432 16777215
 0.4049305 -0.1285437 0.7545450 16777215
 0.4100176 -0.1092214 0.8019469 16777215
 0.4730362 -0.1688718 0.8631212 16777215
 0.4804882 -0.1590879 0.8691069 16777215
 0.5195060 -0.1237752 1.0596037 16777215
 0.6139539 -0.2445655 1.1072463 16777215
 0.6223120 -0.2893131 1.2496760 16777215
 0.7193047 -0.3404979 1.3040769 16777215
 0.7558694 -0.3748298 1.3842686 16777215
 0.7770878 -0.3059911 1.4865663 16777215
 0.7932641 -0.4148302 1.4817158 16777215
 0.8448970 -0.3703517 1.5919392 16777215
 0.8477733 -0.3186636 1.6796290 16777215
 0.9279078 -0.1981493 1.8507482 16777215
 0.9708794 -0.3775846 1.8388332 16777215
 1.0027014 -0.3680285 1.9656456 16777215
 1.0519317 -0.4372222 2.0599585 16777215
 1.0980324 -0.4767199 2.1315210 16777215
 1.0915264 -0.5135672 2.1350436 16777215
 1.0941854 -0.5386549 2.1560850 16777215
 1.1124426 -0.5983174 2.1611569 16777215
 0.9766561 -0.4323787 2.3027122 16777215
 0.9757316 -0.4740911 2.3497021 16777215
 1.1211990 -0.5917037 2.3098779 16777215
 1.1342139 -0.5548702 2.3280466 16777215
 1.1926332 -0.5771592 2.4069152 16777215
 1.2082039 -0.5710342 2.4820659 16777215
 1.2141705 -0.6505787 2.4761982 16777215
 1.1422782 -0.3927252 2.7144434 16777215
 1.2173532 -0.4292963 2.7481272 16777215
 1.2601774 -0.4288167 2.8929887 16777215
 1.2257065 -0.5390818 2.9645867 16777215
 1.2459391 -0.4296910 3.0623128 16777215
 1.2802253 -0.5222406 3.0638773 16777215
 1.2726805 -0.5192354 3.1013486 16777215
 1.3320390 -0.5750308 3.1280971 16777215
 1.4506657 -0.6008906 3.2375371 16777215
 1.3492844 -0.6973169 3.2594814 16777215
 1.4656721 -0.7058814 3.3308430 16777215
 1.4874247 -0.7283319 3.4424646 16777215
 1.4880507 -0.7172472 3.4945116 16777215
 1.5039135 -0.7543094 3.5042412 16777215
 1.5290745 -0.7298158 3.5603318 16777215
 1.5539719 -0.7258838 3.6225836 16777215
 1.5771224 -0.7334038 3.6629395 16777215
 1.6061152 -0.7778271 3.7410538 16777215
 1.5483707 -0.7116086 3.7819660 16777215
 1.6445811 -0.7348118 3.7915962 16777215
 1.6476835 -0.7254661 3.8952875 16777215
 1.6777575 -0.7856314 4.0096979 16777215
 1.7438399 -0.8277783 4.0566649 16777215
 1.7708060 -0.7511502 4.2129154 16777215
 1.7843814 -0.8573494 4.3105297 16777215
 1.7932054 -0.8193601 4.3618822 16777215
 1.6447899 -0.6616910 4.4277263 16777215
 1.6274673 -0.7379969 4.4488873 16777215
 1.6850853 -0.7264975 4.4679928 16777215
 1.7585800 -0.5795250 4.6542149 16777215
 1.6988139 -0.5335866 4.6478930 16777215
 1.7374194 -0.5983834 4.7941308 16777215
 1.7746350 -0.6910241 4.8293757 16777215
 1.8442259 -0.5541995 5.0220647 16777215
 1.8421123 -0.6982454 5.0218196 16777215
 1.8253955 -0.7521983 5.0397835 16777215
 1.8625559 -0.6266228 5.1234579 16777215
 1.8986167 -0.6560265 5.1487403 16777215
 1.8799814 -0.6984602 5.1603923 16777215
 1.8835969 -0.6832223 5.2047143 16777215
 1.8801603 -0.6581018 5.2252212 16777215
 1.8991717 -0.6583017 5.2599239 16777215
 1.9274765 -0.6415213 5.2875676 16777215
 1.9550411 -0.7095714 5.3504438 16777215
 1.9685980 -0.7138509 5.3760486 16777215
 1.9853890 -0.7691020 5.4249315 16777215
 2.0107224 -0.8053496 5.4575858 16777215
 2.0425625 -0.7250602 5.5664539 16777215
 2.0799906 -0.7181653 5.5834064 16777215
 2.0812657 -0.7424126 5.6278863 16777215
 2.0864925 -0.8007534 5.6513300 16777215
 2.1215680 -0.6819303 5.8260326 16777215
 2.1408825 -0.7083314 5.8486891 16777215
 2.1301553 -0.6545618 5.9658713 16777215
 2.1401570 -0.5986961 5.9870977 16777215
 2.1809313 -0.4381311 6.1613188 16777215
 2.1924653 -0.4694697 6.1755066 16777215
 2.1874154 -0.5035801 6.1980782 16777215
 2.2097621 -0.5720748 6.1834049 16777215
 2.2642455 -0.4944783 6.2642403 16777215
 2.3327703 -0.6718285 6.3255444 16777215
 2.3524530 -0.6880342 6.4494247 16777215
 2.3653643 -0.6937996 6.4643302 16777215
 2.3543901 -0.7810370 6.5041885 16777215
 2.3636158 -0.7841589 6.5253625 16777215
 2.3259902 -0.7144220 6.6129179 16777215
 2.4229660 -0.8614267 6.6313334 16777215
 2.4257660 -0.8380682 6.7127290 16777215
 2.4436202 -0.8247224 6.7669635 16777215
 2.4283526 -0.8221520 6.7845349 16777215
 2.4912453 -0.8090720 6.8462253 16777215
 2.4910159 -0.8002766 6.8786345 16777215
 2.5107355 -0.8263368 6.9328179 16777215
 2.4962134 -0.8480735 6.9825106 16777215
 2.5275888 -0.8623138 7.0133886 16777215
 2.5496516 -0.8603455 7.0484538 16777215
 2.5426130 -0.7836979 7.0738044 16777215
 2.6109233 -0.7521838 7.0836782 16777215
 2.5548520 -0.7783328 7.2002449 16777215
 2.5313385 -0.8003335 7.2871590 16777215
 2.5703907 -0.8161242 7.3483748 16777215
 2.5671129 -0.8205634 7.3995614 16777215
 2.5891011 -0.8790845 7.4312530 16777215
 2.6410041 -0.8686219 7.5039830 16777215
 2.6744204 -0.8174735 7.5329394 16777215
 2.6900024 -0.8552564 7.5943785 16777215
 2.6729937 -0.8888338 7.6458893 16777215
 2.7057173 -0.8619395 7.6880651 16777215
 2.7151539 -0.8972555 7.7046285 16777215
 2.7478547 -0.8949023 7.7408552 16777215
 2.7672639 -0.9099551 7.7729626 16777215
 2.7771361 -0.8724349 7.8045545 16777215
 2.7808518 -0.8432359 7.8444786 16777215
 2.7947390 -0.8349750 7.9443264 16777215
 2.7706480 -0.9213736 7.9756541 16777215
 2.7506866 -0.9402444 8.0045156 16777215
 2.7127395 -0.9436753 8.0141392 16777215
 2.6839223 -0.5975855 8.1951542 16777215
 2.7768059 -0.8224602 8.2579803 16777215
 2.6666677 -0.7333051 8.3298101 16777215
 2.6925151 -0.7430554 8.3348284 16777215
 2.7396698 -0.7348718 8.3799324 16777215
 2.7907784 -0.6649505 8.5008163 16777215
 2.7656629 -0.6741264 8.5113602 16777215
 2.6871731 -0.6629522 8.6184111 16777215
 2.8131800 -0.7092220 8.6724653 16777215
 2.7841489 -0.7124861 8.7043982 16777215
 2.8202128 -0.7442191 8.7293901 16777215
 2.8261390 -0.7476921 8.7621803 16777215
 2.8335276 -0.7482664 8.8212757 16777215
 2.7476985 -0.6372559 8.8595800 16777215
 2.7782576 -0.4982282 8.9904490 16777215
 2.8443363 -0.5132384 8.9922256 16777215
 2.8196337 -0.5187951 9.0029135 16777215
 2.8174491 -0.5443166 8.9973364 16777215
 2.8040535 -0.5243271 8.9991436 16777215
