# .PCD v.7 - Point Cloud Data file format
VERSION .7
FIELDS x y z rgb
SIZE 4 4 4 4
TYPE F F F F
COUNT 1 1 1 1
WIDTH 252
HEIGHT 1
VIEWPOINT 0 0 0 1 0 0 0
POINTS 252
DATA ascii

 0.0000000 0.0000000 0.0000000 16777215
 0.0011336 -0.0210172 -0.0039707 16777215
 0.0035522 -0.0222979 -0.0042441 16777215
 0.0015701 -0.0193286 -0.0061805 16777215
 -0.0064926 -0.0196768 -0.0055530 16777215
 -0.0012169 -0.0278066 -0.0044025 16777215
 -0.0021683 -0.0246608 -0.0063638 16777215
 0.0005614 -0.0239385 -0.0075260 16777215
 -0.0017290 -0.0257431 -0.0063409 16777215
 -0.0106508 -0.0232428 -0.0089353 16777215
 -0.0050930 -0.0246261 -0.0091706 16777215
 -0.0052140 -0.0246336 -0.0081493 16777215
 -0.0057038 -0.0264477 -0.0078952 16777215
 -0.0049315 -0.0267478 -0.0083044 16777215
 -0.0040683 -0.0236226 -0.0080747 16777215
 -0.0019381 -0.0263728 -0.0055684 16777215
 -0.0036997 -0.0274750 -0.0047061 16777215
 -0.0067177 -0.0264033 -0.0047857 16777215
 -0.0096927 -0.0271563 -0.0040691 16777215
 -0.0119465 -0.0284507 -0.0043473 16777215
 -0.0140432 -0.0297970 -0.0046493 16777215
 -0.0162482 -0.0373409 -0.0053355 16777215
 -0.0120019 -0.0401148 -0.0048308 16777215
 -0.0034189 -0.0433158 -0.0028209 16777215
 0.0042370 -0.0419148 -0.0006607 16777215
 0.0091346 -0.0393881 0.0006344 16777215
 0.0151799 -0.0357792 0.0041933 16777215
 0.0182283 -0.0316855 0.0069179 16777215
 0.0187759 -0.0300571 0.0076844 16777215
 0.0171598 -0.0281274 0.0070730 16777215
 0.0122243 -0.0260261 0.0059365 16777215
 0.0052925 -0.0256573 0.0051487 16777215
 -0.0013187 -0.0276278 0.0034619 16777215
 -0.0053037 -0.0296932 0.0023822 16777215
 -0.0126243 -0.0332237 0.0006595 16777215
 -0.0166737 -0.0360711 0.0016064 16777215
 -0.0200416 -0.0370135 0.0046382 16777215
 -0.0175057 -0.0385193 0.0153991 16777215
 -0.0142886 -0.0413907 0.0323065 16777215
 -0.0028763 -0.0490046 0.0619142 16777215
 0.0033689 -0.0584501 0.0824956 16777215
 0.0275328 -0.0807715 0.1065926 16777215
 0.0239013 -0.0877561 0.1215529 16777215
 0.0223871 -0.0917125 0.1375993 16777215
 0.0091423 -0.0980678 0.1665584 16777215
 0.0044897 -0.0966059 0.1871424 16777215
 0.0076525 -0.1020938 0.2113641 16777215
 0.0164103 -0.1095820 0.2374820 16777215
 0.0250192 -0.1096320 0.2588353 16777215
 0.0178941 -0.1123054 0.2884707 16777215
 0.0062924 -0.1124760 0.3344210 16777215
 0.0075245 -0.1148743 0.3649815 16777215
 0.0222230 -0.1243292 0.4029903 16777215
 0.0230961 -0.1227897 0.4351076 16777215
 0.0217192 -0.1296075 0.4715736 16777215
 0.0184072 -0.1286111 0.5066871 16777215
 0.0157611 -0.1404334 0.5445232 16777215
 0.0087625 -0.1456046 0.5791975 16777215
 0.0075395 -0.1578904 0.6238080 16777215
 0.0113147 -0.1626593 0.6488965 16777215
 0.0098800 -0.1737974 0.6845481 16777215
 -0.0086493 -0.1770661 0.7206564 16777215
 -0.0146463 -0.1790425 0.7621554 16777215
 -0.0121651 -0.1905511 0.8070527 16777215
 -0.0044671 -0.1897994 0.8355846 16777215
 -0.0010545 -0.1947847 0.8682515 16777215
 -0.0064975 -0.1931055 0.9137007 16777215
 -0.0139084 -0.1938488 0.9552909 16777215
 -0.0124865 -0.1973117 0.9888751 16777215
 -0.0089107 -0.2032991 1.0275562 16777215
 -0.0095595 -0.2104084 1.0632005 16777215
 -0.0118877 -0.2164992 1.1034073 16777215
 -0.0134695 -0.2201456 1.1352692 16777215
 -0.0149162 -0.2225410 1.1749566 16777215
 -0.0150417 -0.2303532 1.2038307 16777215
 -0.0185308 -0.2348726 1.2325915 16777215
 -0.0250146 -0.2379518 1.2651930 16777215
 -0.0271722 -0.2448755 1.3025926 16777215
 -0.0269928 -0.2524813 1.3410691 16777215
 -0.0266589 -0.2573024 1.3697200 16777215
 -0.0314908 -0.2638140 1.4034147 16777215
 -0.0334687 -0.2659233 1.4283434 16777215
 -0.0363765 -0.2727001 1.4560399 16777215
 -0.0403042 -0.2748803 1.4777544 16777215
 -0.0428981 -0.2796118 1.5088998 16777215
 -0.0386191 -0.2824205 1.5330710 16777215
 -0.0365270 -0.2889720 1.5605042 16777215
 -0.0377834 -0.2925317 1.5865433 16777215
 -0.0435711 -0.2940108 1.6190706 16777215
 -0.0485292 -0.2951832 1.6434104 16777215
 -0.0550393 -0.2952410 1.6646848 16777215
 -0.0591743 -0.2998486 1.6874470 16777215
 -0.0572635 -0.3029906 1.7104477 16777215
 -0.0535798 -0.3077173 1.7364916 16777215
 -0.0514335 -0.3098372 1.7499630 16777215
 -0.0518577 -0.3148961 1.7739797 16777215
 -0.0534464 -0.3186882 1.8024809 16777215
 -0.0545359 -0.3208848 1.8234217 16777215
 -0.0555725 -0.3225288 1.8389531 16777215
 -0.0522872 -0.3270279 1.8649728 16777215
 -0.0499936 -0.3303757 1.8867636 16777215
 -0.0451474 -0.3341311 1.9045275 16777215
 -0.0424314 -0.3382696 1.9211426 16777215
 -0.0433340 -0.3405034 1.9378674 16777215
 -0.0459880 -0.3423987 1.9571615 16777215
 -0.0487158 -0.3423234 1.9800711 16777215
 -0.0549531 -0.3468953 2.0039990 16777215
 -0.0537488 -0.3470301 2.0169744 16777215
 -0.0555552 -0.3499966 2.0431972 16777215
 -0.0575353 -0.3517469 2.0648599 16777215
 -0.0571049 -0.3552226 2.0779505 16777215
 -0.0619271 -0.3575447 2.1076779 16777215
 -0.0659429 -0.3599358 2.1345024 16777215
 -0.0686917 -0.3642523 2.1664686 16777215
 -0.0636891 -0.3662560 2.1874313 16777215
 -0.0603523 -0.3699504 2.2126212 16777215
 -0.0597913 -0.3764185 2.2415421 16777215
 -0.0626462 -0.3789417 2.2680213 16777215
 -0.0669294 -0.3815956 2.2916412 16777215
 -0.0677654 -0.3852427 2.3151226 16777215
 -0.0677885 -0.3879246 2.3413992 16777215
 -0.0569882 -0.3939390 2.3630736 16777215
 -0.0563689 -0.3997990 2.3837109 16777215
 -0.0623437 -0.4030931 2.4124205 16777215
 -0.0694612 -0.4046989 2.4438217 16777215
 -0.0704960 -0.4087236 2.4702432 16777215
 -0.0694868 -0.4106689 2.4907377 16777215
 -0.0699742 -0.4147675 2.5132899 16777215
 -0.0701505 -0.4190680 2.5359588 16777215
 -0.0750693 -0.4217507 2.5617373 16777215
 -0.0787317 -0.4256689 2.5873141 16777215
 -0.0806096 -0.4270517 2.6123552 16777215
 -0.0781799 -0.4309352 2.6369553 16777215
 -0.0767765 -0.4344715 2.6553924 16777215
 -0.0783150 -0.4365911 2.6715121 16777215
 -0.0827671 -0.4378217 2.6946080 16777215
 -0.0851880 -0.4403388 2.7218046 16777215
 -0.0857334 -0.4448668 2.7449954 16777215
 -0.0816541 -0.4490013 2.7682493 16777215
 -0.0819991 -0.4528071 2.7854583 16777215
 -0.0833211 -0.4563930 2.7986875 16777215
 -0.0851805 -0.4586796 2.8149176 16777215
 -0.0862375 -0.4592697 2.8285432 16777215
 -0.0886013 -0.4596046 2.8457580 16777215
 -0.0909968 -0.4661382 2.8684506 16777215
 -0.0922996 -0.4675342 2.8855035 16777215
 -0.0908697 -0.4702927 2.9034562 16777215
 -0.0907307 -0.4731171 2.9167795 16777215
 -0.0915477 -0.4767655 2.9274783 16777215
 -0.0943421 -0.4773940 2.9426115 16777215
 -0.0949379 -0.4798600 2.9592066 16777215
 -0.0962006 -0.4815448 2.9776371 16777215
 -0.0980025 -0.4839711 2.9936469 16777215
 -0.0991983 -0.4849290 3.0058951 16777215
 -0.0947980 -0.4894659 3.0254006 16777215
 -0.0940118 -0.4906187 3.0382838 16777215
 -0.0955575 -0.4942592 3.0556209 16777215
 -0.0988509 -0.4955902 3.0729723 16777215
 -0.1025526 -0.4972602 3.0950847 16777215
 -0.1038674 -0.4997767 3.1139033 16777215
 -0.1040095 -0.5023249 3.1292746 16777215
 -0.1031061 -0.5063971 3.1501906 16777215
 -0.1036245 -0.5096601 3.1617069 16777215
 -0.1066568 -0.5125302 3.1769989 16777215
 -0.1097015 -0.5139291 3.1956246 16777215
 -0.1129970 -0.5168728 3.2132876 16777215
 -0.1140154 -0.5191189 3.2238159 16777215
 -0.1143567 -0.5227159 3.2424262 16777215
 -0.1114456 -0.5269135 3.2596004 16777215
 -0.1101002 -0.5294888 3.2728117 16777215
 -0.1112246 -0.5316333 3.2817974 16777215
 -0.1153406 -0.5323897 3.2998981 16777215
 -0.1199451 -0.5330106 3.3156087 16777215
 -0.1208663 -0.5363236 3.3265228 16777215
 -0.1218088 -0.5378337 3.3403697 16777215
 -0.1220713 -0.5393227 3.3584476 16777215
 -0.1207407 -0.5413389 3.3722246 16777215
 -0.1180254 -0.5439249 3.3829410 16777215
 -0.1165313 -0.5465731 3.3915544 16777215
 -0.1192207 -0.5477924 3.4037993 16777215
 -0.1219896 -0.5491654 3.4163904 16777215
 -0.1259356 -0.5516424 3.4369256 16777215
 -0.1253621 -0.5545176 3.4503365 16777215
 -0.1259640 -0.5556273 3.4661593 16777215
 -0.1228921 -0.5570217 3.4772489 16777215
 -0.1225679 -0.5600359 3.4939735 16777215
 -0.1241267 -0.5629625 3.5088515 16777215
 -0.1272437 -0.5640587 3.5225067 16777215
 -0.1312489 -0.5647464 3.5393162 16777215
 -0.1321943 -0.5689416 3.5530560 16777215
 -0.1319975 -0.5724443 3.5697553 16777215
 -0.1329230 -0.5751063 3.5847735 16777215
 -0.1307310 -0.5790937 3.6010654 16777215
 -0.1294869 -0.5826198 3.6127794 16777215
 -0.1319171 -0.5844100 3.6374924 16777215
 -0.1351215 -0.5869697 3.6551254 16777215
 -0.1374126 -0.5904372 3.6725194 16777215
 -0.1374409 -0.5926877 3.6948440 16777215
 -0.1378734 -0.5954664 3.7100394 16777215
 -0.1389551 -0.5989755 3.7253430 16777215
 -0.1441668 -0.6005817 3.7500300 16777215
 -0.1466381 -0.6039562 3.7658627 16777215
 -0.1503536 -0.6063209 3.7828908 16777215
 -0.1516066 -0.6084730 3.7929301 16777215
 -0.1501552 -0.6120255 3.8084042 16777215
 -0.1533652 -0.6142655 3.8220441 16777215
 -0.1572682 -0.6153071 3.8376720 16777215
 -0.1594540 -0.6175562 3.8525233 16777215
 -0.1615611 -0.6196074 3.8643281 16777215
 -0.1629577 -0.6218336 3.8793492 16777215
 -0.1640309 -0.6237885 3.8952107 16777215
 -0.1619176 -0.6273960 3.9081857 16777215
 -0.1644541 -0.6297829 3.9213138 16777215
 -0.1678320 -0.6309671 3.9369197 16777215
 -0.1694925 -0.6323270 3.9500482 16777215
 -0.1710318 -0.6347252 3.9618909 16777215
 -0.1718432 -0.6367627 3.9806359 16777215
 -0.1706508 -0.6383083 3.9910865 16777215
 -0.1685712 -0.6429893 4.0062037 16777215
 -0.1738069 -0.6434028 4.0231295 16777215
 -0.1752042 -0.6452718 4.0383930 16777215
 -0.1758380 -0.6470808 4.0585179 16777215
 -0.1756006 -0.6470805 4.0726829 16777215
 -0.1736237 -0.6508096 4.0847979 16777215
 -0.1730257 -0.6528961 4.0988374 16777215
 -0.1744149 -0.6549323 4.1127324 16777215
 -0.1750522 -0.6568930 4.1241779 16777215
 -0.1766297 -0.6587257 4.1395464 16777215
 -0.1739421 -0.6608233 4.1495233 16777215
 -0.1722628 -0.6632465 4.1605434 16777215
 -0.1721017 -0.6662518 4.1717448 16777215
 -0.1742777 -0.6658190 4.1849313 16777215
 -0.1764424 -0.6682103 4.1979637 16777215
 -0.1783769 -0.6702639 4.2075024 16777215
 -0.1803598 -0.6713167 4.2166834 16777215
 -0.1797698 -0.6736536 4.2313867 16777215
 -0.1794922 -0.6760671 4.2397265 16777215
 -0.1789509 -0.6777754 4.2454915 16777215
 -0.1814796 -0.6795600 4.2558861 16777215
 -0.1832222 -0.6811024 4.2670355 16777215
 -0.1844666 -0.6816260 4.2741237 16777215
 -0.1866052 -0.6831913 4.2817593 16777215
 -0.1868441 -0.6834104 4.2873769 16777215
 -0.1871542 -0.6844334 4.2961602 16777215
 -0.1862865 -0.6853144 4.3046770 16777215
 -0.1861758 -0.6870804 4.3108459 16777215
 -0.1882678 -0.6880332 4.3166580 16777215
 -0.1914786 -0.6888281 4.3254633 16777215
 -0.1941318 -0.6893865 4.3312511 16777215
 -0.1960553 -0.6900467 4.3337808 16777215
 -0.1937551 -0.6907839 4.3356624 16777215
 -0.1933926 -0.6919349 4.3366838 16777215
