# .PCD v0.7 - Point Cloud Data file format
VERSION 0.7
FIELDS x y z rgb
SIZE 4 4 4 4
TYPE F F F F
COUNT 1 1 1 1
WIDTH 1189
HEIGHT 1
VIEWPOINT 0 0 0 1 0 0 0
POINTS 1189
DATA ascii
1.5304383 -9.9051962 44.861366 16711746
-0.25257465 -11.31812 46.646046 16711746
0.13694054 -8.5936308 44.797897 16711746
-2.544735 -11.670496 45.757599 16711746
-2.6048865 -11.705554 45.808434 16711746
-2.0418444 -11.327409 45.648518 16711746
-2.1436534 -10.380348 45.698814 16711746
-2.4191084 -10.414226 45.795685 16711746
-2.5191202 -11.049051 45.620029 16711746
-3.2245142 -10.792736 47.018517 16711746
-3.2563844 -12.861282 46.901596 16711746
-3.1543069 -12.152273 46.664032 16711746
-1.8095241 -14.64918 46.564796 16711746
-2.4905131 -12.846966 46.702133 16711746
-2.6313169 -11.812372 46.285736 16711746
1.5821168 -13.268598 44.547249 16711746
-3.1519473 -13.312127 46.905411 16711746
-1.6970257 -16.732883 46.506577 16711746
-3.4995842 -12.748153 46.646614 16711746
-2.9035285 -14.259933 45.990608 16711746
-2.3837123 -12.496336 46.691013 16711746
-2.1612067 -13.001035 47.711994 16711746
-3.1442802 -10.403917 45.413315 16711746
-3.6833203 -12.428434 45.923038 16711746
-0.76252085 -10.612546 44.670033 16711746
-2.5778909 -10.86955 45.344334 16711746
-1.330004 -12.598054 46.809261 16711746
-2.9423685 -14.176745 45.668957 16711746
5.0083113 -11.526911 43.934246 16711746
15.722572 -16.469023 43.618061 16711746
18.76371 -15.318165 46.771149 16711746
19.640287 -18.303818 55.077442 16711746
8.5296011 -17.124994 46.255882 16711746
18.55452 -18.905241 49.261333 16711746
5.4688067 -12.427703 43.575809 16711746
35.040092 -20.057199 55.636223 16711746
0.66716689 -9.150095 45.053452 16711746
34.702335 -31.046612 58.072914 16711746
36.321651 -45.501102 73.86219 16711746
-2.4944966 -10.907055 46.030533 16711746
-4.2292032 -13.623717 46.416615 16711746
-2.9368503 -11.719443 46.307091 16711746
1.8885584 -10.119422 44.618523 16711746
-3.1628339 -12.404902 46.676258 16711746
-3.4587393 -14.204424 47.202072 16711746
0.10720243 -15.982116 47.336662 16711746
-2.4311657 -12.204877 45.728848 16711746
-0.55983895 -15.110334 47.863152 16711746
-1.0605016 -15.457124 46.462421 16711746
-3.6129448 -12.898319 46.217617 16711746
-3.3956244 -13.013355 45.712669 16711746
0.086060986 -12.051392 45.692123 16711746
-2.5887828 -15.082009 45.789627 16711746
-0.84821558 -13.42579 48.922935 16711746
-2.1679666 -10.653647 46.242344 16711746
37.016945 -31.390446 66.278534 16711746
29.67065 -26.807165 59.464111 16711746
11.631056 -17.021492 42.244404 16711746
-1.4290196 -9.016016 45.644539 16711746
19.986616 -88.317955 65.980225 16711746
-0.29949775 -15.291296 49.001797 16711746
-1.7780864 -8.4713449 45.011875 16711746
-0.54271001 -8.4642687 45.898392 16711746
-3.1152418 -12.817158 46.699066 16711746
18.172281 -18.967455 51.012455 16711746
-0.88705462 -12.082155 47.899082 16711746
13.467115 -18.820902 48.932858 16711746
6.642611 -17.626961 50.897961 16711746
-0.34074613 -14.556306 46.202343 16711746
-1.9610898 -11.397978 49.366402 16711746
8.3554764 -14.345519 46.577564 16711746
-0.79913938 -16.08275 47.202969 16711746
-3.2622209 -12.317673 46.520275 16711746
12.173466 -11.920166 50.05405 16711746
17.339151 -19.711645 49.740391 16711746
12.565426 -15.958336 50.599621 16711746
10.238498 -12.921288 46.239807 16711746
9.1511297 -14.808075 55.464905 16711746
-2.5640769 -12.77633 46.141731 16711746
-0.59523004 -12.590508 48.843014 16711746
-3.0551801 -13.218515 46.483479 16711746
-1.9182549 -11.512474 49.464668 16711746
-0.46591386 -16.65276 48.614651 16711746
5.1081166 -15.278743 47.217152 16711746
2.8468733 -17.453409 47.325512 16711746
-2.7542868 -11.836927 47.744347 16711746
15.793777 -17.745987 46.020706 16711746
13.209913 -18.738941 43.569447 16711746
4.768683 -12.564689 45.988644 16711746
0.10064366 -14.193708 46.225658 16711746
-0.93164515 -12.538404 48.317272 16711746
4.4432564 -14.142568 48.000046 16711746
2.7748876 -15.479616 44.992352 16711746
7.5234127 -14.688527 46.949368 16711746
7.0021629 -15.119817 45.572071 16711746
4.2655106 -15.238914 44.901218 16711746
13.027727 -19.017427 47.867077 16711746
5.4525151 -15.926121 45.425274 16711746
-2.0960195 -14.322812 46.189922 16711746
-3.7293324 -14.126572 45.96788 16711746
5.1856027 -15.306299 47.491516 16711746
10.067606 -16.748409 51.107708 16711746
11.940937 -19.050959 47.046192 16711746
7.141655 -13.996149 45.645653 16711746
13.001396 -19.646278 44.74929 16711746
8.070178 -16.889637 46.783966 16711746
9.478363 -15.067356 45.244534 16711746
-0.6984241 -12.360456 47.825668 16711746
6.85671 -15.357089 51.248875 16711746
7.3314004 -13.0496 45.145885 16711746
3.0608799 -17.76214 47.127167 16711746
6.2389216 -13.979226 52.3764 16711746
4.8901811 -13.869662 50.536839 16711746
7.3360319 -17.113924 48.779316 16711746
-4.3341956 -14.350721 46.4035 16711746
3.7850761 -14.10617 51.785416 16711746
6.6807065 -17.507185 51.454819 16711746
13.744091 -22.465546 57.943897 16711746
-0.7084257 -8.2571888 44.600258 16711746
34.207027 -55.598148 71.64106 16711746
11.064368 -15.915882 46.199425 16711746
1.8594481 -9.9907846 45.68486 16711746
1.6620165 -9.780077 45.603909 16711746
46.967293 -56.82412 81.24823 16711746
-3.4713826 -22.179518 49.72298 16711746
-2.9058442 -11.680194 45.796574 16711746
2.0866456 -10.137738 45.418526 16711746
1.5235133 -9.5322771 45.112007 16711746
12.626443 -11.247733 54.156364 16711746
13.2526 -17.501635 49.012257 16711746
9.0857935 -14.536736 47.104847 16711746
-2.0620842 -14.622344 46.316372 16711746
-4.0920925 -14.264029 47.644131 16711746
7.1792216 -14.681791 43.800697 16711746
19.013517 -14.08467 46.163601 16711746
-0.6004191 -14.053493 49.460835 16711746
2.1406846 -16.815111 46.630245 16711746
-0.55172998 -13.443121 47.850689 16711746
3.9111323 -13.60214 44.327595 16711746
3.1970668 -13.174705 44.599693 16711746
5.0484266 -16.0205 46.165062 16711746
11.077073 -13.704109 45.94606 16711746
4.7940173 -14.880662 46.503963 16711746
-0.51674879 -14.260039 49.561924 16711746
2.3266392 -16.22271 46.992222 16711746
-2.0582368 -14.404086 46.256878 16711746
-4.2798595 -14.246985 46.473179 16711746
-3.1366506 -13.386202 46.362373 16711746
-3.0529501 -14.434484 46.182388 16711746
2.9769044 -17.718332 47.400494 16711746
-2.4148595 -13.69911 46.361488 16711746
6.8788381 -15.949091 50.299564 16711746
-2.317147 -13.922469 46.49073 16711746
4.9096332 -13.29285 46.196686 16711746
8.338932 -15.037425 43.736843 16711746
0.92066509 -13.105341 46.219952 16711746
3.3396239 -12.376529 44.484245 16711746
4.3377829 -14.366396 45.052269 16711746
11.399253 -19.492079 46.938107 16711746
-0.76707286 -12.863321 47.958031 16711746
9.0227137 -18.830736 47.696526 16711746
-0.52541393 -12.960393 48.43013 16711746
-2.0731866 -15.128002 46.401989 16711746
0.64318556 -18.509298 47.138527 16711746
-3.8124847 -16.680212 47.506359 16711746
6.251833 -16.117205 49.142803 16711746
5.4892397 -13.447913 44.705429 16711746
10.323312 -14.755275 45.103695 16711746
2.6628709 -13.375817 50.258648 16711746
-0.42535239 -11.804763 49.991875 16711746
8.0686598 -14.857546 48.728474 16711746
9.9193888 -15.195559 51.094578 16711746
-3.3146703 -12.188803 46.906151 16711746
-0.45841914 -15.461228 46.820145 16711746
-1.1577212 -15.468124 49.787907 16711746
3.337306 -13.096685 50.8228 16711746
8.8372097 -15.052648 49.19408 16711746
13.783413 -16.99444 51.385803 16711746
15.244992 -16.557247 50.45314 16711746
0.56545764 -8.640399 44.628727 16711746
9.0188971 -15.60464 43.604599 16711746
15.956283 -16.000629 47.270199 16711746
11.506664 -12.699558 45.587631 16711746
7.1533427 -15.124322 50.551861 16711746
-2.6039047 -11.772316 49.474216 16711746
-0.41334924 -18.558975 49.010128 16711746
-0.61504745 -13.473887 47.916462 16711746
12.308831 -26.571249 63.782619 16711746
-0.53103679 -9.0519896 45.447971 16711746
24.700485 -14.267604 48.733871 16711746
16.561169 -34.149113 49.371319 16711746
14.078314 -23.045218 57.424583 16711746
32.432995 -28.5242 60.741806 16711746
34.311596 -36.608269 79.200371 16711746
0.11042319 -8.6956177 44.566296 16711746
0.050787199 -8.9097652 44.974991 16711746
20.219639 -26.511574 50.277695 16711746
12.07722 -29.912584 51.960403 16711746
0.2503064 -8.9466019 44.515205 16711746
-0.64732462 -18.333885 48.158489 16711746
37.306602 -51.813282 60.97908 16711746
37.848854 -52.424297 61.245762 16711746
5.9199224 -12.125422 49.047047 16711746
3.1119792 -11.875652 44.273815 16711746
12.389008 -22.800308 50.416248 16711746
4.3995695 -13.616467 48.537243 16711746
17.994825 -13.388328 48.022549 16711746
-1.3502002 -7.5827665 44.62376 16711746
-3.5586257 -16.044172 50.230606 16711746
17.697989 -13.907823 50.383709 16711746
9.8959503 -14.568995 51.455528 16711746
-2.4857743 -8.0379963 45.080315 16711746
-3.2537501 -13.456652 48.72974 16711746
11.944664 -10.625356 46.164516 16711746
21.101925 -21.423845 57.448555 16711746
16.353462 -12.656805 47.830223 16711746
25.374611 -13.267122 49.945763 16711746
13.259804 -12.160428 50.486622 16711746
13.935497 -20.351025 59.190624 16711746
-1.0016325 -7.4779382 44.467773 16711746
12.457753 -14.071876 44.12632 16711746
-1.4260956 -7.6198235 44.670162 16711746
15.481213 -21.739908 59.339798 16711746
15.736361 -21.374447 54.842354 16711746
12.247629 -13.962825 44.13332 16711746
-1.4816153 -8.1993179 45.644302 16711746
13.503153 -18.809959 51.517071 16711746
13.074865 -12.53735 50.101307 16711746
14.179031 -18.018351 60.575993 16711746
16.294401 -12.634825 47.809433 16711746
13.553583 -12.132687 46.669697 16711746
13.024322 -11.938331 46.606441 16711746
-1.7221278 -7.5523405 44.873196 16711746
5.8795538 -10.277683 41.364883 16711746
5.5347991 -10.27751 41.532673 16711746
19.255898 -21.238077 50.128757 16711746
19.941845 -21.731953 50.332054 16711746
23.110924 -27.228354 64.804291 16711746
22.942732 -30.687229 68.184891 16711746
15.868422 -13.379966 49.755203 16711746
0.59198123 -15.448395 54.373249 16711746
-5.8489952 -17.271866 47.657619 16711746
1.2497339 -10.676085 44.914974 16711746
3.4548433 -9.4713879 45.293076 16711746
3.0520329 -9.0289211 45.354439 16711746
1.5310961 -9.4961996 44.914326 16711746
2.1518764 -10.135777 45.245586 16711746
1.5190006 -9.4919128 44.913811 16711746
3.1310744 -9.8700743 45.517323 16711746
4.3960967 -9.2966805 45.863319 16711746
2.0618787 -10.080604 45.23402 16711746
1.0010793 -8.8198824 45.178722 16711746
2.1310463 -9.786396 45.181416 16711746
0.15473981 -8.7015066 44.665108 16711746
31.375193 -27.766588 60.243988 16711746
5.6494136 -11.894984 45.438194 16711746
17.252407 -13.737183 45.899857 16711746
-0.45686379 -8.099884 44.307171 16711746
0.92819506 -9.8218489 45.116867 16711746
-3.073277 -9.0611172 45.331783 16711746
40.630943 -43.143147 82.657616 16711746
2.726716 -10.128119 45.333282 16711746
2.2663443 -12.854815 45.721107 16711746
5.8242655 -13.982162 52.08149 16711746
-10.180254 -33.02702 55.608246 16711746
0.99031824 -8.2556 45.334732 16711746
2.5849247 -12.088438 48.328484 16711746
65.829315 -28.551762 69.410454 16711746
-10.981331 -36.673656 54.823208 16711746
-1.1794707 -18.99473 48.965767 16711746
-17.251204 -74.24025 87.731857 16711746
-1.8626854 -9.6698809 45.934216 16711746
9.2243338 -9.7528086 46.922241 16711746
-1.4134294 -7.6194434 44.710434 16711746
5.0170069 -13.533493 43.090454 16711746
5.0169506 -13.533444 43.090469 16711746
3.8097932 -12.094423 43.159431 16711746
16.687832 -13.315491 45.930809 16711746
15.723406 -13.336156 47.40974 16711746
-3.7811303 -13.783057 46.793488 16711746
-4.973989 -18.069893 46.474739 16711746
11.623402 -13.360893 46.252445 16711746
5.2847667 -12.634597 43.650974 16711746
5.0529819 -13.31204 43.178852 16711746
5.2280421 -12.733027 42.862442 16711746
-1.424755 -7.5778365 44.66201 16711746
12.533918 -17.49748 48.162975 16711746
-3.01565 -13.251672 48.635162 16711746
-4.0929008 -16.83157 46.7519 16711746
-4.4337063 -17.697149 46.545345 16711746
-2.8143678 -16.322588 46.669132 16711746
5.2889309 -12.592072 42.977859 16711746
-0.30321971 -8.4739532 45.687794 16711746
-4.4811845 -19.333662 48.643902 16711746
3.6001697 -12.709167 44.488403 16711746
3.8220704 -14.789366 45.388504 16711746
5.7540746 -12.257194 43.08754 16711746
-3.5735333 -18.745131 47.607166 16711746
2.4723496 -14.570033 44.623512 16711746
-2.4615688 -16.89098 46.222786 16711746
10.297336 -13.212825 44.65979 16711746
5.0470591 -12.454906 43.675289 16711746
4.7932248 -12.175257 43.076328 16711746
0.28015554 -7.9586415 45.148071 16711746
-0.83412057 -8.6587086 44.831146 16711746
-7.3036308 -20.635876 48.858887 16711746
-2.6010308 -11.150822 47.22052 16711746
5.0715914 -12.400021 43.013557 16711746
4.9161277 -12.62328 45.825775 16711746
5.3810825 -11.922193 43.277313 16711746
8.6737022 -13.702241 44.976437 16711746
4.935123 -12.715861 43.168865 16711746
-2.1691425 -9.9594193 47.499298 16711746
5.5883288 -13.973402 46.336468 16711746
1.0735362 -19.340435 49.111897 16711746
18.036974 -17.450451 49.685074 16711746
-8.0799761 -17.236895 47.691971 16711746
16.485735 -17.262329 50.850212 16711746
22.627804 -12.64146 49.518845 16711746
15.032774 -13.113906 49.518738 16711746
12.5113 -11.32213 46.185963 16711746
11.222595 -13.916562 47.92992 16711746
9.5492926 -19.253815 54.670876 16711746
8.1581106 -14.697191 49.652218 16711746
-3.4168882 -13.764219 48.968685 16711746
10.831739 -13.394866 45.908783 16711746
-2.0889721 -7.9182043 45.462929 16711746
-1.3265601 -7.557919 44.715263 16711746
-1.6129829 -8.004632 45.467033 16711746
-0.039016474 -13.380995 52.659176 16711746
-1.6128054 -8.0017319 45.466702 16711746
-1.7039694 -7.8909683 45.156525 16711746
-1.3596154 -7.6819911 44.806126 16711746
16.537508 -12.736131 53.128204 16711746
6.1943178 -13.231774 45.116703 16711746
-1.9886832 -19.558323 51.822384 16711746
-3.2612777 -13.284518 48.631294 16711746
-0.039511416 -9.5078192 44.592823 16711746
-0.51156074 -9.373888 45.373383 16711746
0.077369906 -8.6099901 44.690125 16711746
0.65817291 -10.27009 45.005013 16711746
0.063707605 -9.5754137 44.597576 16711746
-0.074592203 -8.7670231 44.420483 16711746
2.006882 -8.7895803 45.188057 16711746
0.8164562 -9.3513193 45.044277 16711746
0.5000307 -10.671682 45.234093 16711746
0.88520247 -9.4044294 45.048264 16711746
0.015604722 -8.7413483 44.557747 16711746
0.029526429 -8.9478502 44.616924 16711746
1.1627982 -9.4097061 45.359936 16711746
1.092869 -9.5142775 44.939587 16711746
-0.15278806 -8.777668 44.496994 16711746
0.22289361 -10.89675 45.969479 16711746
-0.10696378 -10.028677 44.876755 16711746
0.1258287 -10.251185 45.549271 16711746
1.3834589 -9.0821981 45.048935 16711746
0.6811893 -10.734209 45.096764 16711746
0.96408725 -9.1759167 44.94664 16711746
0.03771634 -8.7586336 44.554379 16711746
-0.1888442 -9.6691542 45.086079 16711746
-0.18796328 -8.4208002 44.618607 16711746
0.23654138 -11.211794 45.001522 16711746
0.23655696 -10.532257 44.884899 16711746
1.112011 -9.463109 44.777283 16711746
0.15096393 -9.6772356 44.899158 16711746
1.427102 -9.8018494 45.095722 16711746
1.3111588 -9.5250721 44.812443 16711746
0.69802988 -9.477541 45.039085 16711746
0.24883923 -8.7775536 44.522858 16711746
-0.33796325 -8.3828793 44.552059 16711746
0.24840136 -9.6821365 45.983109 16711746
-0.068101913 -9.4030228 45.812614 16711746
0.60603476 -9.4967232 45.124428 16711746
0.97281677 -9.8101864 44.997452 16711746
0.53500468 -8.9341927 44.904877 16711746
-0.092474498 -9.4321213 44.938141 16711746
-0.48832744 -9.5636787 45.450222 16711746
1.7285724 -9.1730728 45.290703 16711746
-0.2018715 -9.8298359 45.448452 16711746
11.061298 -14.473758 46.911583 16711746
-8.3760996 -19.958372 47.180927 16711746
-3.5064378 -13.111328 46.861496 16711746
8.7431993 -12.590031 45.682381 16711746
9.6414032 -13.034869 45.802933 16711746
-1.8134692 -7.7047133 44.888298 16711746
19.716635 -14.352608 52.77055 16711746
-3.1510375 -13.866828 48.99715 16711746
3.0151603 -11.990286 44.70005 16711746
10.230844 -16.306929 48.152634 16711746
9.8975468 -16.006811 49.670776 16711746
2.421989 -16.764084 46.922009 16711746
-1.3749337 -13.819552 48.612816 16711746
-1.974388 -8.3089952 45.378777 16711746
-3.6266329 -15.17726 49.692184 16711746
-2.5944512 -12.241362 50.196842 16711746
-2.4619849 -11.424815 48.802536 16711746
-0.18604784 -8.7904129 44.818527 16711746
-3.5039017 -12.435719 49.410435 16711746
17.306438 -13.011062 48.139 16711746
-1.2490896 -18.051529 51.092587 16711746
-1.0814604 -15.63212 48.998932 16711746
-6.8806934 -13.742263 50.787224 16711746
-2.9696171 -12.399401 47.92524 16711746
-3.0186777 -12.500693 46.534298 16711746
-0.66077113 -7.8520741 45.250061 16711746
-3.5434661 -15.028323 49.848732 16711746
7.6535583 -12.338509 43.917671 16711746
32.934093 -14.7231 51.351963 16711746
-1.5359709 -9.1617002 45.9753 16711746
-2.2647254 -8.1635275 45.057247 16711746
4.7231526 -10.199158 42.248043 16711746
-3.101877 -12.898861 48.661774 16711746
-3.1576602 -13.204898 48.899769 16711746
-2.7885571 -14.40595 49.051476 16711746
8.1871138 -14.135246 42.314758 16711746
-1.6532663 -8.8094158 45.362175 16711746
8.3243151 -14.240954 42.292576 16711746
25.484083 -18.832493 52.115356 16711746
1.1631271 -5.7782564 1.9414352 16711746
1.6812714 -9.8262424 8.6530552 16711746
2.4157269 -5.7439351 0.77753514 16711746
-0.61831284 -3.6530976 1.1941499 16711746
1.3067987 -6.0894542 3.0911596 16711746
2.1161356 -4.8680949 2.6855135 16711746
3.784878 -20.875996 6.0013323 16711746
4.4790387 -7.0073333 1.3227893 16711746
23.613413 -38.801186 8.5999346 16711746
1.165001 -2.5558987 0.21102327 16711746
6.9873199 -8.420351 6.4815178 16711746
27.970367 -54.793495 13.940676 16711746
8.3380718 -16.956516 5.285378 16711746
5.3007045 -9.8514175 4.5079613 16711746
4.2698083 -7.5627661 2.4317133 16711746
4.0020938 -8.5046749 0.87874013 16711746
2.1308107 -4.1321125 0.68839353 16711746
1.9170212 -3.8571947 2.3539596 16711746
7.0617785 -6.5417404 0.63790613 16711746
6.4543428 -5.0352635 4.38691 16711746
6.5747623 -14.075553 5.1210499 16711746
-1.7463664 -13.775971 4.9593549 16711746
-0.19126913 -2.2880542 0.62947655 16711746
1.263532 -6.6969461 3.8434546 16711746
96.942604 -408.983 90.742599 16711746
0.9785195 -2.0636728 0.058908626 16711746
0.55358213 -3.4024279 1.0122275 16711746
7.2329798 -12.870212 1.6049392 16711746
-0.055009264 -3.5877929 0.88306701 16711746
4.5889826 -4.5334139 4.4277492 16711746
3.9545586 -4.7273951 5.1920424 16711746
-2.3291907 -13.6577 4.6869116 16711746
3.0773227 -6.6783595 4.3013501 16711746
3.8769312 -5.0557919 1.3141295 16711746
29.060087 -150.00711 27.123264 16711746
-0.55683613 -4.0679202 1.2170334 16711746
3.1146057 -31.949186 10.561762 16711746
3.6773498 -3.6392922 0.38823372 16711746
-1.1960082 -8.0855627 3.0971713 16711746
3.6521087 -5.0424905 2.2134817 16711746
0.82017392 -2.621006 0.18800166 16711746
8.3434944 -4.2581725 1.9409145 16711746
12.643923 -14.346464 4.7653046 16711746
9.6595516 -5.632401 2.3658371 16711746
2.2453086 -26.48975 21.293753 16711746
0.61040413 -1.2532887 0.13469099 16711746
6.0490055 -5.8966136 3.3386219 16711746
11.818057 -12.110833 5.1893849 16711746
7.0810485 -6.2080202 5.7467937 16711746
6.3585567 -4.1621161 -0.98502642 16711746
4.8795815 -2.7065294 1.4023061 16711746
0.90474284 -5.0536666 1.7985159 16711746
0.43759108 -2.8485076 1.4217261 16711746
5.6716137 -5.0567288 4.6321464 16711746
10.61089 -23.064499 6.1482148 16711746
0.38342434 -2.2748153 0.62213957 16711746
0.95859826 -6.548799 4.1078868 16711746
-1.0165927 -4.1870842 1.1259274 16711746
-0.8261714 -2.7927711 0.62312639 16711746
-0.99524069 -3.0156615 0.59253633 16711746
2.2158973 -2.7023966 0.11225978 16711746
6.1711593 -8.1033602 1.4378518 16711746
4.1263151 -4.4448047 2.0492396 16711746
-1.0111867 -2.4802668 0.6295222 16711746
-1.3295432 -3.3746946 0.77057582 16711746
3.3245361 -2.9855695 -0.62802082 16711746
-0.031088043 -2.5522087 0.61295974 16711746
0.83597171 -2.2561486 0.75302249 16711746
1.5446641 -3.6748335 3.5901339 16711746
6.2457576 -7.1345754 0.30780596 16711746
3.5463278 -2.7366514 1.0285637 16711746
-0.38943321 -2.1752229 0.52596074 16711746
2.0175071 -3.024776 0.58297473 16711746
0.46995226 -2.3186941 0.33516172 16711746
3.6716483 -3.7248487 1.7861871 16711746
6.489676 -3.7323539 1.9685887 16711746
0.66641259 -2.7683473 0.9380607 16711746
4.4721351 -3.3018456 1.5902507 16711746
5.6343732 -4.5660138 0.22110684 16711746
-0.50374538 -2.0235937 0.4885225 16711746
0.90531564 -4.8268051 2.6673315 16711746
6.7007842 -2.5503774 2.6441083 16711746
5.0893359 -4.0217476 -1.2567171 16711746
-0.42153502 -1.6243125 0.28950861 16711746
1.2567804 -6.4824224 4.0106678 16711746
2.3945999 -3.5026484 0.70555049 16711746
-1.2378957 -4.064189 1.1226642 16711746
0.06599763 -3.6090572 0.94810069 16711746
-1.6503028 -3.0669198 0.89409167 16711746
1.0663704 -2.7062941 0.14153822 16711746
-0.60666144 -2.5924766 0.48457852 16711746
-1.2428898 -3.7453303 0.83703005 16711746
1.8876234 -3.9438355 2.2605336 16711746
-1.5543721 -5.1877413 1.3868467 16711746
1.784063 -1.5648218 -0.46524879 16711746
3.591464 -2.0357566 0.33903408 16711746
-0.82889819 -3.1271825 1.0266255 16711746
1.4574493 -2.3969998 0.75331509 16711746
1.2966145 -4.9506025 3.4987645 16711746
1.9438063 -4.6237416 4.697237 16711746
0.30127209 -4.5389819 2.0831685 16711746
2.5739999 -3.5928204 1.0154234 16711746
2.0863283 -2.6205714 -0.058234174 16711746
0.037158102 -4.9124017 3.1540537 16711746
0.60912371 -3.5333691 1.4048349 16711746
-3.8483377 -5.400176 1.8704425 16711746
0.60774988 -2.8605762 1.1364261 16711746
0.4227044 -5.382556 2.2109511 16711746
0.86148667 -4.7805109 1.0921251 16711746
1.9029624 -3.4474242 0.23356135 16711746
2.1295769 -4.9650998 5.8493981 16711746
-0.25270435 -5.275815 3.769294 16711746
2.9191952 -2.1218262 1.943001 16711746
1.1032577 -2.2369537 -0.098865174 16711746
4.5961285 -3.4656613 -0.98990625 16711746
0.000674451 -3.8741143 0.67093974 16711746
7.3818808 -3.7817757 1.6815393 16711746
2.5311701 -2.1846671 0.58068681 16711746
0.04940613 -2.4179785 0.30592164 16711746
-0.0095357001 -3.3484781 0.89879519 16711746
0.69759089 -2.5401962 1.8401991 16711746
3.9113615 -3.0232632 3.7925615 16711746
6.5958886 -3.5543475 2.3936038 16711746
-0.069339789 -1.7931962 0.14230295 16711746
4.2852821 -3.2705832 1.4048462 16711746
1.3908114 -2.4051225 0.65540451 16711746
3.0625918 -2.7745776 1.9358851 16711746
3.4881039 -3.8476121 1.9407225 16711746
-0.88150233 -2.741884 0.82535166 16711746
-0.71444702 -1.7758451 0.32327577 16711746
4.6394591 -4.0528665 3.5990429 16711746
3.7349737 -2.5039792 2.207253 16711746
0.19232023 -1.8156688 0.33746624 16711746
1.8470693 -1.6994485 0.48478189 16711746
3.5035045 -2.1933458 0.65420818 16711746
2.9443047 -1.6744223 1.1415312 16711746
-0.4958699 -1.7010734 0.25077748 16711746
1.3669306 -2.2658193 0.52039707 16711746
1.3429773 -0.77145994 0.1927083 16711746
3.5531759 -1.5113856 0.4476487 16711746
0.65480477 -2.5821149 0.88830388 16711746
2.0799375 -3.4903193 1.0803584 16711746
0.22494707 -1.3280106 0.083745025 16711746
3.2789807 -3.6918681 2.0831623 16711746
5.7213449 -3.4885876 1.4942681 16711746
2.2049558 -3.7658272 0.55444026 16711746
0.69968897 -3.5698237 0.64254117 16711746
0.50159234 -1.1420635 0.45606583 16711746
1.9985904 -4.4911914 0.77010477 16711746
0.79307246 -3.3151064 1.4279 16711746
0.21698853 -1.7373195 0.37159657 16711746
3.2397358 -3.3496516 0.31013435 16711746
3.1361516 -3.9174316 1.7282153 16711746
-0.39041477 -2.2261667 0.42963985 16711746
4.1828384 -4.9872384 0.3061406 16711746
-1.1106268 -3.6465285 1.3006269 16711746
0.57311529 -2.5152853 1.4741186 16711746
3.0539329 -3.7499518 2.9230976 16711746
0.37729931 -1.9629378 0.59419447 16711746
5.3219385 -3.0802011 3.7699685 16711746
1.2677811 -2.4780598 1.3425446 16711746
0.77039742 -5.9435954 3.6830537 16711746
2.7658281 -3.5418088 0.78361142 16711746
1.6268235 -2.37433 0.69390637 16711746
-0.31778991 -1.5083817 0.19224656 16711746
1.4493009 -1.9543111 0.43651715 16711746
1.3542739 -3.0814111 0.57550389 16711746
0.14558493 -0.48665586 -0.074239418 16711746
3.3551271 -2.4391344 0.90533119 16711746
-0.74128705 -1.8803123 0.48053804 16711746
2.3524394 -1.9855102 2.0401595 16711746
-0.40245113 -1.9752938 0.31377226 16711746
-0.72835422 -2.1853147 0.41251498 16711746
3.8241167 -4.4664845 1.4850249 16711746
6.1760383 -3.423172 1.3213648 16711746
2.7739317 -3.8843927 1.3537539 16711746
3.978817 -2.865591 2.6392326 16711746
3.5501008 -2.4632757 2.3973715 16711746
2.2659988 -3.4473598 1.2514522 16711746
0.40763509 -2.3258495 1.0874859 16711746
1.8137639 -5.0237875 1.0263774 16711746
0.1201052 -1.2034665 0.10372123 16711746
2.6046271 -3.8297539 1.3262291 16711746
2.2376759 -4.027205 0.20547721 16711746
3.730207 -3.664036 -0.1280876 16711746
5.6304655 -3.531076 0.21202043 16711746
1.0125149 -1.7737191 0.35890028 16711746
3.3452344 -4.7972727 0.83999246 16711746
5.3917513 -4.5323844 0.42804396 16711746
5.4405713 -3.4922328 0.22114211 16711746
5.8675694 -3.804738 -0.23670533 16711746
3.4000032 -3.5812995 1.6363541 16711746
2.2981939 -2.5388236 1.0965163 16711746
0.11635421 -0.75449902 -0.013834547 16711746
-1.5967597 -4.9894176 1.3135867 16711746
1.6073246 -3.6528327 0.57496744 16711746
5.2668428 -4.5380054 0.38669598 16711746
0.34980974 -2.4565415 0.3420442 16711746
-0.37179062 -4.1628485 1.4398533 16711746
1.6650339 -2.8949225 -0.17681408 16711746
2.1782486 -2.7899921 -0.25353339 16711746
4.0010052 -3.3477809 -0.34368572 16711746
0.45068997 -2.9121759 1.0637484 16711746
0.49571216 -3.9583673 1.9604414 16711746
2.2783754 -4.0742259 -0.052075919 16711746
0.38855019 -2.282913 1.2059859 16711746
2.4363172 -3.2349911 -0.18417493 16711746
0.61051512 -1.5056361 0.028042637 16711746
0.7079131 -3.4373906 1.7819006 16711746
2.6503913 -2.5798428 -0.62674242 16711746
0.48319954 -3.489841 1.6344676 16711746
1.0429668 -1.8003993 0.34783515 16711746
0.35644841 -2.3315575 0.67523754 16711746
0.81455421 -1.8810521 0.073119834 16711746
0.55763197 -2.63676 0.96615833 16711746
1.2262111 -2.7385035 0.28174102 16711746
1.5639139 -3.2765162 0.62583452 16711746
-1.2158412 -2.1491704 0.57669091 16711746
0.13306089 -1.6272687 0.26761699 16711746
0.18903928 -1.6004629 0.20135164 16711746
2.1629167 -1.4481502 0.42416123 16711746
0.73423642 -1.6755189 0.27775243 16711746
-1.536167 -2.55602 0.74921548 16711746
2.7669177 -1.5306624 -0.39028719 16711746
1.8072475 -1.6480544 -0.33581021 16711746
0.80038762 -1.5443839 0.21055947 16711746
0.25580993 -1.2865652 0.35246915 16711746
-1.1475047 -8.5222635 1.3209652 16711746
4.8116612 -8.5955362 5.8105812 16711746
8.2278318 -8.1928139 0.23102541 16711746
3.724277 -10.440495 0.87638372 16711746
3.1479058 -11.353786 1.2222817 16711746
6.3356261 -8.7745209 -0.70238054 16711746
10.129116 -8.0131006 -2.5008581 16711746
7.8656654 -9.6979141 -0.61514086 16711746
11.155252 -8.090929 -2.6377656 16711746
5.9243803 -9.1855879 -0.45677766 16711746
10.482723 -8.3051805 7.8476329 16711746
3.4100492 -11.597818 0.62252039 16711746
10.630624 -6.3689399 3.9195132 16711746
9.796277 -5.6828818 3.1950727 16711746
9.9382792 -9.9733877 -0.54610819 16711746
4.5143557 -9.4492998 4.7058792 16711746
2.4613199 -11.343028 1.2904521 16711746
12.888895 -8.024622 7.726871 16711746
3.0987632 -12.153323 0.38475356 16711746
13.760544 -10.876787 1.2256497 16711746
8.9364357 -8.2658215 0.42406055 16711746
-5.9790549 -16.47776 8.3099527 16711746
-5.0458345 -10.834787 2.6993968 16711746
11.338688 -6.6474061 5.6668358 16711746
11.544685 -10.68323 9.5397921 16711746
8.3471289 -8.0551014 8.2576027 16711746
3.1892238 -7.6087708 7.4161959 16711746
5.4154887 -11.462957 8.7028008 16711746
9.676218 -9.9398375 6.9364223 16711746
4.2222667 -9.7780609 6.1517215 16711746
9.4937544 -8.1989384 8.0221138 16711746
13.611031 -6.9939742 5.1348791 16711746
9.9873514 -9.7123775 7.8513288 16711746
8.5552244 -9.6005821 0.46179038 16711746
12.26378 -8.9539328 8.799367 16711746
12.69352 -7.9968643 5.8943191 16711746
9.7565088 -6.627604 4.4816375 16711746
11.79043 -5.3974905 3.2297542 16711746
3.3875048 -11.920452 1.4623177 16711746
10.464922 -7.2627168 3.3333104 16711746
10.007058 -7.6976786 3.5051873 16711746
6.236743 -8.4947529 9.3529224 16711746
-3.7227809 -14.312979 3.8385186 16711746
11.339739 -7.4002647 3.1027009 16711746
4.1546412 -9.0071363 1.4464608 16711746
13.554055 -7.4154582 0.43087462 16711746
3.7327552 -10.645914 0.71025711 16711746
16.178448 -9.5456972 9.2784252 16711746
20.879967 -9.6981945 3.9982722 16711746
9.5889626 -10.096325 7.4555359 16711746
3.3258424 -10.673101 0.8897866 16711746
15.481187 -18.422482 8.5422506 16711746
3.8692787 -9.0494642 1.5931001 16711746
9.0310841 -8.7429199 7.1593747 16711746
8.7602673 -10.421556 0.10855133 16711746
1.6524901 -11.260079 7.3018913 16711746
3.1446931 -7.6035762 0.91457427 16711746
2.5302186 -12.38154 0.85377616 16711746
2.5034647 -12.847072 5.4955482 16711746
2.7887146 -14.83925 1.8860463 16711746
14.95472 -9.4819736 7.0567799 16711746
10.721469 -11.329981 8.4544802 16711746
13.060564 -8.8452082 4.3885074 16711746
0.018830672 -13.62221 4.4613118 16711746
3.8594079 -12.141816 1.0310924 16711746
3.6104774 -7.4573479 1.1758815 16711746
10.749159 -6.8078756 3.1755841 16711746
2.8195655 -10.230742 1.144892 16711746
2.7905953 -6.3683429 6.7190681 16711746
12.572405 -5.6244836 3.5923109 16711746
1.4700292 -14.37151 1.6033485 16711746
15.835562 -12.582582 5.3461928 16711746
7.1476502 -8.8242779 7.6008015 16711746
10.896826 -8.8113461 0.653763 16711746
2.1904292 -11.856969 6.3461967 16711746
8.8156042 -7.336834 -1.52643 16711746
10.335846 -7.3346615 2.5859799 16711746
6.1260409 -11.155658 0.62937903 16711746
5.9664187 -13.975673 8.8293018 16711746
6.360817 -6.3035665 5.5418749 16711746
7.6749864 -6.6949682 0.28021988 16711746
10.478213 -6.6503963 4.7028122 16711746
11.840317 -7.2902966 2.5006869 16711746
10.428995 -8.671216 -2.3529501 16711746
3.8910377 -12.778123 1.1741902 16711746
8.8676643 -10.075332 0.59125078 16711746
11.214031 -6.8788891 7.5283055 16711746
10.341599 -8.6655607 7.7231836 16711746
-7.9478669 -19.060503 8.3321505 16711746
6.6825252 -13.207675 6.3895788 16711746
6.5095992 -7.6142659 0.19584189 16711746
-0.54393435 -8.2370195 1.3742054 16711746
18.539026 -8.9860678 3.7375865 16711746
18.170248 -8.1487093 5.0655475 16711746
14.726878 -8.7998734 10.691854 16711746
14.118023 -9.2208061 7.4102616 16711746
10.988221 -7.3817348 -1.8819975 16711746
11.443158 -8.5058136 3.0284772 16711746
-0.60690111 -9.0898504 2.9613328 16711746
3.73001 -12.845632 0.69284278 16711746
13.639038 -9.2682552 5.0941515 16711746
12.676216 -8.9868431 4.5829134 16711746
-4.8019128 -11.479259 2.7521524 16711746
12.585618 -7.240993 4.5775824 16711746
14.322285 -8.2760811 7.2704039 16711746
16.547829 -8.213028 6.1469212 16711746
5.7199798 -8.9908514 5.6802163 16711746
5.1486053 -9.5097027 5.9010386 16711746
14.315907 -8.697875 6.6278062 16711746
17.147362 -8.9452238 12.502013 16711746
12.797675 -8.6256523 4.7334533 16711746
4.493309 -8.8877058 6.7990026 16711746
6.749887 -8.4374495 6.6657419 16711746
13.095712 -9.3245649 2.5389521 16711746
16.24667 -7.4964008 6.5717211 16711746
5.1026783 -8.8094683 6.7451515 16711746
17.156488 -14.619379 1.0715834 16711746
-3.0705709 -11.769142 4.7159014 16711746
8.1625862 -7.6528864 2.7060394 16711746
12.715714 -7.4371457 6.4464331 16711746
6.0973248 -11.238488 7.6476469 16711746
-1.4482995 -9.1878586 3.5999362 16711746
12.096676 -9.3780956 -0.634233 16711746
9.5204201 -8.6619024 9.1394701 16711746
7.6172009 -9.5877304 6.9350181 16711746
13.329456 -8.6126966 9.3038769 16711746
12.360209 -9.0055046 8.8964014 16711746
18.85524 -16.977758 18.838078 16711746
12.685441 -8.2878284 7.4351501 16711746
10.741134 -10.461619 7.1335478 16711746
13.790275 -8.3861732 9.2780409 16711746
8.2882519 -9.2354412 8.3590918 16711746
7.0423055 -8.1294746 6.9428444 16711746
18.646875 -6.3996205 7.6588912 16711746
4.8586259 -9.0075178 7.6956553 16711746
11.37679 -10.228178 6.4422803 16711746
14.414678 -9.6182737 9.1924067 16711746
10.119632 -9.2444706 0.4728047 16711746
11.106592 -9.8888483 6.8576407 16711746
1.8359045 -9.5901527 6.8764086 16711746
17.899153 -7.9058714 7.5635638 16711746
10.665044 -10.479132 7.1556854 16711746
19.876272 -12.003792 11.698927 16711746
13 -8.1679211 6.0113101 16711746
5.6885839 -10.488147 5.5176601 16711746
10.554291 -10.30319 9.1584196 16711746
16.042315 -8.4024534 11.688037 16711746
7.4808125 -9.1891661 8.0576372 16711746
10.925982 -7.9318409 10.672485 16711746
8.6541939 -8.9928513 0.049006648 16711746
7.9715805 -9.7703409 8.5269213 16711746
3.5108061 -8.6386271 8.5731297 16711746
13.374611 -10.741808 9.4617453 16711746
17.383873 -13.668073 5.7160354 16711746
-3.8680575 -11.387028 2.8870084 16711746
28.986797 -9.5214119 11.872362 16711746
8.1172819 -9.062233 7.0620685 16711746
1.8890408 -11.820002 8.3765049 16711746
17.368807 -8.487792 5.7773333 16711746
13.969601 -11.747764 1.2953351 16711746
8.1973743 -9.0388308 8.5838795 16711746
11.792328 -8.1647625 10.868757 16711746
-2.8156502 -11.49841 3.7546244 16711746
-3.8311038 -11.734952 2.8778234 16711746
10.51961 -7.5805464 9.550952 16711746
-2.8978515 -11.630608 3.6076779 16711746
9.374918 -6.8928609 9.1744184 16711746
-4.0871358 -14.496674 5.3411746 16711746
18.50453 -9.3399849 7.032721 16711746
-4.9335365 -14.766872 3.4650576 16711746
16.703512 -9.5857458 8.5053673 16711746
9.9625912 -8.9516268 8.2673454 16711746
9.5220709 -9.3219767 8.1867113 16711746
-0.92774683 -9.8957262 2.9907389 16711746
15.915064 -10.23698 11.140508 16711746
15.152314 -7.1611457 4.2844977 16711746
7.7633462 -9.317873 7.2200956 16711746
12.545611 -10.022524 8.4177418 16711746
15.890718 -7.0775146 4.5715055 16711746
9.5097723 -10.604823 10.172589 16711746
6.4226656 -9.4868927 10.200563 16711746
11.664208 -8.0882797 10.709767 16711746
6.0945125 -12.19651 9.5001211 16711746
9.7464247 -10.362457 7.6684437 16711746
5.756207 -9.380331 2.4177773 16711746
9.3020163 -8.7209206 6.7663198 16711746
12.817637 -11.353249 3.8093657 16711746
9.7561293 -9.0303059 6.935029 16711746
9.7669153 -10.828786 10.423209 16711746
2.1079168 -9.1877184 2.7829051 16711746
4.9128265 -11.220931 12.065388 16711746
4.6304779 -11.070009 12.3714 16711746
7.4946384 -10.335696 8.3756199 16711746
10.80643 -11.006455 7.1554155 16711746
12.393753 -10.494223 9.0763302 16711746
4.4363065 -10.600649 10.708431 16711746
5.0871634 -12.956656 13.121775 16711746
18.887817 -8.7190533 7.6982646 16711746
12.030835 -8.5642519 0.50944293 16711746
11.368003 -11.614867 7.5326953 16711746
8.1078653 -11.185846 9.0869799 16711746
14.92997 -8.697546 5.6377444 16711746
19.021812 -8.2852507 7.990602 16711746
9.9514217 -11.848773 6.5294652 16711746
5.3522487 -14.14493 2.8626888 16711746
4.0505309 -9.819417 9.8563595 16711746
17.727909 -8.156147 6.4312444 16711746
10.330897 -11.729376 8.455759 16711746
12.982248 -9.0924654 1.4999468 16711746
14.526913 -12.230326 11.838431 16711746
12.02837 -6.9064732 -1.200997 16711746
5.3729129 -12.139236 13.470551 16711746
15.709787 -8.9398727 -0.6259684 16711746
14.643009 -6.9664931 -0.34990725 16711746
5.0948448 -8.9611969 5.925509 16711746
19.457825 -7.0633755 2.1976311 16711746
10.962041 -8.3898125 3.8137548 16711746
14.778396 -10.811369 1.1946344 16711746
8.9063587 -10.681273 7.0225935 16711746
18.444038 -10.615288 11.441214 16711746
15.467277 -9.9466429 10.707546 16711746
8.0772696 -12.261868 12.258358 16711746
10.856842 -11.405875 6.2840323 16711746
0.53571957 -2.8873403 1.1686089 16711746
10.059736 -12.271096 6.3973174 16711746
11.316841 -11.641007 7.4763198 16711746
24.959293 -11.093549 4.8969045 16711746
10.259624 -12.080668 6.5391102 16711746
10.276159 -8.061408 0.14194705 16711746
16.849936 -10.141563 11.431469 16711746
36.303188 -15.4944 15.40188 16711746
10.187758 -10.263603 9.8653345 16711746
5.226234 -11.90315 13.389038 16711746
-6.1863732 -15.013721 16.583372 16711746
-6.8972392 -16.483603 18.214659 16711746
10.069695 -10.247072 4.979526 16711746
20.379723 -9.0482025 5.06884 16711746
12.361464 -8.0249243 3.4194822 16711746
9.8076668 -9.3150005 0.22615276 16711746
9.7528124 -9.8587437 4.7968078 16711746
10.987209 -11.182673 6.3289495 16711746
7.2922425 -4.7724237 2.2979865 16711746
15.52439 -7.6664028 1.4876262 16711746
2.4368298 -14.056252 5.6076226 16711746
12.912992 -7.0243526 3.5635035 16711746
-0.92564875 -11.733772 3.1318705 16711746
-0.36753428 -13.192232 3.1544211 16711746
-4.2691889 -14.200318 4.940001 16711746
-3.0016339 -13.163057 4.9962587 16711746
-4.9037094 -12.571813 5.0724869 16711746
-2.5627687 -7.3143144 4.2986469 16711746
4.2396593 -8.5235424 6.5008678 16711746
9.7269678 -10.00596 -0.11062969 16711746
11.700811 -8.942009 -0.90727156 16711746
6.9042931 -11.870803 9.3265648 16711746
10.353431 -11.672459 10.244076 16711746
7.8987184 -9.7736273 8.2797184 16711746
11.790918 -12.432019 7.9339294 16711746
6.6189733 -15.029901 18.744144 16711746
3.3329835 -12.657772 10.342387 16711746
13.699569 -13.273232 11.87421 16711746
15.925639 -8.4823704 4.841526 16711746
3.9300895 -18.074749 8.8559351 16711746
12.889539 -13.174217 7.7250581 16711746
12.819966 -12.132086 10.10183 16711746
17.526676 -9.1426802 4.1248446 16711746
19.942617 -8.3753719 8.7960463 16711746
14.690671 -16.574671 3.0978699 16711746
12.721213 -8.5742407 5.9683471 16711746
16.695614 -9.8395596 8.0101395 16711746
15.38289 -9.6594744 7.215169 16711746
10.98077 -13.216402 7.4582205 16711746
15.970678 -9.9837399 9.5221539 16711746
19.879408 -18.725754 19.923138 16711746
21.191662 -14.862078 6.6152129 16711746
6.6072378 -44.369263 21.291138 16711746
17.683353 -15.02334 15.45992 16711746
26.916512 -19.399233 18.166431 16711746
24.258902 -17.929823 7.6912236 16711746
16.95327 -17.015564 7.9981632 16711746
12.57362 -14.363153 13.569224 16711746
11.499122 -17.580997 7.4329848 16711746
16.136896 -18.976812 10.543341 16711746
16.139389 -15.309081 6.4426994 16711746
19.817982 -14.239737 14.395807 16711746
13.517586 -8.5615139 8.0771503 16711746
10.828551 -13.740376 11.551545 16711746
15.453978 -19.403917 8.8404045 16711746
2.7537098 -18.86492 16.497351 16711746
15.984514 -18.982277 3.4960337 16711746
15.243791 -19.306316 8.8035202 16711746
16.262514 -19.04208 10.616987 16711746
14.07847 -15.395305 5.365694 16711746
5.3201456 -44.6782 38.266064 16711746
3.1887109 -12.045251 9.2794037 16711746
19.544558 -17.733084 13.692332 16711746
17.798044 -20.927675 11.419793 16711746
11.177814 -12.947157 3.2756145 16711746
5.8251543 -19.084089 2.1840746 16711746
14.150772 -15.641642 5.4668541 16711746
18.022856 -11.616296 4.701128 16711746
22.178343 -15.857739 5.301435 16711746
13.500377 -15.755263 5.6388316 16711746
7.6996064 -12.789962 5.5546002 16711746
25.940897 -15.73604 16.847797 16711746
-5.0963044 -13.234276 7.844295 16711746
18.273458 -17.472387 7.1870332 16711746
12.241749 -14.055643 2.1445084 16711746
7.5226364 -11.758967 12.713335 16711746
15.624208 -15.726111 7.4096475 16711746
9.0677547 -14.478456 10.315881 16711746
12.01788 -12.546109 4.9652729 16711746
20.160917 -22.034883 6.8710561 16711746
9.3435955 -10.209366 3.5489831 16711746
16.595209 -16.090717 6.6631856 16711746
27.495935 -13.597506 8.165431 16711746
10.654887 -13.394993 10.44954 16711746
12.464582 -13.828007 7.6441965 16711746
18.694181 -11.427419 11.248946 16711746
40.548969 -23.692587 29.303934 16711746
4.4526854 -14.107087 12.537491 16711746
-3.71893 -11.855247 3.9714696 16711746
6.6252327 -14.59508 18.830177 16711746
9.0621271 -21.850391 25.112936 16711746
5.7024584 -18.576719 2.164525 16711746
1.9767339 -15.7707 11.499096 16711746
23.140043 -13.606865 21.561872 16711746
13.214934 -12.157259 4.3967667 16711746
6.287302 -6.2740936 4.1006913 16711746
6.5162368 -12.20166 10.511631 16711746
2.6969378 -21.498001 15.294936 16711746
0.86216319 -15.454982 9.911272 16711746
3.2944267 -19.000786 15.762348 16711746
2.2101438 -14.082805 10.720539 16711746
3.6411555 -13.338626 10.129145 16711746
19.858509 -16.25975 1.5903814 16711746
19.933159 -14.892664 6.5331407 16711746
20.032421 -19.034027 12.461319 16711746
2.9395304 -12.923258 4.8946705 16711746
8.7110157 -14.229378 11.907563 16711746
15.171705 -14.41473 11.946218 16711746
32.030415 -28.167532 28.911104 16711746
30.029364 -22.926741 29.265484 16711746
12.241733 -12.268677 6.0518718 16711746
5.1542554 -12.261499 11.503581 16711746
4.7589221 -17.399446 7.8402729 16711746
25.893938 -14.926064 19.232449 16711746
13.06739 -11.269863 4.4692922 16711746
14.068104 -17.272886 5.737174 16711746
15.265269 -17.36348 4.876205 16711746
15.695217 -13.180501 0.54773307 16711746
15.933281 -19.455589 6.1652145 16711746
18.627172 -13.689696 1.8150764 16711746
30.527822 -18.577147 17.914001 16711746
22.705006 -20.429901 12.519561 16711746
3.5882215 -14.415704 10.413409 16711746
3.3867433 -13.487781 9.7466087 16711746
3.9736974 -14.518828 13.565506 16711746
25.101494 -12.355191 8.9416046 16711746
6.7846909 -16.082409 10.04235 16711746
26.463816 -16.295364 15.753119 16711746
15.472416 -13.76559 -0.53932947 16711746
31.184839 -16.663136 7.4558973 16711746
19.299379 -18.302227 0.85671574 16711746
18.795666 -14.20689 0.23786227 16711746
24.584711 -14.565215 5.201138 16711746
32.441494 -17.990553 23.551001 16711746
23.613335 -14.097826 10.9078 16711746
26.467196 -14.96185 10.052551 16711746
16.287262 -15.814956 8.7355013 16711746
4.1446528 -16.834343 11.821393 16711746
22.594849 -10.513384 4.8949041 16711746
7.7454953 -16.260683 9.2257023 16711746
18.225243 -12.774257 0.81446296 16711746
30.328974 -12.976651 8.1626682 16711746
23.778509 -14.207571 12.809401 16711746
24.702583 -14.670618 13.287812 16711746
14.86388 -14.028544 2.769083 16711746
23.91917 -13.576097 12.183083 16711746
1.8067847 -6.779469 4.4293203 16711746
8.5549917 -7.9180064 1.5597407 16711746
21.027344 -14.385801 7.0392575 16711746
23.16926 -21.611294 11.535172 16711746
5.7916274 -13.444581 13.863703 16711746
19.544134 -17.507229 1.5001658 16711746
7.280282 -17.85701 14.621173 16711746
7.2718015 -16.181608 8.1051416 16711746
6.1824183 -14.109391 16.447092 16711746
21.895023 -11.044789 6.6216364 16711746
9.8541651 -17.557615 3.018651 16711746
21.791494 -13.88906 15.387906 16711746
23.140678 -20.768028 22.960514 16711746
14.020139 -18.35454 1.4141401 16711746
19.934265 -20.611584 11.212556 16711746
16.496521 -11.125369 4.2123065 16711746
20.1434 -13.464532 4.8798013 16711746
30.828339 -21.216455 28.03009 16711746
2.9139855 -15.753331 10.763995 16711746
25.983812 -12.562774 5.1617241 16711746
31.488022 -19.185543 18.638144 16711746
7.5009818 -16.717064 11.198723 16711746
30.700531 -27.9883 30.972361 16711746
38.404903 -19.241255 30.064533 16711746
15.359239 -14.473948 2.8332555 16711746
7.7091975 -39.279259 26.120378 16711746
24.667728 -14.304474 15.148837 16711746
-0.02025532 -15.926105 11.852586 16711746
-0.019442866 -15.83783 9.9736166 16711746
12.369542 -15.752526 3.8004973 16711746
3.454206 -15.550163 9.3534107 16711746
18.668451 -18.452034 11.968839 16711746
28.692619 -25.080914 0.19485514 16711746
36.321678 -12.841055 14.679081 16711746
16.719179 -20.074514 9.5581446 16711746
19.636261 -19.799482 11.688666 16711746
34.966255 -14.835116 14.093232 16711746
7.1333513 -16.224998 17.381512 16711746
12.539536 -32.71883 31.9396 16711746
21.227676 -12.498705 15.829227 16711746
2.771533 -16.435633 10.138746 16711746
3.1032248 -19.261032 12.328887 16711746
29.50946 -8.5770473 12.906488 16711746
28.383358 -22.282293 7.7106662 16711746
3.6438909 -14.633471 7.7276039 16711746
7.0182204 -14.807062 8.5391827 16711746
9.1089964 -25.5005 4.3648715 16711746
34.350086 -18.357189 19.527506 16711746
27.150837 -17.134405 18.96685 16711746
6.6403613 -16.576975 10.314613 16711746
-1.1808071 -17.976757 10.494631 16711746
24.446728 -19.048428 8.0937023 16711746
27.765451 -18.882357 26.110189 16711746
10.150752 -17.441303 10.635628 16711746
3.4590995 -17.974079 13.244995 16711746
7.1351442 -17.333403 10.629942 16711746
0.85751057 -16.281061 10.423676 16711746
16.152784 -21.933249 9.673667 16711746
2.4585047 -19.313126 17.862579 16711746
13.614278 -15.466615 14.147718 16711746
12.253043 -14.674389 13.856319 16711746
1.4335499 -19.944521 13.620848 16711746
8.1716032 -17.437416 5.8092756 16711746
3.7725742 -14.429358 5.5783739 16711746
1.2646091 -15.394925 17.738274 16711746
40.034595 -16.474688 10.16969 16711746
11.342213 -15.901093 3.5546236 16711746
10.207839 -17.529261 5.9067144 16711746
2.5999484 -14.352207 8.729454 16711746
15.728581 -15.163413 1.2621593 16711746
12.032554 -15.708192 4.3111501 16711746
1.2951275 -18.70418 12.109346 16711746
2.3003118 -19.362762 15.444377 16711746
13.019582 -18.637674 16.330658 16711746
20.919075 -16.826601 6.9834933 16711746
2.034137 -14.783466 9.0270243 16711746
5.6949358 -15.167846 6.2276883 16711746
4.8791137 -19.09198 17.634438 16711746
-4.0170751 -16.134741 12.168998 16711746
11.03133 -13.951008 10.145338 16711746
37.837193 -21.022469 17.060265 16711746
23.258337 -21.520283 11.527639 16711746
2.3443387 -18.884367 15.54213 16711746
10.926593 -26.055672 27.993813 16711746
16.291519 -16.850164 16.395344 16711746
38.004772 -20.458084 21.391207 16711746
3.357765 -14.171391 8.1941795 16711746
22.942802 -21.019979 0.82397056 16711746
17.01803 -17.00831 10.841402 16711746
17.469376 -16.677042 10.872411 16711746
11.080266 -15.541885 8.846117 16711746
-8.1009483 -17.928123 8.9345665 16711746
28.960667 -19.653221 27.101286 16711746
7.347487 -18.470045 12.449195 16711746
2.0770135 -18.355036 16.783768 16711746
16.982674 -25.632643 9.9871731 16711746
3.7540452 -16.387112 9.3817902 16711746
15.73973 -19.033232 8.8997726 16711746
14.432532 -19.135954 9.5990849 16711746
8.5043192 -18.649227 14.151985 16711746
2.5309086 -14.043484 5.648068 16711746
19.235397 -11.094535 7.6683006 16711746
17.219707 -17.367256 10.961564 16711746
22.69989 -19.905842 22.334908 16711746
31.43157 -18.146349 11.717175 16711746
31.987656 -18.419468 11.907892 16711746
38.39584 -14.730138 8.8004837 16711746
2.2804217 -18.435871 14.511647 16711746
20.163807 -18.673109 14.349357 16711746
30.242764 -19.675705 16.662491 16711746
23.577639 -16.043068 7.7589178 16711746
19.50465 -17.74814 5.6703067 16711746
2.3572457 -18.692917 14.832826 16711746
27.710135 -16.052507 20.529425 16711746
7.8101864 -18.635611 21.171856 16711746
47.217834 -13.4807 22.744368 16711746
3.1610222 -17.216904 12.083041 16711746
32.360043 -14.814198 11.708265 16711746
16.760706 -16.123138 4.9525924 16711746
25.480207 -16.561773 7.257947 16711746
1.5811726 -16.858671 14.463841 16711746
28.991913 -15.434957 8.0050726 16711746
26.937542 -15.568854 7.3185978 16711746
10.851768 -18.816221 7.7017474 16711746
28.906015 -16.994476 26.783272 16711746
26.33086 -16.948368 13.919299 16711746
28.50127 -13.855768 5.7055936 16711746
18.763178 -17.011349 1.044624 16711746
25.742247 -18.048019 8.9291344 16711746
26.023455 -24.163231 13.675536 16711746
39.749485 -19.563204 29.274946 16711746
27.550173 -15.335489 4.0265627 16711746
22.055676 -20.552681 8.9223213 16711746
20.924738 -19.241476 15.831002 16711746
23.919872 -20.728704 6.2912893 16711746
23.900192 -30.081812 17.172155 16711746
20.930599 -27.088436 3.6526337 16711746
36.783203 -17.373541 12.705197 16711746
25.990898 -16.463276 6.6393948 16711746
23.156769 -17.3409 1.0652196 16711746
29.759357 -17.736349 10.692768 16711746
37.477608 -23.289871 21.158058 16711746
26.474174 -16.296385 0.2596792 16711746
26.040939 -21.557835 8.7312727 16711746
6.2152519 -16.99704 15.809106 16711746
31.687666 -16.008219 8.7487383 16711746
7.9810562 -10.489498 5.1312222 16711746
27.594984 -17.639072 14.551262 16711746
26.006208 -19.207386 25.429094 16711746
33.817638 -15.428764 8.7959557 16711746
25.768431 -23.969769 17.613991 16711746
30.188202 -20.48822 21.761429 16711746
29.099848 -19.938097 29.554344 16711746
25.025173 -21.208746 7.4117312 16711746
24.150257 -25.088667 13.591658 16711746
2.2576034 -31.236414 19.235022 16711746
7.2363596 -26.463751 29.113197 16711746
34.134144 -21.776289 10.69588 16711746
41.045521 -32.199234 25.577581 16711746
33.462452 -28.461254 26.364859 16711746
27.063526 -28.686392 19.331516 16711746
33.204224 -20.33679 12.499343 16711746
37.213474 -14.196692 9.2114286 16711746
20.018183 -24.333981 20.939198 16711746
25.060974 -23.467327 0.86907274 16711746
