# .PCD v.7 - Point Cloud Data file format
VERSION .7
FIELDS x y z rgb
SIZE 4 4 4 4
TYPE F F F F
COUNT 1 1 1 1
WIDTH 123
HEIGHT 1
VIEWPOINT 0 0 0 1 0 0 0
POINTS 123
DATA ascii

 0.0728041 -0.0019794 -0.0748242 16777215
 0.0758988 0.0015575 -0.0656945 16777215
 0.0958027 -0.0060713 -0.0682594 16777215
 0.1001742 -0.0057248 -0.0635329 16777215
 0.0965503 -0.0059605 -0.0585621 16777215
 0.0960500 -0.0061602 -0.0587385 16777215
 0.1035932 -0.0074728 -0.0478193 16777215
 0.1071756 -0.0048215 -0.0411462 16777215
 0.1204627 -0.0100064 -0.0321847 16777215
 0.1152479 -0.0108846 -0.0206646 16777215
 0.1311597 -0.0127308 -0.0103008 16777215
 0.1432298 -0.0048113 0.0105158 16777215
 0.1533153 -0.0163158 0.0230426 16777215
 0.1643387 -0.0147887 0.0385230 16777215
 0.1670047 -0.0230047 0.0608157 16777215
 0.1751617 -0.0331590 0.0773968 16777215
 0.2000972 -0.0261631 0.1177716 16777215
 0.2159797 -0.0297608 0.1393476 16777215
 0.2286425 -0.0530639 0.1658261 16777215
 0.2556862 -0.0741009 0.1834355 16777215
 0.2548204 -0.0705671 0.2177912 16777215
 0.2799079 -0.0787170 0.2652323 16777215
 0.2896608 -0.1055289 0.2783567 16777215
 0.2928328 -0.0960673 0.2990463 16777215
 0.2998447 -0.1118095 0.3050037 16777215
 0.3104423 -0.1229832 0.3490321 16777215
 0.3139059 -0.1229649 0.3719664 16777215
 0.3290722 -0.1237874 0.4029602 16777215
 0.3383978 -0.1180538 0.4279554 16777215
 0.3485595 -0.1158139 0.4600413 16777215
 0.3678383 -0.0931657 0.4893928 16777215
 0.3675239 -0.0935945 0.5276055 16777215
 0.3877104 -0.0967937 0.5579107 16777215
 0.3936296 -0.1174989 0.5762261 16777215
 0.4050043 -0.1140836 0.6138854 16777215
 0.3911126 -0.1191534 0.6504799 16777215
 0.4194542 -0.1270034 0.6648163 16777215
 0.4443988 -0.1139190 0.7007063 16777215
 0.4632768 -0.1311443 0.6888227 16777215
 0.4548193 -0.1441366 0.7295952 16777215
 0.4678707 -0.1452990 0.7474314 16777215
 0.4864806 -0.1406244 0.7637930 16777215
 0.4992076 -0.1502445 0.7893085 16777215
 0.5149058 -0.1628147 0.8035721 16777215
 0.5236542 -0.1633508 0.8163773 16777215
 0.5420773 -0.1564856 0.8342455 16777215
 0.5466226 -0.1458682 0.8518190 16777215
 0.5582982 -0.1540706 0.8585063 16777215
 0.5655842 -0.1621574 0.8651233 16777215
 0.5769178 -0.1625541 0.8755757 16777215
 0.5775265 -0.1683744 0.8858597 16777215
 0.5893962 -0.1731213 0.8935465 16777215
 0.5975426 -0.1787048 0.9040375 16777215
 0.5826402 -0.1792447 0.9133691 16777215
 0.5912384 -0.1812994 0.9253801 16777215
 0.5940114 -0.1874023 0.9377967 16777215
 0.5919416 -0.1705976 0.9570079 16777215
 0.6086806 -0.1694624 0.9723775 16777215
 0.6062306 -0.1671469 0.9981440 16777215
 0.6183600 -0.1742286 1.0186883 16777215
 0.6357777 -0.1685257 1.0396072 16777215
 0.6379164 -0.1699451 1.0513785 16777215
 0.6476719 -0.1756803 1.0656198 16777215
 0.6618651 -0.1876557 1.0754066 16777215
 0.6804586 -0.1830661 1.0946651 16777215
 0.6845908 -0.1919903 1.0964274 16777215
 0.6895642 -0.1986353 1.1073668 16777215
 0.6728188 -0.1981571 1.1232796 16777215
 0.6756270 -0.2007487 1.1468158 16777215
 0.7036808 -0.2127175 1.1499521 16777215
 0.7027201 -0.2133547 1.1648490 16777215
 0.7171450 -0.2159372 1.1836219 16777215
 0.7303129 -0.2095687 1.2019753 16777215
 0.7565182 -0.2122025 1.2150058 16777215
 0.7648316 -0.2180239 1.2260646 16777215
 0.7679482 -0.2212920 1.2465690 16777215
 0.7771512 -0.2195829 1.2614666 16777215
 0.7890147 -0.2078560 1.2789962 16777215
 0.8023178 -0.2200707 1.2957432 16777215
 0.8090103 -0.2177829 1.3109355 16777215
 0.8188225 -0.2093681 1.3323934 16777215
 0.8271930 -0.2123624 1.3390218 16777215
 0.8365048 -0.1990556 1.3586135 16777215
 0.8547451 -0.2130789 1.3646524 16777215
 0.8586460 -0.2101260 1.3811268 16777215
 0.8603600 -0.2165251 1.3918788 16777215
 0.8605257 -0.2133643 1.4010174 16777215
 0.8495408 -0.1864153 1.4241860 16777215
 0.8628717 -0.2152084 1.4282498 16777215
 0.8573436 -0.2094804 1.4342588 16777215
 0.8565642 -0.2156252 1.4414527 16777215
 0.8793224 -0.2137745 1.4539602 16777215
 0.8692584 -0.2058319 1.4651389 16777215
 0.8679928 -0.1904912 1.4787905 16777215
 0.8732374 -0.1884712 1.4899693 16777215
 0.8778131 -0.1926202 1.4985059 16777215
 0.8878179 -0.1944144 1.5168138 16777215
 0.8931760 -0.2009149 1.5253377 16777215
 0.9029628 -0.2021280 1.5458046 16777215
 0.9128851 -0.2104366 1.5575372 16777215
 0.9078456 -0.2017776 1.5824289 16777215
 0.9195260 -0.2192767 1.5918590 16777215
 0.9275068 -0.2219977 1.6112777 16777215
 0.9328457 -0.2250182 1.6174072 16777215
 0.9377983 -0.2186792 1.6218039 16777215
 0.9393272 -0.2156364 1.6431407 16777215
 0.9434373 -0.2169185 1.6444100 16777215
 0.9499665 -0.2050054 1.6497098 16777215
 0.9500306 -0.2148455 1.6636444 16777215
 0.9582778 -0.2162172 1.6661509 16777215
 0.9662695 -0.2249001 1.6785200 16777215
 0.9723921 -0.2267243 1.6834792 16777215
 0.9776291 -0.2285163 1.6942892 16777215
 0.9867615 -0.2091650 1.7064265 16777215
 0.9618830 -0.2272818 1.7170885 16777215
 0.9700258 -0.2238778 1.7225137 16777215
 0.9673161 -0.2305767 1.7364756 16777215
 0.9732783 -0.2312201 1.7433599 16777215
 0.9755197 -0.2314023 1.7443829 16777215
 0.9770280 -0.2271577 1.7448766 16777215
 0.9738616 -0.2240295 1.7440531 16777215
 0.9750316 -0.2225759 1.7439827 16777215
 0.9748737 -0.2234124 1.7447808 16777215
