# .PCD v.7 - Point Cloud Data file format
VERSION .7
FIELDS x y z rgb
SIZE 4 4 4 4
TYPE F F F F
COUNT 1 1 1 1
WIDTH 154
HEIGHT 1
VIEWPOINT 0 0 0 1 0 0 0
POINTS 154
DATA ascii

 0.0722982 0.0027576 -0.0992501 16777215
 -0.0022057 0.0010635 -0.0054565 16777215
-0.1863244 -1.5322170 0.2919335 16711746
0.4479982 -1.3215489 0.3901153 16711746
0.3349669 -1.0506995 0.0735588 16711746
0.3201160 -0.7128463 -0.0391591 16711746
0.8936858 -1.1223141 0.2269014 16711746
0.3642417 -0.8605294 0.5182911 16711746
0.4087906 -0.5434234 0.1019222 16711746
0.2398672 -1.1030216 0.1446144 16711746
0.2295730 -1.5771834 0.8230715 16711746
0.4588277 -1.2045273 0.5511493 16711746
0.5606195 -0.8512693 0.1334911 16711746
1.0502976 -0.9076790 0.3671444 16711746
0.6527758 -0.8860170 0.0685736 16711746
0.6753371 -0.8939729 0.0541267 16711746
0.2013625 -1.1692822 0.0646789 16711746
0.1769149 -1.1901180 0.0687505 16711746
0.3730847 -1.2524786 0.8537662 16711746
0.5134684 -1.1473528 0.4948679 16711746
0.7269836 -0.9152403 0.4514618 16711746
-0.4611145 1.3048012 -1.6197642 16711746
0.5426149 -1.4980879 1.4820729 16711746
-0.5940759 -1.0304350 0.7861959 16711746
0.2386956 -1.1441516 0.0454833 16711746
0.2895024 -0.6806066 0.0402279 16711746
0.3986332 -1.0125809 0.0601500 16711746
-0.0920583 -1.8168906 0.2613158 16711746
0.1901641 -1.1543865 0.1441013 16711746
0.2334693 -0.8099442 -0.0676931 16711746
0.0142474 -1.3569129 -0.0377923 16711746
0.0431185 -0.8927237 -0.0417271 16711746
0.0977909 -0.8469856 -0.0216791 16711746
0.7551330 -0.5737876 -0.0242417 16711746
0.5238364 -0.9586318 0.0403150 16711746
0.5539703 -0.9962003 -0.0204590 16711746
0.7192655 -0.9609118 -0.0348042 16711746
0.5609362 -0.9043728 0.0825549 16711746
0.4981580 -0.9151562 0.1037153 16711746
0.9352857 -1.0192354 -0.1421881 16711746
0.6488523 -0.6732602 -0.1062850 16711746
0.6227739 -0.9797975 -0.0435922 16711746
0.2928938 -1.2609642 0.2708617 16711746
0.3163137 -1.0168190 0.1612539 16711746
0.3493033 -0.9377725 0.2224298 16711746
0.1965439 -1.3567287 0.3033811 16711746
0.2217699 -1.1074473 0.1858062 16711746
1.2334621 -0.9555370 0.3184150 16711746
0.6479347 -1.1602226 0.3161488 16711746
0.8928882 -1.0792847 0.2644205 16711746
0.7661684 -0.7930245 0.1585016 16711746
0.5289689 -0.8819261 0.1200172 16711746
0.5774599 -0.8922043 0.2211012 16711746
-0.3396916 -1.2400309 0.1035116 16711746
-0.1448181 -1.0742397 0.1141917 16711746
-0.2370416 -1.1734833 0.1893496 16711746
-0.1419389 -1.3117888 0.1807976 16711746
-0.2062958 -1.5408137 0.1950408 16711746
-0.5602391 -1.7878156 -0.0705903 16711746
-0.8352802 -1.5279038 -0.0044738 16711746
-0.1423308 -1.3440980 0.2719276 16711746
-0.4988566 -1.8664333 0.6007060 16711746
0.8315501 -0.8465987 0.0749609 16711746
-0.1314345 -1.8773406 0.3020109 16711746
0.2999457 -1.6567014 0.1275447 16711746
0.1848849 -1.1740711 0.0962558 16711746
1.0637047 -0.8631219 0.4008366 16711746
0.6911665 -0.9547782 -0.0193907 16711746
0.8774095 -0.8151551 0.1031890 16711746
0.6289776 -1.2812079 0.2062577 16711746
-0.3538224 -1.7577786 0.6753489 16711746
-0.3281281 -1.7262571 0.6399490 16711746
0.4933331 -0.8298404 0.1855001 16711746
-0.0647485 -1.4613146 0.8905811 16711746
-0.0049111 -0.6508017 -0.0324696 16711746
0.3050257 -1.0224528 -0.0050523 16711746
0.7696812 -0.9293609 -0.0077683 16711746
0.2634856 -1.1565530 -0.0235904 16711746
0.1004385 -0.7506251 0.5446374 16711746
-0.2068186 -1.1015855 -0.0378979 16711746
0.8324559 -1.1890855 0.1857549 16711746
0.5152810 -0.9762214 0.1779464 16711746
-0.5148857 -1.7991136 0.4277706 16711746
0.1340902 -1.2492466 -0.0022988 16711746
0.7454281 -0.8672150 0.0661654 16711746
0.6116626 -0.6158912 -0.0187076 16711746
0.1801946 -0.9958190 0.6195566 16711746
-0.0740762 -1.4238453 0.3192091 16711746
0.4692884 -1.3534662 0.3007794 16711746
0.3384404 -1.1890955 0.2666636 16711746
0.8881678 -0.9629205 -0.0681683 16711746
0.6178423 -0.6505176 -0.0693916 16711746
-0.0560983 -1.4092921 0.3748136 16711746
0.1587730 -1.1863251 0.1460609 16711746
-0.2383838 -1.1296945 -0.0258144 16711746
0.6471069 -0.9669208 -0.0525164 16711746
0.5520141 -1.0135471 -0.0416606 16711746
0.5019717 -1.0267547 -0.0334659 16711746
0.1126821 -1.2569621 0.0368647 16711746
-1.0297606 -1.6291698 -0.0069927 16711746
0.4554648 -1.2912184 0.4259548 16711746
0.6020250 -0.6204965 -0.0232735 16711746
0.7957712 -0.9275565 -0.0106224 16711746
0.0812570 -0.8505401 0.0571937 16711746
1.1620364 -0.8587101 0.0218700 16711746
0.5899505 -0.9351387 0.0373649 16711746
0.0423258 -1.3255999 0.0031482 16711746
0.4534185 -1.0328475 0.2201109 16711746
0.4770470 -0.7578179 0.2453805 16711746
0.8388048 -0.8077031 0.0566523 16711746
0.2604719 -1.1664187 -0.0393392 16711746
0.1853254 -0.7387267 -0.0437236 16711746
-0.0803059 -1.4414419 0.4297964 16711746
-0.0343316 -1.3974578 0.5105370 16711746
0.4031713 -0.9250594 0.1693294 16711746
0.3486326 -0.7065635 -0.0503691 16711746
0.5314715 -1.0852984 0.5190110 16711746
0.7813331 -0.6483247 -0.0806103 16711746
-0.1154176 -1.4558594 0.1017110 16711746
-0.1098882 -1.0345360 0.0688973 16711746
0.4217355 -1.0988468 -0.0839697 16711746
0.5101405 -1.0439899 0.0206330 16711746
0.5165921 -0.9970285 -0.0031701 16711746
0.6549892 -0.8618633 0.0917797 16711746
0.2386068 -0.6061095 0.1759360 16711746
0.4136175 -0.9631094 0.1129834 16711746
-0.0459246 -1.4096270 0.4874739 16711746
-0.0030416 -1.3698059 -0.0307642 16711746
0.3924613 -1.0738291 -0.0241124 16711746
0.4200377 -1.0763628 -0.0495580 16711746
-0.0269735 -1.3753867 0.1011505 16711746
-0.0938208 -2.0423400 0.1477530 16711746
-0.1080611 -1.0251297 0.0124375 16711746
-0.0807799 -1.1826409 -0.0055189 16711746
-0.1272377 -1.0414939 0.0084486 16711746
0.4091381 -0.6875660 -0.0569913 16711746
0.6021259 -1.0378430 -0.0956627 16711746
0.2079666 -0.6768879 0.0336896 16711746
0.2951840 -1.1029227 0.0356819 16711746
-0.0275548 -1.3838686 0.0143254 16711746
-0.0263725 -0.8200275 0.0011945 16711746
-0.3690688 -1.6681715 0.1151605 16711746
-0.0580167 -0.4830734 0.0737199 16711746
0.1043142 -0.0978755 0.0123848 16711746
-1.3438900 -1.8002614 1.1415515 16711746
0.1199792 -0.2637618 0.1236140 16711746
-0.5834253 -5.0540519 0.8131997 16711746
-1.7027851 -3.8081846 2.9144740 16711746
-1.1205093 -3.8681381 2.7204368 16711746
-0.6738746 -5.0451603 1.7048146 16711746
0.0485003 -1.6992596 0.3211386 16711746
0.1976665 -0.2363632 0.0508283 16711746
0.0508630 -1.5933565 0.2957077 16711746
0.0056131 -3.0034108 0.8900900 16711746
