# .PCD v.7 - Point Cloud Data file format
VERSION .7
FIELDS x y z rgb
SIZE 4 4 4 4
TYPE F F F F
COUNT 1 1 1 1
WIDTH 315
HEIGHT 1
VIEWPOINT 0 0 0 1 0 0 0
POINTS 315
DATA ascii

 0.0000000 0.0000000 0.0000000 16777215
 -0.0438319 -0.0001118 -0.0062173 16777215
 -0.0474988 0.0034154 -0.0072247 16777215
 -0.0490546 0.0073781 -0.0081311 16777215
 -0.0498630 0.0049645 -0.0080589 16777215
 -0.0473539 -0.0005115 -0.0105036 16777215
 -0.0424614 -0.0022756 -0.0144493 16777215
 -0.0356478 -0.0016907 -0.0180251 16777215
 -0.0248791 0.0004650 -0.0213372 16777215
 -0.0113647 -0.0034100 -0.0245027 16777215
 -0.0040805 -0.0021087 -0.0269368 16777215
 0.0065512 -0.0007601 -0.0297112 16777215
 0.0149632 0.0000557 -0.0310410 16777215
 0.0220481 0.0057396 -0.0342623 16777215
 0.0265847 0.0114345 -0.0339263 16777215
 0.0283520 0.0167775 -0.0323488 16777215
 0.0314027 0.0196268 -0.0312096 16777215
 0.0269726 0.0253352 -0.0292369 16777215
 0.0243772 0.0247820 -0.0278992 16777215
 0.0146038 0.0214639 -0.0244866 16777215
 0.0091836 0.0169899 -0.0247047 16777215
 0.0014960 0.0084392 -0.0256413 16777215
 -0.0106436 0.0032896 -0.0292444 16777215
 -0.0174226 0.0015752 -0.0299343 16777215
 -0.0305937 0.0078726 -0.0266951 16777215
 -0.0383104 0.0157889 -0.0212985 16777215
 -0.0409702 0.0228451 -0.0148149 16777215
 -0.0367561 0.0375390 -0.0068294 16777215
 -0.0171996 0.0561373 0.0104145 16777215
 0.0143655 0.0530203 0.0235939 16777215
 0.0475155 0.0441729 0.0327113 16777215
 0.0653977 0.0298107 0.0377342 16777215
 0.0838990 0.0104886 0.0489246 16777215
 0.0969781 -0.0074484 0.0851707 16777215
 0.0996999 -0.0371972 0.1367230 16777215
 0.1049234 -0.0621675 0.1748284 16777215
 0.1101443 -0.0952816 0.2134316 16777215
 0.1193123 -0.1249419 0.2662944 16777215
 0.1342030 -0.1578785 0.3328593 16777215
 0.1428411 -0.1877522 0.3793073 16777215
 0.1702292 -0.2177502 0.4256956 16777215
 0.1874898 -0.2471854 0.4837210 16777215
 0.2288576 -0.2831450 0.5730917 16777215
 0.2581035 -0.3125109 0.6547505 16777215
 0.3151556 -0.3606134 0.7554621 16777215
 0.3386043 -0.3803646 0.7830811 16777215
 0.3543599 -0.3918026 0.8023140 16777215
 0.3672932 -0.4230447 0.8405362 16777215
 0.3765157 -0.4404965 0.8808765 16777215
 0.3874730 -0.4534315 0.9246600 16777215
 0.4031383 -0.4695845 0.9753491 16777215
 0.4198830 -0.4989219 1.0136343 16777215
 0.4198589 -0.5169385 1.0559870 16777215
 0.4318638 -0.5395036 1.0898570 16777215
 0.4410462 -0.5500825 1.1130760 16777215
 0.4573429 -0.5752808 1.1649320 16777215
 0.4752616 -0.5929812 1.2099681 16777215
 0.4985553 -0.6159389 1.2459924 16777215
 0.5176358 -0.6542888 1.2912831 16777215
 0.5352976 -0.6703223 1.3230019 16777215
 0.5490353 -0.6964892 1.3833135 16777215
 0.5715955 -0.7216201 1.4564942 16777215
 0.6002691 -0.7536137 1.5384543 16777215
 0.6261183 -0.7888539 1.6092222 16777215
 0.6509605 -0.8272278 1.6946080 16777215
 0.6632833 -0.8518798 1.7444131 16777215
 0.7062287 -0.8900669 1.8070238 16777215
 0.7139227 -0.9103104 1.8440589 16777215
 0.7291861 -0.9330165 1.9011672 16777215
 0.7327921 -0.9422908 1.9343410 16777215
 0.7417731 -0.9623893 2.0084286 16777215
 0.7489506 -0.9840349 2.0553715 16777215
 0.7549326 -1.0028036 2.0940757 16777215
 0.7687781 -1.0338781 2.1395686 16777215
 0.7750262 -1.0449256 2.1656339 16777215
 0.7931141 -1.0619657 2.2100306 16777215
 0.8252094 -1.0877800 2.2942965 16777215
 0.8527768 -1.1102291 2.3408139 16777215
 0.8726540 -1.1376295 2.3750396 16777215
 0.8872154 -1.1662384 2.4294965 16777215
 0.8967016 -1.1854897 2.4949915 16777215
 0.9058628 -1.2068474 2.5660999 16777215
 0.9235773 -1.2401910 2.6224413 16777215
 0.9390308 -1.2724435 2.6799326 16777215
 0.9627812 -1.2924596 2.7439375 16777215
 0.9911364 -1.3161089 2.8283055 16777215
 1.0146377 -1.3463438 2.9030066 16777215
 1.0251684 -1.3611374 2.9649498 16777215
 1.0325804 -1.3652130 3.0013070 16777215
 1.0361918 -1.3940020 3.0918360 16777215
 1.0418397 -1.4035180 3.1297088 16777215
 1.0499557 -1.4305604 3.1984437 16777215
 1.0571692 -1.4373236 3.2252944 16777215
 1.0785544 -1.4470491 3.2893991 16777215
 1.0969765 -1.4696105 3.3549676 16777215
 1.1148744 -1.4815155 3.3941960 16777215
 1.1289744 -1.4986982 3.4373808 16777215
 1.1327684 -1.5073104 3.4974608 16777215
 1.1375785 -1.5179100 3.5530577 16777215
 1.1463883 -1.5412034 3.6229305 16777215
 1.1539587 -1.5641272 3.6823452 16777215
 1.1595016 -1.5880171 3.7565594 16777215
 1.1710691 -1.6010046 3.8090844 16777215
 1.1879313 -1.6152477 3.8814220 16777215
 1.1989840 -1.6246864 3.9370689 16777215
 1.2041712 -1.6406369 3.9964132 16777215
 1.2057153 -1.6444795 4.0798264 16777215
 1.2103310 -1.6605618 4.1343050 16777215
 1.2225554 -1.6754426 4.1824350 16777215
 1.2256988 -1.6915272 4.2406650 16777215
 1.2378259 -1.6975974 4.3031378 16777215
 1.2515166 -1.7048043 4.3712282 16777215
 1.2731783 -1.7263324 4.4189043 16777215
 1.2772304 -1.7340864 4.4538732 16777215
 1.2870915 -1.7425466 4.5153909 16777215
 1.2876382 -1.7500277 4.5523744 16777215
 1.2819922 -1.7753990 4.6525540 16777215
 1.2923439 -1.7916238 4.6918669 16777215
 1.2948923 -1.8079629 4.7530956 16777215
 1.2996408 -1.8140661 4.8016973 16777215
 1.3094337 -1.8156900 4.8526726 16777215
 1.3267293 -1.8305148 4.9194775 16777215
 1.3292578 -1.8426380 4.9596968 16777215
 1.3387191 -1.8627863 5.0179191 16777215
 1.3460134 -1.8640834 5.0629110 16777215
 1.3461461 -1.8666897 5.1126881 16777215
 1.3438871 -1.8795625 5.1571479 16777215
 1.3537586 -1.8950864 5.2052059 16777215
 1.3589802 -1.9081783 5.2524881 16777215
 1.3615036 -1.9076989 5.2961869 16777215
 1.3747013 -1.9068042 5.3627472 16777215
 1.3898468 -1.9167656 5.4220328 16777215
 1.4016076 -1.9396778 5.4769859 16777215
 1.4069064 -1.9466232 5.5355577 16777215
 1.4090040 -1.9528131 5.6059780 16777215
 1.4024346 -1.9564941 5.6643443 16777215
 1.3979199 -1.9735627 5.7479239 16777215
 1.3999617 -1.9752526 5.7954259 16777215
 1.4111222 -1.9780304 5.8807745 16777215
 1.4209697 -2.0036323 5.9736996 16777215
 1.4268421 -2.0044847 6.0148935 16777215
 1.4280665 -2.0022733 6.0648212 16777215
 1.4221452 -2.0041552 6.1550217 16777215
 1.4285259 -2.0185404 6.2160010 16777215
 1.4279203 -2.0207658 6.2588177 16777215
 1.4371830 -2.0169067 6.3172498 16777215
 1.4462745 -2.0243416 6.3638897 16777215
 1.4524864 -2.0258641 6.3991828 16777215
 1.4566693 -2.0337973 6.4379759 16777215
 1.4598531 -2.0339518 6.4777508 16777215
 1.4591057 -2.0309067 6.5255809 16777215
 1.4606019 -2.0272398 6.5906124 16777215
 1.4680978 -2.0338304 6.6321869 16777215
 1.4660527 -2.0361819 6.6950016 16777215
 1.4696579 -2.0335479 6.7344370 16777215
 1.4770902 -2.0228648 6.8195915 16777215
 1.4904648 -2.0323215 6.8875828 16777215
 1.4981279 -2.0476372 6.9449568 16777215
 1.4944507 -2.0355458 7.0244246 16777215
 1.4919651 -2.0336249 7.0854406 16777215
 1.4899367 -2.0347281 7.1461945 16777215
 1.4900205 -2.0374820 7.2183008 16777215
 1.5003641 -2.0395329 7.3087282 16777215
 1.4976418 -2.0467584 7.3446174 16777215
 1.4938197 -2.0528698 7.3942213 16777215
 1.4886222 -2.0512619 7.4196825 16777215
 1.4800074 -2.0459721 7.4784679 16777215
 1.4757266 -2.0478451 7.5264044 16777215
 1.4625998 -2.0618663 7.5949864 16777215
 1.4601902 -2.0633547 7.6505995 16777215
 1.4590731 -2.0603631 7.6886263 16777215
 1.4590536 -2.0646143 7.7473078 16777215
 1.4578481 -2.0681930 7.7792835 16777215
 1.4519621 -2.0698998 7.8223267 16777215
 1.4456002 -2.0661747 7.8707514 16777215
 1.4405328 -2.0685928 7.9063015 16777215
 1.4409666 -2.0725863 7.9331293 16777215
 1.4360374 -2.0812719 7.9642148 16777215
 1.4357215 -2.0796244 8.0029182 16777215
 1.4367113 -2.0750434 8.0509443 16777215
 1.4442695 -2.0763147 8.0912533 16777215
 1.4437234 -2.0730486 8.1306973 16777215
 1.4460471 -2.0723560 8.1694412 16777215
 1.4439391 -2.0710776 8.2261600 16777215
 1.4454637 -2.0665176 8.2678528 16777215
 1.4432563 -2.0596888 8.3251247 16777215
 1.4471530 -2.0624230 8.3621769 16777215
 1.4444367 -2.0544317 8.4190693 16777215
 1.4521104 -2.0417316 8.4831333 16777215
 1.4521348 -2.0423250 8.5346127 16777215
 1.4521525 -2.0342839 8.5840483 16777215
 1.4421141 -2.0197763 8.6427498 16777215
 1.4297540 -2.0152428 8.7027359 16777215
 1.4248514 -2.0196388 8.7529745 16777215
 1.4169030 -2.0118773 8.8211594 16777215
 1.4129438 -2.0059659 8.8783932 16777215
 1.4077498 -2.0018284 8.9149122 16777215
 1.4091260 -1.9964314 8.9564600 16777215
 1.3983898 -1.9869161 9.0090084 16777215
 1.3947632 -1.9850650 9.0370131 16777215
 1.3903353 -1.9811296 9.0732870 16777215
 1.3908515 -1.9642010 9.1298218 16777215
 1.3832619 -1.9666145 9.1671515 16777215
 1.3904684 -1.9624422 9.2033777 16777215
 1.3877250 -1.9563181 9.2276077 16777215
 1.3817706 -1.9415307 9.2745094 16777215
 1.3732309 -1.9275301 9.3162479 16777215
 1.3721551 -1.9210966 9.3532524 16777215
 1.3645813 -1.9199159 9.3794966 16777215
 1.3607092 -1.9168808 9.4154835 16777215
 1.3558873 -1.9005644 9.4614449 16777215
 1.3510947 -1.8849127 9.5056858 16777215
 1.3544868 -1.8776555 9.5522690 16777215
 1.3507503 -1.8732741 9.5947590 16777215
 1.3392344 -1.8567502 9.6483374 16777215
 1.3300683 -1.8450618 9.7016869 16777215
 1.3172756 -1.8393135 9.7456341 16777215
 1.3102800 -1.8254645 9.8095102 16777215
 1.3116693 -1.8064041 9.8715878 16777215
 1.3033173 -1.7999904 9.9134569 16777215
 1.3007621 -1.7893879 9.9664021 16777215
 1.2914315 -1.7705932 10.0320091 16777215
 1.2818475 -1.7594297 10.0642004 16777215
 1.2759433 -1.7546072 10.1131535 16777215
 1.2698920 -1.7398756 10.1642551 16777215
 1.2655678 -1.7230227 10.2251434 16777215
 1.2572825 -1.7191861 10.2642365 16777215
 1.2543192 -1.6986403 10.3170767 16777215
 1.2455715 -1.6831939 10.3618345 16777215
 1.2343817 -1.6692150 10.3978033 16777215
 1.2292799 -1.6623747 10.4348030 16777215
 1.2248168 -1.6434639 10.4812565 16777215
 1.2232652 -1.6324809 10.5121622 16777215
 1.2172976 -1.6200938 10.5537424 16777215
 1.2184181 -1.6080554 10.6017942 16777215
 1.2126210 -1.5959442 10.6335821 16777215
 1.2065769 -1.5777545 10.6943951 16777215
 1.2004503 -1.5722368 10.7346277 16777215
 1.1954173 -1.5550826 10.7827301 16777215
 1.1918286 -1.5397239 10.8404331 16777215
 1.1888808 -1.5264151 10.8833914 16777215
 1.1844249 -1.5183601 10.9113445 16777215
 1.1750586 -1.5029938 10.9639874 16777215
 1.1690361 -1.4923632 11.0164003 16777215
 1.1585946 -1.4767439 11.0586786 16777215
 1.1578414 -1.4669101 11.0877590 16777215
 1.1508653 -1.4545233 11.1286325 16777215
 1.1392895 -1.4408948 11.1726475 16777215
 1.1312274 -1.4258242 11.2063646 16777215
 1.1242882 -1.4129560 11.2440128 16777215
 1.1101581 -1.4037459 11.2821074 16777215
 1.1035630 -1.3952219 11.3136330 16777215
 1.0979283 -1.3752639 11.3562889 16777215
 1.0927794 -1.3592265 11.3991671 16777215
 1.0902497 -1.3528979 11.4318476 16777215
 1.0873946 -1.3345144 11.4697428 16777215
 1.0732889 -1.3021348 11.5130692 16777215
 1.0630597 -1.2831993 11.5743265 16777215
 1.0536077 -1.2748079 11.6110039 16777215
 1.0466613 -1.2564187 11.6551208 16777215
 1.0455142 -1.2309561 11.7185154 16777215
 1.0431212 -1.2212520 11.7518921 16777215
 1.0341760 -1.2039375 11.7944469 16777215
 1.0176883 -1.1735115 11.8494177 16777215
 1.0074559 -1.1579068 11.8759031 16777215
 0.9983728 -1.1458046 11.9121523 16777215
 0.9908980 -1.1309519 11.9495430 16777215
 0.9884739 -1.1139364 12.0027618 16777215
 0.9810581 -1.0975969 12.0462751 16777215
 0.9734273 -1.0808818 12.0779171 16777215
 0.9608184 -1.0500400 12.1214657 16777215
 0.9544470 -1.0324843 12.1536818 16777215
 0.9413149 -1.0228736 12.1869488 16777215
 0.9343756 -1.0088792 12.2141867 16777215
 0.9272966 -0.9805672 12.2563648 16777215
 0.9285063 -0.9613540 12.2908230 16777215
 0.9167071 -0.9543221 12.3225651 16777215
 0.9034107 -0.9388239 12.3525591 16777215
 0.8948574 -0.9192593 12.3847446 16777215
 0.8814624 -0.9050436 12.4167395 16777215
 0.8721530 -0.8929341 12.4399033 16777215
 0.8612664 -0.8745637 12.4803200 16777215
 0.8536060 -0.8538899 12.5091457 16777215
 0.8506359 -0.8327203 12.5447178 16777215
 0.8432794 -0.8171781 12.5788031 16777215
 0.8357769 -0.8006566 12.6042166 16777215
 0.8237734 -0.7740593 12.6367903 16777215
 0.8152881 -0.7581732 12.6605482 16777215
 0.8010907 -0.7473266 12.6877995 16777215
 0.7910969 -0.7290323 12.7171268 16777215
 0.7805793 -0.7069488 12.7501268 16777215
 0.7789173 -0.6881214 12.7712564 16777215
 0.7710789 -0.6792897 12.7967548 16777215
 0.7622359 -0.6626089 12.8242416 16777215
 0.7509224 -0.6333559 12.8598013 16777215
 0.7434722 -0.6192869 12.8828583 16777215
 0.7326696 -0.6073818 12.9019585 16777215
 0.7236688 -0.5855200 12.9278698 16777215
 0.7151806 -0.5648417 12.9587402 16777215
 0.7113679 -0.5512457 12.9767733 16777215
 0.7039382 -0.5342443 12.9954348 16777215
 0.6932390 -0.5102440 13.0183353 16777215
 0.6849095 -0.4986563 13.0327425 16777215
 0.6732564 -0.4889774 13.0470810 16777215
 0.6671093 -0.4791963 13.0572968 16777215
 0.6618915 -0.4614681 13.0779581 16777215
 0.6620572 -0.4502268 13.0950871 16777215
 0.6610387 -0.4435523 13.1057510 16777215
 0.6558238 -0.4366601 13.1204529 16777215
 0.6493705 -0.4244218 13.1328259 16777215
 0.6432836 -0.4142380 13.1457348 16777215
 0.6384463 -0.4086262 13.1494961 16777215
 0.6301790 -0.4038572 13.1575413 16777215
 0.6284781 -0.4014958 13.1615887 16777215
 0.6281002 -0.3994882 13.1645489 16777215
