# .PCD v.7 - Point Cloud Data file format
VERSION .7
FIELDS x y z rgb
SIZE 4 4 4 4
TYPE F F F F
COUNT 1 1 1 1
WIDTH 1193
HEIGHT 1
VIEWPOINT 0 0 0 1 0 0 0
POINTS 1193
DATA ascii
0.6514059 -1.6607894 8.7604971 16711746
0.1538244 -1.5947777 8.7743387 16711746
1.3173629 -1.5829489 9.5209675 16711746
1.1267489 -1.6379223 8.5441828 16711746
1.1381131 -1.6762843 8.5833340 16711746
1.3374037 -1.6339768 8.8971205 16711746
1.1519568 -1.6711934 8.9868612 16711746
1.3583486 -1.6335634 9.0959444 16711746
0.9648404 -1.6392506 8.8258505 16711746
1.4519336 -1.6500335 8.9201212 16711746
1.3975753 -1.6674604 8.9204960 16711746
1.5442053 -1.5867184 10.0307131 16711746
1.4801972 -1.5845424 9.3471727 16711746
1.0510852 -1.5290760 9.5981655 16711746
1.2182238 -1.5974871 9.2639322 16711746
1.2023259 -1.5600586 9.5836620 16711746
1.6364727 -1.6227012 9.0740166 16711746
1.5011765 -1.6390395 8.8952360 16711746
1.3814584 -1.6598723 8.8534184 16711746
1.2875304 -1.6330659 8.9623566 16711746
1.9209691 -1.5458807 9.9113207 16711746
1.3461235 -1.6194005 9.0668468 16711746
1.2635498 -1.5458323 10.2361317 16711746
1.2297552 -1.6116580 9.3148308 16711746
1.4354036 -1.6405355 9.9006405 16711746
1.2690719 -1.5992135 9.4524441 16711746
1.2009343 -1.5517942 9.7619181 16711746
0.5820745 -1.4552935 9.6490059 16711746
0.9161022 -1.6390340 8.6332102 16711746
1.1626202 -1.6104305 9.1774645 16711746
0.8171982 -1.6383054 8.6534414 16711746
1.3194700 -1.6232556 9.3106079 16711746
1.3571471 -1.5822618 9.5133543 16711746
1.5989707 -1.6146096 9.1905794 16711746
1.2633035 -1.6345363 8.9771805 16711746
0.6192573 -1.5752709 9.1578789 16711746
0.8453702 -1.4494040 9.9629765 16711746
1.6217974 -1.6152822 9.1077471 16711746
1.1769582 -1.6567175 8.6927385 16711746
1.3048426 -1.6366221 8.8661528 16711746
1.3601773 -1.6260363 9.1577892 16711746
1.1458664 -1.6111732 9.3231792 16711746
1.5494679 -1.6249781 9.0598726 16711746
1.5249218 -1.6175822 9.1713333 16711746
1.2821563 -1.6124809 9.2558527 16711746
1.4676410 -1.6415826 8.8538656 16711746
1.7322319 -1.7580444 9.6329813 16711746
1.2766056 -1.6422269 8.9605284 16711746
1.3612132 -1.5980198 9.2912607 16711746
2.0867596 -1.5384367 9.8762274 16711746
1.3380227 -1.6257145 9.1160936 16711746
1.4440545 -1.6475881 8.8454113 16711746
1.7820425 -1.6247979 9.2499399 16711746
1.6697108 -1.6204102 9.0489101 16711746
1.4556943 -1.6386603 9.0518084 16711746
0.7182313 -1.6593403 8.6516876 16711746
0.2477331 -1.5276054 9.2064171 16711746
1.1778977 -1.6240917 8.8625202 16711746
1.2734340 -1.6250292 8.9005632 16711746
1.4006917 -1.6468482 8.8870316 16711746
1.4433205 -1.6452881 8.9603777 16711746
1.6008170 -1.6313401 8.9716311 16711746
1.2350943 -1.6357992 8.9381113 16711746
1.6650920 -1.6190212 9.0434046 16711746
1.1799976 -1.6266880 8.8611803 16711746
0.8422254 -1.6256689 8.6953297 16711746
1.7371206 -1.6080124 9.0351248 16711746
0.2483444 -1.5294825 9.2012920 16711746
1.3335772 -1.6395162 9.1377668 16711746
0.6272857 -1.6638614 8.9412060 16711746
1.5281951 -1.6106870 9.1871557 16711746
0.8491238 -1.6060598 8.8477392 16711746
0.9079112 -1.6181470 8.8840036 16711746
1.5498210 -1.6133424 9.1487551 16711746
1.1640266 -1.6035707 9.3313761 16711746
1.5254501 -1.6170423 9.1805763 16711746
1.4421656 -1.5681498 9.2889509 16711746
1.5244569 -1.6013507 9.3311567 16711746
0.8055107 -1.6180031 8.9607611 16711746
1.0048778 -1.6148207 9.0150499 16711746
1.2906147 -1.6407008 8.8479605 16711746
1.7202954 -1.6333809 9.0089073 16711746
1.4440846 -1.6406435 8.9645605 16711746
1.3842275 -1.6402302 8.9856625 16711746
1.1619117 -1.6595024 8.7255220 16711746
1.2102638 -1.6381820 8.9794760 16711746
1.2745582 -1.6406543 9.1457815 16711746
1.1778601 -1.6610976 8.9144459 16711746
0.9177764 -1.6157848 8.7626934 16711746
1.4749447 -1.6283385 9.2098846 16711746
0.5556549 -1.6146176 8.7879877 16711746
1.4728767 -1.6076050 9.2361622 16711746
1.1893938 -1.6323199 9.1002092 16711746
1.5860499 -1.6266754 9.1143427 16711746
0.9498842 -1.5964196 9.0632610 16711746
1.7341268 -1.6061428 9.3394985 16711746
1.7326685 -1.6069320 9.3384590 16711746
1.2953615 -1.6390092 8.9641762 16711746
0.9430881 -1.6184406 8.8394232 16711746
0.9456931 -1.6353885 8.7033005 16711746
1.4523495 -1.5591655 9.8967447 16711746
1.1723294 -1.5158157 9.7833948 16711746
0.8555377 -1.5765754 9.2061462 16711746
1.5744040 -1.5475380 9.7092123 16711746
0.9428886 -1.6185297 8.8402624 16711746
0.4618023 -1.6357435 8.8943024 16711746
1.2613423 -1.5889479 9.4613256 16711746
1.4497519 -1.6199341 9.1806707 16711746
1.1301472 -1.6225696 9.2241850 16711746
0.9103817 -1.5946178 9.1338654 16711746
1.5118480 -1.5591763 9.5168877 16711746
1.9366800 -1.6610966 9.9800272 16711746
0.9274125 -1.6141973 9.0150337 16711746
1.5003262 -1.6160017 9.2083855 16711746
1.4941036 -1.6244720 9.0971012 16711746
1.3863220 -1.5697601 9.2816725 16711746
1.2458738 -1.6016908 9.3975010 16711746
1.2898182 -1.6249945 9.1802778 16711746
0.8753017 -1.4812980 9.7528477 16711746
0.8271351 -1.6144639 8.9111700 16711746
1.4804391 -1.6338663 8.9726114 16711746
1.2827625 -1.6089078 9.2007017 16711746
1.3882422 -1.6413006 9.0544281 16711746
1.4618614 -1.6150508 9.2766218 16711746
1.4431713 -1.6394293 9.1085482 16711746
1.2192357 -1.6168692 9.2706709 16711746
1.2231872 -1.5947320 9.3880434 16711746
1.1466225 -1.6071107 9.3122540 16711746
0.8544289 -1.6166273 9.0134001 16711746
1.8930062 -1.5736880 9.8387690 16711746
1.5480570 -1.6198829 9.0549202 16711746
1.3463848 -1.6487073 9.0212107 16711746
1.3110100 -1.6386225 9.0308924 16711746
-0.4669368 -1.4547726 9.7428865 16711746
1.5749950 -1.5456699 9.7113953 16711746
1.3181541 -1.6362869 8.9217739 16711746
1.1099708 -1.6053276 8.7944460 16711746
1.1333046 -1.6264342 8.8692293 16711746
1.4534342 -1.6410708 9.0962400 16711746
2.2299337 -1.5185838 10.0107956 16711746
1.9205297 -1.5458224 9.9066277 16711746
1.1082985 -1.6042649 8.7934589 16711746
0.7451071 -1.6356467 8.9458351 16711746
1.3264312 -1.6827865 8.9879484 16711746
1.1991744 -1.6462017 9.0887022 16711746
1.4669909 -1.6415652 8.9533110 16711746
1.1505132 -1.6439167 8.9482031 16711746
1.0354486 -1.6335205 8.8771172 16711746
0.9775199 -1.6300347 9.0767355 16711746
1.1504754 -1.6394666 8.9450293 16711746
0.8915298 -1.6212668 8.8994884 16711746
1.2104803 -1.6381767 8.9782743 16711746
0.9461957 -1.6190193 8.9830484 16711746
1.1460210 -1.6415836 8.9495335 16711746
1.3772926 -1.6240880 9.1378822 16711746
1.7585746 -1.6144267 9.3738346 16711746
1.2587763 -1.6655443 9.0767527 16711746
1.1299579 -1.5765040 9.5122576 16711746
1.2398981 -1.6198285 9.2800312 16711746
1.4662585 -1.5992813 9.3318281 16711746
1.4698142 -1.4785523 10.1076260 16711746
1.2179043 -1.6219893 9.2533178 16711746
0.7240335 -1.6237904 8.9506407 16711746
1.5438740 -1.5875618 9.4220438 16711746
1.1097273 -1.5930600 9.3383007 16711746
1.5885317 -1.6225079 9.0629435 16711746
1.3091012 -1.5019158 10.0115557 16711746
0.2839156 -1.5004152 9.3803101 16711746
1.4756793 -1.6130766 9.2304964 16711746
1.2378036 -1.6223959 9.2269573 16711746
1.2067326 -1.6076846 9.3355064 16711746
1.4367228 -1.6368617 8.9951468 16711746
1.2156250 -1.6181271 9.1839848 16711746
1.4946686 -1.6165003 9.1311607 16711746
1.7687571 -1.6488730 9.0313978 16711746
1.3231988 -1.6231682 9.2406921 16711746
1.4965128 -1.6322033 8.9271612 16711746
1.5342675 -1.6163161 9.1115255 16711746
1.7576809 -1.6081928 9.3725615 16711746
0.7998503 -1.6119454 9.0806026 16711746
1.3800495 -1.6348261 9.1292124 16711746
1.3180395 -1.5799396 9.5236378 16711746
1.5551895 -1.6265099 9.0652533 16711746
1.4870993 -1.6234105 9.1665287 16711746
0.8360406 -1.6067218 9.9345675 16711746
0.6351126 -1.5979542 9.1557636 16711746
1.0663617 -1.5559047 9.5423412 16711746
1.1507136 -1.6454755 8.9453783 16711746
1.3797063 -1.6374992 8.9873304 16711746
1.5537938 -1.6259527 9.0645466 16711746
1.3795302 -1.6174415 9.1479454 16711746
1.4702960 -1.6134282 9.2280521 16711746
1.5805254 -1.6279320 9.1240559 16711746
1.3941019 -1.6255752 9.2193727 16711746
1.0482268 -1.5828832 9.3494749 16711746
1.6286751 -1.6216825 9.0528374 16711746
1.4295481 -1.6305459 9.0243921 16711746
1.3611397 -1.6170257 9.2903242 16711746
1.6348701 -1.6156394 9.2161064 16711746
0.9029409 -1.5096009 9.8266077 16711746
1.7634633 -1.5944819 9.5069923 16711746
0.9442632 -1.5371414 9.5900955 16711746
1.4715140 -1.6234268 9.1960907 16711746
1.3141448 -1.6196382 9.2201242 16711746
1.2418066 -1.6427583 9.0939159 16711746
0.9262506 -1.6158487 8.9752245 16711746
2.1546457 -1.4942801 9.9852638 16711746
1.1363568 -1.6250712 8.9538040 16711746
1.8276860 -1.5929463 9.5125570 16711746
1.7317654 -1.5972415 9.5202532 16711746
1.2630638 -1.6399887 9.1153975 16711746
1.4831930 -1.6294214 9.1616678 16711746
1.3585491 -1.5764980 9.5262108 16711746
1.1606516 -1.6080018 8.8702459 16711746
1.3181194 -1.6263767 8.9261913 16711746
1.1428413 -1.6331674 8.9481077 16711746
0.9927472 -1.5220464 9.5718880 16711746
1.5593456 -1.6066555 9.2163372 16711746
1.0938989 -1.6091119 9.2847261 16711746
0.8505942 -1.6120527 9.9026051 16711746
1.6197330 -1.6276839 9.1123161 16711746
1.5808100 -1.6164684 9.1326561 16711746
1.3397663 -1.6311529 9.2009535 16711746
1.5194836 -1.5267389 9.7058487 16711746
1.2386285 -1.6452115 9.0010328 16711746
1.6329197 -1.6234189 9.2081566 16711746
1.3962158 -1.6389912 9.0351038 16711746
1.1062945 -1.6635969 9.1790552 16711746
1.5388125 -1.6114749 9.1472950 16711746
1.5323555 -1.6140475 9.3509779 16711746
1.7748100 -1.6003442 9.3808784 16711746
1.5579185 -1.5984040 9.2639027 16711746
1.4453647 -1.6238801 9.1497326 16711746
1.2208418 -1.6285423 9.1622410 16711746
1.1717731 -1.6202297 9.2431393 16711746
1.1407053 -1.6244593 9.1684055 16711746
1.3108096 -1.5378065 9.7034874 16711746
1.2223396 -1.6300167 9.1606398 16711746
1.1339099 -1.6314436 9.1946983 16711746
1.2964251 -1.6302819 9.2407093 16711746
1.5020045 -1.5027785 9.8704233 16711746
1.7066238 -1.4872680 10.1256123 16711746
1.1456742 -1.6059495 9.3118315 16711746
1.1475300 -1.6368971 9.1239300 16711746
1.2505337 -1.6417868 9.0349245 16711746
1.8892777 -1.6226459 9.3790188 16711746
1.3763453 -1.6072344 9.3252230 16711746
1.0911434 -1.6182902 9.1821051 16711746
0.5965326 -1.5613056 9.8478022 16711746
1.4952881 -1.5834581 9.4621334 16711746
1.8191316 -1.7092711 9.6750078 16711746
1.0473787 -1.5334934 9.8659992 16711746
1.0445217 -1.6407861 8.8770046 16711746
1.3026041 -1.6266011 9.1446571 16711746
1.4873592 -1.5947310 9.3148823 16711746
1.3651818 -1.6426495 9.1035652 16711746
1.4558566 -1.6302844 9.1054573 16711746
0.9980267 -1.5974922 10.0179720 16711746
1.1532818 -1.5925934 9.4000559 16711746
1.5752453 -1.6073800 9.4800711 16711746
1.3637602 -1.5939106 9.4646006 16711746
1.1317058 -1.6086732 9.1808882 16711746
1.5691984 -1.6163607 9.1761322 16711746
1.4860637 -1.6246426 9.1667767 16711746
1.2577909 -1.6499909 9.0936270 16711746
0.6924444 -1.6457707 8.9811068 16711746
1.7143691 -1.6056728 9.2217045 16711746
1.1771256 -1.5972040 9.4282713 16711746
1.4244357 -1.6254746 9.1755543 16711746
1.0865402 -1.5098010 9.7498007 16711746
1.2431875 -1.6491594 9.0335007 16711746
1.2895631 -1.6422476 9.0987110 16711746
1.3621086 -1.5855905 9.4738722 16711746
1.5700352 -1.5999480 9.4881239 16711746
1.2541144 -1.6432595 9.1005526 16711746
1.5795944 -1.5904528 9.2839537 16711746
1.5902420 -1.6177697 9.1538887 16711746
1.3282290 -1.6303699 9.2419710 16711746
0.8496848 -1.6069062 9.0267382 16711746
1.5437973 -1.6389331 9.0474453 16711746
1.5483433 -1.6457609 9.4057741 16711746
1.3198725 -1.6071455 9.2796698 16711746
1.5739164 -1.6201595 9.2651386 16711746
1.5520993 -1.6123029 9.2985668 16711746
1.2772913 -1.5380019 9.4323397 16711746
1.3625491 -1.6311401 9.1539125 16711746
1.2166706 -1.6536208 8.9910707 16711746
0.9485070 -1.6457804 8.8585300 16711746
1.0761098 -1.5651369 9.8229771 16711746
1.1866506 -1.6092513 9.3120632 16711746
1.1747710 -1.5952698 9.4389601 16711746
0.9913499 -1.6147968 9.0416899 16711746
1.2835902 -1.6324377 9.2768688 16711746
1.1611140 -1.5861087 9.4932966 16711746
1.7431186 -1.6015270 9.4822454 16711746
1.3427086 -1.6393300 8.9663219 16711746
1.5187194 -1.6010281 9.3119783 16711746
1.2467741 -1.6039342 9.3963547 16711746
1.1807417 -1.6069916 9.3606863 16711746
1.5775892 -1.6050272 9.2200098 16711746
1.3800789 -1.6308340 9.1336184 16711746
1.2900254 -1.6279188 9.0441895 16711746
1.2722872 -1.6204771 9.0369806 16711746
1.1847150 -1.6320041 8.9704924 16711746
1.6979339 -1.4944913 10.5442486 16711746
1.2104256 -1.6281791 9.1703768 16711746
1.2386612 -1.6432265 9.0374031 16711746
1.1234558 -1.1554315 11.2460566 16711746
1.6440618 -1.5019120 10.2010765 16711746
1.3232349 -1.6318991 9.1257524 16711746
1.2016779 -1.6133231 9.3347740 16711746
1.1474594 -1.6370363 9.1255102 16711746
1.2135055 -1.6405623 8.9741049 16711746
1.2078618 -1.6081021 9.1967678 16711746
0.7808095 -1.4985540 9.6397228 16711746
0.6851356 -1.4011129 9.9698343 16711746
1.4470778 -1.6198803 9.1528387 16711746
1.3294698 -1.6268936 9.2518549 16711746
1.7695754 -1.6054958 9.3725491 16711746
1.3177601 -1.6133202 9.2490892 16711746
1.3660029 -1.6408956 9.1072121 16711746
0.9735500 -1.6334392 8.9696636 16711746
1.4721414 -1.6065086 9.2509241 16711746
1.1256588 -1.6008295 10.2751312 16711746
1.0446721 -1.5712476 9.3663044 16711746
1.1785096 -1.6084532 9.3561792 16711746
0.8913060 -1.5037585 9.6838942 16711746
1.2334898 -1.6120346 9.3636589 16711746
1.1302993 -1.6244154 9.2253609 16711746
1.7341936 -1.5913574 9.5283022 16711746
1.1916200 -1.6241932 9.1355829 16711746
1.3064601 -1.6296864 9.1436033 16711746
1.5840513 -1.6068722 9.3342876 16711746
1.2214606 -1.6186579 9.2668076 16711746
0.9206454 -1.5379401 9.4776545 16711746
1.3584388 -1.5767366 9.5287180 16711746
1.0167953 -1.4898241 9.9503660 16711746
0.8801939 -1.4946961 9.5202713 16711746
1.2725403 -1.6258830 9.2573977 16711746
0.8622804 -1.5321380 9.5189056 16711746
1.0203520 -1.6012824 9.2139626 16711746
1.4434930 -1.6263152 9.2191420 16711746
1.3855948 -1.6330529 9.1069155 16711746
1.4220110 -1.6219444 9.1773396 16711746
1.2539372 -1.6514417 9.0300741 16711746
1.1422300 -1.6260355 9.1668777 16711746
1.1480854 -1.5090644 9.7779818 16711746
1.7665985 -1.5966671 9.4753008 16711746
1.4237030 -1.5670377 9.5779619 16711746
1.2192214 -1.6573119 9.0181007 16711746
1.5852513 -1.6025536 9.1426125 16711746
1.0133379 -1.6074975 9.2454138 16711746
1.3845251 -1.6289222 9.1091213 16711746
1.2867247 -1.6306081 9.1870594 16711746
1.4422354 -1.6235409 9.1469746 16711746
1.5463588 -1.5921769 9.4159622 16711746
1.5205386 -1.6135461 9.2922525 16711746
1.2875266 -1.6351911 9.1837044 16711746
1.3214248 -1.6404877 9.1173563 16711746
0.8660020 -1.5416359 9.5069275 16711746
1.0663078 -1.5865078 9.2110710 16711746
0.6860265 -1.3188715 9.9301319 16711746
1.1167389 -1.6259165 9.2068758 16711746
0.9306084 -1.6807007 8.8948832 16711746
1.3603112 -1.6346154 9.1011715 16711746
1.0726148 -1.5799001 9.8133583 16711746
1.6292834 -1.5389247 9.8244581 16711746
1.1517005 -1.5479369 9.4977961 16711746
1.3640690 -1.6749277 9.0711308 16711746
1.5110095 -1.6001884 9.1684475 16711746
1.5062995 -1.6131654 9.2150221 16711746
0.9932513 -1.5255893 9.3143969 16711746
1.1901684 -1.5842267 9.3168030 16711746
1.0244071 -1.4753432 10.4031706 16711746
0.8543708 -1.6277795 8.9084291 16711746
1.0542942 -1.5870655 9.3451071 16711746
1.1574440 -1.6518315 10.0979443 16711746
1.5599362 -1.5970776 9.2505198 16711746
1.2730604 -1.6228553 9.3133974 16711746
1.3137944 -1.6295465 9.2335052 16711746
1.0650237 -1.5990564 9.2880783 16711746
1.1535486 -1.5948700 9.3941507 16711746
0.8562049 -1.5590014 9.3890162 16711746
1.3168514 -1.6205058 9.2947550 16711746
0.7814277 -1.4987196 9.6442680 16711746
1.1455979 -1.5764289 9.4757566 16711746
1.2176999 -1.6495421 9.0182343 16711746
1.4397683 -1.6196119 9.2218943 16711746
1.2115855 -1.5525998 9.5946045 16711746
1.3861169 -1.6191275 9.3397350 16711746
1.5544369 -1.5926822 9.3343353 16711746
0.8636425 -1.5264263 9.5243807 16711746
1.0964866 -1.6140919 9.1262102 16711746
1.3938706 -1.6266452 9.1534863 16711746
1.5733752 -1.6054440 9.3227997 16711746
1.4472284 -1.6142429 9.2876120 16711746
1.4507371 -1.6128060 9.3313837 16711746
1.4938787 -1.6083447 9.2854433 16711746
1.2116539 -1.5602958 9.5429554 16711746
1.2094772 -1.6222709 9.3274527 16711746
1.2369007 -1.6455715 8.9975739 16711746
1.2368059 -1.6391698 9.1186924 16711746
1.4709933 -1.6006627 9.2568207 16711746
1.4412755 -1.6109211 9.2290230 16711746
1.3930742 -1.6635391 9.1894922 16711746
1.1069783 -1.6234868 9.1371393 16711746
1.1401209 -1.6231035 9.1685276 16711746
0.6846907 -1.5649306 9.3723698 16711746
1.5298198 -1.5985790 9.3932991 16711746
1.7696481 -1.6020180 9.3778744 16711746
1.3875530 -1.6227407 9.3377056 16711746
1.3857411 -1.6277988 9.1999187 16711746
0.7321693 -1.4729899 9.7749901 16711746
1.5394771 -1.4640660 10.3787270 16711746
1.5312046 -1.5821651 9.4763298 16711746
1.3855344 -1.6358616 9.1052160 16711746
1.6253635 -1.6121327 9.4484768 16711746
1.3919888 -1.6122805 9.3504114 16711746
1.2731434 -1.6588097 9.1061563 16711746
1.3345759 -1.6253200 9.3092299 16711746
1.4689513 -1.6005925 9.2565022 16711746
1.3287311 -1.5726439 9.5705004 16711746
1.8257289 -1.5908928 9.4266596 16711746
1.4543433 -1.5994380 9.4736996 16711746
1.3639714 -1.5869590 9.4742823 16711746
1.3792866 -1.6398277 9.1768246 16711746
1.0160990 -1.6191715 9.2043200 16711746
1.4642369 -1.6164845 9.2454596 16711746
1.2836250 -1.6315098 9.4045753 16711746
1.2124377 -1.5574843 9.5484285 16711746
1.3649663 -1.5925536 9.4236174 16711746
0.9851566 -1.5503823 9.5204086 16711746
0.7386217 -1.4722873 9.7759857 16711746
1.2288576 -1.6035099 9.4889746 16711746
1.3785192 -1.6254723 9.1877308 16711746
1.3625082 -1.6204410 9.1582193 16711746
1.1325060 -1.6404110 9.1075382 16711746
1.2122405 -1.6319250 9.1698837 16711746
1.6419247 -1.5928059 9.2595749 16711746
1.2719781 -1.6569918 9.1084785 16711746
1.4983232 -1.6051284 9.3614664 16711746
1.5521187 -1.6118377 9.2487602 16711746
0.8950912 -1.5823120 9.3715487 16711746
1.3493905 -1.6469046 9.1793470 16711746
1.3387773 -1.6296492 9.2164440 16711746
1.2890434 -1.6074431 9.3818989 16711746
1.1560527 -1.6295511 9.1824112 16711746
1.2498100 -1.6134228 9.3942022 16711746
1.1829365 -1.5417694 9.6469126 16711746
1.3626548 -1.6368823 9.1402864 16711746
0.9923356 -1.5213020 9.5748110 16711746
1.2145374 -1.6207575 9.3096991 16711746
1.6331165 -1.6012313 9.5078764 16711746
1.5376676 -1.4715921 10.3580017 16711746
1.3713222 -1.6200103 9.1907654 16711746
1.1802005 -1.6084557 9.3557129 16711746
1.5507096 -1.3781613 10.5959520 16711746
1.3928392 -1.6301109 9.1525211 16711746
0.7780610 -1.6550933 8.9463186 16711746
1.1824374 -1.6435580 9.0812187 16711746
1.4062581 -1.6135076 9.2763519 16711746
0.9005319 -1.4906064 9.6652899 16711746
1.0399581 -1.5208257 9.8936644 16711746
0.3858440 -1.3900701 10.0396614 16711746
1.3354889 -1.5392293 9.7197218 16711746
1.2175052 -1.6251831 9.2122641 16711746
1.1385359 -1.6316656 9.1964445 16711746
1.2013826 -1.5471172 9.6037397 16711746
1.2364905 -1.6441863 9.1740141 16711746
1.4533832 -1.6084654 9.3371944 16711746
1.2334750 -1.6197523 9.3086357 16711746
1.0189877 -1.5828820 9.6615839 16711746
1.2778435 -1.5939165 9.2077942 16711746
1.6886834 -1.5829232 9.6875715 16711746
1.4475071 -1.4924793 9.9321938 16711746
1.0695015 -1.5016484 10.5197296 16711746
1.6948183 -1.5700175 9.7133636 16711746
1.4187474 -1.5594300 9.5876150 16711746
0.5365144 -1.7089090 9.4855881 16711746
0.5614159 -1.4648170 9.7092686 16711746
0.8790123 -1.5388200 9.4727030 16711746
1.4270797 -1.6016854 9.3834352 16711746
1.1552900 -1.5944024 9.4992247 16711746
0.9643319 -1.6083775 9.1986666 16711746
1.4211198 -1.6154294 9.3117800 16711746
1.1410844 -1.6269842 9.1267691 16711746
0.9685916 -1.6010363 9.1608629 16711746
1.4952673 -1.6083533 9.2865639 16711746
0.7928420 -1.5215645 9.5218840 16711746
0.7880043 -1.5222330 9.5605812 16711746
0.6777092 -1.4349388 9.9678659 16711746
1.5757117 -1.5374702 9.7125340 16711746
1.5456932 -1.6095548 9.3272285 16711746
1.2202811 -1.6263776 9.2093573 16711746
1.4797833 -1.6098830 9.2992554 16711746
1.0034748 -1.6016710 9.2194166 16711746
0.9931092 -1.5993098 9.1560326 16711746
1.0201393 -1.5997344 9.2142906 16711746
1.2645394 -1.6113976 9.2690773 16711746
1.5632616 -1.5919467 9.2032509 16711746
1.1253129 -1.6107962 9.2961235 16711746
1.1415554 -1.6285272 9.1271610 16711746
1.3602296 -1.6286788 9.2839108 16711746
1.0938154 -1.5948889 9.3344173 16711746
1.3123732 -1.5361208 9.7065363 16711746
1.2848250 -1.6205899 9.1993370 16711746
1.5320193 -1.5772765 9.4835815 16711746
1.2999644 -1.6223305 9.3391209 16711746
0.8774958 -1.5374954 9.4749575 16711746
1.0526786 -1.4483491 10.0395117 16711746
0.8191285 -1.5413429 9.4321823 16711746
1.1018041 -1.6129588 9.1686964 16711746
1.2197428 -1.6281590 9.2084255 16711746
1.5289135 -1.5893707 9.4689007 16711746
0.7875478 -1.5009302 9.6375523 16711746
0.5731356 -1.4379146 9.9013290 16711746
0.3092976 -1.4247891 9.8115549 16711746
1.3319244 -1.5674241 9.5760098 16711746
0.3631225 -1.4838595 9.4679823 16711746
0.8915606 -1.6096047 9.2031918 16711746
0.9591053 -1.5614418 9.3847885 16711746
1.5224193 -1.5967401 9.3143024 16711746
0.9322216 -1.5848900 9.3123274 16711746
1.4717981 -1.6120170 9.3874035 16711746
1.0203381 -1.6023356 9.2065125 16711746
1.1624120 -1.6249280 9.1609259 16711746
1.5199307 -1.6072536 9.3040628 16711746
1.2001317 -1.6402725 9.1242895 16711746
1.1641805 -1.6291887 9.1582499 16711746
1.4853517 -1.6007655 9.3100691 16711746
1.3160766 -1.6263875 9.2927189 16711746
0.8614919 -1.5580812 9.3889542 16711746
1.5093855 -1.6118499 9.1865063 16711746
1.4532706 -1.5985174 9.4740582 16711746
1.0288379 -1.5455930 9.4814386 16711746
1.1983833 -1.6355041 9.1258316 16711746
1.4081274 -1.6200088 9.2477036 16711746
0.9566436 -1.5673513 9.1607981 16711746
1.6098255 -1.6128979 9.3297205 16711746
1.1377488 -1.6154832 9.1799259 16711746
1.1222955 -1.6271904 9.1110487 16711746
1.2406267 -1.6245002 9.2767630 16711746
1.0023752 -1.6064728 9.1361170 16711746
1.4202160 -1.5869722 9.4902563 16711746
1.2268581 -1.4442005 9.6471453 16711746
1.2250426 -1.5098051 9.6576290 16711746
1.2952204 -1.6399174 9.2320013 16711746
1.4720448 -1.6557211 9.2653046 16711746
1.0147561 -1.6209819 9.1330576 16711746
0.8538673 -1.5298405 9.5175238 16711746
1.3145683 -1.6181071 9.2976112 16711746
0.5496591 -1.4380476 9.8438396 16711746
1.6618874 -1.5437691 9.8110638 16711746
1.3348122 -1.5647712 9.5801744 16711746
1.4223287 -1.5017383 9.9528561 16711746
1.7448829 -1.6007348 9.4840565 16711746
1.6723037 -1.4149799 10.4136677 16711746
1.3040793 -1.4526902 10.1126413 16711746
1.3246670 -1.6348498 9.1589079 16711746
1.3772150 -1.6112204 9.3209896 16711746
1.1556809 -1.5959233 9.3965511 16711746
1.5263574 -1.6019756 9.3006382 16711746
1.5598950 -1.5949204 9.2650213 16711746
1.4528059 -1.6123238 9.3333235 16711746
0.8353934 -1.4393330 9.9703674 16711746
1.3234974 -1.6220441 9.3639507 16711746
1.1966969 -1.6407429 9.0953951 16711746
1.4208609 -1.5798928 9.4947681 16711746
1.0530955 -1.6035845 9.2452011 16711746
0.0829560 -1.3194588 9.9922256 16711746
1.6698956 -1.5980333 9.4178276 16711746
1.3714845 -1.6237381 9.2174206 16711746
1.4941833 -1.6101830 9.2839127 16711746
1.7073321 -1.4898866 10.1194592 16711746
1.2875566 -1.5042409 10.4896488 16711746
1.1791624 -1.4968568 9.9652538 16711746
0.7324916 -1.4857157 9.7136927 16711746
1.4285076 -1.5579683 10.3413887 16711746
1.2314311 -1.6237229 10.2206736 16711746
1.7625763 -1.6089214 9.4047785 16711746
1.2878791 -1.5148649 9.8279886 16711746
0.2767126 -1.4235725 9.8557720 16711746
1.5601108 -1.5026081 9.9627104 16711746
1.3153651 -1.5437049 9.6974211 16711746
1.3753587 -1.5226867 9.8314953 16711746
1.3722572 -1.6188974 9.1907444 16711746
1.2524124 -1.6216817 9.2979231 16711746
1.4992608 -1.5090899 9.8578196 16711746
1.4015142 -1.6174634 9.1917696 16711746
1.6667730 -1.6008254 9.4146900 16711746
1.3658346 -1.5862849 9.4743900 16711746
1.8181336 -1.6087469 9.5823202 16711746
1.1417030 -1.6156594 9.2630291 16711746
1.1606112 -1.6199248 9.1764736 16711746
1.6277372 -1.5997322 9.2850838 16711746
1.0786996 -1.6085370 9.2719040 16711746
1.2194065 -1.6287627 9.2472887 16711746
1.1326151 -1.6291270 9.2356911 16711746
1.2243791 -1.6100892 9.1944113 16711746
1.1771908 -1.6298691 9.2315140 16711746
1.4566402 -1.5077732 10.0359449 16711746
1.4234053 -1.6168920 9.3064814 16711746
1.2971054 -1.6267867 9.2437515 16711746
0.7444100 -1.5364794 9.5328445 16711746
1.2440796 -1.6331300 9.3504772 16711746
0.7570878 -1.4388146 9.8768206 16711746
1.5799490 -1.5374064 9.7183504 16711746
2.2384427 -1.5196228 10.0990648 16711746
1.6007116 -1.4900230 10.0157022 16711746
0.9494013 -1.5916554 9.1144333 16711746
1.1947916 -1.6346377 9.0969210 16711746
1.2121885 -1.5616170 9.5831947 16711746
1.0431018 -1.5649607 9.4404535 16711746
1.3138703 -1.6168430 9.2997017 16711746
1.3619686 -1.5883436 9.4431906 16711746
1.7345612 -1.6001705 9.5190544 16711746
0.8011466 -1.5252675 9.4466534 16711746
0.9483246 -1.5953107 9.1164179 16711746
1.2310485 -1.6193645 9.2332344 16711746
1.3392787 -1.6314601 9.2155333 16711746
1.1244925 -1.6178799 9.0968971 16711746
1.0140595 -1.6095093 9.2450438 16711746
1.0900604 -1.6144619 9.1430340 16711746
0.9079803 -1.5985637 9.2082357 16711746
1.3626289 -1.6217389 9.2407913 16711746
1.7277797 -1.6095062 9.3911352 16711746
1.0880824 -1.6094019 9.1464357 16711746
1.1988736 -1.5667418 9.5490961 16711746
1.3625131 -1.6251407 9.2389956 16711746
1.1706105 -1.5200369 9.7361498 16711746
1.3182067 -1.5448090 9.6688595 16711746
0.7784675 -1.4539222 9.8550615 16711746
1.3860583 -1.6201967 9.3395357 16711746
1.1808091 -1.5820415 9.4705181 16711746
0.6363077 -1.5747098 9.3817797 16711746
0.1392358 -1.4862028 9.5897226 16711746
1.6149338 -1.6096855 9.3144627 16711746
1.6524748 -1.5966204 9.3676529 16711746
1.1597151 -1.6184155 9.1599779 16711746
0.3361060 -1.5312803 9.3030090 16711746
1.1715643 -1.5276991 9.7221432 16711746
1.1725973 -1.5823421 9.5350227 16711746
0.9315693 -1.5297983 9.5563316 16711746
0.8376796 -1.5156975 9.5727062 16711746
0.6902733 -1.5387861 9.4844780 16711746
0.7403430 -1.5802161 9.2197123 16711746
0.6393397 -1.5752900 9.2621679 16711746
1.3371602 -1.6198027 9.2208405 16711746
1.0026052 -1.5292552 9.6950464 16711746
1.2876807 -1.2568550 10.8792295 16711746
1.4680187 -1.6087480 9.2509527 16711746
1.5499613 -1.3725703 10.6106319 16711746
1.3462594 -1.6233863 9.1915026 16711746
0.9683049 -1.4998015 10.3632183 16711746
1.4186832 -1.6190218 9.3338146 16711746
1.4162961 -1.6194255 9.3302507 16711746
1.0710193 -1.4243829 10.2409496 16711746
0.2542988 -1.5381333 9.1927948 16711746
1.2192147 -1.5985410 10.3226824 16711746
0.7332457 -1.5747081 9.2228565 16711746
0.8644704 -1.5959474 9.2307653 16711746
0.9984099 -1.5701820 9.3771172 16711746
1.3485304 -1.6330460 9.2886992 16711746
0.8471010 -1.5525751 9.4244022 16711746
1.4788971 -1.6109741 9.2995529 16711746
1.0035654 -1.5257807 9.6112061 16711746
0.8925620 -1.4775872 9.6810961 16711746
0.9205945 -1.6001660 9.1180420 16711746
1.2837123 -1.6062928 9.4034710 16711746
1.2767597 -1.6206409 9.3571272 16711746
0.9757057 -1.5794917 9.3422861 16711746
1.2447439 -1.6251167 9.1772985 16711746
1.3060087 -1.6166136 9.1744728 16711746
1.1019254 -1.6113490 9.1696348 16711746
1.7017938 -1.6124660 9.2908058 16711746
1.4082329 -1.6195407 9.2520208 16711746
1.4477332 -1.6129376 9.2876215 16711746
1.6515640 -1.5947415 9.5803633 16711746
1.1502128 -1.6270114 9.0925961 16711746
1.4955099 -1.6074687 9.2510042 16711746
1.2536321 -1.6243383 9.2960615 16711746
1.3651032 -1.6104938 9.4439974 16711746
1.2396437 -1.6183066 9.2350178 16711746
1.2402833 -1.6311923 9.2495422 16711746
1.0154227 -1.5868585 9.0906849 16711746
1.6025662 -1.6123655 9.3489971 16711746
1.1553801 -1.5715157 9.4969273 16711746
0.4355102 -1.5428615 9.4974995 16711746
1.3726034 -1.5841137 9.5789967 16711746
1.6120876 -1.6137668 9.3111629 16711746
0.8512910 -1.5559096 9.4236403 16711746
0.7989088 -1.5943061 9.1836462 16711746
1.1577017 -1.6168841 9.1761646 16711746
1.2310151 -1.6278871 9.1829233 16711746
0.9729491 -1.5948983 9.0939093 16711746
1.0653474 -1.5989807 9.2891169 16711746
1.1294006 -1.6226307 9.2253056 16711746
0.8747278 -1.6361201 9.0571241 16711746
1.7130897 -1.5955706 9.3022337 16711746
0.6034009 -1.5601515 9.2102394 16711746
1.6152617 -1.6028935 9.3169355 16711746
1.0286607 -1.5900929 9.0832520 16711746
1.2303814 -1.6272316 9.1829653 16711746
1.3646582 -1.6215273 9.2599440 16711746
0.9014964 -1.6005961 9.1992912 16711746
1.3879591 -1.5994585 9.4301929 16711746
1.1630342 -1.5387267 9.6519346 16711746
1.5275835 -1.6121376 9.3762007 16711746
1.0192231 -1.6129100 9.2456856 16711746
1.0772660 -1.6024580 9.1929636 16711746
1.1856539 -1.5907334 9.4291792 16711746
0.8409094 -1.6148059 9.0558367 16711746
0.7474518 -1.6100365 9.1071215 16711746
0.9722908 -1.5758290 9.3791733 16711746
1.3235739 -1.6095213 9.3793488 16711746
1.2524786 -1.6177644 9.3835526 16711746
1.4648620 -1.6141354 9.3190708 16711746
1.4121779 -1.6263931 9.2840090 16711746
1.0890220 -1.6122900 9.1427574 16711746
1.3547198 -1.6043369 9.3657198 16711746
1.6101477 -1.6084094 9.2944918 16711746
0.2827433 -1.5459962 9.5235806 16711746
0.3629363 -1.4871452 9.4648361 16711746
1.2626804 -1.6313779 9.2537680 16711746
1.1441745 -1.6301070 9.1292162 16711746
1.2957482 -1.6179506 9.3737497 16711746
1.6058671 -1.6147840 9.2906370 16711746
1.4490544 -1.6045817 9.4468985 16711746
1.5075831 -1.6152281 9.3235111 16711746
0.8421254 -1.6092937 9.1031971 16711746
0.5541875 -1.4387262 9.8419752 16711746
1.6394014 -1.5953617 9.5199480 16711746
1.3671014 -1.5841368 9.4764776 16711746
2.2054062 -1.5440897 9.9591084 16711746
1.2155160 -1.6186284 9.2781572 16711746
1.3729188 -1.4238725 10.2299023 16711746
0.7907176 -1.5032777 9.6367216 16711746
1.1619904 -1.6229045 9.1599026 16711746
1.5142797 -1.6018779 9.3360252 16711746
1.2174275 -1.5695168 9.5331984 16711746
1.2365463 -1.6281704 9.2281694 16711746
0.7601837 -1.5670778 9.4734879 16711746
1.4485419 -1.5518820 9.6623001 16711746
1.1827983 -1.6124430 9.3536425 16711746
1.3634806 -1.6239461 9.2395077 16711746
1.7225082 -1.6142131 9.3829927 16711746
1.0228546 -1.6056985 9.2045345 16711746
1.2973858 -1.6324937 9.2404509 16711746
1.3026427 -1.4618651 10.0957193 16711746
1.1171842 -1.4606208 9.9870825 16711746
0.9966655 -1.6023346 9.2884998 16711746
0.9860170 -1.6054658 9.1647654 16711746
1.7298843 -1.6017376 9.5159197 16711746
1.5323889 -1.4578750 10.4001169 16711746
1.3162971 -1.6541846 9.3971987 16711746
1.1337595 -1.6465324 9.2566252 16711746
1.5139358 -1.6143360 9.2652617 16711746
1.2166640 -1.6176468 9.2160416 16711746
1.3681401 -1.4695311 10.1439505 16711746
1.2548281 -1.4674120 10.0701876 16711746
1.3705982 -1.6183316 9.2214012 16711746
1.8214158 -1.5927272 9.6495008 16711746
1.3465593 -1.4874886 9.9483299 16711746
1.2785223 -1.5223591 9.8148623 16711746
0.9827082 -1.5786458 9.3508301 16711746
1.1639229 -1.5880364 9.4938469 16711746
0.5610336 -1.4648238 9.7118597 16711746
1.2181249 -1.6253669 9.2116528 16711746
1.5393790 -1.3937356 10.5529737 16711746
0.3324407 -1.3688619 10.0873995 16711746
1.1480389 -1.5865098 9.4951057 16711746
1.2777538 -1.4816967 9.9597301 16711746
1.1688643 -1.4638548 10.0050154 16711746
1.3146595 -1.6230768 9.2151299 16711746
1.2618961 -1.6266679 9.2573862 16711746
1.2131851 -1.5837471 9.4824858 16711746
1.2336513 -1.6108135 9.3633337 16711746
1.1250273 -1.6159260 9.1448069 16711746
1.2547988 -1.5568011 9.6195173 16711746
0.9896204 -1.5938100 9.1314125 16711746
1.0292561 -1.5592670 9.4233580 16711746
1.0944928 -1.5655915 9.4876041 16711746
0.8709060 -1.5690987 9.3727551 16711746
1.5843959 -1.5619624 9.6554899 16711746
1.2976661 -1.6263084 9.2440147 16711746
1.0896519 -1.6037984 9.1266336 16711746
1.2166446 -1.6197664 9.3113298 16711746
1.5215130 -1.5968478 9.2951784 16711746
1.5490228 -1.6060296 9.3561020 16711746
1.6225748 -1.6139588 9.4458208 16711746
1.5340192 -1.6024599 9.4078493 16711746
1.3361315 -1.5724777 9.5954714 16711746
1.1185040 -1.6274099 9.2246704 16711746
1.3212687 -1.6003356 9.4008398 16711746
1.2502754 -1.5575856 9.5953569 16711746
0.9867902 -1.5152477 9.5822639 16711746
0.3587310 -1.4768004 9.4781008 16711746
1.4504353 -1.5485883 9.6625404 16711746
1.2455562 -1.6260531 9.1768732 16711746
1.0565287 -1.5876389 9.3364220 16711746
1.3622535 -1.5856892 9.4699192 16711746
1.0947990 -1.6122053 9.2680712 16711746
1.2437204 -1.6221352 9.2803936 16711746
1.4961047 -1.6055034 9.3700409 16711746
1.2776086 -1.5763448 9.5254412 16711746
0.3558442 -1.4784108 9.4723082 16711746
0.6573446 -1.5864464 9.2560053 16711746
0.5384920 -1.3642200 10.1707478 16711746
1.2470462 -1.5205638 9.7656708 16711746
1.2919009 -1.5888975 9.4843044 16711746
1.1012224 -1.6118090 9.1692009 16711746
1.0072284 -1.5920410 9.0136814 16711746
1.8879403 -1.6123708 9.6139975 16711746
1.5847166 -1.5602900 9.6045017 16711746
1.5526173 -1.5377320 9.6769791 16711746
0.7320864 -1.4735398 9.7774324 16711746
1.5416601 -1.6090184 9.3677273 16711746
1.0299778 -1.5675232 9.4171972 16711746
0.9667403 -1.5687325 9.3767176 16711746
1.3769453 -1.6175632 9.2992010 16711746
0.7220827 -1.5225797 9.5505314 16711746
1.6258562 -1.6172245 9.4918976 16711746
1.1396856 -1.6254523 9.1767540 16711746
1.1065283 -1.5495288 9.6941490 16711746
0.8760734 -1.5362853 9.4762039 16711746
1.1845053 -1.6135974 9.2107887 16711746
1.1748043 -1.5941890 9.4274960 16711746
1.2636721 -1.5145537 9.7374401 16711746
1.3498526 -1.6090560 9.3777294 16711746
0.3469990 -1.6012719 9.8631401 16711746
1.0506316 -1.5029258 9.7686815 16711746
1.1792647 -1.6304071 9.2286901 16711746
1.4952545 -1.6053464 9.3611002 16711746
0.8205972 -1.5925344 9.1023006 16711746
0.3297765 -1.4375830 9.7986393 16711746
0.5733167 -1.4443556 9.8931808 16711746
0.3926075 -1.5095229 9.9438057 16711746
1.0129516 -1.5858259 9.3266487 16711746
1.4716295 -1.6278518 9.3429232 16711746
1.2421911 -1.5108824 9.7717514 16711746
1.5844399 -1.5522578 9.7116547 16711746
0.6373028 -1.4384661 10.0616655 16711746
0.3897989 -1.5091431 9.4575205 16711746
0.5697317 -1.4282315 9.9171371 16711746
1.2488306 -1.6110088 9.3866119 16711746
1.6373937 -1.6033119 9.5120592 16711746
1.2244849 -1.5305408 9.6779299 16711746
1.3728749 -1.6186926 9.2194624 16711746
0.9221862 -1.5204608 9.5945730 16711746
1.0287701 -1.5643225 9.4198818 16711746
1.2170595 -1.5637221 9.5808868 16711746
1.4631584 -1.5598756 9.5569468 16711746
1.2618039 -1.4218669 10.2159576 16711746
0.9368845 -1.5884061 9.3107672 16711746
0.0314622 -1.3386235 10.0507698 16711746
1.7032255 -1.5888340 9.7141809 16711746
0.8755926 -1.5096759 9.5936804 16711746
1.0548457 -1.5885952 9.3496027 16711746
1.5790805 -1.5468378 9.7104435 16711746
0.8103448 -1.5828513 9.1073561 16711746
0.9316770 -1.5296284 9.5354815 16711746
1.2370032 -1.6140615 9.3139973 16711746
1.1502674 -1.6176724 9.3055801 16711746
1.1677709 -1.5487441 9.6451473 16711746
0.8179876 -1.4478686 10.6219902 16711746
0.9795704 -1.5394990 9.5183868 16711746
0.3992626 -1.3558718 10.3541441 16711746
1.7267832 -1.6064100 9.5679989 16711746
1.0952477 -1.6138948 9.2674398 16711746
0.9442455 -1.6031990 9.1603079 16711746
1.4155596 -1.4650557 10.0705767 16711746
1.4693320 -1.5544505 9.6266317 16711746
1.3006136 -1.6160930 9.2899542 16711746
0.6772160 -1.5920563 9.3111906 16711746
1.3032005 -1.6282339 9.2820654 16711746
0.8146135 -1.4824166 9.7388115 16711746
1.1553046 -1.5249950 9.8082781 16711746
0.8522157 -1.5591419 9.5016193 16711746
1.0009359 -1.4495938 10.1764851 16711746
1.1900283 -1.6157792 9.2540274 16711746
0.8737369 -1.5897666 9.2075729 16711746
1.1602635 -1.6172820 9.1586962 16711746
1.1155289 -1.6185862 9.2500143 16711746
1.2159139 -1.5714669 9.5279779 16711746
0.9085259 -1.5099516 9.5832958 16711746
0.5673531 -1.5402050 9.9122629 16711746
1.3333143 -1.5675892 9.5853586 16711746
0.9859467 -1.5899020 9.1326466 16711746
1.3590745 -1.5738564 9.5326252 16711746
1.0292603 -1.5642016 9.4204035 16711746
-0.1008656 -1.3277975 10.1133432 16711746
1.7269520 -1.5902278 9.6709776 16711746
1.2361474 -1.5589100 9.5879984 16711746
0.9825671 -1.4321972 10.2146912 16711746
0.8869976 -1.5850859 9.2041359 16711746
1.5392958 -1.5675185 9.5167475 16711746
1.7715839 -1.6099679 9.5025177 16711746
1.4560229 -1.4801394 9.9563808 16711746
1.3739549 -1.5225941 9.8319397 16711746
1.3087380 -1.6041752 9.4019346 16711746
1.3396678 -1.5539776 9.7039919 16711746
0.9978935 -1.5743895 9.2530031 16711746
1.3313953 -1.5844566 9.4999113 16711746
1.2742512 -1.5714951 9.5270119 16711746
0.9946302 -1.5158886 9.6434469 16711746
1.2074386 -1.6194549 9.2757072 16711746
1.1421607 -1.6020094 9.3518009 16711746
1.4682717 -1.5652003 9.5530081 16711746
1.3030276 -1.5888114 9.4828911 16711746
-0.1020415 -1.3999207 10.2314568 16711746
0.0293368 -1.3364508 10.2694569 16711746
1.8088176 -1.6029534 9.6339121 16711746
0.6210185 -1.4238515 10.0688190 16711746
0.7714022 -1.5989220 9.2111950 16711746
1.7503580 -1.6133608 9.4310608 16711746
1.2513781 -1.5317675 9.7478676 16711746
1.1775196 -1.5777204 9.4732580 16711746
1.0989372 -1.5641453 9.6930857 16711746
0.8276744 -1.6106683 9.1830969 16711746
1.4401900 -1.5536085 9.6334133 16711746
1.4489322 -1.5542244 9.6585865 16711746
1.3677274 -1.5540226 9.6369829 16711746
1.3876537 -1.5822697 9.4550533 16711746
1.1647037 -1.5168902 9.7374249 16711746
1.2098336 -1.5777098 9.4876146 16711746
0.2165989 -1.5176785 9.5486927 16711746
1.1386014 -1.6335100 9.2373838 16711746
1.1486207 -1.6150072 9.2905178 16711746
1.1521453 -1.5445988 9.4890871 16711746
0.2130035 -1.5183210 9.5483398 16711746
1.1210685 -1.6291922 9.2241859 16711746
1.3243349 -1.6021705 9.3989620 16711746
1.0936495 -1.6091079 9.2693033 16711746
1.1300987 -1.4588556 10.0036535 16711746
1.0356693 -1.5921634 9.3345900 16711746
1.1570799 -1.5951315 9.4978981 16711746
0.8702199 -1.5283539 9.5240374 16711746
1.3343012 -1.5653797 9.5871210 16711746
0.6836703 -1.5354851 9.4857111 16711746
0.1958095 -1.3745708 10.0136671 16711746
1.6689903 -1.5384471 9.8196383 16711746
1.3679758 -1.5543188 9.6363335 16711746
1.4687889 -1.5679804 9.5500879 16711746
0.9462814 -1.5544364 9.4188910 16711746
1.1204143 -1.5798333 9.4668226 16711746
1.2241644 -1.5290551 9.6780396 16711746
1.3142067 -1.5431277 9.6989546 16711746
0.5715752 -1.5515931 9.3258743 16711746
0.9292752 -1.6131959 9.1279955 16711746
1.0663152 -1.6083391 9.1579266 16711746
1.2486922 -1.6332883 9.2831392 16711746
1.2432393 -1.5865467 9.4474220 16711746
1.2051181 -1.6163353 9.3305168 16711746
0.7126977 -1.5415417 9.5025721 16711746
0.4136432 -1.3875772 9.9662352 16711746
1.3189080 -1.6290904 9.5535345 16711746
1.2243278 -1.5914980 9.3832655 16711746
0.9239048 -1.5045812 9.6702185 16711746
0.2129185 -1.3899314 9.9042730 16711746
1.2834188 -1.6313267 9.2886696 16711746
1.1635768 -1.5397434 9.6500835 16711746
1.5370100 -1.3967510 10.3946075 16711746
1.1673490 -1.6200607 9.3499212 16711746
1.0416650 -1.5942566 9.3609056 16711746
1.4397496 -1.5536127 9.6349125 16711746
1.2615921 -1.6203372 9.3170776 16711746
1.4029870 -1.5331743 9.7938414 16711746
0.1977269 -1.3800561 9.9100294 16711746
1.7073470 -1.4912437 10.1239471 16711746
1.2988367 -1.4678990 10.0142860 16711746
0.7840807 -1.4681455 9.7453442 16711746
1.2635127 -1.5094373 9.8137465 16711746
0.2394972 -1.4938384 9.4719763 16711746
0.4248764 -1.3359673 10.3605165 16711746
1.3977190 -1.4913187 9.9258165 16711746
1.3030859 -1.4557856 10.0983677 16711746
1.0898662 -1.6121087 9.1834087 16711746
1.4279543 -1.5600933 9.7334700 16711746
1.0897777 -1.6136383 9.1832390 16711746
0.9670188 -1.5697743 9.3765345 16711746
1.0027571 -1.6054841 9.1353550 16711746
-0.9054850 -1.1143951 10.8152437 16711746
1.0065843 -1.5266260 9.6295433 16711746
1.4282482 -1.5595318 9.7308197 16711746
1.3927886 -1.6064657 9.3773069 16711746
0.8644875 -1.4742380 9.7634773 16711746
1.2829324 -1.5842611 9.4949932 16711746
1.4048452 -1.5704806 9.5512056 16711746
-0.6760421 -1.2142469 10.6560316 16711746
1.1449273 -1.4855754 9.7832212 16711746
1.0040503 -1.6182828 9.1888809 16711746
1.1719577 -1.5913289 9.4390383 16711746
1.2239609 -1.5806148 9.4754343 16711746
1.2199603 -1.5488480 9.5963745 16711746
1.3688968 -1.5756645 9.4823065 16711746
1.3564358 -1.5806659 9.5165796 16711746
0.8209276 -1.5255032 9.5356054 16711746
1.6756616 -1.4105242 10.4128742 16711746
1.1718490 -1.4590259 10.0112448 16711746
0.7685784 -1.5113045 9.5957212 16711746
1.1683592 -1.5855237 9.4425802 16711746
0.5164526 -1.5272988 9.3863544 16711746
0.5832734 -1.4399474 9.9024000 16711746
1.5032068 -1.5010730 9.9804058 16711746
1.1885270 -1.6143581 9.2540665 16711746
1.0274945 -1.6101300 9.2044296 16711746
1.0727310 -1.6131299 9.1616039 16711746
1.0482606 -1.5780659 9.3439779 16711746
1.1996849 -1.6129203 9.3348274 16711746
1.1643996 -1.5016440 9.8047428 16711746
1.1591115 -1.6059098 9.3455114 16711746
1.4260770 -1.4933162 9.9773741 16711746
1.1488707 -1.5815903 9.4717178 16711746
1.3891451 -1.4885601 9.9377251 16711746
1.3185943 -1.6012138 9.3831911 16711746
0.8645929 -1.5297513 9.4794178 16711746
0.8983885 -1.5642017 9.4739294 16711746
1.2642632 -1.5639782 9.6000795 16711746
0.8393867 -1.5578266 9.4197798 16711746
1.3000420 -1.4694357 10.0134754 16711746
1.1154189 -1.6183214 9.2500534 16711746
0.9339700 -1.5850955 9.3109322 16711746
1.3675153 -1.5597390 9.6298218 16711746
1.3516461 -1.5881839 9.3699474 16711746
0.8846067 -1.4359623 10.0552769 16711746
1.1872801 -1.6296033 9.2230330 16711746
1.0587097 -1.5937812 9.3475952 16711746
0.8634462 -1.5652897 9.3874664 16711746
1.4468305 -1.5859239 9.4042902 16711746
1.0612658 -1.5983032 9.1768618 16711746
1.2052176 -1.6167723 9.2820292 16711746
1.0383537 -1.5746570 9.3391228 16711746
1.5817966 -1.5392127 9.7188797 16711746
0.7489918 -1.5624113 9.4193296 16711746
1.2485788 -1.5194082 9.7609148 16711746
0.9977501 -1.5407844 9.5098114 16711746
1.2147408 -1.6315053 9.3024349 16711746
1.1315588 -1.6147125 9.2994461 16711746
1.2077259 -1.6147354 9.3195353 16711746
1.3530492 -1.6075978 9.3640261 16711746
0.6519772 -1.5453315 9.3821449 16711746
1.3447973 -1.5862540 9.5278053 16711746
0.9811139 -1.5289105 9.5216742 16711746
1.3954240 -1.5853691 9.7241640 16711746
1.3301295 -1.5770062 9.5052023 16711746
1.0187958 -1.6025505 9.2042313 16711746
1.2070607 -1.6190301 9.3854370 16711746
1.1738477 -1.5178243 9.7805347 16711746
1.7292453 -1.4919610 10.0884790 16711746
1.3640125 -1.5884563 9.4423141 16711746
-0.0742053 -1.3358731 10.1415739 16711746
1.3595862 -1.5782601 9.5269775 16711746
0.9868471 -1.5981909 9.2595549 16711746
0.9257085 -1.5294603 9.5170918 16711746
1.1987346 -1.5203484 9.7699003 16711746
0.1442414 -1.4320083 9.9965248 16711746
1.1034365 -1.5935683 10.2123423 16711746
0.9070625 -1.5082551 9.5858660 16711746
0.9224741 -1.5412298 9.4753437 16711746
1.2462314 -1.5873777 9.4666758 16711746
1.2049940 -1.5844419 9.4970207 16711746
1.1668929 -1.6196632 9.2826939 16711746
1.3800917 -1.5260687 9.8247557 16711746
1.2093568 -1.5696468 9.5436125 16711746
1.0912365 -1.5965639 9.1693974 16711746
1.4686416 -1.5425076 9.6450148 16711746
1.1244909 -1.6183801 9.2258606 16711746
1.3334863 -1.5841399 9.5094070 16711746
1.3431860 -1.5803621 9.5371103 16711746
0.6516039 -1.3939339 9.9350834 16711746
1.0874887 -1.4704911 9.8780556 16711746
0.7116456 -1.6139686 9.2531776 16711746
0.7776023 -1.5663272 9.3551807 16711746
1.1251200 -1.5719415 9.4489517 16711746
1.1228850 -1.5843234 9.4632044 16711746
1.3547258 -1.5805756 9.4998817 16711746
1.2884587 -1.5652671 9.5874462 16711746
0.5860068 -1.5645634 9.3701897 16711746
1.0268167 -1.6092869 9.2045650 16711746
1.0710799 -1.6016755 9.2728109 16711746
1.2690798 -1.5173254 9.8181734 16711746
1.1757137 -1.5252613 9.7098980 16711746
1.3164568 -1.5951128 9.4318142 16711746
1.1497682 -1.6181973 9.2392988 16711746
0.7315649 -1.5531898 9.4232216 16711746
1.1511492 -1.5651550 9.5791569 16711746
1.3236138 -1.5833459 9.4661341 16711746
1.0770583 -1.6068053 9.2711258 16711746
1.1461046 -1.6132503 9.3142576 16711746
1.3658081 -1.5743536 9.4819241 16711746
1.3634925 -1.5875340 9.4425344 16711746
0.8774387 -1.4820293 9.7542725 16711746
1.0026507 -1.5237358 9.6327372 16711746
0.9944667 -1.5373225 9.5149775 16711746
1.1453600 -1.6126552 9.2408495 16711746
1.1128739 -1.6149035 9.2020035 16711746
1.3178157 -1.5473349 9.6959419 16711746
1.3413167 -1.5931225 9.4683971 16711746
1.2254260 -1.5852399 9.4753599 16711746
1.0502617 -1.6502299 9.1419392 16711746
1.6406941 -1.5224124 9.8469744 16711746
1.0892738 -1.6111498 9.2114992 16711746
1.0869559 -1.5921786 9.4252825 16711746
1.2744972 -1.5681139 9.3905392 16711746
1.3185415 -1.5959259 9.3865414 16711746
1.4231548 -1.5585476 9.5091763 16711746
1.1473066 -1.5654107 9.5862007 16711746
1.0956935 -1.4998308 9.6953115 16711746
0.9474469 -1.5761945 9.5384693 16711746
0.5859845 -1.4487391 9.8917217 16711746
0.8424250 -1.5158614 9.4818563 16711746
0.8914276 -1.3833014 10.0471306 16711746
1.4299953 -1.5552089 9.5873718 16711746
1.2800719 -1.5482024 9.4891071 16711746
1.3586503 -1.5759453 9.5323286 16711746
0.8738792 -1.6106888 9.1978369 16711746
1.1987807 -1.5091456 9.7319508 16711746
1.3409817 -1.5317805 9.7401972 16711746
1.4987606 -1.5164802 9.8545017 16711746
1.2537192 -1.5050973 9.8568192 16711746
1.1764187 -1.6003129 9.3730097 16711746
0.3867410 -1.4100631 10.2114182 16711746
1.3165027 -1.3974998 10.2945042 16711746
1.0343324 -1.5932922 9.3353500 16711746
1.5558523 -1.3466663 10.6613493 16711746
0.8710182 -1.5927066 9.2601376 16711746
1.2769094 -1.5748961 9.5245457 16711746
1.3077583 -1.6027231 9.4048586 16711746
0.5708934 -1.3855107 10.1355896 16711746
0.9378648 -1.5547057 9.4245195 16711746
1.0447984 -1.5652316 9.4412746 16711746
1.2845806 -1.6112772 9.3706398 16711746
0.8344080 -1.6164581 9.1824732 16711746
1.4087272 -1.5628201 9.5121222 16711746
1.0200024 -1.4049011 10.2192841 16711746
1.1427159 -1.5290426 9.6637487 16711746
0.0971389 -1.5179873 9.3079672 16711746
0.6673714 -1.3036489 11.0208883 16711746
1.3016497 -1.3766109 10.3911047 16711746
0.5398113 -1.2468021 10.9908524 16711746
1.0574266 -1.3379534 10.4994307 16711746
1.3066505 -1.4453140 10.1231833 16711746
0.5608255 -1.4636816 9.7162504 16711746
1.0532202 -1.6339601 9.1232224 16711746
1.0314351 -1.5316137 9.5650892 16711746
1.3834887 -1.2958527 11.1065521 16711746
1.3333492 -1.3950830 10.3051538 16711746
1.3406868 -1.5242923 9.7819080 16711746
1.2577447 -1.4301373 10.7167940 16711746
1.1424960 -1.1709169 11.2077837 16711746
1.2158159 -1.5624679 9.5921459 16711746
1.1136272 -1.5128169 9.7581797 16711746
1.1124910 -1.4406960 10.0782623 16711746
0.8784473 -1.4880756 9.7115507 16711746
0.9425293 -1.5400735 9.5198269 16711746
1.2362666 -1.6013367 9.3839970 16711746
1.2935357 -1.5939106 9.4815598 16711746
0.7717505 -1.5107226 9.5962830 16711746
1.3952981 -1.5798962 9.4543781 16711746
1.4525355 -1.5468527 9.6635027 16711746
0.9610088 -1.5142707 9.6177263 16711746
-0.5381886 -1.3302889 10.0544777 16711746
1.2431982 -1.5321968 9.6759882 16711746
1.3949550 -1.4847455 9.9365005 16711746
1.3191297 -1.5510982 9.6626482 16711746
1.4282948 -1.5630755 9.7303925 16711746
1.2899663 -1.5160978 9.8297396 16711746
1.0030892 -1.5949681 9.2959862 16711746
1.0836563 -1.6058520 9.2645445 16711746
1.2615139 -1.5446613 9.6438770 16711746
-0.0851357 -1.3339994 10.1459188 16711746
1.2364182 -1.6137981 9.3618126 16711746
1.1363876 -1.5789449 9.5025835 16711746
1.0202230 -1.6015117 9.2534943 16711746
0.8932675 -1.6018457 9.2247343 16711746
1.2780669 -1.5732358 9.5223503 16711746
0.8841128 -1.5173790 9.5926247 16711746
1.3546525 -1.5649763 9.5748577 16711746
1.1162444 -1.5834818 9.4079256 16711746
1.3929522 -1.5785097 9.4542370 16711746
0.9684890 -1.5249200 9.5837536 16711746
1.1434141 -1.6096922 9.3161411 16711746
1.1158632 -1.6201137 9.2495680 16711746
1.0136323 -1.5448486 9.4906502 16711746
1.4943746 -1.5634508 9.4787598 16711746
1.3949900 -1.5983286 9.4438410 16711746
1.8001084 -1.5563679 9.7315350 16711746
1.5421164 -1.5352058 9.6073313 16711746
-0.3711398 -1.2385113 10.3395414 16711746
1.3633813 -1.5807376 9.4467316 16711746
1.0227801 -1.5504419 9.4873838 16711746
1.1798812 -1.5812446 9.5271349 16711746
0.6421773 -1.6070980 9.4059296 16711746
