# .PCD v.7 - Point Cloud Data file format
VERSION .7
FIELDS x y z rgb
SIZE 4 4 4 4
TYPE F F F F
COUNT 1 1 1 1
WIDTH 280
HEIGHT 1
VIEWPOINT 0 0 0 1 0 0 0
POINTS 280
DATA ascii

 0.0000000 0.0000000 0.0000000 16777215
 0.0100038 0.0004640 0.0837094 16777215
 0.0148004 -0.0008118 0.0940595 16777215
 0.0188923 -0.0054164 0.1062375 16777215
 0.0262822 -0.0100643 0.1196700 16777215
 0.0345158 -0.0166211 0.1373831 16777215
 0.0367498 -0.0207402 0.1568987 16777215
 0.0445424 -0.0266930 0.1811864 16777215
 0.0534555 -0.0323053 0.2197106 16777215
 0.0715766 -0.0384108 0.2558109 16777215
 0.0819584 -0.0558469 0.2946400 16777215
 0.0954986 -0.0692519 0.3291242 16777215
 0.1101090 -0.0785803 0.3788160 16777215
 0.1294386 -0.0908298 0.4172232 16777215
 0.1410947 -0.1019828 0.4499070 16777215
 0.1587801 -0.1167589 0.4938651 16777215
 0.1752755 -0.1309078 0.5580187 16777215
 0.1903464 -0.1434168 0.6134424 16777215
 0.1953049 -0.1512833 0.6627277 16777215
 0.2058449 -0.1640195 0.7262155 16777215
 0.2179454 -0.1734310 0.7975770 16777215
 0.2181824 -0.1840332 0.8558139 16777215
 0.2266109 -0.1952646 0.9099065 16777215
 0.2395222 -0.2102420 0.9737662 16777215
 0.2521653 -0.2150522 1.0205139 16777215
 0.2705017 -0.2209119 1.0634367 16777215
 0.2848039 -0.2360274 1.1089784 16777215
 0.2954759 -0.2487280 1.1705805 16777215
 0.3037155 -0.2548386 1.2284749 16777215
 0.3268023 -0.2782022 1.2805507 16777215
 0.3347312 -0.2925707 1.3222394 16777215
 0.3451011 -0.3049709 1.3700788 16777215
 0.3589962 -0.3156525 1.4299231 16777215
 0.3786850 -0.3315384 1.4927011 16777215
 0.3863106 -0.3384641 1.5311844 16777215
 0.3942307 -0.3519514 1.5724965 16777215
 0.4081135 -0.3576194 1.6349031 16777215
 0.4187561 -0.3665174 1.6881508 16777215
 0.4472112 -0.3837699 1.7529647 16777215
 0.4592744 -0.4059730 1.8132681 16777215
 0.4642445 -0.4127486 1.8657887 16777215
 0.4663434 -0.4166263 1.9340174 16777215
 0.4818159 -0.4264865 1.9955651 16777215
 0.4946744 -0.4348502 2.0363815 16777215
 0.5123406 -0.4549822 2.1124146 16777215
 0.5242888 -0.4609547 2.1753950 16777215
 0.5378306 -0.4671671 2.2244835 16777215
 0.5553408 -0.4793486 2.2663460 16777215
 0.5618579 -0.4865840 2.2980118 16777215
 0.5724904 -0.4893636 2.3350945 16777215
 0.5762018 -0.4970329 2.3979449 16777215
 0.5843161 -0.5129584 2.4567330 16777215
 0.5774125 -0.5198929 2.4831023 16777215
 0.5941244 -0.5342163 2.5323713 16777215
 0.5968063 -0.5444184 2.5881720 16777215
 0.6075978 -0.5506492 2.6338749 16777215
 0.6337807 -0.5679001 2.6901958 16777215
 0.6405460 -0.5809811 2.7334871 16777215
 0.6487576 -0.5852536 2.7812088 16777215
 0.6533786 -0.5895761 2.8243051 16777215
 0.6568840 -0.5907645 2.8746610 16777215
 0.6676379 -0.6055005 2.9207485 16777215
 0.6728324 -0.6161788 2.9688449 16777215
 0.6858525 -0.6240635 3.0310719 16777215
 0.7034858 -0.6342812 3.0895584 16777215
 0.7176206 -0.6443315 3.1386344 16777215
 0.7260064 -0.6560072 3.1816342 16777215
 0.7307804 -0.6587728 3.2253056 16777215
 0.7413588 -0.6589874 3.2879171 16777215
 0.7438116 -0.6721271 3.3406429 16777215
 0.7550334 -0.6844527 3.3918395 16777215
 0.7541190 -0.6874056 3.4197783 16777215
 0.7653510 -0.6853823 3.4797401 16777215
 0.7772530 -0.6925329 3.5385993 16777215
 0.7831869 -0.7017019 3.5738552 16777215
 0.7896315 -0.7115570 3.6085663 16777215
 0.8020772 -0.7148663 3.6788929 16777215
 0.8077477 -0.7182748 3.7261994 16777215
 0.8074681 -0.7215244 3.7647026 16777215
 0.8150319 -0.7371868 3.8130689 16777215
 0.8300136 -0.7490699 3.8810434 16777215
 0.8420820 -0.7512392 3.9377804 16777215
 0.8595831 -0.7635073 3.9891653 16777215
 0.8655527 -0.7750896 4.0344453 16777215
 0.8700765 -0.7790297 4.0910954 16777215
 0.8796287 -0.7845079 4.1523514 16777215
 0.8839384 -0.7988495 4.2106161 16777215
 0.8849475 -0.8091920 4.2609172 16777215
 0.8908043 -0.8146108 4.3063498 16777215
 0.8934825 -0.8151073 4.3463535 16777215
 0.9111723 -0.8293450 4.3957410 16777215
 0.9145517 -0.8411734 4.4304719 16777215
 0.9169110 -0.8436733 4.4675636 16777215
 0.9182676 -0.8480015 4.5392065 16777215
 0.9149485 -0.8536583 4.5748420 16777215
 0.9326844 -0.8772168 4.6319771 16777215
 0.9379255 -0.8817912 4.6803880 16777215
 0.9457490 -0.8845866 4.7209902 16777215
 0.9578275 -0.8961354 4.7788105 16777215
 0.9638344 -0.9019665 4.8123755 16777215
 0.9660656 -0.9085455 4.8631067 16777215
 0.9724680 -0.9132247 4.9077811 16777215
 0.9737309 -0.9194530 4.9489441 16777215
 0.9694432 -0.9323233 4.9958115 16777215
 0.9781036 -0.9453119 5.0391269 16777215
 0.9797693 -0.9520299 5.0913582 16777215
 0.9922264 -0.9520404 5.1576080 16777215
 0.9946835 -0.9560751 5.1906729 16777215
 0.9989837 -0.9639474 5.2278509 16777215
 1.0015113 -0.9698447 5.2786145 16777215
 1.0022125 -0.9732910 5.3334298 16777215
 1.0023012 -0.9909180 5.3890548 16777215
 1.0111187 -0.9998703 5.4247537 16777215
 1.0174179 -1.0066783 5.4878497 16777215
 1.0279322 -1.0116177 5.5417333 16777215
 1.0396447 -1.0197847 5.5924706 16777215
 1.0521667 -1.0244886 5.6371984 16777215
 1.0589745 -1.0258038 5.7084928 16777215
 1.0625517 -1.0299997 5.7393317 16777215
 1.0630769 -1.0322565 5.7839293 16777215
 1.0665128 -1.0489969 5.8376713 16777215
 1.0774531 -1.0464950 5.9049807 16777215
 1.1067020 -1.0547360 5.9805546 16777215
 1.0945590 -1.0526114 6.0308790 16777215
 1.0928286 -1.0571952 6.0848408 16777215
 1.0895611 -1.0594357 6.1413889 16777215
 1.0970182 -1.0606289 6.1850863 16777215
 1.1015110 -1.0736560 6.2317944 16777215
 1.1051546 -1.0727608 6.2718973 16777215
 1.1118795 -1.0754001 6.3130808 16777215
 1.1268158 -1.0828326 6.3614345 16777215
 1.1284531 -1.0899045 6.4030409 16777215
 1.1300544 -1.0937899 6.4277735 16777215
 1.1369402 -1.0984944 6.4827452 16777215
 1.1431158 -1.1014777 6.5415635 16777215
 1.1505313 -1.1138091 6.6001329 16777215
 1.1538758 -1.1218171 6.6586494 16777215
 1.1688477 -1.1298306 6.7423992 16777215
 1.1739054 -1.1399801 6.7992592 16777215
 1.1732432 -1.1400148 6.8468943 16777215
 1.1709532 -1.1409199 6.8879333 16777215
 1.1763823 -1.1446587 6.9354677 16777215
 1.1765645 -1.1540875 6.9699869 16777215
 1.1801906 -1.1620486 7.0027204 16777215
 1.1831137 -1.1647735 7.0376816 16777215
 1.1835943 -1.1623881 7.0852485 16777215
 1.2002274 -1.1690485 7.1285124 16777215
 1.2060232 -1.1737399 7.1497002 16777215
 1.2090666 -1.1861689 7.2068467 16777215
 1.2119478 -1.1909845 7.2480149 16777215
 1.2159780 -1.1942168 7.2973351 16777215
 1.2220192 -1.2034688 7.3504238 16777215
 1.2249675 -1.2063358 7.4074645 16777215
 1.2350338 -1.2169857 7.4650731 16777215
 1.2376735 -1.2259411 7.5046782 16777215
 1.2420278 -1.2247319 7.5549641 16777215
 1.2448356 -1.2217553 7.6093388 16777215
 1.2521346 -1.2262261 7.6633558 16777215
 1.2546729 -1.2364810 7.7235656 16777215
 1.2607137 -1.2396486 7.7870960 16777215
 1.2588315 -1.2364609 7.8389211 16777215
 1.2624122 -1.2454445 7.8944802 16777215
 1.2677652 -1.2494987 7.9294820 16777215
 1.2705284 -1.2542347 7.9686995 16777215
 1.2644564 -1.2551706 8.0053358 16777215
 1.2709960 -1.2677250 8.0779581 16777215
 1.2767467 -1.2746381 8.0995369 16777215
 1.2749574 -1.2757180 8.1322079 16777215
 1.2822888 -1.2773693 8.1868458 16777215
 1.2932205 -1.2845770 8.2512331 16777215
 1.2875242 -1.2966642 8.3033104 16777215
 1.2904148 -1.2976927 8.3444672 16777215
 1.2939062 -1.3001574 8.4145365 16777215
 1.2888033 -1.3064208 8.4702234 16777215
 1.2860441 -1.3089330 8.5282974 16777215
 1.2898021 -1.3097534 8.5653801 16777215
 1.3056986 -1.3159888 8.6186905 16777215
 1.3089645 -1.3163633 8.6581888 16777215
 1.3133211 -1.3222346 8.7131891 16777215
 1.3134208 -1.3177114 8.7798891 16777215
 1.3097188 -1.3207273 8.8160944 16777215
 1.3180192 -1.3319116 8.8658438 16777215
 1.3291993 -1.3361775 8.9211807 16777215
 1.3352982 -1.3343483 8.9687853 16777215
 1.3489237 -1.3455315 9.0385647 16777215
 1.3490071 -1.3498176 9.0713062 16777215
 1.3538303 -1.3511901 9.1091890 16777215
 1.3508024 -1.3511524 9.1517925 16777215
 1.3519566 -1.3522167 9.2146349 16777215
 1.3539613 -1.3649155 9.2594328 16777215
 1.3588649 -1.3700399 9.3033466 16777215
 1.3622770 -1.3715031 9.3411217 16777215
 1.3704150 -1.3727958 9.3835602 16777215
 1.3804779 -1.3886716 9.4376459 16777215
 1.3782730 -1.3882678 9.4952126 16777215
 1.3629384 -1.3898418 9.5662441 16777215
 1.3688819 -1.3975590 9.6177177 16777215
 1.3675497 -1.3985096 9.6745510 16777215
 1.3825874 -1.3967268 9.7500343 16777215
 1.3866434 -1.4066970 9.7962627 16777215
 1.3912113 -1.4084073 9.8437080 16777215
 1.3858621 -1.4054358 9.8867836 16777215
 1.4037018 -1.4057782 9.9481440 16777215
 1.3976181 -1.4121847 9.9972858 16777215
 1.4050102 -1.4187133 10.0480280 16777215
 1.4065881 -1.4167023 10.1185856 16777215
 1.4267848 -1.4175054 10.1725035 16777215
 1.4346776 -1.4283901 10.2226372 16777215
 1.4387922 -1.4322853 10.2734346 16777215
 1.4287789 -1.4281685 10.3171721 16777215
 1.4224007 -1.4289742 10.3718891 16777215
 1.4266713 -1.4371492 10.4196434 16777215
 1.4240520 -1.4444485 10.4542437 16777215
 1.4298096 -1.4438944 10.5038958 16777215
 1.4351208 -1.4493005 10.5569696 16777215
 1.4318407 -1.4510673 10.5833015 16777215
 1.4411061 -1.4571846 10.6233406 16777215
 1.4400098 -1.4587160 10.6643610 16777215
 1.4366922 -1.4548626 10.7236671 16777215
 1.4390140 -1.4709888 10.7894354 16777215
 1.4461098 -1.4751351 10.8462210 16777215
 1.4505954 -1.4708340 10.8896866 16777215
 1.4519625 -1.4759259 10.9357548 16777215
 1.4502909 -1.4786667 10.9603901 16777215
 1.4452405 -1.4815969 10.9991102 16777215
 1.4399881 -1.4802063 11.0320168 16777215
 1.4397101 -1.4833975 11.0892668 16777215
 1.4358807 -1.4918526 11.1408691 16777215
 1.4285009 -1.4924549 11.1825266 16777215
 1.4291632 -1.4913741 11.2304993 16777215
 1.4311557 -1.4945877 11.2859068 16777215
 1.4275322 -1.4953481 11.3367052 16777215
 1.4247491 -1.4939049 11.3853636 16777215
 1.4245591 -1.4904678 11.4134026 16777215
 1.4270003 -1.4938717 11.4618111 16777215
 1.4220946 -1.4970632 11.4943676 16777215
 1.4208031 -1.4996557 11.5394077 16777215
 1.4215741 -1.4965733 11.5907669 16777215
 1.4257298 -1.4904324 11.6411715 16777215
 1.4327257 -1.4990429 11.6879587 16777215
 1.4361918 -1.5048177 11.7346592 16777215
 1.4359443 -1.5025743 11.7861128 16777215
 1.4327486 -1.5064636 11.8460464 16777215
 1.4304452 -1.5144528 11.8910933 16777215
 1.4273317 -1.5200224 11.9368734 16777215
 1.4314933 -1.5153086 11.9824219 16777215
 1.4288096 -1.5204937 12.0114145 16777215
 1.4318709 -1.5282738 12.0556831 16777215
 1.4365985 -1.5287101 12.0729446 16777215
 1.4357960 -1.5284361 12.1096992 16777215
 1.4371200 -1.5334994 12.1597986 16777215
 1.4351554 -1.5387200 12.1958551 16777215
 1.4376607 -1.5444882 12.2481470 16777215
 1.4402237 -1.5448682 12.3028297 16777215
 1.4450264 -1.5540805 12.3423834 16777215
 1.4522195 -1.5605813 12.3798561 16777215
 1.4510882 -1.5574225 12.4076910 16777215
 1.4507785 -1.5528480 12.4612885 16777215
 1.4472101 -1.5598714 12.4921942 16777215
 1.4415715 -1.5604730 12.5239916 16777215
 1.4404461 -1.5631757 12.5505466 16777215
 1.4433136 -1.5606219 12.5913248 16777215
 1.4341807 -1.5642668 12.6340418 16777215
 1.4481399 -1.5690781 12.6795769 16777215
 1.4420981 -1.5655261 12.7133026 16777215
 1.4322472 -1.5640128 12.7547121 16777215
 1.4334455 -1.5611271 12.7948456 16777215
 1.4240484 -1.5660646 12.8283548 16777215
 1.4136481 -1.5638919 12.8709850 16777215
 1.4070721 -1.5575539 12.9066477 16777215
 1.4138093 -1.5610889 12.9604330 16777215
 1.4114702 -1.5602745 12.9962616 16777215
 1.3994360 -1.5583152 13.0226965 16777215
 1.3965673 -1.5533894 13.0414143 16777215
 1.3912852 -1.5501148 13.0623302 16777215
 1.3875544 -1.5522932 13.0796566 16777215
 1.3794234 -1.5520518 13.0909748 16777215
 1.3793268 -1.5491612 13.1056967 16777215
 1.3840981 -1.5481861 13.1198874 16777215
 1.3832960 -1.5491667 13.1223297 16777215
