# .PCD v.7 - Point Cloud Data file format
VERSION .7
FIELDS x y z rgb
SIZE 4 4 4 4
TYPE F F F F
COUNT 1 1 1 1
WIDTH 1191
HEIGHT 1
VIEWPOINT 0 0 0 1 0 0 0
POINTS 1191
DATA ascii
1.2530837 -1.3436188 8.8563128 16711746
1.2823677 -1.4205118 9.1911449 16711746
1.7521725 -1.2682083 8.8442211 16711746
1.0861412 -1.3137711 8.7010183 16711746
0.6976803 -1.4026809 9.1897526 16711746
1.9629276 -1.2200743 9.1343126 16711746
1.2238865 -1.3623916 9.0777397 16711746
1.2549430 -1.3138388 8.6603374 16711746
1.4068962 -1.3023357 8.7386551 16711746
1.6636965 -1.2839588 8.9703856 16711746
0.4538810 -1.7281220 10.3780375 16711746
0.0343973 -1.4310231 9.1386957 16711746
0.8097631 -1.4461743 9.5568027 16711746
1.0408480 -1.4600296 9.7410679 16711746
1.4198073 -1.4090588 9.5764170 16711746
1.1460159 -1.6653303 9.6136389 16711746
1.7378778 -1.3640313 9.4445372 16711746
1.7796550 -1.2779611 8.9238367 16711746
1.1499121 -1.3402498 8.7442474 16711746
1.1832358 -1.3378474 8.7895746 16711746
1.1391897 -1.3286135 8.7748985 16711746
1.3113693 -1.3393849 8.8066139 16711746
0.7327635 -1.4393629 9.7308149 16711746
1.2612140 -1.4379941 9.7585630 16711746
1.4153938 -1.4533614 9.9448080 16711746
1.6642190 -1.3976635 9.9058027 16711746
1.5413967 -1.4297360 9.9164629 16711746
1.2369128 -1.3935856 9.3332453 16711746
1.1730713 -1.4633533 9.9199734 16711746
0.6149226 -1.5818975 10.3294001 16711746
0.5340270 -1.5845087 10.5435829 16711746
1.3066380 -1.4468250 9.8096752 16711746
1.9027280 -1.4315165 9.6844988 16711746
1.5030079 -1.5514729 10.6686764 16711746
-0.0404614 -2.2200103 10.7725420 16711746
-0.2874196 -2.2496138 10.8672485 16711746
0.8675109 -1.3059080 8.3295135 16711746
-4.8839126 -2.9630306 11.2607336 16711746
0.5905799 -1.5329071 9.7826691 16711746
0.9653135 -1.3779106 9.1543121 16711746
1.3309833 -1.3766558 9.2210493 16711746
0.6001319 -1.5227393 9.7585192 16711746
1.1831816 -1.3359976 8.7955999 16711746
1.1825404 -1.3419785 8.8223162 16711746
1.3325150 -1.3516794 8.9480467 16711746
1.1425639 -1.4272532 9.8263054 16711746
0.9114724 -1.3598433 9.0924997 16711746
1.1380898 -1.3387796 8.8013096 16711746
1.0391861 -1.3526347 8.8190622 16711746
1.1950762 -1.3788363 9.1219540 16711746
0.9950363 -1.3384714 8.7739496 16711746
0.6121462 -1.4932464 9.6601067 16711746
1.1562622 -1.4230438 9.1812849 16711746
1.1332582 -1.4205538 9.8557167 16711746
1.7205400 -1.3459295 9.1575422 16711746
0.5533578 -1.4249274 9.1731958 16711746
0.4732129 -1.4402258 9.2846918 16711746
1.9463054 -1.4117817 9.6354876 16711746
0.9070922 -1.4059808 9.4026384 16711746
1.7896986 -1.4435096 10.1539764 16711746
1.9344876 -1.4213479 10.0402861 16711746
1.6861922 -1.2636853 8.8629265 16711746
1.1525210 -1.4385494 9.7091198 16711746
0.7342557 -1.4212335 9.3543339 16711746
0.7849719 -1.3901316 9.1161652 16711746
0.7418807 -1.3839614 9.0701265 16711746
1.0591694 -1.3892938 9.2366333 16711746
0.8382545 -1.4007295 9.2675257 16711746
1.2301372 -1.3666191 8.9630728 16711746
1.4000124 -1.3777134 9.2679119 16711746
1.1452492 -1.4318162 9.7862740 16711746
1.0723563 -1.3210522 8.6091623 16711746
1.7638658 -1.3360006 9.1978512 16711746
1.3265685 -1.4131050 9.5873413 16711746
1.5354019 -1.3390175 9.1222658 16711746
0.7430351 -1.4120957 9.2503939 16711746
1.2494097 -1.3311027 8.8066044 16711746
0.7622206 -1.3921368 9.1674814 16711746
1.8745289 -1.2611922 8.8746243 16711746
1.3272102 -1.4164382 9.5600967 16711746
2.0235281 -1.4788787 10.4862022 16711746
0.9071289 -1.4855328 9.8916931 16711746
0.8618519 -1.4259197 9.5068436 16711746
2.0765977 -1.2845142 9.1142101 16711746
1.6840745 -1.3130716 9.0555067 16711746
0.9933256 -1.3453968 8.8079376 16711746
0.7662005 -1.4123119 9.2756205 16711746
0.5638246 -1.6306338 9.8219843 16711746
0.5795742 -1.4285711 9.1469278 16711746
1.0846834 -1.3163059 8.5846472 16711746
0.6728997 -1.4014367 9.1341181 16711746
1.6955880 -1.3645309 9.7752943 16711746
0.9411616 -1.3703190 9.0545177 16711746
1.1122655 -1.3281530 8.6969614 16711746
1.3952172 -1.3346510 8.8838472 16711746
1.7538943 -1.3253651 9.1532850 16711746
1.7805254 -1.3939378 9.7576571 16711746
1.1520823 -1.3547056 8.9284945 16711746
1.9151005 -1.3378839 9.3071537 16711746
1.6177552 -1.2763898 8.8768148 16711746
0.8712969 -1.3562866 8.9068632 16711746
0.8371306 -1.3735110 9.0183096 16711746
0.9744295 -1.3793049 9.2307425 16711746
1.7738061 -1.3715525 9.4371910 16711746
1.6665291 -1.2810620 8.9055424 16711746
1.2918416 -1.3681022 9.1233473 16711746
1.2481624 -1.3294624 8.8106823 16711746
1.4299784 -1.3105993 8.8511963 16711746
1.3854747 -1.3498683 9.0024261 16711746
0.8036618 -1.4271935 9.3857136 16711746
1.7007382 -1.3252977 9.1749287 16711746
0.9596921 -1.3744922 9.1640625 16711746
1.6627001 -1.2839204 8.9014816 16711746
1.7743086 -1.3695257 9.4466038 16711746
1.2411550 -1.3852526 9.1986752 16711746
1.4979208 -1.3170265 8.9750586 16711746
0.7452257 -1.3857011 9.0638523 16711746
1.0002028 -1.3536608 8.9489899 16711746
1.2871013 -1.3639909 9.0326986 16711746
1.2099057 -1.3430094 8.8591728 16711746
0.4841861 -1.4507985 9.3312168 16711746
0.9189597 -1.3313522 8.7594166 16711746
1.0689251 -1.3330865 8.6992979 16711746
0.6921826 -1.6186532 10.4733257 16711746
0.7002341 -1.3917150 9.1627369 16711746
1.2484553 -1.3266920 8.7879353 16711746
1.2772734 -1.3845145 9.1927557 16711746
1.2400106 -1.3778440 8.9124022 16711746
1.3076338 -1.3444877 8.9547319 16711746
1.1633222 -1.3750294 9.1053057 16711746
0.8145307 -1.3604298 8.9067583 16711746
1.3255723 -1.3677907 9.0699692 16711746
1.2734767 -1.3444765 8.8699627 16711746
0.5120894 -1.4528607 9.3063393 16711746
1.7937306 -1.3244766 9.1321211 16711746
1.3963029 -1.3286629 8.9047070 16711746
1.3581880 -1.3379338 8.9116783 16711746
1.1461942 -1.3367642 8.8379974 16711746
1.0808239 -1.3797244 9.1329651 16711746
1.3243322 -1.3667502 9.0768518 16711746
0.7520534 -1.3959333 9.0565300 16711746
0.6126720 -1.4523206 9.2884769 16711746
1.0280221 -1.3679539 9.0333948 16711746
1.2883203 -1.3759186 9.0748844 16711746
1.3245136 -1.3313966 8.7666817 16711746
1.1866555 -1.3471558 8.8132048 16711746
0.8798093 -1.3730614 9.0776234 16711746
1.1480856 -1.3995554 8.9050398 16711746
1.7437263 -1.3620623 9.4533978 16711746
1.3022102 -1.3599346 9.0928984 16711746
1.3564565 -1.3506349 8.8419456 16711746
0.5662446 -1.4883239 9.6091413 16711746
0.7649442 -1.3981310 9.0480537 16711746
0.9330935 -1.3989722 9.4444952 16711746
1.7994287 -1.3239863 9.1334534 16711746
1.1398677 -1.3370800 8.8306065 16711746
0.5419601 -2.0293410 9.7888584 16711746
0.7100199 -1.3863342 9.1535349 16711746
1.5859230 -1.4661630 8.9356680 16711746
0.7834265 -1.5251328 9.3927555 16711746
0.5087421 -1.6951952 11.1256981 16711746
0.7176892 -1.4863513 9.7263727 16711746
1.4005474 -1.3829099 9.4444618 16711746
1.8033996 -1.3146594 9.0718966 16711746
1.3479811 -1.3707896 9.1651554 16711746
1.6189269 -1.3001463 8.9816046 16711746
2.0174043 -1.4341671 9.8417511 16711746
1.6027083 -2.4457383 10.8264837 16711746
-2.6823661 -3.2345304 15.7058840 16711746
-2.5964572 -3.0354917 15.2981396 16711746
-1.2635437 -3.4015973 14.3216066 16711746
-1.2758733 -2.4828427 12.6028013 16711746
-2.1720626 -3.5063300 18.1275482 16711746
1.9723972 -3.8340776 13.7465115 16711746
-0.1597242 -1.4562576 9.1735611 16711746
-2.3964772 -2.6210129 13.8622293 16711746
1.6688745 -2.7861538 12.1723747 16711746
1.8655732 -1.3152233 9.0550184 16711746
0.5613292 -1.4987061 9.6868868 16711746
1.5112238 -1.3386883 9.0562277 16711746
1.3554963 -1.3314542 8.8776035 16711746
0.4479487 -1.3956032 8.9600620 16711746
1.2636112 -1.3244026 8.7888470 16711746
1.1387835 -1.3665029 9.0225620 16711746
0.5786121 -1.4059267 9.1169662 16711746
1.2268660 -1.3449407 8.8918438 16711746
0.6851184 -1.4030275 9.1236992 16711746
1.4366950 -1.3745375 9.2690248 16711746
0.8729008 -1.3867294 9.2289209 16711746
1.0164114 -1.3700660 9.0544100 16711746
0.5678173 -1.5621845 9.7947245 16711746
1.6037444 -1.3275568 9.0520201 16711746
1.1473838 -1.3653898 9.0783215 16711746
1.5544785 -1.3549788 9.1746483 16711746
-0.1109476 -1.6260467 10.1377735 16711746
1.1961578 -1.5889627 9.1418524 16711746
0.9387295 -1.3698907 9.0525455 16711746
0.4614330 -1.4028856 9.0529070 16711746
1.5904152 -1.2741188 8.8560476 16711746
1.3202164 -1.3480074 8.9028597 16711746
1.1744957 -1.3305783 8.7590761 16711746
1.8108172 -1.2828406 8.9066010 16711746
1.5483408 -1.3148468 8.9899950 16711746
1.3620702 -1.3359331 8.9145641 16711746
0.6905649 -1.3885771 8.9934006 16711746
0.7278560 -1.3978096 9.1345730 16711746
1.1572225 -1.3495092 8.8483839 16711746
1.2665439 -1.3563489 8.9007568 16711746
1.0506036 -1.3457825 8.8290234 16711746
0.5086617 -1.4398415 9.3004370 16711746
2.3660331 -1.3085535 9.5488968 16711746
0.5523475 -1.3723788 8.9262142 16711746
2.1403720 -1.3600429 9.7152567 16711746
0.8561542 -1.3265865 8.8034229 16711746
0.3725399 -1.4183505 9.0953760 16711746
1.1504399 -1.3675759 9.0695114 16711746
0.9398862 -1.3690630 9.0587339 16711746
1.4956304 -1.3283683 8.9804859 16711746
0.7346213 -1.4066558 9.2550030 16711746
0.7864472 -1.4768063 9.5451002 16711746
1.0196449 -1.3716838 9.0538340 16711746
1.2813134 -1.3571628 9.1753645 16711746
1.9261256 -1.4773664 10.3955879 16711746
1.4186147 -1.3811688 9.3735437 16711746
1.9262259 -1.3773254 9.1892729 16711746
1.0588275 -1.3345965 8.7496061 16711746
0.8809844 -1.3816161 9.1257858 16711746
1.7591716 -1.3219757 9.0403976 16711746
1.8874096 -1.3608489 9.5181437 16711746
1.4004936 -1.3862127 9.2237196 16711746
1.3711075 -1.3544846 9.0184145 16711746
1.4597523 -1.3159173 8.8768692 16711746
1.4153575 -1.3226807 8.8605232 16711746
1.3015938 -1.3629047 8.9826374 16711746
0.8358327 -1.3845620 9.0143805 16711746
1.1380553 -1.3648237 9.0929508 16711746
1.9188286 -1.3323960 9.3249865 16711746
1.6686658 -1.3212761 9.0620642 16711746
0.7972063 -1.3925177 9.1138468 16711746
1.7623140 -1.2766715 8.9497261 16711746
1.9417338 -1.2988079 9.0513039 16711746
0.7076751 -1.3694699 9.0172701 16711746
1.3686550 -1.3487018 9.1251698 16711746
1.4914639 -1.3750043 9.3534698 16711746
1.4928013 -1.3647156 9.0313816 16711746
1.2470846 -1.3270912 8.8165016 16711746
1.0533175 -1.3304363 8.7579241 16711746
1.7881750 -1.3606317 9.4859209 16711746
1.7448425 -1.3220677 9.0527172 16711746
1.3025923 -1.3616318 8.9901800 16711746
0.4436808 -1.4735382 9.4627647 16711746
0.9548276 -1.3254308 8.7420969 16711746
0.9883316 -1.3992534 9.2792349 16711746
2.2168334 -1.3032777 9.3437901 16711746
1.0824898 -1.4367573 9.4969320 16711746
1.4958787 -1.3683532 9.2348080 16711746
0.8086733 -1.3590355 8.9053764 16711746
0.9314851 -1.3472000 8.8216858 16711746
1.3032800 -1.3723452 8.9623890 16711746
0.8671493 -1.3528659 8.7988272 16711746
1.8604738 -1.2836769 8.9498587 16711746
1.8132377 -1.2748696 8.8748541 16711746
1.4143921 -1.3211328 8.8641205 16711746
0.9066141 -1.3343937 8.8440914 16711746
1.0155680 -1.3648449 8.9737253 16711746
1.3944463 -1.3322608 8.8950949 16711746
1.7216552 -1.3047708 9.0060949 16711746
0.8322400 -1.3377929 8.8261919 16711746
1.1741077 -1.3814753 9.0918293 16711746
1.2198365 -1.3392690 8.9842825 16711746
1.5014895 -1.3056315 8.8763609 16711746
0.7102736 -1.3433856 9.1068459 16711746
0.9226541 -1.3655752 9.0758753 16711746
0.8472423 -1.2997235 8.9143848 16711746
1.2130557 -1.3593355 9.0134201 16711746
-0.0238960 -2.2310255 10.2615824 16711746
0.9083080 -1.5132546 9.5853806 16711746
0.6184722 -1.4303936 9.0429945 16711746
1.6721338 -1.2991650 8.9313431 16711746
2.0134535 -1.3574589 9.5603819 16711746
1.6030047 -1.3832377 9.6844883 16711746
1.6540797 -1.4082444 9.8180656 16711746
1.8554565 -1.3103203 9.0930262 16711746
0.5349860 -1.4469365 9.4000292 16711746
0.8239844 -1.4736347 9.7037373 16711746
1.7451241 -1.2991149 9.0164862 16711746
0.8657119 -1.3674867 9.0260248 16711746
1.5466596 -1.3173608 8.9812479 16711746
-0.7088737 -1.8195912 11.1940823 16711746
1.8348820 -1.3137726 9.1125717 16711746
0.8308460 -1.3717818 9.0241432 16711746
0.7285094 -1.4043273 9.1832705 16711746
1.3744141 -1.3165573 8.8201571 16711746
0.5927728 -1.6308826 9.7688999 16711746
0.7635203 -1.3718812 8.9290810 16711746
1.5352095 -1.4323044 9.9000235 16711746
1.3804044 -1.4318560 9.7453909 16711746
1.8705498 -1.3310152 9.1877270 16711746
1.6694522 -1.3102442 9.1339998 16711746
1.0846525 -1.3770404 9.1311302 16711746
-0.2235325 -1.5457613 9.3844357 16711746
1.2256545 -1.3946669 9.2223396 16711746
1.6927570 -1.3377817 9.1396790 16711746
1.7785833 -1.3336731 9.3123322 16711746
1.9092429 -1.3886716 9.1701202 16711746
0.7985060 -1.6662182 10.2198906 16711746
0.8157582 -1.3875980 9.1950998 16711746
0.7064177 -1.4019898 9.1861506 16711746
0.7524725 -1.4246323 9.3764906 16711746
1.2211956 -1.3905813 9.1424847 16711746
1.6791116 -1.3027818 9.0347967 16711746
0.8390248 -1.4192717 9.5542946 16711746
1.1577911 -1.3857299 9.1614866 16711746
1.6755636 -1.3043340 9.0284843 16711746
0.8447744 -1.4031106 9.2552519 16711746
1.8976674 -1.2947115 9.0753145 16711746
0.8431183 -1.3836890 9.2594347 16711746
1.6891018 -1.2654560 8.9416962 16711746
-5.8503966 -3.6946816 12.6162214 16711746
1.2211430 -1.5219836 9.3036604 16711746
0.8321835 -1.4953048 9.9939232 16711746
0.5595508 -1.6307353 9.8276320 16711746
1.2563406 -1.3469350 8.8899460 16711746
1.4365470 -1.6940777 9.5880709 16711746
1.2718934 -1.8127656 10.3328695 16711746
-2.9074965 -2.9644964 14.9961281 16711746
-3.4861774 -3.8529534 16.3184795 16711746
0.9036666 -1.4557967 9.7758598 16711746
1.9003334 -1.4107984 9.7236872 16711746
1.7593217 -1.3398654 9.1760178 16711746
1.0214005 -1.3487078 8.8369255 16711746
1.6157609 -1.2806218 8.8688202 16711746
1.4619938 -1.3259883 8.9178829 16711746
0.8452304 -1.4033276 9.2590723 16711746
1.2460668 -1.3715397 9.1197681 16711746
1.4887677 -1.3093562 8.9136848 16711746
1.2126646 -1.3572079 8.9963913 16711746
0.9834640 -1.3766024 9.1647873 16711746
0.8462085 -1.3771266 9.0082579 16711746
1.6148870 -1.2860479 8.9489250 16711746
1.3165331 -1.3260798 8.8029757 16711746
0.4848467 -1.4351152 9.3222094 16711746
1.3061321 -1.3309687 8.8461256 16711746
1.8538096 -1.3432248 9.2067595 16711746
0.1225913 -1.4134578 9.0945187 16711746
0.8729297 -1.3213153 8.8548803 16711746
1.2444472 -1.3703020 9.1249447 16711746
1.0469368 -1.3592360 8.8720818 16711746
1.6466966 -1.3721128 9.4902725 16711746
1.0808395 -1.3481151 8.8696709 16711746
1.4570705 -1.3343292 8.9609823 16711746
1.4312458 -1.3266083 8.9448385 16711746
1.1593796 -1.4209456 9.1973114 16711746
0.6823396 -1.3852507 9.0097914 16711746
0.6742444 -1.3994548 9.1371031 16711746
1.0216787 -1.3601755 9.0221577 16711746
0.9781452 -1.3128523 8.7146854 16711746
1.2514317 -1.3321297 8.8394680 16711746
1.0481551 -1.3203194 8.7345324 16711746
1.0516937 -1.3293126 8.7614088 16711746
1.1353981 -1.3816886 9.1457605 16711746
1.4905975 -1.3491074 9.1516876 16711746
1.9051279 -1.3553991 9.3002653 16711746
2.0476153 -1.4364758 10.1402073 16711746
1.3295175 -1.3588948 9.0842581 16711746
0.9783083 -1.3469340 8.8650417 16711746
1.0224044 -1.3897980 9.2896328 16711746
1.2569451 -1.6259912 8.9571667 16711746
1.0990515 -1.3372484 8.7932129 16711746
1.4112462 -1.3127661 8.8781490 16711746
1.2222989 -1.3998500 9.2689648 16711746
1.8411703 -1.3490280 9.1834059 16711746
0.8932445 -1.3061116 8.7555237 16711746
1.4881834 -1.3141769 8.9058647 16711746
0.6997095 -1.4296542 9.3560562 16711746
1.0571355 -1.4017831 9.3251991 16711746
1.7109069 -1.3102498 9.0354910 16711746
1.2854308 -1.3656812 9.0363560 16711746
1.3022786 -1.3535141 9.0092306 16711746
1.2730962 -1.3417974 8.8744497 16711746
0.8672763 -1.3721572 9.1689262 16711746
0.8320389 -1.3991437 9.2755671 16711746
0.8237957 -1.3664620 8.9393902 16711746
1.5270312 -1.2991214 8.8599682 16711746
0.8425238 -1.3531396 8.9919262 16711746
1.2852181 -1.3903333 9.3389721 16711746
1.5886346 -1.3100940 9.0032024 16711746
1.4698026 -1.3607191 9.2116919 16711746
1.4994442 -1.3586869 9.2687836 16711746
1.1881089 -1.3617204 9.0161762 16711746
1.1740462 -1.3467574 8.9962921 16711746
1.0531825 -1.3992168 9.3344164 16711746
0.8428012 -1.3599623 8.8621187 16711746
1.2749408 -1.3725365 8.9760656 16711746
0.8455288 -1.2906885 8.7157316 16711746
1.7631310 -1.3200960 9.1669035 16711746
0.8525698 -1.3453661 8.8133574 16711746
0.8004253 -1.3056476 8.7714453 16711746
1.2719830 -1.3710871 8.9289818 16711746
1.8089813 -1.2614727 8.8786221 16711746
1.2202985 -1.3672358 8.9828815 16711746
1.8311523 -1.2830321 8.9702635 16711746
1.0326718 -1.3279960 8.8113766 16711746
0.7482367 -1.4279798 9.3756084 16711746
1.1606354 -1.3926286 9.1515894 16711746
1.6839947 -1.2983880 8.9863348 16711746
0.8218413 -1.3773767 8.9797831 16711746
1.1918167 -1.3669832 8.9437675 16711746
1.1509534 -1.3518480 8.8548651 16711746
0.6606925 -1.5408375 9.7225800 16711746
0.9233201 -1.9461448 9.7253675 16711746
0.7327045 -1.9870092 9.8325205 16711746
0.7230173 -1.3197144 8.8253250 16711746
1.3563747 -1.3652076 9.1735277 16711746
1.1666261 -1.3500217 8.9201078 16711746
1.7441223 -1.2405094 9.1207418 16711746
0.9818822 -1.3966039 9.2932301 16711746
1.0774796 -1.3894219 9.2018204 16711746
0.5019637 -1.3775171 8.8895674 16711746
0.4795823 -1.3992710 9.0383387 16711746
1.3784628 -1.3995442 9.4753170 16711746
1.2512163 -1.3884045 9.3856812 16711746
0.5199661 -1.5990642 9.0434847 16711746
0.8420335 -1.3424293 8.8172894 16711746
0.9891834 -1.3979053 9.2871332 16711746
1.0405759 -1.3903620 9.3633175 16711746
0.6139855 -1.3386040 8.8322783 16711746
0.8196996 -1.3610852 8.8939390 16711746
0.4782709 -1.4688435 9.1022568 16711746
0.5078732 -1.5194839 9.0911264 16711746
1.3684033 -1.3456653 9.0872154 16711746
1.4074757 -1.3349138 8.9934273 16711746
0.8948749 -1.3517089 8.7739439 16711746
0.4620338 -1.3678820 8.9076414 16711746
1.6935349 -1.3882648 9.4526329 16711746
0.8781918 -1.4603401 9.7478552 16711746
0.7372316 -1.3529402 8.7613029 16711746
0.4481374 -1.5287991 9.2566481 16711746
0.9821244 -1.3161869 8.7120447 16711746
0.1839946 -1.5400885 9.8561745 16711746
1.8211660 -1.2758549 8.9232702 16711746
1.2648869 -1.3525342 8.9082642 16711746
1.3300171 -1.3518203 8.9596567 16711746
1.3452004 -1.3723061 9.1592407 16711746
1.9000771 -1.3311073 9.1721659 16711746
1.5120912 -1.3357303 9.0644484 16711746
0.8734820 -1.3360908 8.7904558 16711746
0.9894451 -1.3952588 9.3751440 16711746
1.6942794 -1.2827111 8.9684324 16711746
1.4375771 -1.3269637 8.9012079 16711746
1.6819745 -1.3170173 9.0443735 16711746
1.5552431 -1.3676990 9.2878351 16711746
-0.5806676 -1.8035272 10.9920521 16711746
1.8702855 -1.3091638 9.0719137 16711746
1.2411660 -1.4030918 9.3709755 16711746
1.4559700 -1.4093109 9.7654514 16711746
0.8653844 -1.3933551 9.2044601 16711746
-0.7324016 -1.8239554 11.1828222 16711746
1.8502377 -1.4880536 9.4491768 16711746
1.0186105 -1.3620030 8.9291849 16711746
1.6763321 -1.3812114 10.0187931 16711746
1.8527837 -1.3169613 9.1041813 16711746
1.0270997 -1.3677381 8.9137697 16711746
0.7403263 -1.2816339 9.2670689 16711746
0.7494696 -1.4036547 9.1167517 16711746
-0.7915665 -1.8216530 11.2027521 16711746
0.9893524 -1.4850978 9.4452276 16711746
1.8293350 -1.2792878 8.9265852 16711746
1.7445300 -1.2890388 8.9267139 16711746
1.3322147 -1.3507783 8.9514866 16711746
1.1799655 -1.4500232 9.5814800 16711746
-1.0368088 -2.6822183 11.0403566 16711746
-0.3785530 -2.2983286 11.0209513 16711746
1.9327857 -1.3609482 9.5106831 16711746
1.2420079 -1.4458077 9.7882013 16711746
1.1924149 -1.3730208 9.0781746 16711746
1.2082226 -1.6371435 9.1900911 16711746
1.4267826 -1.4068334 9.5898743 16711746
1.3239115 -1.3375301 9.0329685 16711746
0.6051233 -1.5796458 10.3539295 16711746
1.7216476 -1.4809390 10.3903027 16711746
1.9672391 -1.5789438 11.1776075 16711746
-0.1326528 -1.5419893 9.2611456 16711746
1.3134195 -1.6911323 11.5998669 16711746
-4.2649016 -3.0545897 14.4152946 16711746
-2.9642539 -3.1747947 14.8242989 16711746
1.9435046 -1.4166456 10.0569658 16711746
-0.0908603 -1.4734886 9.1474133 16711746
1.0352950 -1.3221180 8.7386837 16711746
0.7164217 -1.4319260 9.3395329 16711746
1.8203489 -1.2911221 8.9545956 16711746
1.4262788 -1.3408253 8.9486866 16711746
1.5255464 -1.3700962 9.3707161 16711746
0.8504375 -1.4106779 9.4176064 16711746
1.3708923 -1.4287448 9.7318134 16711746
1.3005339 -1.4018009 9.4120760 16711746
2.0881851 -1.4093689 9.9525166 16711746
1.9184198 -1.3522173 9.3932419 16711746
0.8214521 -1.4477601 9.5410461 16711746
1.2028215 -1.3381342 8.8681078 16711746
2.7556276 -1.4133098 10.5789309 16711746
0.8691288 -1.4180406 9.3812294 16711746
1.7522427 -1.2829272 8.9346056 16711746
1.3766166 -1.3703833 9.1118937 16711746
1.2389762 -1.3539188 8.9561653 16711746
1.2233278 -1.4902003 9.7208195 16711746
1.0254220 -1.3631723 9.0095186 16711746
0.6954897 -1.3384337 8.8371649 16711746
1.2321602 -1.3610687 8.9501114 16711746
1.4968235 -1.3349377 9.0155191 16711746
1.6080787 -1.3268101 9.0666389 16711746
2.0446601 -1.4379945 10.1430035 16711746
1.8811096 -1.3259988 8.9795904 16711746
1.5563991 -1.3037826 9.0111675 16711746
1.5264133 -1.3702186 9.3701324 16711746
1.8149092 -1.3433617 9.1736822 16711746
1.2267232 -1.3486420 8.8879251 16711746
-0.7311296 -1.9141171 11.1716156 16711746
1.7617419 -1.3926808 9.8355169 16711746
1.5473167 -1.3197814 8.9776936 16711746
1.2063158 -1.3570799 8.8852806 16711746
1.4050841 -1.3951005 9.3815536 16711746
1.2474831 -1.4779800 9.7438078 16711746
1.6452712 -1.3291366 9.0813961 16711746
1.2492635 -1.3915710 9.1828833 16711746
1.0823901 -1.3654679 8.9516077 16711746
1.6880990 -1.3745381 9.6917715 16711746
1.1498667 -1.3892124 9.1802073 16711746
1.7531521 -1.3967783 9.8155212 16711746
0.7911320 -1.3448683 8.8563404 16711746
1.1465635 -1.4184172 9.2349567 16711746
1.0457348 -1.3816919 9.3512688 16711746
1.1521666 -1.3910452 9.1855259 16711746
0.6721968 -1.3977904 9.1392918 16711746
0.6159377 -1.4135946 9.2084694 16711746
0.5499995 -1.4247930 9.1770182 16711746
1.3868383 -1.3598685 9.0361652 16711746
0.8736411 -1.3528087 8.8730183 16711746
1.0632089 -1.3351254 8.7934704 16711746
0.8768393 -1.3786806 9.0640049 16711746
0.9104007 -1.3401268 8.8037863 16711746
0.7606964 -1.3879455 9.0014963 16711746
0.6926221 -1.3869189 9.0015917 16711746
0.7158369 -1.3911543 9.0762138 16711746
0.4808328 -1.4599235 9.4399033 16711746
0.8077053 -1.4312518 9.3793478 16711746
1.0251675 -1.3820703 9.1857700 16711746
1.4369284 -1.3719773 9.2682076 16711746
1.8955200 -1.3636885 9.3496962 16711746
1.4479479 -1.3416526 9.0077600 16711746
1.1839173 -1.3536624 8.9412832 16711746
1.2263883 -1.4051712 9.2482767 16711746
1.2189754 -1.4338822 9.2229567 16711746
0.8226418 -1.3158005 8.7604151 16711746
1.2278246 -1.3390330 8.8446989 16711746
1.3826596 -1.3284699 8.9598808 16711746
1.4718612 -1.3393227 9.0032578 16711746
1.2577257 -1.3678719 9.0803232 16711746
0.4527633 -1.5262296 9.8029337 16711746
0.9521713 -1.3691111 8.9607048 16711746
0.8656072 -1.3642801 8.9633265 16711746
1.1007591 -1.3714137 8.9044724 16711746
1.0563408 -1.3670615 9.0567017 16711746
1.5433109 -1.3349689 9.2257471 16711746
1.8076038 -1.3517609 9.3183489 16711746
1.3148155 -1.4519349 9.8986340 16711746
1.7894708 -1.4672740 10.3821278 16711746
1.6503800 -1.2981023 9.0011158 16711746
1.1824801 -1.4874827 9.1406384 16711746
1.8880826 -1.3594774 9.5225573 16711746
1.2128565 -1.3586336 8.9936314 16711746
1.6434439 -1.3057423 8.9896564 16711746
1.6517299 -1.3136348 9.0029049 16711746
1.3822373 -1.3496464 8.9988155 16711746
1.8224907 -1.3419451 9.3547277 16711746
0.8625974 -1.4006571 9.6858425 16711746
1.0202565 -1.4046454 9.4621525 16711746
1.4682908 -1.3455142 8.9939747 16711746
1.3023828 -1.3711189 9.2207079 16711746
1.0632055 -1.3713084 9.0466366 16711746
1.4080296 -1.3528272 9.0880394 16711746
1.0028796 -1.3772449 9.1340170 16711746
0.5562818 -1.4457612 9.4417238 16711746
1.7809772 -1.3703389 9.2502441 16711746
0.7835401 -1.3987132 9.1850595 16711746
0.7217711 -1.4048306 9.1815033 16711746
1.3659389 -1.3623189 9.0478897 16711746
1.4633265 -1.3613316 9.0848322 16711746
1.3277571 -1.3537221 8.8911476 16711746
1.1043501 -1.3772672 9.1522865 16711746
1.2377058 -1.3903868 9.1786299 16711746
1.2744645 -1.3811431 9.3056355 16711746
1.0373063 -1.4620553 9.5205154 16711746
1.4993328 -1.3289391 9.0284786 16711746
0.9199773 -1.3835282 9.1268549 16711746
0.9737545 -1.3294550 8.7887583 16711746
0.7896981 -1.3775426 8.9538612 16711746
1.2582579 -1.3622774 9.0848808 16711746
0.9001399 -1.3383414 8.8292532 16711746
1.0707711 -1.3743680 8.8507967 16711746
0.6005129 -1.4070208 9.1151752 16711746
0.5438057 -1.4126652 9.0774021 16711746
0.7864293 -1.3734266 8.9585009 16711746
1.4971182 -1.3371415 9.0129814 16711746
1.4079834 -1.3643346 8.9659204 16711746
1.2512170 -1.3921170 9.0786409 16711746
1.1468797 -1.3746572 9.0238924 16711746
1.0471914 -1.3426417 8.8342991 16711746
0.5513265 -1.4398998 8.9199362 16711746
0.7663414 -1.3306004 8.7794676 16711746
0.6512647 -1.3526294 9.0794039 16711746
1.2089416 -1.5883831 8.9934616 16711746
1.2124826 -1.3562850 9.0151081 16711746
1.6540130 -1.3429086 9.0739470 16711746
1.9089003 -1.3145758 9.3724861 16711746
1.0535177 -1.3805165 8.8803616 16711746
1.2152913 -1.6334821 9.1583462 16711746
0.5709516 -1.3949597 8.9267082 16711746
0.9049131 -1.3611338 8.9983673 16711746
1.2155555 -1.4091895 9.0539875 16711746
0.9735307 -1.3477494 8.8686514 16711746
0.8004507 -1.3394617 8.9567490 16711746
0.7566191 -1.3969798 9.0497637 16711746
-0.3145123 -1.6772478 10.1651421 16711746
0.6004299 -1.3699439 8.8704863 16711746
1.7308501 -1.3340802 9.0325279 16711746
0.7984796 -1.3696066 9.0034389 16711746
0.6592913 -1.6405134 9.0117455 16711746
1.4448165 -1.3368311 8.9829588 16711746
1.4122360 -1.4149234 9.5119839 16711746
1.7707586 -1.3168060 9.2930470 16711746
1.2141825 -1.5262825 9.3314743 16711746
1.1339545 -1.3655144 9.0352087 16711746
-1.1455178 -2.2726524 11.0816650 16711746
1.4134057 -1.4543822 9.9330225 16711746
0.7117475 -1.4348000 9.3384008 16711746
-0.0515699 -1.6271054 10.0749302 16711746
0.8624059 -1.4041584 9.3388853 16711746
2.0032635 -1.4498285 9.8053789 16711746
1.5794750 -1.3224151 9.0300426 16711746
-3.6577857 -2.7227473 10.9890232 16711746
1.8553565 -1.4527320 10.0395308 16711746
1.3982521 -1.5316216 10.2048645 16711746
-2.7295914 -3.2192829 16.5135975 16711746
0.5966834 -1.5810014 10.3551950 16711746
0.6177016 -1.4150996 9.2053804 16711746
0.8392027 -1.3570008 8.8644142 16711746
0.7837915 -1.3902848 9.1699591 16711746
0.9874979 -1.3710139 9.1158152 16711746
0.8072782 -1.3813272 9.0441265 16711746
1.4180989 -1.3505508 9.1363306 16711746
0.8330474 -1.3691602 8.9333744 16711746
0.8697668 -1.3666180 8.9607954 16711746
0.8590901 -1.3722208 9.0773153 16711746
0.5488660 -1.3978488 8.9814577 16711746
0.7293659 -1.3963813 9.0654535 16711746
0.7895916 -1.3928578 9.1652298 16711746
0.6859105 -1.4047114 9.1827612 16711746
1.3938500 -1.3515232 9.1053429 16711746
1.1405905 -1.3664352 8.9761543 16711746
1.2118791 -1.3559762 8.9988985 16711746
0.8334509 -1.3689053 8.9342651 16711746
0.8992642 -1.4035857 9.4138918 16711746
1.3009278 -1.3518085 9.0134659 16711746
0.8813522 -1.3645449 9.0460978 16711746
0.9785916 -1.3958963 9.0683422 16711746
1.0569401 -1.3602122 8.9335690 16711746
0.9772739 -1.3953893 9.2797413 16711746
1.0238020 -1.3664410 9.0408964 16711746
0.8732067 -1.3575871 8.9063530 16711746
1.1972877 -1.4657477 9.3138247 16711746
1.2912743 -1.3684716 9.0774298 16711746
1.3107537 -1.3668845 9.0621214 16711746
1.2336043 -1.3594559 8.9907951 16711746
0.8670014 -1.4217305 9.4912472 16711746
0.8717436 -1.3792225 9.1298819 16711746
0.9699117 -1.3640374 9.0179443 16711746
1.1267087 -1.5396426 9.2488737 16711746
1.1286994 -1.4940683 9.2626228 16711746
1.4991645 -1.4301581 9.0286436 16711746
0.7679816 -1.3977963 8.9730749 16711746
1.2600837 -1.3292307 9.2341003 16711746
0.6653942 -1.3882396 8.9830732 16711746
0.4228899 -1.4128872 8.9668856 16711746
0.8330403 -1.3621336 8.8594131 16711746
0.9611240 -1.3767644 9.1623917 16711746
1.4064765 -1.4054859 9.5331936 16711746
0.6497138 -1.4933747 9.6389370 16711746
0.8562143 -1.3646750 9.0326519 16711746
0.9919516 -1.3735268 9.1083565 16711746
0.9848576 -1.3772955 9.1637001 16711746
1.0885942 -1.3832750 9.2072659 16711746
1.2037518 -1.4203560 9.2979832 16711746
1.3665196 -1.3797673 9.3446579 16711746
0.6886259 -1.4825759 9.7887974 16711746
1.7354285 -1.3861492 9.5792522 16711746
0.8116270 -1.3567271 9.0342035 16711746
1.1775256 -1.4516187 9.1342068 16711746
0.9256616 -1.3672574 8.9901628 16711746
0.9650949 -1.3795528 9.1548996 16711746
1.3715900 -1.3843037 9.5690222 16711746
1.2439421 -1.3763310 9.1689110 16711746
1.0610054 -1.3624313 9.0709925 16711746
1.3262833 -1.4181627 9.5617180 16711746
-0.1928441 -1.5369154 9.1648941 16711746
0.5329258 -1.4947968 9.7263813 16711746
1.2338338 -1.3890202 9.1797934 16711746
1.4315001 -1.3328371 8.9298639 16711746
1.8348821 -1.3751652 9.6023493 16711746
1.6199026 -1.2983086 8.9792480 16711746
1.3923596 -1.3534474 9.0985861 16711746
0.8480120 -1.3568527 8.9128532 16711746
1.1987480 -1.4493756 9.7715130 16711746
1.4490954 -1.3782868 9.5453510 16711746
1.6441345 -1.3719767 9.5699978 16711746
1.7894976 -1.3788005 9.7462873 16711746
1.9414029 -1.3654429 9.6460590 16711746
1.6442863 -1.2920543 8.9632616 16711746
0.6476485 -1.4825581 9.6218100 16711746
1.3620551 -1.3469712 9.0010185 16711746
0.1937038 -1.5271332 9.8272133 16711746
1.6568242 -1.4068470 9.8229094 16711746
1.5617502 -1.4086366 9.7318048 16711746
1.3239093 -1.3796449 9.1988773 16711746
0.7935422 -1.3853233 9.0822325 16711746
1.7821534 -1.3802893 9.7315445 16711746
1.3131411 -1.4638304 10.0726900 16711746
1.6082815 -1.3749124 9.5021582 16711746
1.6687644 -1.3596933 9.5088797 16711746
1.2147954 -1.3917491 9.2970285 16711746
0.7788200 -1.3652227 8.9094200 16711746
0.6577405 -1.4629430 9.5708113 16711746
1.4052167 -1.3900313 9.3643751 16711746
0.6827857 -1.5034567 9.7718430 16711746
0.4120375 -1.4685174 9.4926434 16711746
1.5092593 -1.4179698 9.9237680 16711746
1.4996599 -1.5109594 10.3268156 16711746
1.5096717 -1.4872394 10.2538939 16711746
0.4476583 -1.4788482 9.4986658 16711746
0.8797703 -1.3573270 8.8785753 16711746
0.7255687 -1.4010124 9.2011042 16711746
0.6587911 -1.4636241 9.5689611 16711746
1.2419058 -1.3630096 9.1388655 16711746
1.1920537 -1.3677013 9.1049728 16711746
0.7302147 -1.3846710 9.0905046 16711746
1.3226968 -1.3636276 9.1338911 16711746
0.8547948 -1.4223112 9.5218801 16711746
0.9000353 -1.3574368 8.9242792 16711746
0.7179930 -1.4508438 9.6416388 16711746
1.3569751 -1.3665923 9.1845016 16711746
1.3118904 -1.3780439 9.2050352 16711746
1.3936623 -1.3949285 9.3963833 16711746
1.4024793 -1.3817629 9.3228188 16711746
0.5697176 -1.4706470 9.6552591 16711746
1.3702166 -1.3781306 9.2429600 16711746
0.9395170 -1.3617270 9.0232830 16711746
1.5042272 -1.4054685 9.5674982 16711746
1.1174266 -1.3802235 9.1155148 16711746
-0.3792573 -1.4992012 9.0883703 16711746
0.0357291 -1.5419339 9.6592112 16711746
1.2140495 -1.3933858 9.2207603 16711746
0.6207645 -1.4153187 9.2029581 16711746
0.5905852 -1.3826938 8.9081087 16711746
0.2771558 -1.4325252 8.9535551 16711746
1.2483070 -1.3623235 9.0763664 16711746
0.9724091 -1.3929684 9.2887440 16711746
0.8564809 -1.3648634 9.4608316 16711746
0.9268664 -1.3722051 8.7662516 16711746
1.3412369 -1.3845725 9.2807817 16711746
0.0413912 -1.5411475 9.6545591 16711746
1.1827313 -1.3635240 9.0551338 16711746
0.5898179 -1.5088116 9.7843447 16711746
0.8200561 -1.3821456 8.9570942 16711746
0.8149965 -1.3851004 9.0362892 16711746
0.7345311 -1.4525691 9.8879004 16711746
1.2162048 -1.3950108 9.2175274 16711746
0.4854234 -1.3969204 9.0238342 16711746
1.0747623 -1.3826642 9.1427298 16711746
0.0910187 -1.4389925 9.1062078 16711746
1.1087900 -1.4190282 10.2628584 16711746
1.3423417 -1.3842787 9.2740545 16711746
1.3364795 -1.3965313 9.3477173 16711746
-0.3817794 -1.6721547 10.2287979 16711746
0.0717747 -1.5425432 9.6346359 16711746
1.5356491 -1.3329350 9.2172117 16711746
1.6482835 -1.3367969 9.3783245 16711746
0.8963817 -1.3518473 9.0985394 16711746
1.2615446 -1.3727245 9.0881777 16711746
0.5299580 -1.3912070 9.0550346 16711746
0.3952887 -1.6096585 10.1948423 16711746
0.9196025 -1.3438454 8.7862625 16711746
1.6611265 -1.3950326 9.9012957 16711746
1.1166018 -1.4298279 9.1636286 16711746
1.3756272 -1.3684698 9.2565851 16711746
1.3624133 -1.3794544 9.2920494 16711746
1.2711136 -1.3618495 9.1444397 16711746
0.0162154 -1.7354736 11.1326017 16711746
0.3305574 -1.6372836 10.1416368 16711746
1.1543181 -1.4357227 9.7239666 16711746
1.1085627 -1.4202288 9.6625080 16711746
-0.4138367 -1.6768775 10.2582130 16711746
1.1068811 -1.3760188 9.1210928 16711746
0.8291340 -1.3870159 9.0161247 16711746
1.2421889 -1.4873823 9.4171829 16711746
1.3068383 -1.4443703 9.8266048 16711746
-0.0572213 -1.4555615 9.1551275 16711746
0.7058365 -1.5224479 9.8527346 16711746
0.5254462 -1.4445182 9.3839836 16711746
1.3618054 -1.4709458 10.0372543 16711746
1.1504161 -1.3575044 8.9490614 16711746
0.8141704 -1.4601612 9.6638384 16711746
1.2919511 -1.3970913 9.3337526 16711746
1.4174306 -1.3763757 9.3974571 16711746
0.7786438 -1.3941934 8.9864531 16711746
0.5214948 -1.4442178 9.3878708 16711746
0.9749047 -1.3944124 9.2842970 16711746
1.2924906 -1.3681304 9.1205759 16711746
1.0599973 -1.3883556 9.2380953 16711746
0.7375178 -1.4088600 9.2539272 16711746
0.0595558 -1.5569602 9.8251228 16711746
1.1329775 -1.3793674 9.1538849 16711746
0.3807580 -1.4208074 9.0877285 16711746
0.8057485 -1.3810965 9.0478802 16711746
-1.5251416 -2.8447728 12.1829176 16711746
1.2611797 -1.3714250 9.0637808 16711746
1.4817070 -1.3494099 9.1323795 16711746
1.3348211 -1.4100413 9.4462776 16711746
0.5893846 -1.4052719 9.0709801 16711746
1.4018979 -1.3901082 9.2227936 16711746
0.4985302 -1.4023696 9.1179056 16711746
0.9917694 -1.3818291 9.0671043 16711746
0.9222885 -1.3763679 9.1360149 16711746
0.4852037 -1.4397892 9.2544613 16711746
0.8187110 -1.3888897 9.0509090 16711746
0.3226637 -2.2773955 11.4888258 16711746
1.3164266 -1.3996459 9.1571732 16711746
0.7296304 -1.3539628 9.0033464 16711746
1.2944161 -1.3713727 9.2152472 16711746
-2.4671078 -2.2456379 12.6815510 16711746
1.0698248 -1.3690643 9.0566616 16711746
1.8444235 -1.4022017 9.6142759 16711746
1.4177030 -1.4563529 9.9179249 16711746
1.7004094 -1.3933748 9.8410225 16711746
1.3306572 -2.1192431 10.4137239 16711746
1.7479411 -1.3912537 9.5081177 16711746
1.2507547 -1.5898077 11.0184107 16711746
1.3589438 -2.2659140 10.5470285 16711746
0.6301177 -1.6185195 9.8314753 16711746
1.8454376 -1.4776781 10.3968019 16711746
1.2653788 -1.4923223 9.8162813 16711746
1.2177918 -1.6388460 9.1328945 16711746
1.2562569 -1.3770051 9.1846209 16711746
0.7605158 -1.4281813 9.3255978 16711746
0.4071324 -1.4923673 9.6405993 16711746
0.7348422 -1.3887545 8.9908352 16711746
0.4862162 -1.4636521 9.4367285 16711746
1.2766445 -1.3680365 9.1349354 16711746
-2.0845244 -3.1342540 12.5964527 16711746
1.6100836 -1.3565493 9.5036240 16711746
0.7664173 -1.4129938 9.2774248 16711746
1.4198153 -1.3807939 9.3707333 16711746
1.9071319 -1.3450086 9.5740280 16711746
1.2438785 -1.3766476 9.1149054 16711746
1.2269748 -1.5468925 10.5381174 16711746
0.5228983 -1.4867680 9.5894403 16711746
0.6903352 -1.4413556 9.3519945 16711746
0.6282514 -1.7282664 9.8791037 16711746
-0.3719310 -2.2438321 12.2030783 16711746
0.5673911 -1.4004812 9.0929108 16711746
1.4537790 -1.4147468 9.6178837 16711746
1.3780035 -1.4146147 9.5226831 16711746
1.8175503 -1.3380827 9.3499928 16711746
0.8759251 -1.4195139 9.3827200 16711746
0.4825813 -1.4359105 9.2535057 16711746
1.2498307 -1.3643534 9.0723972 16711746
2.1672032 -1.3633567 9.7721310 16711746
1.2902423 -1.3623610 9.1356544 16711746
1.1715796 -1.4022181 9.3971100 16711746
1.1768570 -1.4211409 9.4717979 16711746
1.9943621 -1.3492863 9.6030073 16711746
1.3423313 -1.4318677 9.4988918 16711746
0.5783502 -1.4069505 9.1167440 16711746
1.7395518 -1.3116300 9.3247299 16711746
1.0440613 -1.3621341 8.9965744 16711746
0.8625765 -1.3800137 9.1072760 16711746
1.5577315 -1.4218273 9.7600660 16711746
1.3652521 -1.3571392 9.1560869 16711746
1.3107256 -1.3752460 9.2112865 16711746
0.9951841 -1.3754218 9.1038618 16711746
0.6884307 -1.4807328 9.7935381 16711746
1.0617691 -1.3886111 9.2393751 16711746
0.7825798 -1.3888501 9.1161451 16711746
1.4099975 -1.3897599 9.3574600 16711746
1.7551392 -1.2987659 9.3006392 16711746
1.0682957 -1.3768812 9.1763201 16711746
0.6917647 -1.4351854 9.4638672 16711746
1.5022433 -1.3755625 9.3642740 16711746
1.5936052 -1.3878136 9.6289005 16711746
1.3995751 -1.3737375 9.2705021 16711746
1.1673436 -1.4013343 9.1649151 16711746
2.1071973 -1.3756472 9.9685669 16711746
1.2508284 -1.3623382 9.0889196 16711746
0.8690035 -1.3660985 8.9591465 16711746
0.8386036 -1.3712597 9.0154657 16711746
1.6506652 -1.4072968 9.7683868 16711746
0.8956171 -1.3570626 9.0139799 16711746
1.2152834 -1.4090563 9.4703035 16711746
0.9968262 -1.3969226 9.3628492 16711746
1.4491504 -1.3502750 9.2250090 16711746
1.3722665 -1.3658018 9.1589298 16711746
1.4199072 -1.3783060 9.3860159 16711746
1.1395972 -1.3913904 9.1782932 16711746
1.1863532 -1.4418070 9.6873951 16711746
1.7102557 -1.3484793 9.4001446 16711746
0.8445334 -1.3910700 9.1948986 16711746
1.3652383 -1.4016154 9.5379238 16711746
1.6065704 -1.3797495 9.4940424 16711746
0.9494982 -1.3827645 9.1989355 16711746
1.4000424 -1.3815128 9.3266048 16711746
1.1326982 -1.3670402 9.0885201 16711746
1.8949723 -1.4134952 9.8096495 16711746
1.0351477 -1.3849592 9.1669188 16711746
0.7445337 -1.3904270 8.9870520 16711746
0.9465955 -1.3908533 9.2570820 16711746
1.5525205 -1.4317160 9.7504749 16711746
1.6326678 -1.3562812 9.3706102 16711746
1.5557978 -1.3626058 9.3168516 16711746
1.4927322 -1.3903763 9.3167210 16711746
1.2789850 -1.3905016 9.1745434 16711746
1.7443568 -1.3083951 9.5163870 16711746
0.9213927 -1.3886306 9.1764479 16711746
1.2232963 -1.4057399 9.1876984 16711746
0.7383083 -1.4085958 9.2446136 16711746
0.3846500 -1.4242902 9.1192102 16711746
0.7910057 -1.3733990 8.9552565 16711746
0.3352973 -1.4706465 9.5595989 16711746
0.5194321 -1.3860101 8.9480486 16711746
1.1818035 -1.4530028 9.3382492 16711746
1.9337994 -1.4118738 9.7990646 16711746
1.6475327 -1.4058059 9.4618731 16711746
1.1272726 -1.4651574 9.2266788 16711746
1.2979461 -1.4363371 9.8317156 16711746
1.5760901 -1.4496624 10.1244192 16711746
1.5269189 -1.4604193 10.0755548 16711746
1.4307173 -1.4130279 9.6407442 16711746
0.9054840 -1.3594642 8.9199715 16711746
1.2460009 -1.4254920 9.6025887 16711746
0.9148327 -1.3936150 9.2782736 16711746
0.7473532 -1.4084717 9.2947063 16711746
-1.4438343 -1.8931876 12.1247692 16711746
1.1358674 -1.3688010 9.0458832 16711746
1.5956521 -1.3702277 9.4779387 16711746
1.0849993 -1.3624884 9.0797243 16711746
1.4604814 -1.4351498 9.8977404 16711746
1.1315491 -1.3618485 9.0575609 16711746
1.2558562 -1.3934832 9.3656492 16711746
1.6105330 -1.3725144 9.5181856 16711746
-1.6245930 -1.9043097 11.4271183 16711746
0.9220535 -1.3883879 9.2139063 16711746
0.8437668 -1.3694133 8.9428158 16711746
0.5097199 -1.4102167 8.9180374 16711746
1.7518954 -1.3563744 9.4705992 16711746
1.7676290 -1.4146824 9.8579063 16711746
1.7783688 -1.4039112 9.7609253 16711746
1.7903804 -1.3418827 9.3944483 16711746
1.9637182 -1.4406340 10.2180605 16711746
1.2576541 -1.5522186 10.4335728 16711746
1.7510121 -1.3706952 9.6351452 16711746
0.7972058 -1.4436181 9.6192083 16711746
1.1936477 -1.3701439 9.1027699 16711746
0.7617586 -1.4620992 9.5745401 16711746
0.4657976 -1.4425285 9.3122692 16711746
1.1152751 -1.3814495 9.1038475 16711746
0.7428607 -1.4257869 9.3371706 16711746
0.6403247 -1.3873694 9.5336971 16711746
0.8556607 -1.3653164 9.0324602 16711746
1.3833058 -1.5194180 10.0797167 16711746
1.3497891 -2.2810087 10.5700588 16711746
0.7211708 -1.4236237 9.3576469 16711746
0.5649931 -1.5705659 9.1576605 16711746
-2.7850676 -3.2166507 11.5995216 16711746
0.5406240 -1.5359582 9.0772991 16711746
-0.0929434 -1.6212313 9.8841791 16711746
2.0854592 -1.4461823 10.4300547 16711746
0.4071601 -1.5466021 10.0017824 16711746
0.0202264 -1.5397292 9.6725960 16711746
1.8416991 -1.4186678 9.9721365 16711746
1.7936804 -1.4095165 9.8697214 16711746
1.6520730 -1.3650728 9.5007029 16711746
1.6997200 -1.3728710 9.6081724 16711746
1.2716521 -1.5056393 10.2103758 16711746
0.7875666 -1.4230171 9.2652845 16711746
1.2437577 -1.5001957 9.7852840 16711746
1.2450371 -1.5095619 10.0719471 16711746
1.0696152 -1.5009490 10.1836433 16711746
1.7042649 -1.3705407 9.6153040 16711746
1.1356357 -1.3696687 9.0868921 16711746
1.8325242 -1.3675843 9.5299482 16711746
0.7142299 -1.3813519 9.0021391 16711746
0.8422517 -1.4099238 9.4030704 16711746
1.4099313 -1.4285926 9.5988579 16711746
0.8398716 -1.3883350 9.1981258 16711746
0.9484902 -1.4010377 9.3472261 16711746
1.4062861 -1.3903536 9.3588028 16711746
1.3902097 -1.3981863 9.3918991 16711746
1.2649606 -1.4866304 9.8199034 16711746
1.7071832 -1.3844495 9.7099400 16711746
1.1374235 -1.3895948 9.1831331 16711746
1.5262353 -1.3728834 9.3602972 16711746
0.0492911 -1.5589510 9.7458286 16711746
1.2591676 -1.3616241 9.3935890 16711746
0.7516069 -1.4642245 9.0098476 16711746
1.4469876 -1.3870010 9.4871016 16711746
0.7854332 -1.4442813 9.4061823 16711746
-0.7922411 -1.8247222 11.2049761 16711746
1.1949514 -1.3792942 9.1259136 16711746
1.0627614 -1.3894349 9.2381058 16711746
1.4448123 -1.4000598 9.4626913 16711746
0.6176314 -1.4505826 9.3756151 16711746
0.8329429 -1.3867837 9.2000685 16711746
0.6644700 -1.4748636 9.5191660 16711746
1.2391374 -1.4998319 9.6633043 16711746
1.1556851 -1.3860127 9.1712513 16711746
1.1152637 -1.3910677 9.1708889 16711746
0.9353848 -1.3588556 9.0261173 16711746
0.6041782 -1.4746716 9.6949196 16711746
1.4449170 -1.3967737 9.4717455 16711746
1.4096402 -1.4099553 9.5299950 16711746
1.6299367 -1.3260038 9.2998514 16711746
1.3414708 -1.3964154 9.3426943 16711746
1.2941135 -1.4025722 9.2096386 16711746
1.2338915 -1.3862025 9.2413597 16711746
1.4343607 -1.3738354 9.2636614 16711746
1.4651287 -1.3946040 9.5497684 16711746
1.6328002 -1.3530331 9.4284163 16711746
1.2297455 -1.4074841 9.3537531 16711746
1.8884604 -1.3830308 9.4598770 16711746
1.1940620 -1.4339818 9.6101980 16711746
1.3400737 -1.3933120 9.3517561 16711746
1.2478088 -1.4033440 9.3288956 16711746
1.1597282 -1.4411578 9.6896467 16711746
1.6350178 -1.3524079 9.4030428 16711746
1.4184741 -1.3828442 9.3065414 16711746
1.0675056 -1.3706759 9.1715488 16711746
1.4614109 -1.3486207 9.2957535 16711746
0.7915558 -1.4134707 9.3351803 16711746
0.6869968 -1.4314536 9.4706278 16711746
1.5325769 -1.3385618 9.2727728 16711746
1.0339748 -1.3830917 9.1644793 16711746
1.4507509 -1.4248483 9.5779743 16711746
0.7883685 -1.4203411 9.4439640 16711746
1.2910304 -1.3876741 9.2500639 16711746
1.5336838 -1.3824005 9.4696131 16711746
1.2246373 -1.4022324 9.3659658 16711746
1.2831327 -1.4201971 9.3942223 16711746
1.6016744 -1.3620979 9.4553576 16711746
-0.2973102 -1.6041870 10.0691319 16711746
1.7232622 -1.3096182 9.3457079 16711746
1.9567777 -1.4573975 9.7174454 16711746
1.7978263 -1.3226032 9.3644609 16711746
1.2154069 -1.5118361 9.6312094 16711746
1.1120032 -1.3830655 9.1451397 16711746
0.8495974 -1.3689725 9.0741358 16711746
1.1883639 -1.4421537 9.6992693 16711746
1.5052968 -1.4066637 9.5849333 16711746
-0.0895512 -1.6070671 9.8754597 16711746
0.6286579 -1.4933730 9.5490465 16711746
0.5633889 -1.4445522 9.3086195 16711746
1.7192636 -1.3368014 9.4380589 16711746
2.2077923 -1.3888599 9.9105511 16711746
0.6336285 -1.3924575 9.1458731 16711746
-0.0157634 -1.8127234 10.2199678 16711746
0.8599811 -1.3896272 9.2139444 16711746
1.1826625 -1.5939796 9.1068478 16711746
1.2975589 -1.5259058 9.6601925 16711746
0.3361994 -1.5277226 9.7142134 16711746
1.4318576 -1.4025244 9.5824003 16711746
-0.0394125 -1.6023536 9.8207865 16711746
1.8103435 -1.3981409 9.9236898 16711746
0.7470108 -1.4287710 9.3799219 16711746
-0.1914263 -1.5951740 10.2085257 16711746
1.2688208 -1.4427701 9.7449713 16711746
-2.6973214 -2.4806128 13.6115494 16711746
1.9984690 -1.4598579 9.9769325 16711746
1.9726554 -1.4483398 9.7542000 16711746
1.5313954 -2.1608868 10.3441458 16711746
1.9816355 -1.5688283 11.2604961 16711746
1.9581589 -1.6501130 11.7208595 16711746
-2.1587965 -3.0246429 14.6500511 16711746
-2.9450104 -3.4032454 13.8253012 16711746
2.1937904 -1.3880622 9.8910170 16711746
1.3719337 -1.4090105 9.4614658 16711746
0.7319904 -1.4016118 9.1971188 16711746
1.5586389 -1.3429564 9.3373375 16711746
1.7107298 -1.4065262 9.9161482 16711746
0.9443020 -1.3691113 9.0796528 16711746
0.6790932 -1.4541304 9.5181313 16711746
1.1510059 -1.4757402 9.7598724 16711746
1.7046537 -1.3683724 9.6213799 16711746
1.3909665 -1.4140468 9.7095232 16711746
1.4629788 -1.4062409 9.5063095 16711746
1.2981240 -1.3880848 9.2960930 16711746
1.2978127 -1.3972995 9.3355436 16711746
1.4010277 -1.4354783 9.7571249 16711746
1.4897615 -1.3749658 9.4207611 16711746
1.4171315 -1.3883361 9.3651028 16711746
1.7998427 -1.3511655 9.3270798 16711746
0.9229596 -1.3559856 9.0998631 16711746
1.1797924 -1.4352144 9.7152328 16711746
1.2400103 -1.4914879 9.9552736 16711746
1.6900607 -1.3827000 9.5168486 16711746
-0.0717136 -1.6339281 9.8632393 16711746
1.7103996 -1.3812084 9.7215052 16711746
1.3679746 -1.4074572 9.4686022 16711746
0.4801397 -1.4277265 9.3588409 16711746
0.2775467 -1.5491976 9.7722626 16711746
1.9732001 -1.4370698 10.2377195 16711746
1.0796486 -1.5040553 10.1557837 16711746
0.4925764 -1.5202515 9.6414318 16711746
1.3199729 -1.4403304 9.7660255 16711746
1.3730857 -1.4111623 9.4560862 16711746
1.8444000 -1.4415089 10.1838408 16711746
0.6344785 -1.4987268 9.5312214 16711746
1.2411684 -1.3814583 9.2274313 16711746
-0.1237786 -1.6264120 10.1581802 16711746
1.4896078 -1.3592130 9.3347540 16711746
2.0202591 -1.4785659 10.4912863 16711746
1.0977606 -1.5038022 10.1036816 16711746
1.5636588 -1.4106232 9.7228956 16711746
1.6695106 -1.3314012 9.3679123 16711746
1.0607823 -1.3748068 9.1810093 16711746
1.5220424 -1.3791654 9.4301481 16711746
1.4464276 -1.3457351 9.3513489 16711746
1.3429257 -1.3833525 9.2829933 16711746
0.4905000 -1.4515910 9.3865767 16711746
1.3388572 -1.4262242 9.5264435 16711746
0.9224102 -1.3611900 9.0591593 16711746
1.4188554 -1.4699132 9.8373156 16711746
1.2338222 -1.4184860 9.6316500 16711746
1.5049956 -1.4134132 9.5623970 16711746
1.6473466 -1.3864527 9.6077404 16711746
1.2988876 -1.3968898 9.4167318 16711746
1.7284164 -1.3924445 9.5641327 16711746
0.8440884 -1.4401280 9.3326893 16711746
0.3509367 -1.4769988 9.3226194 16711746
1.8117849 -1.3581698 9.4270697 16711746
1.3695499 -1.3882005 9.3240585 16711746
1.8873283 -1.4291911 10.4019995 16711746
1.4610891 -1.4367061 9.6208849 16711746
1.5571017 -1.4149994 9.8349314 16711746
1.4000055 -1.3373302 9.5617619 16711746
1.7405561 -1.4137502 9.7571182 16711746
0.3713279 -1.4574080 9.2815981 16711746
1.2901430 -1.4066281 9.4365149 16711746
1.7297894 -1.4775662 10.4040623 16711746
1.8914145 -1.5056875 10.5689287 16711746
1.7333426 -1.3187373 9.3102388 16711746
1.8179541 -1.3827988 9.8048363 16711746
1.7820424 -1.3908516 9.8249350 16711746
1.4977791 -1.4816018 10.1677189 16711746
1.8594090 -1.3546075 9.4313498 16711746
0.4932145 -1.4375552 9.3136454 16711746
1.2036724 -1.4547004 9.7558947 16711746
1.1934186 -1.4317478 9.6161613 16711746
1.6651287 -1.3305446 9.3454609 16711746
1.7796767 -1.3605640 9.4841318 16711746
1.8343140 -1.4882389 10.3476410 16711746
1.5936158 -1.3723130 9.4710035 16711746
1.7384855 -1.3725349 9.7205667 16711746
1.2961617 -1.3824965 9.2602005 16711746
1.4605920 -1.4349056 9.8888979 16711746
1.8437293 -1.3536623 9.4314365 16711746
1.3086076 -1.4490349 9.7777843 16711746
1.7259222 -1.3897721 9.5673418 16711746
1.8692858 -1.4085758 9.7994223 16711746
0.8879153 -1.3524665 9.0235090 16711746
0.1697575 -1.5049123 9.8156033 16711746
1.7280957 -1.3420180 9.3703928 16711746
0.9381854 -1.5866252 10.8241854 16711746
1.2280585 -1.4089644 9.1829844 16711746
1.4246681 -1.4151696 9.5363874 16711746
0.7218958 -1.3955376 9.1466293 16711746
1.8925120 -1.3366513 9.3188219 16711746
1.8680795 -1.4297481 9.7735100 16711746
2.2353225 -1.6589161 11.7822256 16711746
1.5219043 -1.7206864 10.2820597 16711746
1.7546673 -3.2365961 14.0124931 16711746
1.4634972 -2.5831800 11.9358292 16711746
0.5312085 -1.4422445 9.3182516 16711746
1.1808660 -1.4365132 9.6351614 16711746
1.2578194 -1.4323277 9.6781082 16711746
