# .PCD v.7 - Point Cloud Data file format
VERSION .7
FIELDS x y z rgb
SIZE 4 4 4 4
TYPE F F F F
COUNT 1 1 1 1
WIDTH 1210
HEIGHT 1
VIEWPOINT 0 0 0 1 0 0 0
POINTS 1210
DATA ascii
-1.6717285 -0.1457441 6.1686454 16711746
1.0204518 0.1076712 1.7611321 16711746
-0.7558287 0.0731904 3.3504553 16711746
-0.5839146 0.1588127 0.7816663 16711746
-0.9953241 0.1476983 1.2392493 16711746
-1.1411903 0.0844751 1.5460494 16711746
0.2617171 0.1989530 0.5812255 16711746
0.3183847 0.2112314 0.5694486 16711746
0.3936535 0.2085967 0.5764706 16711746
0.1822330 0.1980699 0.5397682 16711746
0.1392732 0.1876343 0.5720296 16711746
-0.3565138 0.1405643 1.0527185 16711746
-0.7642016 0.1322168 1.2905566 16711746
-0.6814930 0.0782116 1.2418498 16711746
0.9968616 0.1911321 3.4618108 16711746
0.9342511 0.1496920 3.5566437 16711746
-0.1743461 0.1151997 1.1258749 16711746
-0.2219712 0.1477427 0.9146677 16711746
-0.2642101 0.1310543 1.2012746 16711746
-0.2945685 0.1288523 1.1227196 16711746
0.3075690 0.1334727 1.6035786 16711746
0.3796591 0.1580259 2.2340393 16711746
-0.2541884 0.1534643 0.8991181 16711746
0.4135811 0.1736272 0.8513253 16711746
-0.0642875 0.1667366 0.6302713 16711746
0.5061095 0.2186058 0.6375097 16711746
-0.5821146 0.1433905 1.1198400 16711746
0.0510455 0.1023788 1.5692084 16711746
0.5605673 0.1999515 0.8973881 16711746
0.4108336 0.1809250 0.7122762 16711746
0.3708622 0.1919343 0.6562014 16711746
0.7000040 0.2283931 0.8000327 16711746
0.8329437 0.2156587 0.9905592 16711746
1.1252464 0.2210976 1.7324255 16711746
0.0024533 0.1616840 0.8010246 16711746
0.1096728 0.1824836 0.6256398 16711746
0.1151440 0.1711790 0.7090077 16711746
0.0330964 0.1742162 0.6429312 16711746
-0.2552802 0.1803328 0.3292807 16711746
0.0895811 0.1932077 0.5169953 16711746
-0.0806544 0.1743551 0.5983163 16711746
-0.1752582 0.1642642 0.6222386 16711746
0.4681086 0.2316509 0.5415908 16711746
-0.1786956 0.1393840 0.9493788 16711746
-0.2575912 0.1556984 0.9134213 16711746
0.1818026 0.1875182 0.6090469 16711746
0.2645966 0.1907705 0.6536597 16711746
0.1075831 0.1469923 0.9807236 16711746
-0.3703152 0.1484867 0.7984838 16711746
0.0606832 0.1681792 0.7266872 16711746
-0.0051556 0.1662122 0.7292200 16711746
-0.1915399 0.1884985 0.3349386 16711746
0.2099449 0.1649760 0.9360278 16711746
0.2728936 0.2184964 0.4103575 16711746
-0.0076606 0.1813382 0.6089618 16711746
0.0626203 0.1797039 0.6711581 16711746
-0.0286865 0.1371338 1.0331563 16711746
0.2352646 0.1541575 0.9817738 16711746
0.2804359 0.2271723 0.4280619 16711746
-0.3171024 0.1613495 0.3236046 16711746
-0.1326181 0.1469080 0.9841977 16711746
-0.1640932 0.1087646 1.0826129 16711746
0.0047048 0.1528420 0.7602637 16711746
0.1905267 0.1916349 0.5662301 16711746
0.5166962 0.2380866 0.5181975 16711746
0.5644206 0.2069154 0.5150945 16711746
0.1331277 0.1656975 0.8236907 16711746
-0.0021060 0.1556500 0.6905712 16711746
-0.3856030 0.1594386 0.6479741 16711746
0.1615362 0.1568943 1.0060623 16711746
-0.1541044 0.1512972 0.9009567 16711746
-0.0641051 0.1639234 0.6254416 16711746
-0.0435695 0.1556914 0.8677093 16711746
0.0613041 0.1992189 0.4587440 16711746
0.1357106 0.2077964 0.4245513 16711746
0.1133025 0.2017288 0.4482284 16711746
0.2080285 0.2214406 0.4549088 16711746
0.1765826 0.2066885 0.4451487 16711746
-0.0055939 0.1714139 0.5762841 16711746
0.2929495 0.2115403 0.5491959 16711746
0.4158992 0.1741091 1.0334731 16711746
0.0193814 0.1627975 0.9563248 16711746
0.1865928 0.1898672 0.5580708 16711746
0.5560067 0.2143335 0.7263633 16711746
0.4313992 0.2220879 0.5305803 16711746
0.4178893 0.2292452 0.5831698 16711746
0.4139849 0.2141252 0.6022100 16711746
-0.1058616 0.1657286 0.6860554 16711746
-0.1057696 0.1727396 0.6035588 16711746
0.1838886 0.2004902 0.5446339 16711746
0.2196483 0.1904321 0.5444528 16711746
-0.0061702 0.1741848 0.5874485 16711746
-0.4358071 0.1467272 0.7012301 16711746
0.0175387 0.1547590 0.9471913 16711746
-0.2360273 0.1581183 0.6455661 16711746
0.2346628 0.1263855 1.4773588 16711746
0.9880989 0.2206267 0.9836663 16711746
0.8380093 0.2628184 0.9406780 16711746
0.0650629 0.1755985 0.5924931 16711746
0.3608084 0.1963642 0.9349080 16711746
-0.3147084 0.1025613 1.1000564 16711746
0.5760956 0.2094673 0.5263647 16711746
0.1186548 0.1768078 0.7212446 16711746
0.2561041 0.1838112 0.5416009 16711746
-0.2602340 0.1445817 0.7861560 16711746
-0.2822740 0.1391127 0.8173850 16711746
0.1893243 0.1933444 0.5710348 16711746
0.4847887 0.2390786 0.5622356 16711746
-0.3585729 0.1546005 0.6636549 16711746
0.0701975 0.2205554 0.9658167 16711746
0.1541739 -0.1300318 1.2907940 16711746
-0.0102869 0.1954421 0.4669940 16711746
-0.3348663 0.2359989 0.4277415 16711746
-0.3902838 0.1996170 0.3926470 16711746
-0.1925512 0.1797496 0.5637516 16711746
0.4012723 0.1642944 1.0020497 16711746
0.2680793 0.1975091 0.6762672 16711746
0.2569781 0.1841510 0.7031078 16711746
-0.0261556 0.1382443 0.9860898 16711746
-0.0475534 0.1746969 0.6328365 16711746
-0.2082380 0.1579212 1.0628632 16711746
-0.4294892 0.1434763 0.6896245 16711746
0.6067446 0.2232444 0.6469521 16711746
0.0367679 0.1725629 0.6774244 16711746
0.5527152 0.2085913 0.4665418 16711746
-0.1911101 0.1153620 0.7150916 16711746
0.2999745 0.2062426 0.6096564 16711746
0.4443597 0.2220642 0.6772999 16711746
0.4188540 0.1950864 0.6817576 16711746
0.3453125 0.1890706 0.6917602 16711746
0.3973693 0.1906298 0.7587111 16711746
0.1161138 0.1632735 1.0839932 16711746
0.0948215 0.1636256 0.7709560 16711746
-0.1198856 0.1621773 0.7435491 16711746
-0.3049298 0.1440789 0.9738432 16711746
-0.2770407 0.1478656 0.7273495 16711746
-0.0999992 0.1649681 0.5747304 16711746
-0.2541711 0.1373698 0.2403148 16711746
-0.3190723 0.1668596 0.3282572 16711746
0.0725069 0.1875064 0.4534630 16711746
-0.0140573 0.2044581 0.4866787 16711746
0.1289524 0.1969451 0.4058388 16711746
0.2617091 0.2034791 0.5548972 16711746
-0.2554950 0.1073162 0.7892162 16711746
0.3205474 0.1563885 1.3735719 16711746
0.4071934 0.2058800 0.5673861 16711746
0.1179871 0.1766870 0.7153155 16711746
0.1572753 0.1882131 0.5857099 16711746
-0.6190259 0.1435285 0.7429935 16711746
0.3408123 0.1655470 0.9880231 16711746
-0.4119302 0.1781801 1.0496051 16711746
-0.4396388 0.1055227 0.9944388 16711746
-0.8104279 0.1680948 0.9144520 16711746
0.1586711 0.1962367 0.8076454 16711746
0.2306299 0.1766437 0.8384446 16711746
0.0609773 0.1707776 0.5785974 16711746
0.1116692 0.1745230 0.6198410 16711746
0.2298404 0.2057827 0.5825633 16711746
-0.0324487 0.1505195 1.0494058 16711746
0.4193313 0.2072928 0.6435789 16711746
0.5767356 0.2217283 0.7665237 16711746
0.2350872 0.1946823 0.5849146 16711746
0.9699553 0.2468378 1.1153711 16711746
0.4462751 0.2660961 0.7883453 16711746
0.3513465 0.2518173 1.6985332 16711746
-0.4042116 0.1662931 0.6795011 16711746
-0.0264974 0.1657791 0.6662025 16711746
0.4577714 0.2303512 0.5858988 16711746
0.0801999 0.1320827 0.6582181 16711746
-0.0604946 0.1554353 0.7551727 16711746
-0.1218763 0.2233860 0.9798241 16711746
-0.8697078 0.1421542 0.7752639 16711746
0.7393098 0.1876340 1.7337482 16711746
0.0276558 0.0110387 1.5733250 16711746
0.9238152 0.1801794 1.2921652 16711746
0.5704017 0.1880876 0.9983882 16711746
-0.1278861 0.1677289 0.6449267 16711746
0.2906435 0.1985152 0.6267120 16711746
0.3997534 0.1790462 1.0008990 16711746
-0.5815353 0.1452792 0.8436919 16711746
-0.4013039 0.1483468 0.7369982 16711746
-0.0415658 0.1575412 0.8721778 16711746
-0.0680258 0.1658715 0.7895873 16711746
0.1703749 0.1862429 0.6189007 16711746
0.1888192 0.2098163 0.3916684 16711746
-0.2097079 0.1632179 0.6390337 16711746
0.2550248 0.1868787 0.7033393 16711746
0.5031921 0.1551398 1.1739377 16711746
0.2420321 0.1649922 0.8919942 16711746
-0.1284009 0.1472481 0.9795879 16711746
0.0777192 0.1748216 0.7522621 16711746
-0.5813961 0.1440663 0.8397497 16711746
0.0444590 0.1370138 1.2205683 16711746
-0.4238202 0.1496300 0.8006204 16711746
-0.0864588 0.1632623 0.7033608 16711746
0.3300510 0.1612818 1.1066763 16711746
-0.1655929 0.1777947 0.2708051 16711746
-0.6007003 0.1483740 0.5579652 16711746
0.1787441 0.2077883 0.4457886 16711746
-0.0417421 0.1525961 0.8477792 16711746
0.6644204 0.2140959 0.8839962 16711746
0.4105927 0.2131729 0.5964302 16711746
0.4376857 0.2029171 0.6708658 16711746
-0.2648452 0.1486335 0.7958189 16711746
-0.2777481 0.1492957 0.7219521 16711746
-0.1758387 0.1630171 0.6206885 16711746
0.0374601 0.1745423 0.6820320 16711746
0.4656421 0.2261935 0.6034858 16711746
0.5424266 0.2405742 0.6390680 16711746
-0.3941920 0.1494193 0.9762452 16711746
-0.4895875 0.1830518 0.8813726 16711746
0.1062724 0.1442160 0.9696580 16711746
-0.4007924 0.1657400 0.6756207 16711746
0.3035209 0.2055707 0.6120437 16711746
0.3325715 0.2017555 0.6507084 16711746
0.1115371 0.1491531 1.0128227 16711746
-0.3859873 0.1583556 0.6547575 16711746
-0.4945895 0.0861776 0.8226657 16711746
0.2531423 0.1801936 0.6893412 16711746
0.1072330 0.1683569 0.7210298 16711746
0.2404702 0.1589734 1.0276519 16711746
-0.3585463 0.1184142 1.0758506 16711746
0.2795261 0.1642207 1.1815579 16711746
-0.1835543 0.1754660 0.6236306 16711746
0.7107307 0.2335342 0.7252379 16711746
-0.0534112 0.1639884 0.9068531 16711746
0.3491593 0.1916430 0.6994119 16711746
0.5118739 0.1609564 1.5644891 16711746
0.3789512 0.2350637 0.5989513 16711746
-0.4585086 0.0859633 1.3714144 16711746
-0.3267546 0.1590631 0.7172985 16711746
0.3479412 0.1961431 0.7847779 16711746
0.9817650 0.2370319 1.2886382 16711746
-0.0319971 0.1706712 0.6810003 16711746
-0.1097272 0.1523691 0.6899297 16711746
-0.6656767 0.1480453 1.2004620 16711746
-0.3132698 0.2206691 0.4005238 16711746
0.4522554 0.2175762 0.5287440 16711746
0.4783522 0.2060271 0.5538467 16711746
-0.4111368 0.1707083 0.8567183 16711746
-0.1403454 0.1457925 0.9883600 16711746
-0.1044710 0.1723035 0.6006884 16711746
0.2301506 0.1920142 0.6303551 16711746
0.3599058 0.1559430 1.1621034 16711746
-0.1624452 0.1542193 0.9734112 16711746
0.2380715 0.1845270 0.7398310 16711746
0.7741535 0.2350555 0.5980743 16711746
0.0366261 0.1519844 1.1429725 16711746
-0.1107578 0.1541662 0.7394660 16711746
0.0833143 0.1694934 0.8399572 16711746
-0.3438381 0.1819634 0.3883160 16711746
0.1239633 0.1884252 0.6276798 16711746
0.2029542 0.1607750 0.9103038 16711746
0.7329964 0.2604101 0.7321544 16711746
0.3088052 0.1796909 0.7331145 16711746
0.5331872 0.2455613 0.5309416 16711746
0.7434596 0.2367880 0.8236761 16711746
-0.0060897 0.1727597 0.5821018 16711746
-0.0312600 0.1665980 0.6752732 16711746
0.3865730 0.2111032 0.6202765 16711746
-0.3549063 0.1475127 0.8247070 16711746
-0.2779169 0.1606975 0.6677143 16711746
-0.2960765 0.1829078 0.4962490 16711746
0.1954994 0.1939452 0.5689730 16711746
0.2363067 0.1828716 0.7368195 16711746
0.2250950 0.1930010 0.8263189 16711746
-0.5592194 0.1379023 1.0731682 16711746
0.4410099 0.2019235 0.7313731 16711746
0.0326823 0.1542695 0.8107886 16711746
-0.0716280 0.1396260 0.9876786 16711746
0.0621787 0.1763133 0.6636246 16711746
-0.0295376 0.1737860 0.6615452 16711746
0.1781638 0.1525385 1.1685905 16711746
0.2916566 0.1997336 0.5926899 16711746
-0.1320368 0.1571724 0.7128837 16711746
0.0991051 0.1817138 0.6431327 16711746
0.0031918 0.1769852 0.6726343 16711746
0.5573387 0.2289826 0.6499114 16711746
0.7093616 0.2358490 0.7295399 16711746
-0.0325323 0.1826059 0.6040747 16711746
-0.3583012 0.1472883 0.8429310 16711746
-0.0512234 0.1013466 1.1647563 16711746
-0.3311937 0.1680966 0.4012183 16711746
0.1136918 0.1958144 0.6693987 16711746
0.3068731 0.2280020 0.4216615 16711746
0.2272994 0.2048807 0.4210225 16711746
0.8629432 0.2377928 0.8436360 16711746
-0.1557214 0.1559820 0.6684600 16711746
-0.3063469 0.1480039 0.6806536 16711746
0.4061342 0.1827791 1.3121111 16711746
0.5333835 0.1793311 0.4037233 16711746
0.0996509 0.1744017 0.6242350 16711746
0.2162852 0.1773749 1.0029421 16711746
0.0452152 0.1358629 1.2339678 16711746
0.9325963 0.2332766 1.1377162 16711746
-0.1135997 0.1695916 0.6985365 16711746
-0.4152715 0.1607563 0.8638737 16711746
0.3069465 0.1871186 0.6743626 16711746
0.0311522 0.1874144 0.5110739 16711746
0.4146112 0.1903197 0.8803115 16711746
0.1330173 0.1906331 0.6287745 16711746
-0.5520831 0.1748262 0.8087083 16711746
-0.2073217 0.1346330 1.1658241 16711746
0.4775681 0.1951384 0.7650567 16711746
-0.5436272 0.1362827 1.2312502 16711746
0.7609253 0.2065893 1.0572864 16711746
0.6303083 0.2624792 0.8973085 16711746
0.4456637 0.2317068 0.5497949 16711746
-0.5188600 0.1645206 0.7629538 16711746
-0.1493331 0.1036540 1.0380018 16711746
0.0063151 0.2066536 1.2279177 16711746
0.6696764 0.4663007 1.3383723 16711746
0.1294059 0.1699842 1.1147486 16711746
-0.6834562 -0.0658385 1.0261356 16711746
-0.8510396 0.1506087 1.3683531 16711746
0.4090605 0.1600360 2.2139482 16711746
0.6220600 0.2648226 0.6150112 16711746
-0.1897380 0.1667097 0.7569955 16711746
-0.3605168 0.1076795 1.5957966 16711746
0.3296347 0.1863324 0.6914629 16711746
0.0527417 0.1806494 0.6328197 16711746
-0.4093224 0.1516427 0.7473910 16711746
0.3056563 0.1338300 1.6375366 16711746
0.0477447 0.0945516 1.4787971 16711746
0.0623674 0.1577324 0.7965597 16711746
-0.0792724 0.1514321 1.0573778 16711746
0.0349959 0.2312436 0.6123471 16711746
-0.3036414 0.1663980 0.3153996 16711746
0.4379376 0.1436604 1.4602499 16711746
0.3237758 0.2057012 0.5976698 16711746
0.2546011 0.1471378 1.6631588 16711746
-0.2458412 0.1489134 0.9317526 16711746
0.9159723 0.2482339 1.1832912 16711746
-0.6392626 0.1070697 1.3950509 16711746
-0.0391088 0.2040888 0.3603615 16711746
-0.1829486 0.1714161 0.5381150 16711746
0.1225262 0.1878273 0.6276035 16711746
-0.2462162 0.1610377 0.8204899 16711746
0.1950377 0.1859132 0.6647095 16711746
0.1451768 0.1622993 0.7910419 16711746
0.7132310 0.2179721 1.1526974 16711746
-0.0085092 0.1810386 0.5459942 16711746
-0.2209426 0.1431586 1.2306591 16711746
-0.7031897 0.1636009 0.9842373 16711746
0.4158555 0.2336650 0.3604059 16711746
-0.1342091 0.1712292 0.6643130 16711746
0.5772439 0.2202034 0.7582361 16711746
0.1916633 0.1776054 0.6354356 16711746
-0.1006898 0.1576363 0.7960889 16711746
0.1623109 0.2040795 0.5954544 16711746
-0.3696392 0.0830965 1.3922261 16711746
-0.1629624 0.0809892 1.4877679 16711746
0.6698425 0.2294925 0.9279491 16711746
-0.0211442 0.0393987 1.4691634 16711746
0.2056005 0.1874009 0.6104357 16711746
0.0915290 0.1763246 1.0246363 16711746
-0.3062442 0.1239995 1.1036506 16711746
0.2485854 0.1317317 1.5170021 16711746
-0.2259742 0.1578263 0.6719101 16711746
0.2838529 0.1994973 0.5869095 16711746
0.6291791 0.1611920 1.4688938 16711746
0.0194922 0.1786204 0.7337693 16711746
0.2155628 0.1889267 0.6304986 16711746
0.1081189 0.2086987 0.4367586 16711746
-0.0070676 0.1749187 0.5878483 16711746
-0.0108357 0.1919250 0.4580707 16711746
-0.0983114 0.1617102 0.5650052 16711746
-0.0976142 0.1613463 0.6688405 16711746
-0.0061994 0.1750177 0.5899404 16711746
-0.0630426 0.1530605 0.4867983 16711746
0.0516143 0.1782582 0.6264864 16711746
0.1985173 0.1794185 0.7096500 16711746
0.2190298 0.2115356 0.4020970 16711746
0.0621126 0.2181016 0.3835466 16711746
0.1862120 0.1979996 0.5841093 16711746
0.5044963 0.2341027 0.5872154 16711746
-0.0256678 0.1768130 0.6303778 16711746
0.4506762 0.2188724 0.5822431 16711746
0.9311868 0.2672765 0.6976877 16711746
-0.6829079 0.0790084 1.2369034 16711746
-0.2766608 0.1791942 0.3096897 16711746
0.4648063 0.2393031 0.5715356 16711746
0.0464613 0.1077406 1.7018332 16711746
-0.0230560 0.1656789 0.5920768 16711746
-0.6627123 0.0425160 1.5818592 16711746
-0.3113078 0.1600317 0.6098284 16711746
0.6975813 0.2276876 0.5116715 16711746
0.0987911 0.1281345 1.8802933 16711746
1.0304985 0.2348858 0.7059444 16711746
0.5750767 0.1793115 1.3462771 16711746
0.2127632 0.1760588 0.9838438 16711746
0.5542743 0.1960667 0.8828539 16711746
-0.0010238 0.1636380 0.7279424 16711746
0.0344655 0.1550648 0.8175293 16711746
0.3787988 0.1959287 0.6711224 16711746
0.0943683 0.1178601 1.3348535 16711746
-0.8217205 0.1204268 1.1443927 16711746
-0.6155422 0.0341552 1.4667253 16711746
0.8655977 0.1515091 1.5278994 16711746
0.2920413 0.2112545 0.5500166 16711746
0.3513402 0.0909057 0.5292732 16711746
-0.2636322 0.1096274 0.6520001 16711746
1.0164399 0.2919064 0.8669541 16711746
-0.1240868 0.1352362 0.9186049 16711746
0.2101186 0.1721688 0.7576802 16711746
0.0020770 0.1660282 0.7382008 16711746
0.6449006 0.2698687 0.7112781 16711746
-0.1841636 0.1144283 1.4166894 16711746
-0.1631429 0.1616155 0.6882198 16711746
0.1437652 0.1487742 0.6516116 16711746
-0.2027337 0.1977407 0.5552967 16711746
0.0507365 0.1966128 0.6430558 16711746
-0.1536930 0.1475273 0.7429808 16711746
0.4095775 0.1887801 0.6568694 16711746
-0.1617989 0.1556358 0.5588062 16711746
0.0538175 0.1716823 0.6028363 16711746
-0.0068240 0.1790743 0.5391711 16711746
-0.0292240 0.1615460 0.6507699 16711746
-0.0449517 0.1702171 0.6141248 16711746
-0.0710224 0.0531557 0.3658940 16711746
-0.1246722 0.2388785 0.3764010 16711746
-0.1384334 0.2582228 0.4069402 16711746
-0.0654270 0.1690236 0.5700284 16711746
-0.1156945 0.1408919 0.7955841 16711746
0.3798180 0.2632825 0.5315836 16711746
0.5045726 0.2040742 0.7280489 16711746
-0.3432114 0.1526165 0.7703474 16711746
-0.0940790 0.1855611 0.5309266 16711746
-0.1831367 0.1766553 0.5355468 16711746
-0.7777810 0.1492439 1.2613964 16711746
0.1272066 0.1915022 0.5582457 16711746
-0.3652670 0.1451341 1.0763429 16711746
-0.5438751 0.1374038 1.2521578 16711746
0.1778057 0.1727279 0.9397873 16711746
0.1408824 0.1769341 0.8729394 16711746
0.8635315 0.2430388 1.3043084 16711746
-0.2885945 0.1484344 0.8348497 16711746
0.0224741 0.0932900 1.4820496 16711746
0.2498860 0.1431859 1.6082510 16711746
0.0056570 0.1528970 0.9439664 16711746
0.7191984 0.2432477 0.5289837 16711746
0.4283281 0.2342981 0.3949298 16711746
0.3387822 0.2186755 0.5575138 16711746
0.0857217 0.1572822 0.8118982 16711746
0.2092060 0.1525875 1.4982845 16711746
-0.0061548 0.1510214 0.9855857 16711746
-0.0402360 0.1673294 0.6051732 16711746
0.2447651 0.1562817 1.2562587 16711746
-0.2390918 0.0125022 2.1687551 16711746
0.3334963 0.2242465 0.4590289 16711746
0.2079792 0.1903392 0.6159294 16711746
0.0937869 0.0985176 2.0255048 16711746
0.3949111 0.1632411 1.5892261 16711746
0.3965881 0.2172464 0.6355987 16711746
0.2050251 0.1479134 1.6683077 16711746
0.1755528 0.1737560 1.1054995 16711746
1.3826689 0.3252839 1.3917962 16711746
0.6179804 0.2760718 0.5953305 16711746
-0.3652961 0.2524071 0.4073880 16711746
-0.1407443 0.1457125 0.7979909 16711746
0.4311479 0.2352968 0.5790017 16711746
0.1951971 0.2251196 0.4417765 16711746
-0.0383092 0.1194623 0.5855665 16711746
0.3551641 0.2035564 0.5869066 16711746
-0.1654287 0.1193801 0.7367457 16711746
0.2155153 0.1744242 0.5599824 16711746
0.0768135 0.1440587 0.8206505 16711746
-0.1729763 0.0134524 0.9890627 16711746
-0.1174458 0.1702959 0.6971822 16711746
-0.0036304 0.1974172 0.8664712 16711746
0.0062438 0.0865184 1.2787627 16711746
0.0979647 0.1826870 0.4867712 16711746
-0.2041924 0.2164159 0.3160312 16711746
0.1583753 0.1743056 0.7538804 16711746
0.1593466 0.1473463 0.8080203 16711746
0.1354917 0.1621491 0.8058533 16711746
0.1092569 0.1578394 0.9812452 16711746
0.0635906 0.1684076 0.7274914 16711746
0.4309879 0.2355344 0.5787428 16711746
0.2116331 0.2242299 0.4602559 16711746
0.0112652 0.1765163 0.6113668 16711746
0.3087850 0.1537421 0.7619823 16711746
0.3949372 0.2036113 0.6417267 16711746
-0.2743771 0.2406595 0.3288267 16711746
0.1845561 0.2011250 0.5468885 16711746
0.1571866 0.1918491 0.5902102 16711746
0.1751450 0.2160669 0.4741005 16711746
-0.1031317 0.1173243 1.0972099 16711746
0.4077792 0.2096563 0.6326224 16711746
-0.4963008 0.1205154 1.2408452 16711746
0.4429359 0.1577772 1.0565805 16711746
0.8083556 0.1934855 1.8336966 16711746
-0.3152393 0.1559069 0.7121460 16711746
-0.0193860 0.0063591 2.0043015 16711746
-0.3680578 0.1670424 0.6228967 16711746
0.8171962 0.2083509 1.4347645 16711746
0.3140392 0.1688003 1.0410262 16711746
0.1022873 0.1757437 0.7134184 16711746
0.1899579 0.2115516 0.3987449 16711746
1.1989418 0.2556151 1.3301834 16711746
0.3508814 0.1933370 0.6828579 16711746
-0.5249595 0.1317364 1.2009350 16711746
0.5876703 0.2550990 0.4439497 16711746
0.2518823 0.2062250 0.6227502 16711746
-0.1740776 0.1511702 0.6871132 16711746
1.0999830 0.2876933 1.3595316 16711746
-0.6314995 0.1457161 0.8909032 16711746
0.1984953 0.1791738 0.7200417 16711746
0.3279883 0.1095252 1.9887230 16711746
-1.0022032 0.0583534 1.6349521 16711746
-0.5230125 0.1209121 1.9316888 16711746
0.1019050 0.1352903 0.9227285 16711746
-0.0351026 -0.1994871 2.3160872 16711746
-0.2745484 0.1553997 0.8198720 16711746
-0.1010100 0.1632095 0.6771200 16711746
0.1537038 0.1903834 0.5859303 16711746
0.1108296 0.1794724 0.6986840 16711746
0.4084758 0.1981929 0.7744893 16711746
0.0799566 0.1530241 0.8617910 16711746
0.1582821 0.1969180 0.5418148 16711746
-0.1133418 0.0592381 1.1972901 16711746
0.0439634 0.1613959 0.6440553 16711746
0.0739516 0.1443915 1.0166147 16711746
0.0080741 0.1564328 0.7384627 16711746
-0.0270913 0.1585670 0.6470813 16711746
0.0958916 0.1828341 0.4903934 16711746
0.1917396 0.1657215 0.7711187 16711746
-0.2356402 0.0697742 0.3705205 16711746
0.2479328 0.2187337 0.5863429 16711746
0.1871777 0.1788757 0.6934099 16711746
0.2684276 0.1950396 0.6608435 16711746
0.2505397 0.1834441 0.6870443 16711746
0.0045707 0.1507520 0.9345967 16711746
-0.3839195 0.0108621 0.3322822 16711746
0.1975418 0.1890239 0.6972685 16711746
-0.1128181 0.1500504 0.8212544 16711746
0.2050758 0.1791052 0.6128970 16711746
-0.0609890 0.1622589 0.8558583 16711746
0.2678618 0.1999595 0.5569716 16711746
-0.3691992 0.1582696 0.6726642 16711746
-0.1318206 0.1574702 0.7073720 16711746
0.2214679 0.1829952 0.8322864 16711746
0.8860584 0.2301613 1.5472167 16711746
-0.6413091 0.0835391 1.8658686 16711746
-0.1360884 0.1775622 0.6826307 16711746
-0.0696250 0.1686837 0.8055156 16711746
-0.1033458 0.0992605 0.9748197 16711746
-0.9091445 0.1449987 1.3782773 16711746
-0.8536355 0.0492664 1.6276966 16711746
-0.9486888 -0.0607222 1.4084382 16711746
-0.7002774 0.1788633 0.8734684 16711746
0.9038619 0.2178661 1.1915827 16711746
0.2539147 0.1791328 0.7195446 16711746
0.0907674 0.0485462 2.1789305 16711746
-0.3797208 0.2029827 0.4309809 16711746
-0.9385878 0.0465782 1.5312561 16711746
-0.0113138 0.1951991 0.4639984 16711746
0.2732232 0.1221192 0.7736716 16711746
0.2062375 0.1365548 1.1133014 16711746
0.1448315 0.1159587 0.9269484 16711746
-0.1450584 0.1030634 1.0298909 16711746
-0.1112186 -0.0786887 1.1321661 16711746
0.0106533 -0.2850778 1.0774277 16711746
0.0627768 0.2168875 0.3806912 16711746
0.0044348 0.1720389 0.6556122 16711746
0.2187201 0.1300870 0.7601311 16711746
0.2514756 0.2345431 0.4769769 16711746
-0.0257655 0.2086505 0.3643563 16711746
-0.3043862 -0.0376788 0.4741599 16711746
-0.0766788 -0.0684865 0.9088736 16711746
-0.0327439 0.0539261 1.7390522 16711746
-0.5647522 0.1159713 1.1889731 16711746
0.5655588 0.2097514 0.6227062 16711746
0.4291682 0.2398350 0.3700249 16711746
-0.6248885 0.1400957 0.9522073 16711746
-0.1435571 0.1629872 0.6395723 16711746
0.0317684 0.1436823 1.0914171 16711746
0.2599964 0.1995369 0.5854259 16711746
0.0251618 -0.3354051 2.0792506 16711746
-0.9774058 -0.1165226 1.5173237 16711746
0.0717931 0.2063699 0.4981414 16711746
0.0843340 0.0452599 1.9402997 16711746
-0.1706051 -0.1330806 1.8984426 16711746
-0.7906267 0.0945028 1.4159331 16711746
0.6603687 0.2872232 0.5030209 16711746
-0.0243377 -0.1505697 1.9179385 16711746
0.6846259 0.1690772 1.1848820 16711746
-0.0089821 0.0018268 1.7970411 16711746
0.2326836 0.1791639 0.7558037 16711746
-0.2458429 0.1036744 0.8773583 16711746
-0.3961263 0.1684132 0.6817375 16711746
0.2287701 0.1542390 0.9963677 16711746
-1.1302630 0.0469217 1.2871201 16711746
0.2749501 0.1930139 1.1276126 16711746
0.2015557 0.1862714 0.6370255 16711746
0.1402905 0.1755153 0.6389787 16711746
-0.4105738 0.1402264 0.7733558 16711746
0.1027003 0.0505287 0.9354960 16711746
0.0038165 0.1432269 0.5369508 16711746
-0.1548085 0.1543137 0.6585891 16711746
-0.0508895 0.1564404 0.8239872 16711746
0.0735409 0.1706775 0.7372706 16711746
0.0493729 0.1518629 0.7542244 16711746
0.0521379 -0.2066278 0.9252531 16711746
0.3147523 -0.0060289 0.4148277 16711746
0.0116384 -0.0307829 0.0751343 16711746
-0.0426450 -0.2738183 0.9051231 16711746
0.0167560 -0.1759622 0.9618676 16711746
-0.3831218 0.1460997 0.9531461 16711746
-0.6700428 0.1608306 0.9421090 16711746
-1.0182937 0.2026436 1.1790023 16711746
0.0380928 0.1138017 1.5513958 16711746
0.4325073 0.1991393 0.6601321 16711746
0.1259667 0.1916139 0.6035771 16711746
-0.1845627 0.1590981 0.7231942 16711746
-0.1183252 0.0551749 1.6964931 16711746
-0.0352915 0.1736011 0.7004991 16711746
-0.3857069 0.1971955 0.4719734 16711746
0.2787516 0.2253688 0.4243937 16711746
0.1182576 0.1906966 0.7367314 16711746
-0.0789985 0.1681479 0.5842728 16711746
-1.0246595 -0.0767756 1.4369168 16711746
-1.0936135 0.1586057 1.2443565 16711746
0.2672121 0.1919176 0.6639443 16711746
0.7579223 0.1317355 1.1834478 16711746
-0.8458479 -0.0606999 1.2495337 16711746
-0.7853488 0.0910727 1.3983427 16711746
0.1514941 0.1257178 0.4600942 16711746
0.0289637 0.1648207 0.4467016 16711746
0.0465422 -0.1884746 0.8315135 16711746
-0.6669486 -0.1221219 0.5329052 16711746
0.0448761 -0.1947120 0.8629104 16711746
0.5089008 0.2870575 0.4763476 16711746
0.3115202 0.2216651 0.5723866 16711746
0.4230117 0.1158655 0.5546443 16711746
0.5383411 0.2291232 0.4036641 16711746
0.3631064 0.1896094 0.6459826 16711746
-0.2353553 0.1685140 0.2119201 16711746
0.0285497 -0.1186909 0.4564325 16711746
-0.6043008 -0.0583174 0.8232274 16711746
-0.4513419 0.0379944 1.5929667 16711746
-0.2192424 0.2167754 0.3881677 16711746
0.3201790 0.2023191 0.5843623 16711746
-0.0257142 0.1403581 1.3037724 16711746
-0.3284068 0.1505709 0.9038748 16711746
-0.8869725 0.0066921 1.1900077 16711746
0.5228953 0.2224873 0.4598073 16711746
0.5550282 0.2278551 0.6520185 16711746
-0.8578376 -0.0484587 1.2250944 16711746
-0.9774995 0.1747753 0.9083368 16711746
-0.3790914 0.1524224 1.1111016 16711746
-0.9228712 0.1170174 1.1968874 16711746
-0.2245082 0.1717948 0.6709122 16711746
-1.0332431 0.1843961 0.9586853 16711746
-0.2765211 0.1482578 0.7251104 16711746
-0.7626570 0.0732428 1.1077642 16711746
-0.5099152 0.1729729 0.9500130 16711746
0.0876719 0.1611278 0.8316355 16711746
-0.6757339 -0.1065221 0.5071261 16711746
-0.1331919 0.1673526 0.6501344 16711746
0.3729593 0.1939883 0.6214611 16711746
-0.7891538 0.0437126 1.5209618 16711746
-0.0567755 0.1540003 0.8443107 16711746
-0.7952861 0.1141096 1.0911798 16711746
0.5486399 0.1336541 0.3512695 16711746
0.2186316 0.2137785 0.4598856 16711746
0.4175465 0.1613179 0.5784035 16711746
0.4450123 0.2216179 0.6730164 16711746
0.5762231 0.1859006 0.3864053 16711746
0.6557323 0.1986365 0.7336884 16711746
0.3399538 0.1848626 0.2955497 16711746
-0.4489051 -0.0983185 0.7572699 16711746
0.3004287 0.1796303 0.5789266 16711746
0.4965682 0.2096117 0.6536331 16711746
0.3908793 0.1990778 0.6281531 16711746
0.3547880 0.1923210 0.7052379 16711746
0.1730791 0.1904926 0.6339197 16711746
0.4241258 0.2384176 0.3678818 16711746
0.5888784 0.2765729 0.5935042 16711746
0.2387565 0.1649500 0.8065194 16711746
0.7812391 0.2796755 0.7735099 16711746
0.4108822 0.1849630 0.6752348 16711746
0.8655403 0.1504345 0.5640925 16711746
0.0169696 0.1651896 0.6948518 16711746
0.0299707 0.1568059 0.6883021 16711746
0.5410830 0.2134897 0.6905111 16711746
0.1681602 0.1848015 0.5426560 16711746
0.7089650 0.1329978 0.4664871 16711746
0.5295957 0.2253171 0.4652499 16711746
0.6701002 0.1652607 0.5255296 16711746
0.5188814 0.2375797 0.6155010 16711746
-0.4806613 -0.0819413 0.3659290 16711746
0.7126805 0.1361514 0.4899571 16711746
0.6491774 0.2074465 0.8673428 16711746
0.5191264 0.2101776 0.7497634 16711746
0.7103263 0.2249654 0.9981250 16711746
1.1851846 0.2379333 0.8923912 16711746
-0.3944435 -0.0887202 0.4018927 16711746
0.9788763 0.0780131 1.0131518 16711746
0.1046905 0.1598192 0.6329170 16711746
0.7765279 0.2872469 0.6716312 16711746
0.0791715 0.1573578 0.7889238 16711746
-0.0708166 0.1852493 0.4408934 16711746
0.2255690 0.1497765 0.9590502 16711746
-0.1015356 0.1893059 0.5109295 16711746
0.8217315 0.1876210 1.0364506 16711746
-0.0495095 0.1751081 0.6318352 16711746
0.5822183 0.0967712 0.9020397 16711746
0.2902649 0.1984790 0.5906537 16711746
0.3488394 0.1927345 0.6721590 16711746
0.5263303 0.2263807 0.4958608 16711746
0.6026656 0.2257580 0.6729128 16711746
-0.3128581 -0.1528873 0.6647019 16711746
-0.5605741 -0.1149834 0.5919396 16711746
-0.5753375 -0.1433160 0.4509803 16711746
-0.6125250 -0.1672924 0.4703598 16711746
0.3493465 0.1822756 0.3007323 16711746
-0.6270826 -0.1027321 0.4659267 16711746
0.5412222 0.1302664 0.3406079 16711746
-0.1788775 0.1554276 0.7065527 16711746
-0.3456378 0.1449758 0.7470756 16711746
-0.9676988 -0.1219193 1.1104070 16711746
-0.7517312 -0.0857790 1.1027424 16711746
-1.0991364 0.1431434 1.1802744 16711746
-0.8661279 0.1444898 1.0800445 16711746
-0.1559092 0.1566773 0.9298681 16711746
-0.5363549 0.0663512 1.5750943 16711746
-0.5198341 0.0674517 1.5349623 16711746
-0.1455365 0.0792546 1.4795845 16711746
-0.6712956 0.1130640 1.1297504 16711746
-1.0563387 0.1518384 1.1959952 16711746
0.1236923 0.1863998 0.5863851 16711746
-0.9097107 -0.1657141 1.1467917 16711746
-0.9246541 -0.2273476 1.0304217 16711746
-1.0655186 0.0346406 1.2138315 16711746
-0.2914744 0.0244708 1.4916717 16711746
-0.1262480 0.1657361 0.7684082 16711746
-0.7133147 -0.3829851 1.3538393 16711746
-0.7354189 0.0401957 1.4240907 16711746
-0.9375339 0.1969662 1.0619568 16711746
-0.6877474 -0.3650940 1.3010023 16711746
-0.9322256 -0.1671729 1.1868358 16711746
-1.0588486 -0.0565178 1.1082166 16711746
-0.7399522 -0.1960865 1.3033638 16711746
0.8456565 0.0309327 0.6317957 16711746
0.6530998 0.2302738 0.6218036 16711746
-0.4398314 -0.1203513 0.5174083 16711746
-0.3476984 -0.1735782 0.4674967 16711746
-0.2129841 -0.1131341 0.4553239 16711746
-0.7510353 -0.2050352 0.5671010 16711746
0.1016749 0.1856408 0.5766003 16711746
0.3818447 0.1842281 0.7159734 16711746
0.3863899 0.1856422 0.7276838 16711746
0.2941986 0.1824708 0.6824911 16711746
0.1262051 0.1716977 0.7320574 16711746
0.2541639 0.2019837 0.5458841 16711746
-0.0653416 0.1639385 0.6308151 16711746
0.6909944 0.1687657 1.1262306 16711746
0.7920384 0.2076457 0.9858674 16711746
0.2591069 0.1885036 0.6783171 16711746
0.2015051 0.1644041 0.8409219 16711746
0.7215794 0.1789840 1.0672454 16711746
0.9381424 0.2449963 1.0030950 16711746
0.3801272 0.1559744 0.9287807 16711746
0.7457119 0.1710100 1.1712698 16711746
0.8426471 0.2049336 1.1139275 16711746
0.7415853 0.1243771 1.3060577 16711746
1.1485908 0.1542360 1.2130337 16711746
0.6765383 0.1367646 1.4525965 16711746
1.0248791 0.2776319 0.9937442 16711746
0.6453665 0.1284479 1.3850094 16711746
0.0976677 0.1685685 0.7900188 16711746
0.2046918 0.1424972 1.2105962 16711746
0.0786765 0.1641016 1.0763683 16711746
1.0682318 0.0865621 1.1133450 16711746
1.2024264 0.1035594 1.2656695 16711746
0.8253180 0.0906786 1.4303570 16711746
0.6823631 0.2095551 0.8800926 16711746
0.8849277 0.2346858 0.6922570 16711746
0.8602854 0.2734933 0.7679841 16711746
-0.2744327 -0.0653147 0.3765652 16711746
0.8200760 0.2058511 0.9259586 16711746
-0.4023928 -0.0900817 0.3956384 16711746
-0.3060895 -0.2078145 0.5366072 16711746
0.1714321 0.1717258 0.5652105 16711746
-0.5633304 -0.1581273 0.4299850 16711746
-0.2798911 -0.0709226 0.2861198 16711746
0.1251431 0.1744901 0.7250710 16711746
0.7329873 0.1869643 1.0115641 16711746
-0.6606987 -0.1040535 0.4982964 16711746
0.0943727 0.1709673 0.5384132 16711746
0.5155863 0.2375212 0.6122330 16711746
-0.4930270 0.1486890 0.8805741 16711746
0.5645232 0.1983182 0.7126268 16711746
-0.8092426 0.1297550 0.7480285 16711746
-0.1122342 0.1564716 0.7499145 16711746
-0.7305306 0.0334231 1.3498100 16711746
-0.9676820 0.0185858 1.1625798 16711746
0.6454632 0.1734695 0.9625794 16711746
-0.0096136 -0.4131075 1.1014576 16711746
-0.6291182 -0.1231905 0.9680836 16711746
-1.3251972 -0.0959641 1.0601556 16711746
-0.3357174 0.1210146 0.8381732 16711746
-0.5220239 0.0446439 1.2057499 16711746
0.5226735 0.2423051 0.5283393 16711746
0.2407539 0.2217353 0.4531869 16711746
0.9371145 0.1911435 0.8374256 16711746
0.4542343 0.1796676 0.6484324 16711746
-0.3630160 -0.1768622 0.4795503 16711746
0.2994448 0.1744887 0.7220941 16711746
-0.2592503 -0.1666199 0.3618149 16711746
0.4573154 0.1749678 0.8219461 16711746
-0.2636558 -0.1800202 0.4295126 16711746
-0.1165339 -0.0893769 0.2734696 16711746
-0.4533077 -0.0058803 0.5728840 16711746
-0.3834342 -0.1978050 0.4689797 16711746
-0.0796246 -0.0780540 0.2026393 16711746
-0.4116630 -0.1674315 0.4205368 16711746
-0.6369781 -0.0679022 0.5464487 16711746
0.1066044 0.1510019 0.6741944 16711746
0.5650755 0.0213930 0.8692387 16711746
0.3340291 0.1088151 0.8157964 16711746
0.0711469 0.1761209 0.6933355 16711746
0.8686580 0.2766770 0.8437100 16711746
0.5818403 0.1949201 0.8150759 16711746
-0.1802048 0.1518935 0.6260585 16711746
-0.3877415 0.1997215 0.4008154 16711746
0.1944002 0.1694438 0.7855762 16711746
0.3186275 0.0970195 0.2323899 16711746
-0.0751914 0.1668989 0.5740957 16711746
-0.0192335 0.1351148 1.3363953 16711746
0.3663226 0.1575476 0.7656962 16711746
0.3904286 0.1249011 1.2901245 16711746
0.2116452 0.1952729 0.5806649 16711746
0.7090052 0.1716827 1.1186152 16711746
0.7282121 0.1248442 1.2822150 16711746
0.3499064 0.1442084 1.3791332 16711746
1.2662338 0.1873348 1.3290185 16711746
-0.2403554 0.1424087 0.8294325 16711746
0.2895639 0.1273599 1.5710219 16711746
0.9923407 -0.0287387 1.5265177 16711746
-0.2364713 0.1512761 1.1085103 16711746
0.1013713 0.1642296 0.7012983 16711746
0.1517177 0.2129848 0.4855838 16711746
0.8522299 0.1449671 1.3521248 16711746
0.2549868 0.1044182 1.3611022 16711746
0.4832570 0.1122830 1.4034135 16711746
-0.0611750 0.1396757 0.8961605 16711746
0.5727108 0.1353786 1.1011047 16711746
0.0349195 0.1399497 1.0586855 16711746
0.2153025 0.1565105 0.9386551 16711746
-0.0963889 0.1857383 0.5009691 16711746
0.1083086 0.1439864 1.0793605 16711746
0.9371902 0.0123855 1.3668360 16711746
0.3668044 0.1498855 0.9292868 16711746
0.3806531 0.1551067 0.9355525 16711746
-0.1978992 -0.0986407 0.2024318 16711746
-0.3527232 -0.0719463 0.3227150 16711746
-0.2661389 -0.1420650 0.3668976 16711746
-0.2345530 -0.1320100 0.3304616 16711746
0.0482085 0.1491406 0.9828907 16711746
1.3324211 0.1019671 1.3570210 16711746
-0.0955047 0.1542594 0.6035461 16711746
-0.9564965 0.1778238 0.7039087 16711746
-0.5237827 0.1590869 0.7522353 16711746
-1.1664664 -0.1966518 0.9024733 16711746
-1.1675440 0.1009017 0.9631926 16711746
-0.6734690 0.1490714 1.2182438 16711746
-1.0502838 0.1273473 0.8401529 16711746
-0.7564204 0.1339257 0.7022661 16711746
-0.8500678 -0.0162383 0.8079464 16711746
-0.8780888 -0.0724390 1.2377429 16711746
0.3836943 0.1953200 0.5640966 16711746
0.2223303 0.2000261 0.6605679 16711746
-0.7619535 -0.1896139 1.5600392 16711746
-0.3737281 0.1617747 0.6875873 16711746
0.8294409 0.1672957 0.9175544 16711746
-0.5734637 -0.2127543 0.4815877 16711746
0.2622762 0.0951607 0.8500546 16711746
0.5405284 0.0883727 0.9438948 16711746
0.0278028 0.0991861 0.7396002 16711746
-0.2694522 0.1497366 0.6869906 16711746
-0.2240502 0.1357582 0.8625119 16711746
-0.1134837 0.1261543 0.9119459 16711746
-0.0529909 0.1644046 0.7689074 16711746
-0.3221375 0.1717178 0.4943944 16711746
0.2472367 0.2328771 0.4778284 16711746
-0.0633877 0.1358358 0.7914121 16711746
0.6770551 0.2065004 0.9610116 16711746
0.7526633 0.2065168 1.1260682 16711746
-0.3294699 0.1754540 0.3810240 16711746
0.2930454 0.2002488 0.6345253 16711746
0.2535990 0.1484238 0.6846336 16711746
0.1724580 0.2037779 0.5034268 16711746
-0.4033511 0.1356758 0.7018558 16711746
0.7237172 0.1319480 1.0061806 16711746
0.1020364 0.1378625 1.0102098 16711746
-0.0621444 0.1594291 0.7655548 16711746
-0.2829686 0.2457207 0.7722275 16711746
0.8184643 0.2927628 1.0802755 16711746
0.5170788 0.1788037 0.8126717 16711746
0.7469260 0.1434993 1.4035370 16711746
-0.1904783 0.1738560 0.3488941 16711746
0.0019986 0.0651176 1.6003963 16711746
0.4134984 0.1031339 1.2960228 16711746
1.4797432 0.0191705 1.2733012 16711746
0.4924554 0.2143944 0.6896983 16711746
0.5545819 0.1545721 1.1346906 16711746
0.3750095 0.1889978 0.6818792 16711746
0.3764516 0.1621782 0.7887334 16711746
0.6557341 0.2082847 0.8666553 16711746
-0.1858190 0.1574803 0.6456026 16711746
0.4619270 0.1165121 1.2369540 16711746
0.8523533 0.2169077 1.0506232 16711746
0.1187417 0.0456019 1.6377412 16711746
0.5574510 0.1211452 1.1656979 16711746
1.0871032 -0.0589455 1.6792077 16711746
-0.2894281 0.0643191 1.1011784 16711746
-0.3258021 0.1676009 0.6316504 16711746
1.0652884 0.0684658 1.5832731 16711746
0.6952124 0.2263714 0.9099467 16711746
0.6859344 0.1722524 1.1987417 16711746
0.9592117 0.2147078 0.9590077 16711746
-0.3782244 0.1618681 0.6908938 16711746
1.0237161 0.0795611 1.0576591 16711746
-0.4739751 -0.1822047 0.3530235 16711746
-0.4263971 0.1194703 1.0748886 16711746
0.2204558 0.1549753 1.4885590 16711746
-1.5974174 0.0981803 1.1872302 16711746
-0.8939292 0.1438397 0.8152354 16711746
0.4371231 0.1768499 0.9334812 16711746
-1.2145025 -0.0481339 0.8673300 16711746
-0.9786616 -0.0601832 1.0348022 16711746
-0.3265950 0.1069019 1.1218668 16711746
-0.9329026 0.1367308 0.8058786 16711746
-0.1885364 0.1463511 0.9358354 16711746
0.1204067 0.1787755 0.5944560 16711746
-0.1062817 0.1853190 0.7703377 16711746
-1.2082734 0.0144266 1.1678761 16711746
0.1403289 0.1466013 0.7407647 16711746
0.1187698 0.1847518 0.7950574 16711746
-0.5371729 0.1510060 0.9197795 16711746
0.1952836 0.1098448 1.1816605 16711746
1.0791928 0.0756802 1.1041591 16711746
-0.1728216 0.1602598 0.6110084 16711746
0.9442161 0.2107820 1.2083260 16711746
-0.5895911 0.1755444 0.7959032 16711746
-0.3223171 -0.0940958 0.4131706 16711746
-0.2683352 0.1614117 0.7013101 16711746
0.3246303 0.1838950 0.6818890 16711746
0.5565296 0.0795894 1.6497344 16711746
0.5268312 0.1828609 0.7472314 16711746
0.1734288 0.2047801 0.5059372 16711746
-0.7963145 0.1159586 0.6935163 16711746
-0.5229646 -0.0001691 0.6465940 16711746
-0.5410782 0.1214550 0.6760375 16711746
-0.0844858 0.1466348 0.5781188 16711746
0.2331736 0.2048578 0.5513163 16711746
-0.3124924 0.2029748 0.3551520 16711746
0.5275359 0.2019857 0.7892447 16711746
-0.4957789 0.1508675 0.7159759 16711746
0.4446902 0.0993395 1.2844224 16711746
0.5625926 0.1567765 1.1484901 16711746
-0.0705662 0.1726167 0.5134372 16711746
0.7491435 0.2208453 0.6702782 16711746
1.2302256 0.0089523 1.0477122 16711746
-0.2180596 0.1565833 1.0753278 16711746
0.9124897 0.0711378 0.9484888 16711746
0.3814222 0.1352397 1.3370450 16711746
0.0701049 0.0645285 1.4049708 16711746
0.0675324 0.1130248 1.0249715 16711746
-0.0501375 0.1473964 0.7847171 16711746
-0.3908941 0.0923476 1.4268372 16711746
-0.3161045 0.1645915 0.6260239 16711746
-0.0470832 -0.0593680 0.0804651 16711746
0.0006103 0.0607115 1.5386032 16711746
0.3006714 0.0332872 1.8190926 16711746
-0.6939291 0.1200472 0.6522505 16711746
-0.9280977 0.1171759 0.9350060 16711746
0.2885801 0.1840840 1.0411059 16711746
-0.5639106 0.1271713 0.9815359 16711746
0.3717202 0.1728069 0.8562438 16711746
-0.6895979 0.1288746 0.8137067 16711746
-1.1024276 -0.0583017 1.1514173 16711746
-0.3781367 0.1940545 0.3675836 16711746
-0.0169643 0.1312205 0.5497838 16711746
0.8015589 0.0105292 1.1612414 16711746
0.5414360 0.2493818 0.6406980 16711746
0.4068281 0.1886331 0.6895118 16711746
1.0463862 0.0754892 1.0542796 16711746
0.0364590 0.1878112 0.7291317 16711746
1.0548929 0.1525033 1.1039099 16711746
-0.6397098 0.0317522 0.5426783 16711746
-0.1327179 0.1586785 0.7073585 16711746
-0.0815158 0.1023048 1.1593513 16711746
0.7449627 0.0730064 1.8729601 16711746
-0.0931398 0.1537379 0.6885785 16711746
0.5292540 0.0769645 1.9489002 16711746
0.0809754 0.0313225 1.6816832 16711746
0.7456455 0.1357639 1.1425650 16711746
0.1446557 0.1734148 0.6611201 16711746
0.7130877 0.1851319 0.6956915 16711746
-0.7896658 0.1235672 0.7035097 16711746
-0.5791535 -0.0864676 0.4056477 16711746
-0.2940386 0.1486796 0.8816395 16711746
-0.0946145 0.1527768 0.6841092 16711746
-0.0351580 0.1640338 0.5951508 16711746
-0.3024224 0.1958294 0.3450716 16711746
0.6027212 0.2332417 0.7442065 16711746
0.6591543 0.0506432 1.7242683 16711746
0.8472087 0.2102392 0.9510412 16711746
0.5150501 0.1239647 1.4842098 16711746
0.2175929 0.1498782 1.0394096 16711746
0.6081895 0.1869164 0.8450992 16711746
0.6404791 0.2796806 0.6822070 16711746
-0.7060975 0.1754213 0.6556593 16711746
0.0103467 0.1931300 1.0004482 16711746
-0.2352529 0.1574852 1.3304123 16711746
-1.3994745 -0.1215762 1.2403880 16711746
0.4365959 0.1984384 0.8960052 16711746
0.3875111 0.2174760 0.5433832 16711746
0.2555395 0.2038383 0.5610750 16711746
-0.0307712 0.0690109 1.7009825 16711746
-0.8129041 0.1411684 0.7817396 16711746
-0.0388322 0.1571101 0.6135523 16711746
-0.7791505 0.1408813 0.5706057 16711746
0.9524268 0.2450341 1.0845162 16711746
-0.0115082 0.0738410 1.6755029 16711746
-1.4752717 -0.1614201 1.3833034 16711746
0.6075844 0.1696351 1.2314560 16711746
-0.4196384 0.1074995 0.7359189 16711746
0.6816040 0.1146412 1.3225093 16711746
0.2295432 0.1248701 1.4469253 16711746
0.0170475 0.1881326 0.7570239 16711746
-0.0918082 0.1723929 0.7797645 16711746
0.1974385 0.2069366 0.6725911 16711746
-0.7175884 0.1041005 0.7520691 16711746
-0.1280557 0.1475408 0.7203745 16711746
0.1237591 0.2264682 0.4968982 16711746
-0.3494062 0.1593696 0.5950267 16711746
0.8546827 0.1519981 0.7434838 16711746
0.5177446 0.2332922 0.5106563 16711746
0.4224020 0.1342881 0.7321751 16711746
0.4999178 0.0979147 1.3562911 16711746
0.4583215 0.1968552 0.6440232 16711746
-0.4930143 0.1706488 0.5811133 16711746
0.1960437 0.1728621 0.6743787 16711746
0.0820615 0.1114980 0.9602221 16711746
0.1761539 0.0434989 0.9479350 16711746
-0.3654459 0.1885656 0.3820036 16711746
0.0237253 -0.1092998 0.5667804 16711746
-0.3615268 0.1873111 0.3763645 16711746
0.0995237 0.1409203 0.5241156 16711746
0.3880703 0.1433857 1.1423013 16711746
-0.3590825 0.1521879 0.7700798 16711746
0.1180991 0.0683654 1.1877161 16711746
0.1138609 0.0637693 1.1348553 16711746
0.0919118 0.1139523 1.2754300 16711746
-0.6925559 0.0337529 0.5903927 16711746
0.5058830 0.1614204 0.9982283 16711746
0.5545354 0.3414107 0.5642753 16711746
-0.6032662 0.1511516 0.8924395 16711746
-0.2922415 0.2076268 0.3817172 16711746
0.1320678 0.1591483 0.8245060 16711746
0.5776370 0.1924778 0.8047395 16711746
0.7048747 0.0677787 1.7721921 16711746
1.2420331 0.0134713 1.0693198 16711746
0.1715754 0.1396189 1.1011057 16711746
0.4169754 0.1682160 0.8835216 16711746
0.2357129 0.1595790 1.7928077 16711746
-0.3000025 0.1440087 0.2456123 16711746
0.3754673 0.2073707 0.7540120 16711746
-0.0378805 0.1277048 1.3455137 16711746
-0.3133638 0.1343513 0.7701496 16711746
-0.8304219 0.0273122 0.8971896 16711746
0.3386424 0.2026536 0.7602550 16711746
-0.8215867 0.1162051 0.9226970 16711746
-0.1041515 0.1719556 0.7059081 16711746
-0.3843205 0.1592106 0.4919344 16711746
-0.1503753 0.1703657 0.7123281 16711746
-0.3089571 0.1493463 0.2543910 16711746
0.6843344 0.1602923 0.8646587 16711746
-0.3296414 0.1578997 0.2680541 16711746
-1.1718457 0.0856806 1.0080674 16711746
-1.6190734 0.1288578 0.6636698 16711746
-1.4242834 -0.1401571 1.1857588 16711746
0.1464197 0.1607685 1.0129998 16711746
-0.8877346 -0.2106728 1.7744094 16711746
-0.4310920 0.0376517 1.5186138 16711746
-0.5490059 0.0744854 0.6137205 16711746
-0.2465417 0.1460102 0.6425588 16711746
-0.2206636 0.1040254 1.8048053 16711746
0.4573995 0.2742306 0.4700921 16711746
0.0072263 0.1746169 0.5814296 16711746
-0.2046857 0.1701182 0.6911087 16711746
0.2583853 0.1607895 0.5993701 16711746
0.1453851 0.1720118 0.7088389 16711746
-0.0506438 0.1571404 0.7282459 16711746
-0.0894113 0.1671222 0.6414359 16711746
0.6216467 0.1808701 0.5515357 16711746
-0.3889476 -0.0509847 0.5085546 16711746
-0.4686784 0.0393022 0.6756324 16711746
-0.0601326 0.1381593 0.7390351 16711746
0.0502168 0.1575929 0.7811338 16711746
-0.0102599 0.1547151 0.8042536 16711746
-0.2079082 0.1005021 0.9590098 16711746
0.3958765 0.1358450 0.8649521 16711746
0.2166452 0.1902855 0.6363425 16711746
0.6410940 0.2257517 0.6122334 16711746
0.3180603 0.1369404 1.0019835 16711746
0.5557083 0.1902437 0.4191306 16711746
0.8356998 0.1530549 1.2855083 16711746
0.8308288 0.3680667 0.8291407 16711746
0.2710648 0.1195901 1.0924660 16711746
-0.0783191 -0.0034878 1.4928874 16711746
-0.3294804 0.0832232 1.1729316 16711746
1.0047811 0.2090899 1.1039269 16711746
0.8970212 0.0247588 1.5184950 16711746
-0.2903963 0.1251735 0.2178709 16711746
0.6925269 0.2010169 0.7955206 16711746
-0.3669953 0.1784460 0.2916413 16711746
-0.3276021 -0.0447875 0.4947393 16711746
0.2024956 0.1930089 0.6503547 16711746
0.4786121 0.1606721 0.3592868 16711746
1.1030459 0.2313323 0.9805856 16711746
0.2564175 0.1594349 0.8817692 16711746
0.6977354 0.2827395 0.6527115 16711746
0.7187890 0.1854680 0.5608427 16711746
0.7654384 0.2315709 0.8990757 16711746
-0.0607065 0.1988601 0.7515339 16711746
0.4029623 0.1164294 0.2711575 16711746
0.2907942 0.1022928 1.3394718 16711746
0.2927943 0.1403679 1.2105038 16711746
0.2818516 0.2073113 0.6001748 16711746
0.1468423 0.1517841 0.6725157 16711746
0.0358644 0.1658410 0.6471037 16711746
-0.0171704 0.0867673 1.3458345 16711746
0.3436348 0.2253807 0.5747080 16711746
0.1044893 0.2342961 0.6134990 16711746
0.7354872 0.0445186 1.6544329 16711746
0.3444857 0.1790805 0.6578013 16711746
-0.1421640 0.2174007 0.7307159 16711746
0.2440816 0.1754298 0.6311991 16711746
0.6148456 0.1719421 0.4470757 16711746
-0.2358918 -0.1272218 0.4945532 16711746
0.5190474 0.2213538 0.4617930 16711746
0.7754174 0.0816883 0.5607775 16711746
0.5875368 0.2297012 0.4931791 16711746
0.5881972 0.2062944 0.4544643 16711746
-0.4542874 0.0400263 0.6915060 16711746
-0.4663934 0.1579796 0.7255436 16711746
0.8729365 0.0374018 0.7835588 16711746
-0.2636423 0.1153134 0.6015829 16711746
0.0951898 0.2094228 0.5589659 16711746
0.4420724 0.1936790 0.5477726 16711746
-0.8775164 -0.0163406 0.6625263 16711746
0.5376128 0.1849874 0.4173197 16711746
0.4802662 0.1683348 0.3307637 16711746
0.1042969 0.2316261 0.6144575 16711746
0.7500159 -0.0135992 0.8155742 16711746
0.6833282 0.1528117 0.7733539 16711746
-0.1735863 0.1686429 0.4997182 16711746
0.7370641 0.1423597 0.8496212 16711746
-0.2504550 0.0447146 0.6265675 16711746
0.4474619 0.2667130 0.7922425 16711746
0.3090149 0.1924718 0.5774001 16711746
0.2446690 0.0448838 0.3304368 16711746
-0.1669325 0.1361092 0.9001263 16711746
0.0718544 -0.0644677 1.3467685 16711746
-1.2311598 -0.0479884 0.8658606 16711746
0.0424189 0.1241545 1.7125667 16711746
-0.9461453 0.0692943 0.6987727 16711746
0.3438453 0.1870594 0.8305703 16711746
-0.0166485 0.1676124 0.6268969 16711746
0.1693247 0.1561610 1.0070262 16711746
0.3490967 0.2022445 0.6683064 16711746
-0.1854244 0.0758930 0.4744366 16711746
-0.2953361 0.2110511 0.3519567 16711746
0.7378174 0.0692679 0.9874581 16711746
0.3790878 0.2194873 0.7023004 16711746
0.6316985 0.3032670 0.7439842 16711746
0.5554113 0.0791877 0.3651552 16711746
0.0025960 0.1665482 0.9221778 16711746
0.0687721 -0.0624105 1.2962404 16711746
0.2905815 0.0784395 0.1836221 16711746
-0.4385878 -0.2133874 0.3408023 16711746
0.5452290 0.2388247 0.5683130 16711746
0.0065720 0.1880887 0.5826681 16711746
-0.0976988 0.1735872 0.5309117 16711746
0.7712324 0.1931696 0.6117402 16711746
0.5712844 0.1226929 0.9315799 16711746
-0.7351573 0.1845966 0.6812155 16711746
0.4760024 0.2737021 0.4269557 16711746
0.5901052 0.1045189 0.4404233 16711746
0.5077972 0.1656172 0.8794393 16711746
-0.0685415 -0.0979162 0.2333282 16711746
0.5695765 0.2584099 0.6345237 16711746
0.7240286 0.1720899 1.2387303 16711746
0.4437424 0.0955543 0.2763931 16711746
0.5517392 0.1137045 1.5777814 16711746
0.2065530 -0.0890285 0.1329339 16711746
0.3715461 0.0805964 0.2230266 16711746
0.5807506 0.0834078 0.5548717 16711746
-0.0809720 0.1228146 1.0616592 16711746
-0.1127817 0.1720705 0.5768851 16711746
-0.3693449 0.1459722 0.6237652 16711746
-0.2124596 -0.1504434 0.3094885 16711746
-0.3127266 -0.1832753 0.3652242 16711746
-0.5887263 0.0015590 0.2797620 16711746
-0.1780457 -0.1508290 0.2890168 16711746
