# .PCD v.7 - Point Cloud Data file format
VERSION .7
FIELDS x y z rgb
SIZE 4 4 4 4
TYPE F F F F
COUNT 1 1 1 1
WIDTH 1192
HEIGHT 1
VIEWPOINT 0 0 0 1 0 0 0
POINTS 1192
DATA ascii
0.7251049 -1.1547444 9.5373516 16711746
1.2777753 -1.0831859 9.3260498 16711746
1.5206196 -1.0282277 8.9244328 16711746
1.4764111 -1.0591555 9.1221437 16711746
1.0738535 -1.0756816 9.0339489 16711746
1.1364862 -1.0876352 9.1000309 16711746
1.1068059 -1.1325439 9.4060421 16711746
1.2442269 -1.0247140 8.5294294 16711746
1.2052646 -1.0341830 8.5102291 16711746
0.9679210 -1.0470673 8.4609470 16711746
0.7878197 -1.0411984 8.3205452 16711746
1.1614888 -1.0531181 8.5765705 16711746
1.1109191 -1.0490619 8.5172529 16711746
0.1541619 -1.1371481 8.8509426 16711746
1.3704180 -0.9962846 8.4993267 16711746
1.3867357 -0.9982323 8.5855455 16711746
1.5023503 -0.9941070 8.5839825 16711746
1.1264278 -1.0279187 8.3533897 16711746
1.0635897 -1.0343366 8.3848076 16711746
1.3299245 -0.9929770 8.4441586 16711746
0.7811703 -1.0328332 8.1877918 16711746
1.0200121 -1.0632257 8.5065565 16711746
1.4316925 -0.9866977 8.5217905 16711746
0.8863690 -1.0877446 8.9431219 16711746
1.2632908 -0.9726541 8.5669823 16711746
0.2609295 -1.1846218 8.3588667 16711746
0.8633160 -1.0549933 8.7456141 16711746
1.0854170 -1.0417181 8.5683823 16711746
1.0168887 -1.0361514 8.4728632 16711746
1.0037526 -1.0615164 8.4678488 16711746
0.0667347 -1.1753727 8.5019312 16711746
1.2933464 -1.0585598 8.9731140 16711746
0.7266524 -1.0534421 8.3232393 16711746
0.8241521 -1.0970622 9.0924635 16711746
1.1575817 -1.0356915 8.4729528 16711746
1.3140886 -0.9933406 8.4349213 16711746
1.0443472 -1.0624813 8.5884705 16711746
1.1703204 -1.0472810 8.7786217 16711746
0.7353010 -1.0414525 8.2763510 16711746
0.6734167 -1.0551361 8.1980448 16711746
0.4915346 -1.0976143 8.5417595 16711746
1.1514242 -1.0196563 8.3685427 16711746
0.8829458 -1.0178318 8.1586475 16711746
0.8841006 -1.0208441 8.1826506 16711746
0.7861842 -1.0927500 8.8712006 16711746
1.2355855 -1.0488948 8.6447811 16711746
1.1364173 -1.0269766 8.3417692 16711746
1.2942672 -1.0190526 8.5530396 16711746
0.9535093 -1.0531405 8.5345821 16711746
1.0653505 -1.0326500 8.3261156 16711746
1.5242704 -1.0157369 8.6408710 16711746
1.4553522 -1.0310078 8.7458897 16711746
1.3563557 -1.0161940 8.5687485 16711746
1.4170142 -1.0269276 8.7010412 16711746
1.8319337 -0.9971259 8.8041458 16711746
1.5290509 -1.0135777 8.6506224 16711746
1.2874553 -1.0482689 8.5379772 16711746
1.1688442 -1.0488931 8.5220375 16711746
1.0590470 -1.0529046 8.5034084 16711746
1.0964303 -1.0404702 8.4667845 16711746
1.2932488 -1.0177895 8.5544186 16711746
1.4228003 -1.0200648 8.7119608 16711746
1.0184636 -1.0473126 8.4283085 16711746
0.9264264 -1.0748878 8.9045696 16711746
0.8454652 -1.0222545 8.2451286 16711746
0.8983868 -1.0885701 9.0638590 16711746
1.5251302 -1.0225918 8.9422455 16711746
1.0632184 -1.0689973 8.6732531 16711746
1.7253888 -0.9923438 8.7163620 16711746
1.3120800 -1.0328556 8.6855841 16711746
1.4378283 -1.0334107 8.9790525 16711746
1.7251416 -0.9891081 8.7196226 16711746
1.0562630 -1.0626674 8.6933661 16711746
1.5302277 -0.9823254 8.5547256 16711746
1.1110425 -1.0380418 8.4903727 16711746
1.5249244 -1.0154326 8.6412420 16711746
1.2540462 -1.0368797 8.5498896 16711746
1.0927500 -1.0333802 8.3908195 16711746
1.4279170 -0.9928916 8.5154886 16711746
1.1139580 -1.0793236 8.8085794 16711746
1.4574485 -1.0030388 8.7068329 16711746
0.4317836 -1.2500167 10.3887081 16711746
1.1398203 -1.0892595 9.0931826 16711746
1.4865505 -1.0282633 8.8593607 16711746
0.9287729 -1.0746461 8.8999348 16711746
1.2063529 -1.0697689 8.5582895 16711746
1.1714391 -1.0347394 8.4889050 16711746
0.5025896 -1.1551795 9.3114080 16711746
1.0627548 -1.0321449 8.3884239 16711746
0.8901083 -1.0624835 8.7108507 16711746
1.0587733 -1.0625219 8.5856256 16711746
0.8801484 -1.0698553 8.6614342 16711746
1.3110435 -1.0090644 8.4945736 16711746
0.9197493 -1.0430824 8.5233059 16711746
1.1984897 -1.0460334 8.5399179 16711746
1.8337847 -0.9924265 8.7862558 16711746
1.0998044 -1.0436500 8.4595232 16711746
1.6687636 -0.9877446 8.5397272 16711746
1.0934194 -1.0369034 8.4738674 16711746
1.0215273 -1.1196208 9.3920650 16711746
0.9383301 -1.0600109 8.5467844 16711746
0.3950384 -1.1735545 9.4506731 16711746
1.5474499 -1.0629594 9.1817236 16711746
1.1781182 -1.0588403 8.5354548 16711746
1.5212986 -1.0162545 8.6379528 16711746
1.1400689 -1.0335827 8.4345245 16711746
1.5460397 -0.9846345 8.5781355 16711746
1.0659915 -1.1253842 9.3873701 16711746
1.2058743 -1.0218387 8.4605722 16711746
1.0761669 -1.0337322 8.4120331 16711746
1.0150430 -1.0560769 8.4641018 16711746
1.5820454 -0.9543788 8.4879694 16711746
1.0923703 -1.1468492 8.9021368 16711746
0.7366726 -1.1640810 9.5060062 16711746
0.4577830 -1.1769274 9.3801794 16711746
1.6791357 -1.0316281 9.0541916 16711746
1.5835805 -1.0141162 8.7000551 16711746
1.6123304 -0.9864913 8.5222635 16711746
1.3069303 -1.0671433 9.0610304 16711746
0.5964745 -1.2297813 9.9988842 16711746
1.5972072 -1.0253752 8.7617455 16711746
0.7326580 -1.1550813 9.5250759 16711746
1.0744267 -1.0469481 8.4789400 16711746
1.0971755 -1.0552944 8.5316095 16711746
0.5849988 -1.3226688 8.7872372 16711746
1.2609191 -1.0235977 8.5362501 16711746
1.2561610 -1.0554397 8.7518663 16711746
1.0852729 -1.1251661 9.4856119 16711746
1.7821202 -1.1574559 10.6180191 16711746
1.7377810 -1.1897032 10.4058981 16711746
1.4879726 -2.3113692 11.7474604 16711746
1.3471825 -1.1209122 9.7994280 16711746
1.3919989 -1.0121967 8.6060886 16711746
1.1264210 -1.0525957 8.4973059 16711746
1.5904567 -0.9924700 8.5260448 16711746
1.5049815 -0.9909431 8.5893202 16711746
1.1709050 -1.0318608 8.4932261 16711746
1.1988705 -1.0527152 8.7094831 16711746
0.8921983 -1.0497810 8.4607344 16711746
0.6959905 -1.3141434 8.6784153 16711746
0.5130183 -1.1038266 8.6495037 16711746
0.5339704 -1.1377850 8.7673407 16711746
1.4229112 -0.9798204 8.5548420 16711746
0.8164741 -1.0605890 8.4721632 16711746
1.1312445 -1.0662230 8.7572746 16711746
1.1941936 -1.0320359 8.5072851 16711746
1.0178243 -1.0604794 8.4924698 16711746
0.8707913 -1.0494649 8.4806728 16711746
1.0928441 -1.0359569 8.4739933 16711746
0.8639188 -1.0690420 8.5555334 16711746
1.2867475 -1.0546454 8.5349741 16711746
1.4818128 -1.0273746 8.7111359 16711746
1.1298364 -1.0650853 8.7629538 16711746
1.0802284 -1.0590656 8.5530243 16711746
0.8614907 -1.0437474 8.4893789 16711746
0.9901566 -1.0664777 8.6716509 16711746
1.1319362 -1.0513026 8.5291214 16711746
1.2040856 -1.0300837 8.5164909 16711746
0.9102329 -1.0190315 8.4131956 16711746
0.5752226 -1.1224748 8.6772041 16711746
1.1147784 -1.0420932 8.4811516 16711746
1.1021197 -1.0595909 8.5979948 16711746
1.4306284 -1.0183262 8.5455990 16711746
0.7015209 -1.1417886 8.8022900 16711746
1.3146335 -1.0336962 8.6824465 16711746
0.7013917 -1.0910105 8.5598087 16711746
1.1485505 -1.0510244 8.5208187 16711746
0.8801284 -1.0873564 8.5904179 16711746
1.0391023 -1.0581763 8.5678205 16711746
1.2368088 -1.0572292 8.6299534 16711746
0.9458879 -1.0357896 8.4907799 16711746
1.3662336 -1.0257319 8.6387072 16711746
0.9504286 -1.0357116 8.4880972 16711746
0.8918747 -1.0519230 8.4936466 16711746
0.6075073 -1.0905323 8.8000898 16711746
0.7975795 -1.1608050 8.6448660 16711746
1.2516702 -1.0402527 8.5438805 16711746
0.8190324 -1.0749739 8.5943365 16711746
0.9144155 -1.0668364 8.6113634 16711746
1.2921976 -1.1325096 8.4994650 16711746
0.8872185 -1.0519848 8.4891853 16711746
0.1853652 -1.2219589 8.9937630 16711746
0.2647744 -1.1839274 9.6024733 16711746
1.0850160 -1.0687665 8.7293644 16711746
-0.5751510 -1.3867433 10.4682198 16711746
1.2766606 -1.0870928 9.2495747 16711746
0.9849199 -1.0667679 8.8009367 16711746
0.7847894 -1.0917217 8.8722200 16711746
0.6295639 -1.1206902 8.8869276 16711746
0.7850893 -1.1384835 9.2247591 16711746
1.7398950 -1.0061255 8.7476883 16711746
0.4759808 -1.1620170 9.1644802 16711746
1.2298138 -1.0777715 8.8039341 16711746
1.0690230 -1.3315609 10.3664417 16711746
1.6295071 -1.1052976 9.2484922 16711746
1.6095631 -1.0457805 9.0888681 16711746
1.7129161 -1.0588777 9.1736584 16711746
1.6150103 -0.9714174 8.5590763 16711746
1.0384741 -1.3296107 10.5760517 16711746
2.1479287 -0.9758545 9.3034525 16711746
1.5293018 -1.0141528 8.9539089 16711746
1.2924839 -1.0498362 8.8796883 16711746
0.5887130 -1.1767392 9.3927069 16711746
0.5924160 -1.3180882 8.7745533 16711746
1.1284635 -1.0536591 8.6281719 16711746
1.1883234 -1.0523878 8.5466852 16711746
0.7137817 -1.1011329 9.0462027 16711746
1.0857891 -1.0814453 8.7772369 16711746
0.3335204 -1.1872995 9.5249004 16711746
1.7365407 -1.0179464 8.7962780 16711746
0.8493725 -1.0479842 8.5085077 16711746
0.7179958 -1.1071076 9.0298901 16711746
0.9335529 -1.0770017 8.8970842 16711746
0.7468457 -1.0901850 8.7382011 16711746
0.8324709 -1.0720773 8.5415936 16711746
1.0846837 -1.1115445 8.9475021 16711746
1.0181062 -1.0684032 8.6658745 16711746
1.1099273 -1.0222497 8.7666521 16711746
0.8299973 -1.0703362 8.5413027 16711746
0.9120114 -1.0655130 8.6107702 16711746
1.1310390 -1.0585060 8.5545855 16711746
1.0613657 -1.0670803 8.6727810 16711746
1.3333561 -1.0240976 8.6764565 16711746
0.1823757 -1.1374501 8.8366756 16711746
0.6992084 -1.0827619 8.5149775 16711746
1.3714490 -1.0398942 8.7427254 16711746
0.6734653 -1.1860466 8.6603098 16711746
1.0822570 -1.0578744 8.6416254 16711746
1.0519825 -1.0555959 8.6149416 16711746
1.0437557 -1.0747193 8.7521324 16711746
1.0752126 -1.0538576 8.5277643 16711746
1.2802137 -1.0979942 9.2603951 16711746
1.1090126 -1.3079175 8.7164850 16711746
1.5718646 -0.9778646 8.6250982 16711746
1.5635065 -1.0312703 8.7587337 16711746
0.7413653 -1.1258470 9.3143377 16711746
0.6780902 -1.1320583 9.1161079 16711746
1.5801129 -1.0209980 8.8170290 16711746
0.3527862 -1.3001279 9.9655533 16711746
1.1193720 -1.0604213 8.6202116 16711746
0.5649123 -1.2221537 9.5103922 16711746
1.2860783 -1.1223648 9.7336493 16711746
0.8497956 -1.0609907 8.4908180 16711746
0.6513224 -1.0902123 8.5579214 16711746
0.7806329 -1.0886158 8.8709230 16711746
0.7439260 -1.0785836 8.7184753 16711746
1.4862161 -1.0217493 8.7255669 16711746
0.8631058 -1.0684509 8.5554104 16711746
1.3302228 -1.0270499 8.6680603 16711746
0.5893738 -1.0887647 8.5412941 16711746
1.2479287 -1.0459636 8.7593069 16711746
1.2050251 -1.0825779 9.1055346 16711746
1.1122144 -1.0612105 8.5651875 16711746
0.8450341 -1.0809404 8.8520308 16711746
0.6629770 -1.1125362 8.9391966 16711746
0.4150009 -1.1530888 9.2467527 16711746
0.6586615 -1.1622512 9.4146976 16711746
-0.4316045 -1.2342420 8.9129639 16711746
0.1672335 -1.2197033 9.0086002 16711746
0.8351520 -1.0735914 8.5388031 16711746
0.8905517 -1.0870537 9.1454439 16711746
0.5495763 -1.1132743 8.6223717 16711746
1.2947834 -1.0442333 9.0288963 16711746
-0.4345365 -1.2336820 8.9141073 16711746
1.6976370 -1.0133505 8.9891043 16711746
0.7178177 -1.0836587 8.5587730 16711746
0.4913897 -1.1558983 9.3258009 16711746
1.2484617 -1.0557966 8.7861233 16711746
0.6519113 -1.1780375 8.6809740 16711746
0.1877750 -1.1404436 8.8315649 16711746
-0.4021875 -2.0904551 10.4510288 16711746
0.8312947 -1.0686580 8.5406418 16711746
-1.3613288 -2.0654740 9.6273737 16711746
1.0662251 -1.4108781 8.8971491 16711746
0.0719264 -1.1639124 8.9440804 16711746
0.9458950 -1.0648041 8.6163149 16711746
1.4845575 -1.0229874 8.8895292 16711746
0.7006192 -1.0817263 8.5145721 16711746
1.3136442 -1.0327916 8.7761278 16711746
0.6400637 -1.0904723 8.5336761 16711746
0.7555344 -1.1283268 9.2753553 16711746
1.1246769 -1.1115035 9.3427401 16711746
1.0880260 -1.0822810 8.7764463 16711746
0.9965731 -1.0696242 8.7326260 16711746
0.6850492 -1.1263444 9.1520004 16711746
1.3909832 -1.0419357 8.8972368 16711746
0.6830943 -1.1263000 9.1549234 16711746
1.4970530 -1.0402975 9.0111551 16711746
1.0539037 -1.1675397 10.0383673 16711746
1.1240661 -1.0913564 9.2535152 16711746
1.5159029 -1.0824906 9.3961315 16711746
0.6769707 -1.1265589 9.1224995 16711746
0.8469630 -1.0683330 8.4846411 16711746
1.0069213 -1.3006010 9.9530563 16711746
0.6588381 -1.1119637 8.9451351 16711746
0.7939110 -1.0648983 8.5204430 16711746
1.7256589 -1.0633194 9.3382607 16711746
1.2676748 -1.0808406 9.1354847 16711746
1.2471102 -1.0504178 8.7942629 16711746
0.6996217 -1.0855814 8.5989208 16711746
0.9949770 -1.1193795 9.5070286 16711746
1.0056959 -1.1268560 9.4521685 16711746
0.6534373 -1.1130306 8.7842894 16711746
0.6320196 -1.1064702 8.6686010 16711746
1.4395781 -1.0707114 9.2256632 16711746
1.6006964 -0.9672750 8.6471596 16711746
1.2344774 -1.0438017 8.6581316 16711746
1.6960043 -1.0728729 9.4543085 16711746
1.6480809 -1.0713260 9.4318800 16711746
1.5076914 -1.0439674 9.0432510 16711746
0.8820056 -1.0725405 8.6534643 16711746
1.7026817 -1.1161636 9.9209118 16711746
0.6081431 -1.1543167 9.3794031 16711746
1.4473497 -2.1809771 11.0392084 16711746
0.5449783 -1.2247903 9.3754148 16711746
0.5504131 -1.2258054 9.3638391 16711746
1.0862114 -1.0930299 8.7742376 16711746
1.2252923 -1.0354139 8.6786585 16711746
1.0563338 -1.0696225 8.7490568 16711746
1.3934702 -1.0326949 8.9140568 16711746
1.0534503 -1.0922227 9.1124506 16711746
-0.0077309 -1.1958878 9.0948830 16711746
0.8849631 -1.0732303 8.6494160 16711746
1.4096432 -1.0341574 8.9854727 16711746
1.0504893 -1.0913664 9.1196003 16711746
1.0543814 -1.0764077 9.0659876 16711746
0.9911041 -1.1170255 9.3229885 16711746
0.7596477 -1.0984114 8.9963942 16711746
1.6370032 -1.0284219 9.0284719 16711746
1.1485827 -1.0681281 8.8713379 16711746
1.3230325 -1.0384661 8.7551260 16711746
1.3566693 -1.0299331 8.8770819 16711746
0.9336634 -1.0763994 8.8973560 16711746
0.8729829 -1.0832776 8.9617577 16711746
0.6470402 -1.0903479 8.6767044 16711746
1.1448994 -1.0691973 8.8723974 16711746
1.4997965 -1.0051701 8.9266529 16711746
0.7916278 -1.0893160 8.7922935 16711746
0.8304984 -1.0662750 8.4399242 16711746
0.7018324 -1.0836656 8.5116043 16711746
1.2924910 -1.0572962 8.8264999 16711746
0.9603087 -1.0654345 8.9599285 16711746
1.3535593 -1.0452508 8.8031464 16711746
1.1256615 -1.0747460 8.9437914 16711746
1.5223296 -1.0476655 9.2208366 16711746
0.7180649 -1.0845914 8.5580893 16711746
-0.5927523 -1.3845221 10.4878645 16711746
0.9091588 -1.0583467 8.4893036 16711746
1.2788774 -1.0355998 8.7238369 16711746
1.2880851 -1.0589265 8.8432503 16711746
0.9853513 -1.0671743 8.8030186 16711746
1.3340105 -1.5369874 9.1304150 16711746
0.8317971 -1.0847882 9.0083971 16711746
1.1511693 -1.0700555 8.8665190 16711746
0.6473935 -1.0890449 8.5554504 16711746
0.8855306 -1.0752779 8.6512280 16711746
0.8651710 -1.0647788 8.6740875 16711746
0.9022222 -1.0525528 8.4978266 16711746
0.6646715 -1.0946238 8.6594505 16711746
0.6821033 -1.1280401 9.1107845 16711746
1.5118512 -1.0564396 9.1915941 16711746
1.4950345 -1.0553744 9.1835403 16711746
-6.7473049 -2.4453375 10.7850342 16711746
1.6239901 -1.0150970 9.0071812 16711746
0.4942246 -1.1378882 9.1571312 16711746
0.5245676 -1.1579609 9.2899923 16711746
0.9737406 -1.0615057 8.7241745 16711746
1.3473579 -1.0626591 8.9889517 16711746
0.8974920 -1.0788682 8.9248438 16711746
1.1961586 -1.0623828 8.9085903 16711746
1.1598483 -1.0665799 8.9453201 16711746
0.7412969 -1.0893234 8.7305403 16711746
1.0461973 -1.0837767 9.0136347 16711746
1.3678033 -1.0276513 8.8983479 16711746
0.9462590 -1.0596527 8.6433420 16711746
1.1902033 -1.0571237 8.8509789 16711746
1.4095883 -1.0277103 8.9656229 16711746
0.6876495 -1.1023419 8.8431339 16711746
1.0492456 -1.0889796 8.9898396 16711746
0.7742460 -1.1169159 9.1226568 16711746
0.5670865 -1.1464328 8.8689594 16711746
0.8889886 -1.0801950 9.0985365 16711746
0.5361307 -1.1404750 8.8952131 16711746
1.0705796 -1.1262602 9.3847351 16711746
0.4483095 -1.1618706 9.2159719 16711746
0.6654975 -1.1137725 8.9383383 16711746
0.7591028 -1.1296695 9.2826014 16711746
0.6604338 -1.1248527 9.1383400 16711746
1.0933710 -1.0948479 8.8563175 16711746
0.5645398 -1.1119518 8.7636127 16711746
1.0865844 -1.0893540 8.8753700 16711746
0.7677709 -1.0864414 8.8797092 16711746
0.7578425 -1.1290622 9.2804956 16711746
1.0233675 -1.1063756 9.2024488 16711746
1.4006041 -1.0219991 8.9549503 16711746
0.5763714 -1.1261344 8.6767092 16711746
0.9044568 -1.0842948 8.9120874 16711746
0.8802683 -1.0788188 8.7092810 16711746
0.9826609 -1.0667727 8.6516180 16711746
0.6659050 -1.1145053 8.9367533 16711746
0.7565928 -1.1096044 9.1486464 16711746
1.6489314 -1.0723324 9.4298029 16711746
0.1481972 -1.1173577 8.7424259 16711746
1.1427271 -1.0891824 9.0911455 16711746
0.6088403 -1.3187987 8.7811184 16711746
0.6666892 -1.0948082 8.6563091 16711746
0.7919124 -1.0804586 8.6450539 16711746
1.3541926 -1.1162736 9.8270378 16711746
1.1304996 -1.1196212 9.4143791 16711746
0.7381495 -1.0971596 8.9020891 16711746
0.9672587 -1.0624247 8.5560694 16711746
1.1100926 -1.0769398 8.9533596 16711746
1.1428343 -1.0886364 9.0938072 16711746
0.8529537 -1.0516304 8.5005569 16711746
0.7645104 -1.0748943 8.6075792 16711746
0.7107541 -1.1061490 8.9411383 16711746
0.6275025 -1.0880483 8.6182547 16711746
1.1833087 -1.1054751 9.3254004 16711746
0.5847380 -1.0994830 8.6234980 16711746
0.5583907 -1.1145707 8.6203222 16711746
1.2805123 -1.0585430 8.9396744 16711746
1.1539736 -1.1497235 9.9329147 16711746
0.0411205 -1.3108584 10.6645346 16711746
0.8845726 -1.0699672 8.5525618 16711746
1.2369217 -1.0887721 9.1816673 16711746
0.9616447 -1.0707223 8.8450327 16711746
1.4091309 -1.0335959 8.9919624 16711746
1.2463759 -1.0398264 8.7690382 16711746
0.2752232 -1.1766784 9.3305054 16711746
2.1332316 -1.0436933 9.7327557 16711746
1.2303081 -1.0518404 8.8574924 16711746
1.5032234 -1.0335143 9.0350761 16711746
1.1256346 -1.0942904 9.2421169 16711746
0.5443736 -1.1091757 8.7348423 16711746
0.7170838 -1.1038826 9.0390730 16711746
1.0885212 -1.0867616 8.8729677 16711746
1.2780203 -1.0593300 8.9426842 16711746
0.5761195 -1.1128918 8.7542982 16711746
0.9985962 -1.0748180 8.6583757 16711746
1.1223574 -1.0872679 8.7900801 16711746
1.0885801 -1.0646985 8.7666216 16711746
1.2935179 -1.1074413 9.3800440 16711746
1.6382084 -0.9942183 8.9785957 16711746
1.5130106 -1.0541631 9.2034445 16711746
0.8219596 -1.0781372 8.5975056 16711746
0.9984193 -1.1221611 9.3068161 16711746
1.0258278 -1.0953490 8.6169510 16711746
1.2113639 -1.0675715 8.9084368 16711746
1.2683576 -1.0929545 9.1476717 16711746
0.3030554 -1.1406288 8.9053335 16711746
0.7927753 -1.0969307 8.8620205 16711746
0.7456110 -1.0762084 8.4619551 16711746
-0.0904457 -1.1827919 8.7532206 16711746
-2.4332123 -2.4638398 11.5546989 16711746
1.7477674 -1.2396015 11.5380955 16711746
1.1376708 -1.1477531 10.0135021 16711746
1.3368809 -1.5368924 9.1298237 16711746
1.3680824 -1.0651639 9.1491613 16711746
1.6210940 -1.0986395 9.7737675 16711746
1.6324713 -1.0074719 9.0292711 16711746
1.0743523 -1.0870788 9.0504360 16711746
1.4465019 -1.0515268 9.1501637 16711746
1.2711236 -1.0819848 9.1209021 16711746
1.2287824 -1.0678153 8.8412638 16711746
1.1986558 -1.2018777 10.5639172 16711746
0.6697839 -1.1077390 8.8094845 16711746
1.5227458 -1.0470417 9.2210827 16711746
1.5881760 -1.0529004 9.2817945 16711746
0.5846353 -1.1379527 9.1859541 16711746
1.1347311 -1.0632923 8.8338099 16711746
1.6129500 -1.0374514 9.0087080 16711746
1.0802394 -1.0859097 8.7869034 16711746
1.1374025 -1.0662161 8.8280458 16711746
0.7692707 -1.0922027 8.9388199 16711746
1.2251242 -1.0663296 8.9722204 16711746
1.3962344 -1.0259508 8.9248409 16711746
0.7011799 -1.1307284 9.1319084 16711746
0.5445366 -1.1047521 8.7691374 16711746
1.5077029 -1.0669835 9.3824978 16711746
1.4073260 -1.0374326 8.9811182 16711746
1.8249214 -1.0450727 9.4319248 16711746
1.2398529 -1.0991416 9.1197672 16711746
0.6922340 -1.1393648 8.8939219 16711746
1.0231390 -1.1195437 9.3796654 16711746
1.2180963 -1.0877343 9.0089912 16711746
1.2221465 -1.0825398 9.0941401 16711746
0.7892821 -1.0964550 8.9258490 16711746
0.7364742 -1.0904500 8.6960392 16711746
0.6792890 -1.1114246 8.8034716 16711746
1.5269248 -1.0454150 9.1362638 16711746
1.0052727 -1.1434923 9.5493574 16711746
1.7886441 -1.0185695 9.2044830 16711746
-1.9111151 -2.5811071 11.0103712 16711746
0.8105626 -1.1047912 8.8483019 16711746
0.9799813 -1.1523004 9.5933828 16711746
1.6980201 -1.0132599 9.1092129 16711746
-1.7774917 -2.4102604 11.1209860 16711746
1.7226312 -0.9944872 9.1502552 16711746
1.7670639 -1.1554712 10.5194492 16711746
1.1966506 -1.0766059 9.0375366 16711746
1.5354044 -1.0798305 9.5512447 16711746
1.7660075 -1.0809118 9.6080275 16711746
1.4396167 -1.0659337 9.2368593 16711746
-3.6705644 -2.9009733 13.7543240 16711746
0.4787979 -1.1176628 9.1274147 16711746
1.2134591 -1.0986656 9.3247929 16711746
1.1195582 -1.0962394 9.1852341 16711746
0.6507058 -1.1310450 8.8549805 16711746
1.3934427 -1.0303813 8.9133692 16711746
1.2761719 -1.0546547 8.9377918 16711746
2.1094358 -1.0606521 9.7874060 16711746
1.1289020 -1.0730988 8.9804058 16711746
1.6276917 -1.0782036 9.4629393 16711746
1.4978341 -1.0532095 9.0159407 16711746
1.5491352 -1.0480249 9.0822248 16711746
1.7576933 -1.0466901 9.2395105 16711746
1.4640844 -1.0228586 8.9837904 16711746
1.5194025 -1.0551423 9.1938972 16711746
1.2078779 -1.0651877 8.9269104 16711746
1.5493410 -1.0455709 9.0870953 16711746
1.5794251 -1.0118601 8.9322290 16711746
1.7114751 -1.0473585 9.1780262 16711746
0.4769765 -1.1337906 9.0878353 16711746
1.0285569 -1.1108490 9.1923590 16711746
0.4731204 -1.1323633 9.0897884 16711746
1.2493688 -1.0467924 8.9182167 16711746
1.3829395 -1.0704297 9.1279802 16711746
1.3307632 -1.1034254 9.1496296 16711746
0.7774746 -1.1018578 8.7216148 16711746
1.4843446 -1.0190799 8.9633255 16711746
1.4743720 -1.0262440 8.9996023 16711746
2.5670278 -1.0110176 10.2494707 16711746
1.1619557 -1.1265233 9.6291990 16711746
1.4221009 -1.0955703 9.7056494 16711746
1.2076064 -1.1041375 9.2703438 16711746
0.7190890 -1.0788993 8.7645664 16711746
1.1681625 -1.0632353 8.8760939 16711746
1.5540621 -1.0336771 9.0669432 16711746
1.1386441 -1.1260290 9.3909264 16711746
1.5168461 -1.0751449 9.4153957 16711746
1.5085416 -1.0318075 8.9910994 16711746
-0.0689734 -1.8524379 9.9708185 16711746
1.7590134 -1.2349100 11.5706110 16711746
1.7100978 -1.0513798 9.1685181 16711746
1.0901761 -1.0782033 8.9420576 16711746
1.1428423 -1.0946568 9.0853291 16711746
1.1637993 -1.0753608 9.0004539 16711746
1.0490202 -1.0886403 8.9849091 16711746
1.4135548 -1.0436889 9.1134129 16711746
1.1340983 -1.0625303 8.9264536 16711746
0.9984226 -1.1255065 9.3088408 16711746
0.6312907 -1.1109335 9.1153898 16711746
1.0807776 -1.0924754 9.0345402 16711746
0.9769928 -1.1010944 9.2032709 16711746
1.4156359 -1.0321378 8.9408607 16711746
1.2002565 -1.0695257 8.9182911 16711746
1.3645526 -1.0431294 8.9427414 16711746
1.7398375 -1.0550488 9.3708410 16711746
1.2198468 -1.0970279 9.2692661 16711746
1.4321977 -1.0407702 9.0086603 16711746
1.2054558 -1.0868005 9.0889511 16711746
0.8525374 -1.1628107 9.5834465 16711746
1.0473590 -1.0878987 8.9861860 16711746
2.1901102 -1.0306937 9.7102089 16711746
1.6677294 -1.0911703 9.5360603 16711746
0.5883094 -1.0910724 8.8224831 16711746
1.1720438 -1.0819016 8.9992332 16711746
-1.0633870 -1.6514667 10.0242815 16711746
0.4151341 -1.1562293 9.2379904 16711746
1.4850676 -1.0610547 9.2473440 16711746
1.4102685 -1.0583897 9.0801001 16711746
1.0849167 -1.1074495 9.1501303 16711746
1.3656408 -1.0847329 9.3060389 16711746
1.1592157 -1.0924286 9.1699514 16711746
-0.0775518 -1.2094116 9.3831234 16711746
1.2018207 -1.0737967 9.3880949 16711746
-0.6027836 -1.3730632 9.9894667 16711746
0.6539521 -1.0903002 8.9916515 16711746
0.4807351 -1.1275283 8.9243860 16711746
1.6235669 -1.0968921 9.7891645 16711746
0.0040237 -1.2408283 9.6696348 16711746
1.2533648 -1.0867728 9.2399244 16711746
1.7517555 -1.1913204 11.0111303 16711746
1.3604736 -1.6667299 9.9474039 16711746
1.3440878 -1.2197205 10.7892790 16711746
-2.5554869 -3.0916579 16.8507824 16711746
1.4063798 -1.0611212 9.0787735 16711746
1.3005244 -1.0744872 9.1088047 16711746
1.1599871 -1.0891171 9.1767788 16711746
1.2766142 -1.0707926 9.0227680 16711746
1.2835374 -1.0855777 9.1197424 16711746
1.1413999 -1.0967124 9.2327785 16711746
0.4218152 -1.1505550 9.2027283 16711746
1.0294373 -1.1091095 9.2602262 16711746
1.1755135 -1.0852342 9.0731754 16711746
0.0074530 -1.2056059 9.2065029 16711746
1.0278025 -1.0893964 9.0373335 16711746
0.9328100 -1.1170675 9.2778702 16711746
0.9757396 -1.1006044 9.1994476 16711746
0.6658753 -1.2130564 8.8249350 16711746
1.0877011 -1.0839626 9.0903587 16711746
0.9038863 -1.1339154 9.4211655 16711746
1.0438154 -1.0944197 8.9772320 16711746
1.0718319 -1.0885255 9.1260366 16711746
2.0096123 -1.0460190 10.2671452 16711746
1.2442482 -1.0931638 9.1433630 16711746
1.2374367 -1.1020827 9.1266270 16711746
0.7463898 -1.1400768 8.7626839 16711746
1.1094403 -1.0845757 9.0450745 16711746
0.8307872 -1.3097099 9.8696718 16711746
1.4046681 -1.0351387 8.9493942 16711746
1.8527153 -1.0571392 9.8144550 16711746
1.2395929 -1.1157397 9.4904270 16711746
1.6092716 -1.0631305 9.3893604 16711746
1.5161552 -1.0604362 9.3475800 16711746
1.0904676 -1.0774674 8.9671183 16711746
1.3673151 -1.0724860 9.1255636 16711746
1.1659167 -1.0792286 8.9946327 16711746
1.6710515 -1.1308463 9.8106203 16711746
1.0227883 -1.1018456 9.2091837 16711746
1.4340435 -1.0561395 9.0371981 16711746
1.1886379 -1.0806264 9.0402231 16711746
1.1132984 -1.1049650 9.2971706 16711746
1.0499225 -1.1630876 9.6232691 16711746
1.1891018 -1.0799754 9.0410223 16711746
1.0481590 -1.1648130 9.6240063 16711746
1.5267918 -1.0704672 9.4339638 16711746
1.1416663 -1.1677055 9.9276485 16711746
1.2361095 -1.1143448 9.4996309 16711746
0.6157178 -1.3159680 10.5159140 16711746
1.2255468 -1.0814694 9.1183949 16711746
0.8024271 -1.1765279 9.8645782 16711746
1.5807970 -1.0906034 9.7791700 16711746
1.3504894 -1.0986632 9.3820333 16711746
1.6726056 -1.0928831 9.5351486 16711746
1.2114108 -1.0940968 9.1698399 16711746
-2.2972839 -2.4420671 14.6959372 16711746
1.0286826 -1.1032895 9.2000656 16711746
0.8342765 -1.1148131 9.2011995 16711746
0.9271173 -1.1162891 9.2817402 16711746
1.0148379 -1.1256101 9.3730383 16711746
1.1448820 -1.0980756 9.0801439 16711746
0.8063629 -1.1520650 9.3262167 16711746
0.8309025 -1.1262643 9.2876902 16711746
1.0692917 -1.1012528 9.4192381 16711746
1.6273011 -1.0955772 9.7827034 16711746
1.1098385 -1.0990616 9.1394968 16711746
1.1802304 -1.1069416 9.3247948 16711746
0.9793196 -1.1009097 9.2031507 16711746
1.7315449 -1.0491494 9.4385633 16711746
0.8467047 -1.1388816 9.3798008 16711746
1.0731982 -1.1270736 9.3855762 16711746
0.9653642 -1.1269914 9.1681671 16711746
1.2000828 -1.0796884 9.0280638 16711746
1.3169112 -1.0711657 9.0366030 16711746
1.1337792 -1.1167769 9.4253807 16711746
1.2193353 -1.0857555 9.0743675 16711746
1.5083880 -1.0690835 9.3789186 16711746
1.2311713 -1.0740670 9.0395355 16711746
1.0294616 -1.1094549 9.2600002 16711746
0.8995245 -1.1121361 9.2294073 16711746
0.6637905 -1.1331675 8.8514194 16711746
1.6466292 -1.0346314 9.2494888 16711746
1.0829602 -1.0906835 9.1135807 16711746
0.8312904 -1.1490258 9.3917131 16711746
1.1454568 -1.0881701 9.0884018 16711746
1.2414458 -1.1159614 9.3671389 16711746
1.0644580 -1.0812470 8.9678621 16711746
1.2216567 -1.0973537 9.1767941 16711746
1.4480432 -1.0850432 9.1002531 16711746
1.5112042 -1.0694749 9.3151417 16711746
1.1403526 -1.0846131 9.0441828 16711746
1.6532413 -1.0713164 9.4353304 16711746
1.2703598 -1.0817989 9.1107273 16711746
0.9654460 -1.1444561 9.4622974 16711746
1.1707548 -1.1004840 9.1779785 16711746
1.2160856 -1.0951495 9.2716351 16711746
1.1605535 -1.0917864 9.1711330 16711746
1.3325971 -1.0737659 9.1318207 16711746
0.9675080 -1.0990255 9.0859261 16711746
1.0884252 -1.1181442 9.3518467 16711746
0.7933835 -1.1523044 9.3872395 16711746
1.1762584 -1.0870050 9.0708141 16711746
1.2695646 -1.0898933 9.2100897 16711746
1.1682280 -1.0996757 9.2941132 16711746
0.8334351 -1.1235036 9.2068644 16711746
0.9803529 -1.1032219 9.1962748 16711746
1.0911829 -1.1007068 9.0961132 16711746
1.0370569 -1.0977242 9.0247183 16711746
0.8280360 -1.1422262 9.3986988 16711746
1.5281742 -1.0314877 9.2471943 16711746
0.8530604 -1.1118927 9.2344131 16711746
0.9540491 -1.1070930 9.1530132 16711746
1.1400958 -1.0852082 9.0989580 16711746
1.1558372 -1.0934130 9.1686249 16711746
1.5231133 -1.0435872 9.2251883 16711746
1.1090732 -1.0868399 9.0424395 16711746
1.2025030 -1.0800397 9.1009884 16711746
1.0518239 -1.0890412 8.9840746 16711746
1.0705053 -1.0866660 8.9911175 16711746
1.3037024 -1.1018811 9.3779325 16711746
1.3043214 -1.0882628 9.4232883 16711746
1.1382856 -1.1241038 9.3934755 16711746
0.6739426 -1.1623240 9.7095175 16711746
1.6680825 -1.0888689 9.5382910 16711746
1.3695173 -1.0574147 9.1574821 16711746
1.0019182 -1.1430017 9.5739899 16711746
0.8992003 -1.1106032 9.2317190 16711746
1.2135925 -1.1073774 9.2678881 16711746
1.5995787 -1.0420012 9.3082952 16711746
1.1154552 -1.1323298 9.5801725 16711746
1.1644988 -1.0944674 9.3627300 16711746
1.0749489 -1.0887145 9.1174231 16711746
1.0779663 -1.0986900 9.1782713 16711746
1.2081395 -1.0820359 9.1032267 16711746
1.2421658 -1.0842544 9.1165924 16711746
1.0140576 -1.0904083 9.0810728 16711746
0.6270899 -1.2282927 9.9630022 16711746
0.6346109 -1.3079367 10.4647942 16711746
1.0795768 -1.0927863 9.1117935 16711746
0.5422856 -1.2978854 10.5963516 16711746
1.1130873 -1.0884564 9.1534300 16711746
1.1153321 -1.1094768 9.3591938 16711746
0.5074342 -1.1797533 9.4218273 16711746
1.1578624 -1.0925833 9.1430941 16711746
1.6273471 -1.0822413 9.4886951 16711746
0.8163725 -1.1056401 9.1604385 16711746
0.5861062 -1.1414276 9.2565289 16711746
1.2960871 -1.1035134 9.4184875 16711746
0.8973628 -1.1093863 9.2350788 16711746
1.3622160 -1.0862030 9.2680960 16711746
0.9002662 -1.0932844 9.1063557 16711746
1.2968398 -1.0987670 9.4337759 16711746
0.8131795 -1.0975142 9.0935326 16711746
1.5606624 -1.0648110 9.4153814 16711746
0.5980381 -1.1695653 9.3131504 16711746
0.9427028 -1.1352159 9.5066338 16711746
0.9035450 -1.1018149 9.1816711 16711746
1.2933294 -1.0854750 9.2238808 16711746
1.4438779 -1.0535049 9.2307844 16711746
1.7697566 -1.0850013 9.5289183 16711746
0.9545953 -1.1384172 9.4162531 16711746
0.8503463 -1.1640538 9.5874882 16711746
1.5958203 -1.0431913 9.3035793 16711746
1.3781745 -1.0734529 9.2086477 16711746
1.1806045 -1.1213329 9.2942028 16711746
0.6664926 -1.1867524 9.4943380 16711746
0.8812091 -1.0957782 9.1781864 16711746
1.3759559 -1.0752614 9.2053852 16711746
1.2874568 -1.0951079 9.2667294 16711746
0.8785674 -1.1341515 9.3127642 16711746
1.2420115 -1.1057360 9.4098291 16711746
1.2178799 -1.0929455 9.1800766 16711746
0.8239449 -1.1829715 9.8155107 16711746
1.5941114 -1.0857352 9.6197052 16711746
1.2029382 -1.0917368 9.1983328 16711746
1.2186234 -1.0859315 9.1626520 16711746
0.8299835 -1.1221213 9.2105646 16711746
0.9656818 -1.0907882 9.0534258 16711746
1.2973088 -1.1106523 9.3971300 16711746
0.7543256 -1.1795070 9.5913391 16711746
1.3604242 -1.0888057 9.3272724 16711746
1.1859533 -1.1255217 9.6704245 16711746
1.4515575 -1.0823636 9.9234161 16711746
0.7781450 -1.1682538 9.4560432 16711746
0.7646470 -1.1654022 9.4680395 16711746
0.9771713 -1.0923738 9.0410976 16711746
1.2420014 -1.1134747 9.4998684 16711746
0.7575854 -1.1623839 9.4826269 16711746
0.0764757 -1.2066802 9.4204397 16711746
1.0677824 -1.1028913 9.2122402 16711746
0.4024237 -1.1535689 9.2451324 16711746
1.5828519 -1.1629088 10.0359058 16711746
1.1584721 -1.1630555 10.1329842 16711746
1.1004809 -1.1470972 10.2729664 16711746
-4.0298247 -2.3943708 12.6492262 16711746
1.2334009 -1.2917750 11.4848347 16711746
0.7083692 -1.1432455 9.2701750 16711746
1.1155475 -1.0904671 9.1962185 16711746
1.5909413 -1.0682892 9.4976625 16711746
1.3593918 -1.0991558 9.2843084 16711746
0.8340774 -1.1642542 9.5026102 16711746
1.1273855 -1.1179971 9.3339911 16711746
1.5310714 -1.0756003 9.5558414 16711746
0.6142280 -1.1994451 9.6489611 16711746
0.0819851 -1.2067651 9.4254322 16711746
0.5887665 -1.1104741 9.1183596 16711746
1.3108271 -1.0972980 9.2705956 16711746
0.7790142 -1.1219538 9.1813869 16711746
0.9533778 -1.0792072 9.0898085 16711746
1.1929737 -1.1291502 9.3461189 16711746
0.7580457 -1.1292078 9.2536335 16711746
1.1140084 -1.1005452 9.2308435 16711746
0.8525701 -1.1413691 9.3727474 16711746
0.8654611 -1.1197212 9.3063745 16711746
1.0315653 -1.1107606 9.2893734 16711746
0.5897775 -1.1957583 9.6783190 16711746
1.2640042 -1.0821679 9.1820898 16711746
0.0467622 -1.3165668 10.3174820 16711746
0.7410915 -1.1011081 9.1466217 16711746
0.6872154 -1.1308011 9.2150621 16711746
1.4497964 -1.0804174 9.4841185 16711746
1.1061567 -1.1491643 9.5080061 16711746
0.7682730 -1.0769162 9.1202116 16711746
0.2660746 -1.3127842 10.3275328 16711746
0.9555479 -1.1164978 9.3270712 16711746
0.9623562 -1.1458831 9.4669485 16711746
1.4569149 -1.0776911 9.4844961 16711746
1.2958121 -1.0925680 9.3746576 16711746
1.3536466 -1.1016822 9.2992935 16711746
0.9559819 -1.1000199 9.1457863 16711746
0.5983914 -1.1801379 9.3145504 16711746
0.4580317 -1.1744771 9.3733625 16711746
1.0910084 -1.1107023 9.1559696 16711746
1.0366714 -1.1143456 9.2531853 16711746
0.0095637 -1.3327842 10.4940710 16711746
1.0062264 -1.1016023 9.3129683 16711746
1.2879760 -1.1219131 9.2015524 16711746
1.2969741 -1.1659063 9.1693668 16711746
0.5220761 -1.1871928 9.3356838 16711746
0.9075742 -1.1354760 9.5070219 16711746
1.2261636 -1.1044326 9.3319426 16711746
1.2096537 -1.1147807 9.3752823 16711746
1.7218707 -1.1051588 9.9009914 16711746
1.1206975 -1.1206397 9.3598423 16711746
1.3181585 -1.1251752 9.4683075 16711746
1.1746380 -1.1409826 9.5604668 16711746
1.2441782 -1.1536613 9.9019003 16711746
1.4716077 -1.0612795 9.2966328 16711746
0.9931467 -1.1880854 9.5254240 16711746
1.1303104 -1.1395911 10.0780153 16711746
1.2630023 -1.1211427 9.6559057 16711746
1.2834291 -1.0871547 9.2714710 16711746
1.3114604 -1.1365821 9.8451748 16711746
-1.7536216 -2.0460622 13.1077633 16711746
1.6267123 -1.0570506 9.1957951 16711746
1.0642763 -1.1088643 9.3017778 16711746
1.6820434 -1.1208912 9.8043680 16711746
-2.2506647 -2.8370123 15.2535515 16711746
1.4854313 -1.0663935 9.3678989 16711746
1.4921927 -1.0683957 9.3452406 16711746
0.8218853 -1.1176983 9.2177019 16711746
1.1597735 -1.1208371 9.3515701 16711746
1.2290391 -1.1045386 9.4802465 16711746
1.4947714 -1.0866063 9.5900154 16711746
1.4128526 -1.0797849 9.3119993 16711746
0.8232898 -1.1033502 9.1851196 16711746
1.0169207 -1.1263793 9.3698483 16711746
1.1828974 -1.1078891 9.3220234 16711746
0.8173136 -1.1565950 9.3889570 16711746
1.2818469 -1.1116462 9.4667454 16711746
0.8781747 -1.1544831 9.4232006 16711746
1.2393091 -1.1074799 9.3595171 16711746
0.9656950 -1.1429491 9.4610252 16711746
0.6231846 -1.1509438 9.2947016 16711746
1.4849465 -1.0599476 9.3091173 16711746
1.3616067 -1.0853180 9.2702045 16711746
1.1406902 -1.0997223 9.2290001 16711746
0.7527437 -1.1054556 9.1402102 16711746
0.8522325 -1.1615590 9.5871258 16711746
1.1407735 -1.0961487 9.2338972 16711746
1.8408818 -1.0885150 9.7848797 16711746
1.3721468 -1.0961002 9.4532194 16711746
1.0775422 -1.0950155 9.2087364 16711746
1.9226733 -1.0680389 9.8578720 16711746
1.5710869 -1.0671780 9.2605953 16711746
0.5298950 -1.1241317 9.2199545 16711746
1.6421305 -1.0504581 9.2689552 16711746
1.4846513 -1.0471406 9.2543869 16711746
1.5163840 -1.0851023 9.4013376 16711746
1.5949380 -1.0827309 9.6281681 16711746
1.5472540 -1.0679067 9.3218260 16711746
0.9491792 -1.1129472 9.3391523 16711746
0.7925352 -1.1101851 9.1847439 16711746
0.8005828 -1.0775653 9.1493740 16711746
1.7564059 -1.0622594 9.3985214 16711746
1.2140889 -1.0931139 9.1893539 16711746
0.6899143 -1.1718357 9.3818350 16711746
1.3019037 -1.1027873 9.3765297 16711746
1.1881682 -1.1412773 9.5238981 16711746
1.5968767 -1.0826702 9.6315346 16711746
0.8142880 -1.1561639 9.3200436 16711746
1.1346198 -1.1184818 9.3695059 16711746
1.2943289 -1.0989180 9.3489132 16711746
1.3749595 -1.5927260 9.7666979 16711746
1.1292311 -1.1956176 9.6538162 16711746
1.0930749 -1.1657467 9.8412275 16711746
1.6034266 -1.0652043 9.3887730 16711746
1.7785563 -1.2136903 9.8990726 16711746
0.5052632 -1.1961819 9.7128515 16711746
1.0587456 -1.1363403 9.2184772 16711746
1.0521408 -1.0999438 9.2349806 16711746
1.5344857 -1.0845819 9.6165638 16711746
0.4526775 -1.7126409 10.7966528 16711746
1.0263498 -1.0988183 9.1873798 16711746
1.2262187 -1.0957013 9.2294760 16711746
1.5820172 -1.0799074 9.5063868 16711746
1.3983752 -1.1065228 9.6519661 16711746
1.3098968 -1.1321106 9.8045845 16711746
1.5440500 -1.0804329 9.5432358 16711746
0.8228305 -1.1830171 9.8173151 16711746
1.6338060 -1.0770340 9.4707279 16711746
1.4337178 -1.1208723 9.9213686 16711746
1.1902699 -1.1244001 9.3551264 16711746
0.7351190 -1.1772257 9.5824137 16711746
1.0407189 -1.1138303 9.3235645 16711746
1.1597844 -1.1033523 9.2577066 16711746
1.0325724 -1.1094483 9.2572680 16711746
1.0687151 -1.1045913 9.2119970 16711746
1.1074040 -1.0962074 9.2004623 16711746
1.2941462 -1.1090809 9.4521761 16711746
1.3726013 -1.1004324 9.5617361 16711746
1.7299535 -1.0772344 9.3696299 16711746
0.0149393 -1.2917026 10.1361666 16711746
0.4577384 -1.2542660 10.3410702 16711746
1.5965674 -1.0725620 9.3690567 16711746
1.5158793 -1.0769408 9.4085751 16711746
1.1733867 -1.1219963 9.4096727 16711746
0.6678278 -1.1888965 9.4966726 16711746
1.4353408 -1.1020460 9.7198086 16711746
0.6908199 -1.1721725 9.3805475 16711746
-0.0562266 -1.5708587 10.3764610 16711746
0.3298019 -1.5550165 9.9279385 16711746
0.8699088 -1.0693749 9.1340523 16711746
1.0902607 -1.1192795 9.3453894 16711746
1.0884912 -1.1353203 9.5589647 16711746
1.2583652 -1.0896552 9.3688145 16711746
1.3330437 -1.1078396 9.4615154 16711746
0.7363830 -1.1781185 9.4647274 16711746
0.6106343 -1.3171049 10.5198307 16711746
1.2820182 -1.1026398 9.3445454 16711746
0.8641907 -1.1575558 9.4935474 16711746
0.6936611 -1.1724713 9.3789158 16711746
1.2896529 -1.1027055 9.3663454 16711746
0.9737893 -1.1318152 9.3971281 16711746
1.4692099 -1.0932080 9.6113768 16711746
-0.4380828 -1.9995966 11.0077524 16711746
1.5722396 -1.1411046 10.2717905 16711746
-0.6773211 -2.2628317 11.8092546 16711746
1.7376263 -1.1757977 10.4256458 16711746
1.1781561 -1.1348014 9.8962955 16711746
1.1550745 -1.1582177 9.9080124 16711746
1.3602509 -1.2077627 10.8926373 16711746
1.5982931 -2.6963217 13.7415600 16711746
1.4194902 -1.0881163 9.5627728 16711746
1.3745257 -1.0973403 9.5678415 16711746
1.6348771 -1.0493495 9.3761396 16711746
0.5034292 -1.2106154 9.8032093 16711746
0.4621854 -1.2023234 9.6402140 16711746
0.5958948 -1.1716644 9.2520056 16711746
1.1605259 -1.1299649 9.6100416 16711746
1.1835486 -1.1113470 9.3449907 16711746
1.5027610 -1.0676849 9.3920670 16711746
1.2597840 -1.1217294 9.7290754 16711746
1.5447071 -1.0837660 9.6166267 16711746
0.7342774 -1.1748214 9.5421820 16711746
1.5071981 -1.0606810 9.4051085 16711746
0.8505455 -1.1417266 9.3755283 16711746
0.7025191 -1.1564149 9.3017406 16711746
0.6096559 -1.2677425 10.0161819 16711746
0.4594859 -1.2025406 9.6417017 16711746
1.3553188 -1.0835794 9.4497662 16711746
1.3630692 -1.1069798 9.6496744 16711746
1.1141795 -1.1362009 9.6107674 16711746
0.8638592 -1.1731070 9.6864843 16711746
1.1733022 -1.1203914 9.4125681 16711746
1.6649579 -1.0613633 9.4539738 16711746
1.4428488 -1.0981718 9.4414806 16711746
1.2838564 -1.0949315 9.3043509 16711746
1.1804595 -1.1065696 9.3248043 16711746
0.8991451 -1.1112872 9.2310848 16711746
0.9664026 -1.1237657 9.1869183 16711746
1.7230755 -1.0805036 9.3627195 16711746
1.2608083 -1.0992823 9.3595533 16711746
1.6920271 -1.0691452 9.5745420 16711746
1.4393253 -1.0994561 9.7282505 16711746
1.7291923 -1.0785136 9.3669109 16711746
0.7251169 -1.1747462 9.4098501 16711746
0.7454851 -1.1824098 9.5902567 16711746
1.2630899 -1.1289053 9.4732924 16711746
1.3404206 -1.1128027 9.4678707 16711746
1.4205469 -1.1053193 9.6806707 16711746
1.2346056 -1.1031476 9.5179768 16711746
1.1383529 -1.1248417 9.6977510 16711746
0.8687727 -1.1187105 9.2631836 16711746
0.9581500 -1.1216799 9.2806330 16711746
1.1465235 -1.1243447 9.5235252 16711746
1.2599241 -1.5113866 9.9576921 16711746
0.7620058 -1.1388426 9.2896748 16711746
1.2996761 -1.1549687 10.1176786 16711746
1.0130672 -1.1387950 9.4634132 16711746
1.7421459 -1.1075928 10.0706787 16711746
1.6222001 -1.0830330 9.4561872 16711746
1.3598019 -1.1255497 9.7705231 16711746
1.4709966 -1.0804816 9.5613918 16711746
1.2045846 -1.1155883 9.3683796 16711746
1.4610373 -1.0925118 9.5380402 16711746
0.7304150 -1.2139997 9.9849758 16711746
-2.1970396 -1.9230956 12.5459051 16711746
-1.6356848 -1.8314075 12.1043758 16711746
-1.3127871 -1.9567493 12.0678501 16711746
1.5538069 -1.1127315 9.6887636 16711746
1.4601333 -1.1200786 9.9909706 16711746
-0.0679376 -1.8568577 11.7556963 16711746
0.7333364 -1.1588702 9.3449097 16711746
1.2829758 -1.1118815 9.4649391 16711746
0.7887309 -1.1465399 9.2749338 16711746
1.0190651 -1.1285319 9.3675880 16711746
1.2313424 -1.1111941 9.3875914 16711746
1.3159955 -1.1023568 9.5100594 16711746
1.0973144 -1.1246306 9.5656471 16711746
1.3314061 -1.0972300 9.4606476 16711746
1.3542408 -1.1025100 9.5216408 16711746
1.3003643 -1.0924283 9.3939734 16711746
1.1127164 -1.1377617 9.4786663 16711746
1.2281424 -1.1080060 9.4620142 16711746
0.8666416 -1.1745845 9.6849108 16711746
1.1853361 -1.1087685 9.3203011 16711746
1.1190957 -1.1397197 9.7273970 16711746
0.3837056 -1.2354548 9.8347569 16711746
1.0159571 -1.1259819 9.3707438 16711746
1.0825164 -1.1297648 9.3778734 16711746
1.0782387 -1.1278311 9.3825645 16711746
0.6182602 -1.2028601 9.8364420 16711746
1.2951607 -1.0977100 9.3467798 16711746
0.3548454 -1.2243073 9.8586702 16711746
1.2575480 -1.2098193 10.7731676 16711746
0.9658812 -1.1255692 9.3287401 16711746
0.0757601 -1.2828188 9.8039789 16711746
0.6363857 -1.2082742 9.8136559 16711746
1.5574851 -1.0343021 9.5225573 16711746
1.8868726 -1.0137503 9.8125725 16711746
1.0223973 -1.1121640 9.2948618 16711746
1.0730519 -1.1341903 9.6790686 16711746
1.2787229 -1.0941881 9.4869671 16711746
1.3023368 -1.1163497 9.4878826 16711746
0.8665960 -1.1746424 9.3974829 16711746
1.2799542 -1.1010305 9.4735470 16711746
0.5732477 -1.1751635 9.3274260 16711746
0.8438752 -1.1269979 9.2453241 16711746
1.1441084 -1.1690996 9.9269438 16711746
0.7835097 -1.1740717 9.6022024 16711746
0.7883150 -1.1671823 9.4649801 16711746
1.0670351 -1.1108553 9.3024006 16711746
1.4883111 -1.0800277 9.5810070 16711746
1.2194359 -1.1168513 9.4988565 16711746
1.3371311 -1.1039827 9.5276957 16711746
0.0071561 -1.2925901 10.1428070 16711746
1.1356090 -1.1853348 10.1864014 16711746
1.4315213 -1.1214430 9.9198875 16711746
1.1651496 -1.1654084 10.1233664 16711746
1.6922660 -1.1334115 9.9457884 16711746
1.4808936 -1.0786604 9.6397686 16711746
0.5653413 -1.1911707 9.3686409 16711746
0.6058133 -1.1821629 9.3123274 16711746
-2.1925905 -2.8295426 12.3719435 16711746
1.1781133 -1.1289234 9.3972502 16711746
1.8706002 -1.1240138 10.3211918 16711746
1.1693559 -1.1232942 9.4549274 16711746
1.0227616 -1.1152043 9.3195410 16711746
1.3144988 -1.1306428 9.8042202 16711746
1.2548572 -1.1903393 10.3574648 16711746
1.5678573 -1.1426698 9.8355827 16711746
1.1560678 -1.1231328 9.6239300 16711746
0.5895835 -1.2025703 9.6458778 16711746
0.8387841 -1.1655384 9.6239948 16711746
1.2181723 -1.1151851 9.5014429 16711746
1.1882216 -1.1365570 9.7997189 16711746
1.5530289 -1.1011335 9.9188652 16711746
1.1363406 -1.1838909 10.1935310 16711746
0.7229018 -1.1709465 9.4153605 16711746
1.2224299 -1.1511040 10.0078173 16711746
0.9367198 -1.1345218 9.3903685 16711746
0.6636272 -1.1734688 9.3047533 16711746
1.0620470 -1.1557751 9.8780298 16711746
1.2978011 -1.1111332 9.5435696 16711746
1.2733643 -1.1391636 9.9676313 16711746
1.2973515 -1.1123488 9.5408716 16711746
1.4475708 -1.0960541 9.7304602 16711746
0.8838841 -1.1580259 9.5745811 16711746
0.8484315 -1.1654230 9.5338459 16711746
1.2261529 -1.1394432 9.8434305 16711746
1.2213931 -1.1487983 10.0168209 16711746
1.3551947 -1.1026911 9.5200453 16711746
1.2823055 -1.1160476 9.6349936 16711746
1.0248296 -1.1440299 9.4467869 16711746
0.9543898 -1.1434655 9.4956112 16711746
0.7893046 -1.1500344 9.3487644 16711746
1.4202659 -1.0833912 9.5749989 16711746
1.4543402 -1.1144038 9.9860907 16711746
0.6324140 -1.1848813 9.4216022 16711746
1.6262538 -1.0991406 9.7779388 16711746
0.8128635 -1.1706407 9.5459948 16711746
1.2802823 -1.1109573 9.6529884 16711746
1.6040264 -1.1120412 9.9917669 16711746
1.4672368 -1.0829428 9.5629396 16711746
0.6727576 -1.1893231 9.4973707 16711746
0.9729716 -1.1305366 9.3216619 16711746
0.9602633 -1.1221020 9.2795811 16711746
0.7894689 -1.1580890 9.3288383 16711746
0.9771450 -1.1252379 9.3609180 16711746
1.6898544 -1.1346135 9.8694191 16711746
0.7509620 -1.1449084 9.3521624 16711746
0.8765920 -1.1581093 9.4986324 16711746
1.3352493 -1.1095990 9.5767469 16711746
0.9222533 -1.2163353 10.4710255 16711746
1.3393496 -1.1278075 9.7575312 16711746
1.1592846 -1.1433510 9.9880409 16711746
1.3184552 -1.1180545 9.7037430 16711746
1.1770114 -1.1248676 9.4050303 16711746
1.6043262 -1.0768895 9.6466360 16711746
1.8156488 -1.1111333 10.2123985 16711746
0.8253693 -1.1430979 9.2072735 16711746
1.2298124 -1.1096622 9.3895283 16711746
1.4013336 -1.0842837 9.5215521 16711746
-0.5376639 -1.5002091 11.0454531 16711746
1.5881734 -1.1493905 10.5130424 16711746
1.7352402 -1.0980576 9.9215183 16711746
1.2219732 -1.1369983 9.8586407 16711746
-0.2962514 -1.3067836 10.6593895 16711746
1.1391652 -1.2850726 9.4217348 16711746
-3.4799709 -2.8097427 12.5636091 16711746
1.2450109 -1.8298665 10.5304813 16711746
0.7184380 -2.0100033 11.1256666 16711746
1.7501496 -1.2220850 11.5557108 16711746
1.6847246 -1.0727254 9.5604305 16711746
0.8837610 -1.1554064 9.4212828 16711746
1.3079674 -1.1076056 9.4888325 16711746
1.2620531 -1.1256270 9.7219467 16711746
1.2014560 -1.1276461 9.5092821 16711746
1.2037281 -1.1148685 9.5935783 16711746
1.8017948 -1.0731921 9.7165956 16711746
1.7225155 -1.0671026 9.7539082 16711746
1.6320496 -1.0735793 9.4883242 16711746
0.7212716 -1.1899210 9.5081348 16711746
1.0358052 -1.1532317 9.7769432 16711746
0.8793497 -1.1306770 9.3093367 16711746
1.6463412 -1.0595027 9.6182318 16711746
1.2066077 -1.1210580 9.5793810 16711746
1.1012189 -1.1383814 9.7025537 16711746
1.2791498 -1.1125689 9.5377426 16711746
1.5286745 -1.0873950 9.7445393 16711746
1.4208689 -1.0864481 9.5667696 16711746
1.3068428 -1.1053544 9.4935980 16711746
0.6841722 -1.1812137 9.5330248 16711746
1.3862455 -1.1084177 9.6796465 16711746
1.6799136 -1.0747961 9.5660639 16711746
1.1274176 -1.1300656 9.4875345 16711746
1.3846182 -1.1095028 9.6767464 16711746
1.2956427 -1.1121043 9.5469971 16711746
0.7166488 -1.1955215 9.5648870 16711746
1.6277663 -1.0727862 9.4864998 16711746
1.4420820 -1.1011754 9.7220221 16711746
1.5738584 -1.0944237 9.7558041 16711746
1.4271997 -1.0946803 9.5331478 16711746
1.1650113 -1.1346998 9.5836611 16711746
1.0600908 -1.1449705 9.4002094 16711746
0.0331602 -1.2811961 9.9648037 16711746
-0.1460755 -1.2741524 9.9277229 16711746
1.0663832 -1.1412165 9.3707943 16711746
1.7000697 -1.0550014 9.6110229 16711746
0.9703312 -1.1804196 9.9573994 16711746
0.8240497 -1.1607959 9.3834333 16711746
1.9148614 -1.1246791 10.3801641 16711746
1.5684601 -1.1436675 10.2716627 16711746
1.7263070 -1.0989232 9.9124908 16711746
1.0586377 -1.1367451 9.3777838 16711746
0.8478879 -1.1398848 9.3767262 16711746
1.3996640 -1.1081109 9.6586485 16711746
1.0772171 -1.1560656 9.9010582 16711746
0.7959242 -1.1527596 9.3801928 16711746
1.0468895 -1.1923896 9.4520493 16711746
0.6877681 -1.1707721 9.3814096 16711746
0.0810333 -1.2733245 9.9393864 16711746
1.8172430 -1.1574105 10.5412912 16711746
1.1685998 -1.2060754 10.4601383 16711746
1.1351060 -1.3669142 10.6607857 16711746
1.8873043 -1.1236053 10.3554316 16711746
0.9373904 -1.1578836 9.4355774 16711746
1.4425905 -1.1554840 10.5224466 16711746
1.3162146 -1.1106598 9.7314119 16711746
1.4297246 -1.1241698 9.9150190 16711746
0.8308186 -1.1647627 9.4564629 16711746
1.2515658 -1.1860877 10.4014339 16711746
-2.9413483 -2.3082764 11.7602425 16711746
1.3171729 -1.1183108 9.7150240 16711746
1.1286229 -1.1416246 9.9062176 16711746
0.9628645 -1.1220155 9.3375187 16711746
1.0051214 -1.1250895 9.3248482 16711746
1.6205322 -1.0597224 9.6377840 16711746
1.5003328 -1.0784004 9.6123676 16711746
0.7267654 -1.1804181 9.3639688 16711746
