# .PCD v.7 - Point Cloud Data file format
VERSION .7
FIELDS x y z rgb
SIZE 4 4 4 4
TYPE F F F F
COUNT 1 1 1 1
WIDTH 61
HEIGHT 1
VIEWPOINT 0 0 0 1 0 0 0
POINTS 61
DATA ascii

 0.5842285 -1.0666311 1.4096192 16777215
 0.0209222 -0.0274591 0.0108348 16777215
-0.3865030 -1.2983832 -0.4851233 16711746
0.3228121 -0.7987745 -0.1661128 16711746
0.2763387 -1.0192844 -0.0106968 16711746
0.2749459 -0.5394938 -0.0648115 16711746
0.1476171 -0.9797940 -0.2856141 16711746
0.5061482 -1.1012170 0.0721443 16711746
0.1396397 -1.2126383 -0.3247473 16711746
0.0238091 -1.5461148 -0.4271593 16711746
0.0521572 -1.3450581 -0.3862992 16711746
-0.4516684 -1.7463573 0.0178149 16711746
0.1290043 -1.6679212 0.0875821 16711746
0.1991154 -1.6159643 -0.0706446 16711746
0.4501932 -0.6305856 -0.0093831 16711746
0.1241132 -1.2712132 0.0307316 16711746
0.3291405 -0.5925991 0.0108740 16711746
0.3103806 -0.7024032 -0.1202574 16711746
0.2567639 -1.0581455 -0.2223452 16711746
0.2044233 -1.0563716 -0.2262617 16711746
0.2915332 -0.7779354 -0.0791489 16711746
0.1868952 -1.1057328 -0.2604483 16711746
0.1792721 -1.3076029 -0.3131489 16711746
0.2664259 -0.4381258 -0.0488668 16711746
0.3234908 -0.7436935 -0.1731019 16711746
0.2175731 -1.2434253 -0.3378962 16711746
0.2637049 -1.0630779 -0.2713277 16711746
-0.9707074 -1.1933974 -0.5395939 16711746
-0.2472632 -1.4382787 -0.2573259 16711746
0.3203886 -0.5134770 0.0009020 16711746
0.0592560 -1.3320986 -0.3459606 16711746
0.3076887 -0.5148343 -0.0349125 16711746
0.2725169 -0.9538162 -0.1744206 16711746
0.2370653 -1.1207892 -0.2019856 16711746
0.0031268 -0.0071003 0.0124696 16711746
0.2600221 -0.8023109 -0.1438064 16711746
0.2523640 -1.0903966 -0.2483516 16711746
-0.8345459 -1.3007059 -0.4536294 16711746
0.0538504 -0.0696953 0.0072223 16711746
0.2985391 -0.6111292 -0.0906589 16711746
-0.9930334 1.2272830 -0.0698855 16711746
-0.4856007 -1.7458017 -0.0065359 16711746
-0.6358218 -1.4100977 -0.3521507 16711746
0.3029758 -0.5003621 -0.0741112 16711746
0.2128028 -0.9150382 -0.0710062 16711746
-0.1467091 -1.4909542 -0.3615819 16711746
-0.0506950 -1.4401597 -0.3974731 16711746
-0.6868913 -1.3361835 -0.4733822 16711746
-0.2593047 -1.6343651 -0.3425185 16711746
0.0754912 -1.1128142 -0.1507426 16711746
-0.1124955 -1.2698705 -0.2187311 16711746
0.0926113 -1.2976967 -0.4088086 16711746
0.2582682 -0.4306385 -0.0746408 16711746
0.3068014 -0.6323684 -0.1430443 16711746
-0.0294838 -1.4284748 -0.4332246 16711746
-0.0553524 -1.4480302 -0.4359669 16711746
-0.1132548 -1.4714048 -0.3307571 16711746
3.3973289 -8.9442472 -1.0043051 16711746
4.3537784 -32.2297058 7.7245307 16711746
4.3201976 -32.4994049 7.8203869 16711746
0.8162439 -4.4592400 1.5065114 16711746
