# .PCD v.7 - Point Cloud Data file format
VERSION .7
FIELDS x y z rgb
SIZE 4 4 4 4
TYPE F F F F
COUNT 1 1 1 1
WIDTH 94
HEIGHT 1
VIEWPOINT 0 0 0 1 0 0 0
POINTS 94
DATA ascii

 1.3519682 -3.4216824 7.4386387 16777215
 0.0139532 -0.0359882 0.0761868 16777215
0.2645060 0.8057287 -0.9038997 16711746
0.0596456 0.6652441 -0.7779756 16711746
0.5822907 0.8756520 -1.0216585 16711746
-0.7854474 -0.4678640 0.2895595 16711746
-0.5596260 -1.4590220 0.1108121 16711746
-0.8398161 -1.3423948 -0.0559535 16711746
-0.3935843 -1.6054015 0.0373663 16711746
-0.3873223 -0.5627230 0.1878097 16711746
0.4438087 0.9711877 -0.7605431 16711746
-0.2844484 -1.5098720 0.4889608 16711746
-1.3393257 -1.2842455 -0.2383289 16711746
-0.9324080 -0.5706362 0.1168074 16711746
-0.5707953 -0.5847987 0.0572221 16711746
-0.2063402 -0.5650800 0.3054011 16711746
0.1406797 -1.5438595 0.6593048 16711746
-0.2882975 -1.4800093 0.5602240 16711746
0.0618338 -1.4312661 0.9634253 16711746
-0.4712904 -1.5873498 -0.0498689 16711746
0.0461578 -1.1971860 0.4347350 16711746
0.5693921 0.8948097 -0.8296443 16711746
-0.7271025 -0.3374227 0.1532513 16711746
-0.7142707 -0.4753478 0.2440113 16711746
-0.3305969 -1.5644563 0.2984121 16711746
0.0153562 -1.5780758 0.5171950 16711746
-0.5874184 -0.7990077 0.1583903 16711746
-0.5336244 -0.6757669 -0.0163987 16711746
-0.5506306 -0.2284338 0.2633847 16711746
-0.2568752 -1.3600030 0.9177620 16711746
-1.3316028 -1.0579360 -0.1849126 16711746
-0.1676648 -0.1424750 0.1322310 16711746
-0.7325334 -0.5495127 0.3227761 16711746
-1.2359290 -0.9806706 0.7743607 16711746
-0.7205442 -0.6389498 0.4553927 16711746
-0.6729183 -1.2953250 0.2746572 16711746
-1.6271198 -1.0339003 0.1038984 16711746
-0.5818635 -1.5388485 -0.0035496 16711746
-1.8456930 -0.8653718 0.6190163 16711746
-0.5194699 -1.3265430 0.6854379 16711746
-0.9135186 -1.0651387 -0.0271632 16711746
-1.5751921 -0.9505188 0.5378042 16711746
-0.5565686 -1.1961862 0.9933898 16711746
0.3915601 1.0612235 -0.8346903 16711746
-0.0823851 0.8555910 -0.7597242 16711746
-0.6450229 -0.7280449 0.3939230 16711746
-0.5770752 -0.1542609 0.3178588 16711746
1.7969676 0.9281071 -1.2119249 16711746
-0.5082340 -1.2162726 1.0052742 16711746
-0.6915281 -0.5921137 0.3004620 16711746
-0.2445334 -0.1475644 0.1543762 16711746
0.5586060 0.8825745 -1.0100700 16711746
0.5889354 0.6760220 -0.9278945 16711746
0.0772152 0.8093042 -0.7698700 16711746
0.1248407 0.7474713 -0.7889335 16711746
-0.9681061 -1.2492830 0.2832693 16711746
-0.5386446 -1.2944872 0.7422420 16711746
-0.2449348 -0.3023387 0.0739009 16711746
-0.0457027 -1.5537791 0.7359237 16711746
-0.1406548 -1.2899766 0.6871764 16711746
-0.2516330 -1.4168652 0.7623582 16711746
0.0471310 -1.5487306 0.6220940 16711746
-0.1801853 -1.3975770 0.8927175 16711746
-0.5011418 -1.2058851 0.5725880 16711746
-0.2651154 -0.9469772 0.3976943 16711746
-1.0166544 -1.2372252 0.2435849 16711746
-0.3206685 -1.3099849 0.9862850 16711746
0.1994398 1.0725167 -0.8720119 16711746
-0.6082856 -1.2293729 0.8212608 16711746
0.8566610 0.9903572 -0.9827374 16711746
-0.6309194 -0.4923969 0.4349134 16711746
-0.5818833 -0.3788247 0.4413764 16711746
-0.8704932 -0.5772751 0.6038851 16711746
-0.3342869 1.3160653 -0.7299264 16711746
-0.2825890 -1.5944787 0.4647735 16711746
-0.5759578 -1.1031839 0.2659201 16711746
-0.4565085 -1.1669108 0.6643232 16711746
-0.7925815 -1.4570957 -0.0829181 16711746
-0.5836968 -0.3426084 0.3791479 16711746
-0.5864173 -0.3231054 0.3417258 16711746
7.2191920 -85.9402084 64.5442810 16711746
-145.3451996 -252.2212677 40.5121880 16711746
-41.7447739 -207.4750519 81.9722595 16711746
2.3360474 -306.9475708 51.8843002 16711746
-6.9798183 -216.5862122 98.1669769 16711746
1.9935331 -370.2902832 93.7269516 16711746
-11.3093033 -52.5391655 17.6630859 16711746
-46.1410141 -19.3841686 16.2711086 16711746
-44.8112068 -270.6188965 120.6725464 16711746
-18.1101780 -85.4740143 19.8084087 16711746
27.1684399 -297.5138855 115.8358307 16711746
19.1594505 -269.5869141 105.1162720 16711746
-58.0585480 -143.5325470 60.0171089 16711746
-68.9044800 -145.0538330 45.2121239 16711746
