# .PCD v.7 - Point Cloud Data file format
VERSION .7
FIELDS x y z rgb
SIZE 4 4 4 4
TYPE F F F F
COUNT 1 1 1 1
WIDTH 148
HEIGHT 1
VIEWPOINT 0 0 0 1 0 0 0
POINTS 148
DATA ascii

-0.5755986 -0.6240709 -0.2778282 16711746
0.3982323 -0.5517321 -0.0626021 16711746
0.6926904 -0.8218744 -0.0287085 16711746
-0.6286609 -1.4172146 -0.0873788 16711746
-0.2765222 -1.6186529 -0.3728060 16711746
0.3131792 -0.6229129 -0.1575986 16711746
-0.2406097 -1.5661510 -0.0924749 16711746
0.3014418 -0.9040233 0.0747741 16711746
-1.5799588 -1.1017835 -0.5135974 16711746
-0.9852614 -1.0101396 -0.4466369 16711746
-0.2675894 -0.6164827 -0.0838468 16711746
-0.3466869 -1.5586153 -0.1523507 16711746
0.0927111 -0.9155249 -0.0079192 16711746
0.6953357 -0.8514211 -0.2039855 16711746
-1.3933499 -1.8071005 -0.7860848 16711746
-0.9711084 -1.1094882 -0.4597089 16711746
-0.4617743 -1.5364897 -0.2218572 16711746
0.3783370 -0.5654259 -0.0759010 16711746
-0.3333947 -1.3503950 -0.1424070 16711746
-0.2997882 -1.5835265 -0.1966482 16711746
-1.4444782 -1.5461600 -0.3592582 16711746
-0.0047411 -0.2934834 0.0492910 16711746
0.1556881 -0.9203101 -0.1702473 16711746
0.2154883 -0.7188222 -0.0920820 16711746
0.0954219 -1.5596689 0.0633862 16711746
0.3069801 -0.5984454 -0.0289091 16711746
-0.4912575 -1.5235525 -0.2207269 16711746
0.4045078 -1.6222250 -0.1411426 16711746
-0.2678449 -0.8841174 -0.1561573 16711746
-0.3997419 -1.5758296 -0.3118426 16711746
-0.2691449 -0.8816311 -0.1729773 16711746
-0.4057791 -1.4975296 -0.0262555 16711746
-0.4789021 -1.4806504 -0.0541263 16711746
-0.8717272 -1.1322142 -0.4615614 16711746
0.0469731 -0.9061564 0.0313296 16711746
-0.1972006 -1.5450387 -0.0080319 16711746
0.6315299 -1.6248224 -0.2006393 16711746
-0.2031973 -1.6315216 -0.3434521 16711746
-0.3594320 -0.8352813 -0.0694399 16711746
-0.1682651 -0.4296833 -0.0378497 16711746
-0.3762659 -0.8239288 -0.0852461 16711746
-0.1329178 -0.9211478 -0.1045682 16711746
0.0670883 -0.9772832 -0.2069300 16711746
-0.0188058 -0.9190233 -0.1649115 16711746
-0.0076556 -0.9333161 -0.1755108 16711746
0.3416286 -1.6470811 -0.3035994 16711746
-0.3791679 -0.5772663 -0.1884241 16711746
-0.5392271 -0.7667624 -0.2663365 16711746
-0.7166389 -1.3727980 -0.1630297 16711746
0.2811473 -0.9129048 -0.0934605 16711746
-0.1120442 -1.6311432 -0.2543325 16711746
-0.1791295 -1.6295935 -0.2983159 16711746
0.4952295 -1.6231484 -0.1585072 16711746
-0.0969777 -1.6498090 -0.3791880 16711746
-0.0607646 -0.9202244 -0.0504748 16711746
0.6334125 1.8223821 -0.5729961 16711746
-0.0346463 -0.9076250 0.0082681 16711746
-0.4295394 -1.5668420 -0.3334886 16711746
-0.2303540 -0.8951167 -0.1911015 16711746
-0.0816031 -1.5851940 -0.0696237 16711746
-0.0764570 -0.8009617 0.0184621 16711746
1.0609964 -2.2106521 -0.0463615 16711746
-0.5047878 -1.4945365 -0.1306501 16711746
-0.5334511 -1.4820549 -0.1334753 16711746
-0.5565628 -1.4661404 -0.1180404 16711746
0.2295030 -1.6405094 -0.2261395 16711746
0.3077158 -0.9074267 -0.1284611 16711746
0.3942589 -1.6075897 -0.0711549 16711746
-0.3457741 -0.5037912 -0.1753206 16711746
-0.0682255 -1.6374817 -0.2627724 16711746
-0.2658979 -1.9644874 0.2272013 16711746
0.1717459 -0.5545319 -0.1212822 16711746
-0.0734238 -1.6007347 -0.1160459 16711746
1.1978265 -2.3087809 -0.2987245 16711746
0.0307491 -0.9335343 -0.1258038 16711746
0.3764822 -0.5581401 -0.0387396 16711746
-0.5852830 -2.0922821 -0.1448559 16711746
0.1194362 -0.9239627 -0.1787118 16711746
0.0936861 -0.5567111 -0.1063910 16711746
0.2421070 -1.5483047 0.1254070 16711746
-0.5419956 -0.7016380 -0.2319927 16711746
0.2752037 -0.6553305 -0.1379496 16711746
0.2449666 -0.9036697 -0.1890481 16711746
0.2417396 1.3318135 -0.7488081 16711746
-0.2259959 -1.6315198 -0.4047663 16711746
0.0343157 -0.3971905 0.0162536 16711746
-0.2548906 -0.8626059 0.0410992 16711746
-0.4138773 -1.4627268 0.0569449 16711746
0.2706672 -1.1089600 -0.1517058 16711746
-0.9110176 -1.0852017 -0.4226572 16711746
0.1315744 -1.9778303 0.3233292 16711746
-0.0245811 -0.9017424 -0.0923643 16711746
-0.1993334 1.6215490 -0.3982866 16711746
0.1690866 -0.9095288 -0.2126814 16711746
-0.3270622 -1.5004790 0.0285960 16711746
-0.4818330 -1.4571611 0.0068833 16711746
-0.7523679 -1.3379768 -0.1428265 16711746
-0.2717176 -0.4301076 0.0079789 16711746
-0.4184333 -0.7949483 -0.0128804 16711746
-0.4693391 -1.3558158 0.3097997 16711746
1.0001622 1.4830914 -0.8911142 16711746
0.1060283 -0.9264436 -0.0789720 16711746
0.0684494 -0.5911673 -0.1321519 16711746
0.0316542 -0.9495732 -0.2409742 16711746
0.0073476 -0.9312984 -0.2467175 16711746
-0.4177833 -1.8999550 0.2666057 16711746
-0.4190247 -1.9176955 0.2382930 16711746
0.0359657 -0.3137679 0.0385678 16711746
0.1027639 -0.5231779 -0.0390460 16711746
0.9558029 -1.5871509 -0.3816955 16711746
0.0048568 -1.5370660 0.1012408 16711746
-0.3476895 -1.3269299 -0.1204351 16711746
-0.1516686 -0.7993973 -0.2209657 16711746
-0.4558702 -1.9166466 -0.4608287 16711746
-0.5350904 -1.4037724 0.0896774 16711746
-0.5684561 -1.8185521 0.3144638 16711746
-0.7417839 -1.2703221 0.1673047 16711746
-0.5127230 -1.4220355 0.0663012 16711746
0.0403366 -0.9204750 -0.0311900 16711746
-0.0669345 -1.6262749 -0.2088772 16711746
-0.0002126 -0.9338230 -0.1238173 16711746
-0.1947995 -0.8730011 0.0563839 16711746
0.6491001 -0.8320995 -0.1113428 16711746
0.0611908 -0.5835022 -0.1085949 16711746
0.1188732 -0.9195534 -0.2036542 16711746
0.0958346 -0.9951468 -0.2190142 16711746
-0.0591098 -0.9254068 -0.0753603 16711746
-0.1604693 -1.6005015 -0.1555693 16711746
0.2621510 1.8572490 -0.5239497 16711746
-0.2558453 -1.6252176 -0.4388326 16711746
-0.2957872 -2.2400541 -0.6419581 16711746
-0.1561899 -1.6210876 -0.2345384 16711746
0.5283516 -1.6395662 -0.3686009 16711746
0.1668566 -0.5532506 -0.1050401 16711746
-0.5056041 -1.5079988 -0.1814236 16711746
-0.4519935 -1.2048386 -0.1648559 16711746
-0.2660299 -0.8833737 -0.0889763 16711746
-36.3658180 -53.5454483 34.5982094 16711746
-8.4161558 -35.5004005 0.5887628 16711746
-26.8524361 -111.0054703 0.1682445 16711746
-3.6118271 -5.0595899 3.2641716 16711746
-59.3369179 -169.8994446 -29.0241566 16711746
9.9792566 -57.7762985 19.5763035 16711746
9.5784712 -68.8925934 20.8674564 16711746
8.1138792 -25.1863194 10.9848967 16711746
-28.9818974 -42.1892204 27.5773258 16711746
-3.4793334 -272.6285706 -38.9745445 16711746
-24.6458626 -104.2858734 -4.9929829 16711746
