# .PCD v.7 - Point Cloud Data file format
VERSION .7
FIELDS x y z rgb
SIZE 4 4 4 4
TYPE F F F F
COUNT 1 1 1 1
WIDTH 75
HEIGHT 1
VIEWPOINT 0 0 0 1 0 0 0
POINTS 75
DATA ascii

 1.2845478 -3.0882206 6.0170298 16777215
 0.0415631 -0.1017787 0.2044947 16777215
-2.1453080 -6.4918289 -0.4551631 16711746
-0.3970703 -1.0273768 0.3339685 16711746
-0.1193644 -0.8695890 0.2200328 16711746
-2.4018772 -3.8938920 2.4396443 16711746
-2.9661815 -4.8286800 3.4117749 16711746
-0.7131929 -1.2882127 0.7070399 16711746
1.1877997 0.6417181 -0.6188724 16711746
-1.0380421 -1.1623378 0.0673307 16711746
-1.0356666 -0.6529109 0.5095639 16711746
-3.0985303 -6.8937244 2.2997587 16711746
-0.2030586 -1.1018484 0.4372729 16711746
-0.0037719 -0.6208922 0.2574482 16711746
-3.3892007 -6.9926023 0.8354966 16711746
-2.8637383 -4.3785610 -0.2797380 16711746
-1.1265072 -1.1732463 0.1491770 16711746
-2.7350957 -2.1599121 0.0594367 16711746
-2.0493238 -4.1947865 0.9905546 16711746
-0.1281153 -0.7662039 0.3896480 16711746
-0.0396518 -0.6731644 0.2326506 16711746
0.0649045 4.3207278 -2.9170794 16711746
0.4954318 0.9180549 -0.9310407 16711746
0.7352815 1.7046716 -1.2893969 16711746
-9.5886126 -6.3654079 3.5676928 16711746
-1.0321178 -0.6852068 0.2855365 16711746
-0.9178353 -0.7491115 0.4259343 16711746
-0.0772510 -0.7338760 0.1757375 16711746
-0.7144709 -1.4939910 0.1247680 16711746
-3.4947276 -7.8606129 -0.5839344 16711746
-1.3482951 -0.8665060 0.1318794 16711746
-0.6293060 -1.0257045 0.0974221 16711746
-0.5957503 -1.8956386 0.4048561 16711746
-0.3120716 -0.7823120 0.1218088 16711746
-1.8592635 -4.2697687 -0.0836991 16711746
-0.9908151 -1.1176236 0.1177013 16711746
-0.4145547 -0.9298287 0.2421375 16711746
-0.4600675 -1.1495782 0.2403826 16711746
-0.8461137 -0.4705233 0.3879359 16711746
0.0156401 -0.6825758 0.1920888 16711746
-0.9618063 -1.8619518 0.0541721 16711746
-2.2005110 -4.1188836 -0.1960883 16711746
0.0149816 -0.5975803 0.2565961 16711746
-0.0077662 -0.8932630 0.2714477 16711746
-0.1033976 -0.5220192 0.1873064 16711746
-0.6933737 -1.3355213 0.3650586 16711746
-0.0121138 -0.9129204 0.2537127 16711746
-0.4652197 -5.3470259 3.1221738 16711746
-3.4191580 -5.4611526 -0.1845659 16711746
3.2017157 3.0254102 -2.9261258 16711746
-0.0116096 -0.8467700 0.3437830 16711746
0.0066183 -0.8733186 0.2603464 16711746
2.7416422 1.9061298 -2.0657415 16711746
4.5113688 3.0927544 -3.2071805 16711746
3.2390301 2.2551854 -2.6026433 16711746
-4.1374345 -3.6799724 2.8547063 16711746
3.3004169 2.2047720 -2.0547018 16711746
0.0409685 -0.8098520 0.2562575 16711746
-0.2282080 -1.6578361 0.2105240 16711746
-0.0773042 -8.8950415 6.3077836 16711746
-1.8148245 -26.6972599 9.2865858 16711746
-1.9747169 -20.9290962 4.4344759 16711746
-4.2218423 -90.2496109 49.6482201 16711746
-13.2737799 -196.8244629 69.9127502 16711746
-4.1035938 -58.6536789 21.2403412 16711746
3.6176727 -123.3735123 98.8800583 16711746
4.3050160 -130.9552765 100.2659760 16711746
11.6085453 -111.5210495 80.1418457 16711746
-0.1962694 -16.4060669 8.0987129 16711746
-8.6399231 -22.7938175 3.9861836 16711746
-17.2527637 -174.2145081 91.5625000 16711746
-3.7503457 -65.2129745 36.7521133 16711746
-16.1834106 -168.1392670 88.1166992 16711746
-9.9299116 -108.2959824 56.5562782 16711746
-10.3476820 -120.7358627 67.3255920 16711746
