# .PCD v.7 - Point Cloud Data file format
VERSION .7
FIELDS x y z rgb
SIZE 4 4 4 4
TYPE F F F F
COUNT 1 1 1 1
WIDTH 88
HEIGHT 1
VIEWPOINT 0 0 0 1 0 0 0
POINTS 88
DATA ascii

 1.3647028 -3.4750574 7.9443593 16777215
 0.4177764 -0.2875192 0.2989264 16777215
0.4155655 -0.9814789 0.3605820 16711746
-0.2527481 -1.1019629 0.2279661 16711746
-0.2542840 -1.0943485 0.2077067 16711746
0.1870456 -1.1020585 0.3368734 16711746
0.1696205 -1.1070087 0.3229468 16711746
-0.5422868 -0.9737756 0.3842562 16711746
0.1200894 -1.1061263 0.5648161 16711746
0.1866335 -1.0628444 0.5586383 16711746
0.1533180 -1.0418836 0.5938478 16711746
-0.2255908 -1.1422753 0.4592520 16711746
-0.0403047 -1.2109109 0.3501847 16711746
-0.0470588 -1.1069721 0.3453103 16711746
-0.6059117 -0.8683583 0.1386574 16711746
0.1632912 -1.0971136 0.3575226 16711746
0.2222577 1.0865626 -0.1898095 16711746
-0.5431734 -1.1181620 0.2865506 16711746
-0.0372123 -1.1170121 0.2943784 16711746
-0.5923162 -0.9371555 0.0391373 16711746
0.5813678 1.1109660 -0.3573915 16711746
0.0322507 -1.1531996 0.6229897 16711746
-0.0526428 -1.2885638 0.4723127 16711746
-0.1093963 -1.1591159 0.4444675 16711746
-0.2033391 -1.0864693 0.1671856 16711746
-0.2286143 -1.2096310 0.1892092 16711746
-0.2484505 -1.2592798 0.4029040 16711746
0.0855901 -1.1256266 0.5654978 16711746
0.1326574 -1.1083242 0.4367550 16711746
0.2225781 -1.1242836 0.2932949 16711746
-0.1823197 -1.2973602 0.4438136 16711746
0.1393896 -1.0987170 0.5017653 16711746
-0.4171005 -0.9991539 0.0799506 16711746
-0.4168867 -1.1479932 0.2506536 16711746
0.4526344 -0.6580308 0.4138998 16711746
1.0447296 1.1514267 -0.5238106 16711746
0.7702462 1.0398082 -0.6401915 16711746
0.0824396 -1.1270139 0.5389327 16711746
-0.1706234 -1.1089729 0.1763946 16711746
-0.0964958 -1.1901860 0.8711342 16711746
0.4774742 1.0739229 -0.4220570 16711746
1.0095670 1.1621037 -0.4876784 16711746
0.5532623 1.0519812 -0.5638997 16711746
0.7162623 1.0844092 -0.5177348 16711746
-0.5385059 -0.9184341 0.0425425 16711746
0.1467347 -1.0995567 0.4578024 16711746
0.1029250 -1.1193666 0.4483440 16711746
0.2446419 -1.0530633 0.4145069 16711746
-0.1056457 -1.2207850 0.2787690 16711746
-0.5109472 -0.9824626 0.1232417 16711746
0.0731942 -1.1302185 0.4478343 16711746
-0.6366752 -0.9390234 0.1299730 16711746
0.2180182 -1.0277648 0.5389631 16711746
0.2769925 -1.0850586 0.3237121 16711746
0.1874900 1.1668800 -0.2528807 16711746
-0.5864297 -0.9135448 0.0063053 16711746
0.2713332 -1.0021266 0.5944052 16711746
0.1605296 -1.1162992 0.2948788 16711746
-0.0277520 -1.1473037 0.3802952 16711746
-0.0604729 -1.1352763 0.1744652 16711746
-0.0295425 -1.1404377 0.2291638 16711746
0.3513612 -1.0008720 0.4221722 16711746
0.2433444 -1.0894197 0.3370124 16711746
0.0751755 -1.0809664 0.4956392 16711746
-0.3451666 -1.0444820 0.0644843 16711746
0.3115274 -1.0216950 0.4064164 16711746
0.1726748 -1.1029949 0.3750051 16711746
-0.4529900 -1.0131606 0.2558793 16711746
-0.5933531 -1.0317879 0.3168574 16711746
-0.0315047 -1.1133587 0.3813911 16711746
-0.0813838 -1.1035185 0.3347881 16711746
0.0216641 -1.1514140 0.2116999 16711746
0.3068011 -1.0388128 0.3852972 16711746
0.4317192 -0.9559864 0.3669079 16711746
0.3387858 -0.9679192 0.4430801 16711746
-0.0660534 -1.1530844 0.4117625 16711746
-0.2144916 -1.3189670 0.4997901 16711746
0.2386811 -1.0103126 0.6069992 16711746
0.1755291 -1.0749576 0.5233655 16711746
0.2487341 -1.1003984 0.3059262 16711746
0.2192108 -1.1088091 0.2980254 16711746
-0.2243496 -1.2057352 0.2966451 16711746
-47.3807335 -80.4504089 14.1204376 16711746
-47.8935890 -45.0721054 -13.1869974 16711746
-37.9784088 -62.5049248 30.8872910 16711746
-4.3620033 -8.9719086 7.6433725 16711746
-4.4051299 -8.8123484 7.5875378 16711746
-38.1031036 -65.6966705 31.3061028 16711746
