# .PCD v.7 - Point Cloud Data file format
VERSION .7
FIELDS x y z rgb
SIZE 4 4 4 4
TYPE F F F F
COUNT 1 1 1 1
WIDTH 90
HEIGHT 1
VIEWPOINT 0 0 0 1 0 0 0
POINTS 90
DATA ascii

 0.4418188 -0.6846381 0.8840953 16777215
 -0.0030580 0.0042235 -0.0072819 16777215
-0.5091016 -1.1960577 0.6981961 16711746
-0.5733300 -1.2129338 0.7048530 16711746
-0.5891438 -1.3088219 0.4635708 16711746
-0.6596788 -1.2776767 0.5961566 16711746
-0.8363408 -1.3297001 0.5368152 16711746
-0.5645043 -1.1907219 0.5607309 16711746
-0.3146073 -1.2348440 0.2939720 16711746
-0.1862182 -1.1695000 0.2567137 16711746
-0.2362116 -1.1725519 0.3676118 16711746
-0.0539310 -1.0607831 0.3167604 16711746
0.0133672 -1.1429324 0.1484094 16711746
0.2240945 -0.8815917 0.1239106 16711746
-0.6368355 -1.2658963 0.6139724 16711746
0.0904738 1.0439494 0.2872013 16711746
0.0475113 1.1061972 0.3710269 16711746
0.0503933 1.2723744 0.1337721 16711746
-0.1560743 1.4035105 0.1595592 16711746
-0.0625034 -1.2090389 0.2696052 16711746
0.0633325 -0.9937025 0.0831259 16711746
0.1795667 1.1818815 0.1371230 16711746
0.1474911 -0.9907054 0.1690017 16711746
-0.0253099 -1.1823940 0.1453013 16711746
-0.3844967 -1.3268745 0.5868050 16711746
0.2860185 -0.8926849 0.4290932 16711746
0.3594881 -0.6836928 0.3573258 16711746
0.3061316 -0.8688387 0.4670157 16711746
-0.4454297 -1.2957094 0.3071965 16711746
-0.4573709 -1.3116088 0.2644497 16711746
-1.2039369 -1.1656077 0.4924624 16711746
0.0574518 1.4317051 -0.0600072 16711746
-0.0581801 1.3545717 0.1279871 16711746
0.1888448 1.0616072 0.1668282 16711746
-0.0463520 1.1745980 0.3326509 16711746
0.2186434 0.8533235 0.3461420 16711746
-0.1602560 1.5304950 -0.0358329 16711746
0.1866617 1.2738936 0.0571294 16711746
0.0424043 -1.1093615 0.3199694 16711746
0.0231662 -1.1314486 0.1303392 16711746
0.1871285 -0.7984707 0.2212161 16711746
0.1725388 -0.9667758 0.2722580 16711746
0.2157221 1.1986989 0.1120524 16711746
0.2642551 1.1928319 0.1160801 16711746
-0.0356021 1.4552946 -0.0233258 16711746
0.0635125 -0.9993005 0.6538765 16711746
-0.0504606 -0.9540195 0.6263766 16711746
-0.3045644 -1.0756401 0.5808216 16711746
-0.3845271 -1.2031739 0.6166239 16711746
-0.2527856 -1.1839727 0.7361264 16711746
-0.1817943 -1.0616958 0.6650763 16711746
0.0088852 -1.0952178 0.3984171 16711746
0.1921043 -0.8788509 0.4010177 16711746
0.0953990 -0.8673213 0.3458770 16711746
0.0178509 -1.0727464 0.4680171 16711746
0.1917058 -0.8775496 0.4474275 16711746
-0.0326469 -1.0748819 0.2308616 16711746
-0.0560846 -1.1050695 0.2058374 16711746
0.1451205 -0.9861639 0.1228061 16711746
-0.1653710 1.4663111 0.0679134 16711746
-0.9071171 1.6756008 0.2163185 16711746
0.4963704 1.0668231 0.0464090 16711746
0.0895789 -1.0627152 0.2276401 16711746
-0.3298558 -1.2649523 0.2082010 16711746
-0.0359841 -1.1911772 0.1940287 16711746
0.3376344 -0.6378117 0.2681132 16711746
0.3253394 -0.6638840 0.2011555 16711746
-0.0281125 -1.0842052 0.6198294 16711746
0.0928582 -1.0592304 0.2649638 16711746
-0.0268795 -1.1765782 0.2837532 16711746
0.1614489 -0.9801208 0.2642706 16711746
0.0079934 -0.8793983 0.2856481 16711746
0.1842823 -1.0459900 0.3685409 16711746
-0.6489083 -1.2487723 0.3781316 16711746
-0.6915838 -1.4137627 0.1169123 16711746
-0.4395513 -1.3182092 0.2095089 16711746
-1.0331869 -1.3003886 0.1546363 16711746
-0.8270442 -1.2852317 0.6741655 16711746
-0.7289699 -1.2236179 0.7733977 16711746
-0.2177915 1.5142035 0.0399007 16711746
-0.0922026 1.3988047 0.0992278 16711746
-0.3077567 1.5985118 -0.0292084 16711746
-0.2247682 1.3265404 0.4265904 16711746
0.4004253 0.7957158 0.2371148 16711746
-7.0125585 -15.1438866 8.4279137 16711746
0.3330627 -1.7029092 0.5857655 16711746
-1.3288451 -2.6996601 -0.1631538 16711746
0.3990856 -2.1830420 0.4326411 16711746
7.0227499 -30.1241798 9.0839386 16711746
5.4824748 -26.3357716 7.6779003 16711746
