# .PCD v.7 - Point Cloud Data file format
VERSION .7
FIELDS x y z rgb
SIZE 4 4 4 4
TYPE F F F F
COUNT 1 1 1 1
WIDTH 165
HEIGHT 1
VIEWPOINT 0 0 0 1 0 0 0
POINTS 165
DATA ascii

 0.7814479 -1.5619016 2.2777443 16777215
 1.1546386 0.0896206 1.5688879 16777215
0.0632798 -0.8451387 1.4097570 16711746
0.3911099 -0.9185423 1.2302481 16711746
0.0770692 -0.8593559 1.7079420 16711746
0.2526392 -0.8311690 1.2115033 16711746
-0.8997027 -0.6997842 2.1083429 16711746
0.7661325 -1.0164869 0.9413568 16711746
2.1535993 -1.0126373 2.4033320 16711746
0.6377736 -1.0310988 1.1197953 16711746
0.4746347 -0.9093419 0.8219658 16711746
0.7492032 -1.0296899 1.0512568 16711746
-0.0333528 -0.7769812 1.6900358 16711746
-0.0397979 -0.7482257 1.4500253 16711746
-0.3524007 -0.7624626 1.3698891 16711746
-1.2661653 -1.0484916 1.9663442 16711746
0.2546566 -0.9288201 1.2169943 16711746
0.3949238 -0.8444310 1.2772895 16711746
0.2246553 -0.8742133 1.6062313 16711746
1.5780870 0.7405724 1.1841881 16711746
1.7771559 0.7417480 1.3000840 16711746
1.3232828 0.7354752 1.1345168 16711746
0.5482167 -0.9446163 1.4739490 16711746
-1.6443692 -0.9394011 1.7246243 16711746
-1.6897546 -0.8404279 1.8206117 16711746
-0.3499114 -0.9112126 1.4082301 16711746
-0.4465938 -0.9298288 1.1384591 16711746
0.0169662 -0.7942865 1.6798478 16711746
-0.8277624 -1.0125128 1.6562705 16711746
-0.7617490 -0.9283175 1.4239774 16711746
0.0043294 -0.8878618 2.2508245 16711746
0.0496969 -0.8072793 1.6657506 16711746
0.3750436 -0.9615129 1.9356412 16711746
0.5014498 -1.0765903 2.4756768 16711746
-0.3192185 -0.8258038 1.3866386 16711746
-0.0121340 -0.8920379 0.9865656 16711746
-0.0697672 -0.8967350 0.9988993 16711746
-0.0324914 -0.8983924 0.9850110 16711746
-0.4253299 -0.9513819 1.3433187 16711746
-0.5682755 -0.9419261 1.2794586 16711746
-1.2549567 -1.0524877 1.7373348 16711746
-2.2409663 -0.4451080 1.9191976 16711746
-1.7706952 -0.7824483 1.7961525 16711746
-1.9174554 -0.6964437 1.8232309 16711746
-0.5248030 -0.7484798 2.1290352 16711746
-1.1190666 -0.6483635 2.3923264 16711746
-0.6675048 -0.8252591 2.0075321 16711746
0.4691367 -0.8601367 1.2318416 16711746
0.1220669 -0.8776097 1.1441978 16711746
0.0207463 -0.7759875 1.3138660 16711746
-0.5341578 -0.8577241 1.5517235 16711746
-0.4956397 -0.8534573 1.4689603 16711746
0.1485667 -0.8983260 1.2316421 16711746
-0.1295591 -0.8452725 2.3474050 16711746
2.0674639 0.7988648 1.8036886 16711746
2.1422415 -0.9972966 1.9517127 16711746
-0.0946183 -0.8140154 2.1844649 16711746
0.1502653 -0.8635206 1.3797486 16711746
0.4119618 -0.8965964 1.2917137 16711746
0.2189299 -0.8592414 1.0534791 16711746
-0.2955157 -0.9515032 1.6902381 16711746
-0.3367119 -0.8806035 1.4009196 16711746
0.2860985 -0.9310851 1.5518147 16711746
-1.8574260 -1.1288605 2.1586344 16711746
0.1280067 -0.8138210 1.0948676 16711746
0.0680287 -0.8529623 2.0795734 16711746
-0.9453251 -0.9660977 1.4057724 16711746
-0.2343758 -0.9972153 1.6092330 16711746
-0.5035232 -0.8306863 1.7991806 16711746
1.6724143 0.9246400 1.9604388 16711746
0.0813273 -0.8181358 1.1316791 16711746
-0.7910399 -0.9858300 1.4200348 16711746
2.1182349 0.8317283 1.6317512 16711746
-0.7087445 -0.6756423 2.2334118 16711746
-1.0010507 -0.6060192 2.1240969 16711746
-0.9762329 -0.5982016 1.9626858 16711746
-0.0687525 -0.8680599 1.0166736 16711746
0.2967827 -0.8621488 1.1464978 16711746
0.2416467 -0.8547707 1.2265451 16711746
0.2387513 -0.8578097 1.1874619 16711746
-0.4176369 -0.8726819 2.2173781 16711746
0.3335853 -0.9143453 1.1783494 16711746
0.1561208 -0.9744607 1.1303279 16711746
0.0314314 -0.9694461 1.4282309 16711746
0.9095452 -1.1837841 1.1055970 16711746
0.4690976 -0.9346226 0.9166458 16711746
-0.0909547 -0.9022998 2.4058950 16711746
0.1691949 -0.9215886 2.1186163 16711746
0.3218324 -1.0494959 2.0766795 16711746
-0.3744934 -0.8037839 1.3900790 16711746
0.2863683 -0.8551022 1.5387098 16711746
-0.9322366 -1.0442907 1.4934102 16711746
-0.0856411 -0.8194301 2.1894872 16711746
-0.1419527 -0.8131572 2.2591896 16711746
1.6210195 0.9648187 1.8369284 16711746
-0.7658658 -0.6398084 1.8994186 16711746
-0.3342489 -0.9431508 1.7229694 16711746
0.3504003 -0.9696442 1.9690996 16711746
0.2674845 -1.0576944 1.6828101 16711746
0.0449178 -0.8363029 1.1387240 16711746
-0.1082700 -0.8977945 1.0007187 16711746
1.8683399 0.7332625 1.3128982 16711746
0.0963616 -1.0421014 1.3967991 16711746
-0.0109219 -0.9388142 1.1777983 16711746
0.0430500 -0.9468428 1.1490576 16711746
0.0092183 -0.9537520 1.1638495 16711746
0.6348694 -0.9572042 1.6111469 16711746
-0.6399888 -0.6887407 1.8729297 16711746
0.2127950 -0.8410339 1.0230945 16711746
-0.2926154 -0.8823200 1.6443454 16711746
-0.5813314 -0.9466451 1.3614368 16711746
0.6288859 -0.9498227 0.8584639 16711746
0.7412994 -1.0128268 1.3654341 16711746
-0.4598464 -0.8106349 2.2129786 16711746
0.1317871 -0.9575731 1.3880237 16711746
0.1048318 -0.9621734 1.4006690 16711746
0.1723934 -0.9402135 1.6752267 16711746
-0.3735583 -0.8303391 1.3904572 16711746
2.2586660 0.7899551 1.7137437 16711746
1.4504659 0.7895035 1.5519656 16711746
1.4669119 0.8207819 1.6184446 16711746
0.0784096 -0.8821695 1.4019742 16711746
-0.0441393 -0.8412609 1.7838873 16711746
0.0990352 -0.9060408 1.1819699 16711746
0.1604468 -0.8706185 1.2629216 16711746
0.5315738 -0.9466658 1.3168240 16711746
-0.1369541 -0.8377306 2.3313661 16711746
2.1758921 -1.0201977 1.7680128 16711746
0.1939155 -0.8991100 1.6381840 16711746
0.3927184 -0.8830013 1.0848266 16711746
0.3747719 -0.9283745 1.1566563 16711746
-0.9018365 -0.9641405 1.5953586 16711746
-0.8211624 -1.1235739 1.7317085 16711746
-0.9751073 -1.2018707 1.8314378 16711746
-0.2669944 -0.8948615 1.3199817 16711746
0.8434350 -1.1078026 1.4990857 16711746
1.7160395 0.8973883 1.9415431 16711746
-1.4929560 -0.9479280 1.0902525 16711746
-0.1273980 -0.8226367 2.2698197 16711746
0.4011271 -0.9368869 1.8792362 16711746
0.4352963 -0.9501035 1.8675922 16711746
0.3978086 -0.9575540 1.9591260 16711746
0.3898956 -0.8458781 1.0851254 16711746
0.6394587 -0.9833452 1.4286848 16711746
1.8109897 0.8448442 1.8324226 16711746
0.0150989 -0.9239233 1.8040667 16711746
-0.0385839 -1.0795435 2.5176647 16711746
1.4238003 0.8551840 1.6287137 16711746
1.6325674 0.9953282 2.1074708 16711746
0.1821497 -0.8487874 1.6164966 16711746
0.1842171 -0.9581798 2.1315460 16711746
0.5999939 -0.9450713 1.1818060 16711746
-0.8755913 -0.9887308 1.4817457 16711746
-0.9154625 -1.0160040 1.4973975 16711746
0.1524471 -0.9089441 1.3638785 16711746
0.6543280 -0.9531591 1.3952920 16711746
0.9519348 -1.3586817 2.1302960 16711746
0.6553988 -0.9553867 1.4001799 16711746
0.1963311 -0.8824788 1.6273668 16711746
0.1256945 -0.8822173 1.2372249 16711746
0.7660087 -1.0270114 0.9672822 16711746
0.7648351 -1.0295517 0.9668195 16711746
-0.0758853 -0.8626683 1.4955373 16711746
-0.1292677 -0.9585140 1.9560217 16711746
0.3280958 -0.8329736 1.3177769 16711746
