# .PCD v.7 - Point Cloud Data file format
VERSION .7
FIELDS x y z rgb
SIZE 4 4 4 4
TYPE F F F F
COUNT 1 1 1 1
WIDTH 56
HEIGHT 1
VIEWPOINT 0 0 0 1 0 0 0
POINTS 56
DATA ascii

0.0518289 0.0674197 -0.0689007 16711746
0.0484388 0.0651359 -0.0713507 16711746
-0.0107286 0.0377324 -0.0464187 16711746
0.1685219 0.5193117 -0.1544095 16711746
0.0412204 -0.7913122 0.7462607 16711746
-0.0714524 -0.7197533 0.7888315 16711746
0.0332869 -0.7781317 0.7946260 16711746
-0.1670976 -0.8949055 0.7630271 16711746
-0.3450106 -0.7682965 0.8239641 16711746
-0.4410633 -0.8016532 0.8315874 16711746
-0.1622035 -0.9049862 0.9450014 16711746
-0.2605096 -0.8000620 0.7666113 16711746
0.2233629 -0.8951078 0.4654908 16711746
0.2651451 -0.9331329 0.4334497 16711746
-0.0565930 -0.8530963 0.7434244 16711746
0.1343927 -0.9496508 0.9275699 16711746
0.2469764 -0.9343943 1.0871469 16711746
0.5899819 -0.9056422 0.8295872 16711746
0.2764382 -0.9107638 0.8137572 16711746
0.0533137 0.0639922 -0.0694359 16711746
0.2332607 -0.9647335 0.5557241 16711746
0.2245320 -0.9363570 0.6250795 16711746
0.6142139 -1.0015740 0.4975998 16711746
0.1246548 -0.8949846 0.5035335 16711746
0.0586236 -0.9227557 0.6137320 16711746
-0.1469153 -1.0290864 0.5597364 16711746
0.1282844 -1.0194383 0.5157669 16711746
0.1090743 0.1476688 -0.0967193 16711746
0.1675394 0.6067940 -0.2124741 16711746
-0.6867396 -0.8219011 0.7963631 16711746
-0.4636664 -1.0615593 0.6656997 16711746
-0.2698446 -1.0299091 0.6879521 16711746
-0.4232138 -1.0113840 0.7695134 16711746
0.4235099 -0.5976771 0.7318304 16711746
0.1685620 0.5300591 -0.2182709 16711746
0.0799797 0.9541626 -0.3282059 16711746
0.0455106 0.0649404 -0.0719617 16711746
0.9073407 -1.0472264 0.8655536 16711746
-0.0698295 -0.9198558 0.6485666 16711746
-0.0128202 -1.0059787 0.6634468 16711746
0.1410678 -0.7914057 0.5877700 16711746
0.0280841 -0.8910596 0.5930358 16711746
0.1140257 -1.0511609 0.4849521 16711746
-0.3100313 1.2652807 -0.0800438 16711746
-0.8501918 1.4442356 -0.4370233 16711746
0.3577892 -1.0348204 0.4223575 16711746
-0.5058798 -0.7836226 0.7372601 16711746
-0.6396019 -0.8054866 0.8237324 16711746
-0.4942773 -0.7254816 0.7827740 16711746
-0.6699965 -0.8772419 0.7154967 16711746
0.7313679 -1.1797220 0.4337411 16711746
1.1347131 -1.3408128 0.5921479 16711746
-0.0658052 -0.8831507 0.7009729 16711746
0.0951112 -0.7826903 0.6714424 16711746
0.0371043 -0.8364329 0.6596810 16711746
-0.3190189 -1.0432824 0.6784441 16711746
