# .PCD v.7 - Point Cloud Data file format
VERSION .7
FIELDS x y z rgb
SIZE 4 4 4 4
TYPE F F F F
COUNT 1 1 1 1
WIDTH 186
HEIGHT 1
VIEWPOINT 0 0 0 1 0 0 0
POINTS 186
DATA ascii

 1.3424854 -3.2718301 6.7156901 16777215
 0.0222573 -0.0593586 0.1203450 16777215
-0.4172449 -1.0821376 -0.0351755 16711746
-0.7948187 -1.3746017 -0.1844601 16711746
-0.6768788 -1.0600789 -0.0218033 16711746
-0.9122775 -0.6278458 -0.0400120 16711746
-1.4029621 -1.2823600 0.1403630 16711746
0.1405853 -0.8681663 0.2503002 16711746
-0.0863727 -0.5367471 0.2080459 16711746
-0.1861221 -0.7161583 0.0788715 16711746
-0.8320718 -1.0217353 -0.1037700 16711746
-0.1958449 -2.4045162 1.5625298 16711746
-1.2881993 5.6839924 -3.5735028 16711746
0.3093779 0.6643810 -0.6264648 16711746
-1.7536515 -0.9179211 0.2331805 16711746
-0.2134049 -0.8496572 0.1181982 16711746
-0.2100808 -0.7797224 0.2763512 16711746
-0.9516175 -2.8209205 0.6218517 16711746
-0.1255585 -2.9709735 0.7496592 16711746
-0.2127483 -1.3410050 0.4261647 16711746
0.2214549 -0.6239498 0.2462025 16711746
0.0308222 -0.8465877 0.1445601 16711746
-0.0872645 -2.8998425 0.1689826 16711746
-0.4685762 -0.9052476 0.0445029 16711746
-0.7026371 -1.9747736 0.1075410 16711746
-2.4841619 -3.7285945 1.7159350 16711746
-0.1982491 -1.4557525 0.3742659 16711746
0.1292927 -1.1638033 0.3270618 16711746
0.0859582 -1.0406380 0.2781746 16711746
-1.5500764 -0.8823265 -0.3427749 16711746
-1.5404238 -0.8837397 -0.3593492 16711746
-0.1077559 -1.8710747 0.2273484 16711746
0.1821009 -0.7577514 0.2468558 16711746
0.3166988 -1.5382465 0.3617316 16711746
0.0764976 -0.7180405 0.2156147 16711746
0.0988169 -0.8208714 0.2295007 16711746
-0.9870682 -3.5137110 0.2988983 16711746
-0.2450433 -0.6881585 0.1792727 16711746
-0.2179529 -0.8019755 0.1527167 16711746
0.1924386 -0.5958189 0.2023340 16711746
0.2758718 -0.6753597 0.3152011 16711746
0.2722654 -0.6667333 0.2974811 16711746
-0.0672979 -3.9152784 1.2709160 16711746
-0.2050645 -1.1234442 0.2834661 16711746
0.1073032 -4.3159156 1.0465516 16711746
-0.3725284 -0.4334629 0.0522098 16711746
-1.0278295 -2.5011213 1.2415106 16711746
0.0199527 -0.4755440 0.1477090 16711746
0.0082127 -0.8044449 0.1476326 16711746
-0.8791156 -3.3286386 -0.0504057 16711746
-0.1992547 -0.9190292 0.0683445 16711746
0.2867900 -0.8358058 0.2010001 16711746
0.2406763 -0.7795187 0.1804267 16711746
-1.6111064 -2.4673252 0.5808516 16711746
-0.2133941 -0.8811622 0.2094135 16711746
-2.4043911 -2.3440075 -0.5679001 16711746
0.0070735 -0.6219252 0.1670027 16711746
0.0844148 -0.9818246 0.1964822 16711746
0.1281397 -1.0546762 0.1910828 16711746
0.1443131 -0.8951582 0.3132506 16711746
-0.2404321 -0.4915657 0.0840058 16711746
-0.0026496 -0.8031332 0.1967636 16711746
-0.5958194 -0.8975360 -0.1188957 16711746
-2.2736356 -3.3558495 2.2279687 16711746
-1.9647453 -3.3802595 -0.2228027 16711746
-0.3481465 -0.6805004 0.0351521 16711746
-3.9945731 -1.5644323 0.1731942 16711746
-1.7882078 -1.6076390 -0.3575382 16711746
-1.6074151 -1.3927771 -0.3094586 16711746
-0.3657475 -0.7922754 -0.0123454 16711746
0.1812361 -0.7392245 0.2125032 16711746
-1.0628951 -4.1246963 0.4650911 16711746
-0.5199394 -1.1670212 0.0142577 16711746
-0.0211736 -0.6081926 0.3148580 16711746
-0.4171433 -1.0417280 0.0035030 16711746
0.1004842 -0.5351104 0.1568695 16711746
-0.3793861 -0.8361698 0.0257232 16711746
-0.4849229 -0.9906037 0.0117043 16711746
-0.0515821 -0.6747754 0.1814413 16711746
-0.2018553 -1.1431516 0.2648645 16711746
-0.2225665 -1.5105442 0.3130354 16711746
-0.1759511 -1.1125515 0.2538123 16711746
0.2064730 -0.5732955 0.2019054 16711746
0.1116680 -0.4307212 0.2953041 16711746
-0.2135271 -0.8457537 0.2417784 16711746
0.0544560 -1.0052061 0.3409422 16711746
-0.3864256 -0.6940466 0.2558194 16711746
-0.6243061 -1.2247642 0.4531795 16711746
-2.5491133 -3.8270278 1.4763371 16711746
-2.5651424 -3.8163295 1.3238412 16711746
-2.3819919 -3.2900352 1.1013119 16711746
-2.8652403 -1.1578062 0.4069207 16711746
-0.1136191 -1.9471626 0.6832352 16711746
-0.2068492 -0.7859457 0.2905087 16711746
0.2295369 -1.2800604 0.2554552 16711746
-0.0371369 -0.4351046 0.1108878 16711746
-0.0732087 -1.3789991 0.1666701 16711746
0.2122497 -0.6025904 0.1949974 16711746
-0.2203379 -0.6569555 0.1753959 16711746
-1.0877475 -3.2143168 0.3791951 16711746
-1.7935916 -2.9438541 -0.0747939 16711746
-1.1219563 -1.5768564 0.0857620 16711746
-0.4342348 -0.7680960 0.1092397 16711746
-1.0669086 -3.2486331 1.0111439 16711746
-0.1907859 -1.2863362 0.1484429 16711746
-0.1507073 -1.3727406 0.1459618 16711746
-0.0619400 -0.6424127 0.1237625 16711746
-0.0158187 -0.4924338 0.2987608 16711746
0.0215920 -0.6887501 0.4172710 16711746
-0.0703918 -0.4004195 0.2629553 16711746
-0.1256349 -1.7730281 0.6079130 16711746
-0.3668221 -0.3051428 0.3419883 16711746
0.0405890 -0.7467524 0.1857306 16711746
-1.1823463 -3.3960202 1.4025054 16711746
-3.1028185 -1.9864093 -0.5742836 16711746
0.0643955 -0.7958490 0.3951692 16711746
0.0227045 -4.5356526 1.6937224 16711746
-0.8373115 -0.6307353 0.0781503 16711746
-0.1752866 -1.1954840 0.4717000 16711746
-1.1363587 -3.2170980 0.8625668 16711746
-0.2161729 -0.7373445 0.2738260 16711746
-2.1763849 -1.3797181 0.3523422 16711746
-3.3437521 -1.2215919 0.0805451 16711746
-1.4018006 -1.6508096 1.0371141 16711746
-1.5028212 -1.8200966 1.2984596 16711746
-0.1867373 -1.0075254 0.0712295 16711746
0.1363006 -0.4464841 0.2941947 16711746
0.0735279 -0.8126178 0.3769404 16711746
0.0595400 -0.5865979 0.2901891 16711746
0.0352896 -0.8964574 0.2153678 16711746
-1.1477492 -3.2092028 1.0682186 16711746
0.2493259 -0.6495109 0.2808868 16711746
0.2529397 -0.6489046 0.2742788 16711746
-0.7469192 -0.7865023 0.0855614 16711746
-2.3866518 -3.0689425 0.1668487 16711746
-0.2112347 -1.2591977 0.3938921 16711746
-0.1945099 -1.6678344 0.2232961 16711746
-0.9815015 -6.1705551 0.4667346 16711746
-0.1943622 -1.2800316 0.1614962 16711746
-0.1879048 -1.4783527 0.7730746 16711746
-0.5235115 -1.4400821 0.1343433 16711746
-0.1546036 -0.9355114 0.3400221 16711746
-3.2725964 -3.6867423 0.2761126 16711746
-0.1830118 -1.4084929 0.2832713 16711746
-1.1315503 -4.0886488 0.9312938 16711746
-0.1003794 -0.5193043 0.1264876 16711746
0.0483185 -0.5096908 0.4058588 16711746
-0.8239039 -1.7979834 1.0576271 16711746
0.2846121 -0.6942599 0.3516049 16711746
-2.2804775 -2.0162253 -0.8411519 16711746
-0.6985820 -0.7030541 -0.1133843 16711746
-0.8384500 -0.8752275 -0.1983823 16711746
-0.7344052 -2.0386724 0.2061988 16711746
-0.2077132 -0.7326929 0.3049729 16711746
-0.1843842 -1.0565249 0.4044797 16711746
0.0952777 -0.5353780 0.2617918 16711746
-5.7141652 -4.4528718 -1.4767354 16711746
-0.5988258 -0.8533228 0.0306300 16711746
-0.3150660 -0.5319946 0.0786066 16711746
-0.1645195 -1.3651621 0.5181944 16711746
-0.1724507 -1.1999220 0.4334514 16711746
-2.3024998 -3.1584952 1.2898831 16711746
3.0410445 1.9249430 -2.3200028 16711746
7.7126255 2.9757762 -4.7981119 16711746
-0.8442302 -0.9717476 0.8578970 16711746
-1.6835057 -0.6253986 0.3845209 16711746
-0.1697748 -1.4098532 0.2293185 16711746
-0.1619781 -1.1959286 0.2979214 16711746
-1.8311706 -1.6515815 -0.3852084 16711746
-0.6754138 -0.6410518 -0.0953792 16711746
-2.4271853 -1.1096059 0.5834996 16711746
-4.4767799 -2.9490364 -1.3993403 16711746
-1.1067737 -0.7936261 -0.1658211 16711746
-1.4819053 -1.2965456 -0.1699374 16711746
-2.1982515 -1.2989314 -0.5570956 16711746
-0.9556322 -1.0520312 -0.2553078 16711746
-0.4942700 -0.6470124 -0.0661304 16711746
-1.1650909 -1.3719878 -0.2827531 16711746
-0.6718248 -1.7835977 0.1604112 16711746
0.1023398 -0.6526111 0.2366748 16711746
0.0533725 -0.9815733 0.3004422 16711746
-0.1332532 -1.3190608 0.2919114 16711746
0.0807945 -0.9836727 0.2085609 16711746
0.2295801 -0.7827341 0.2020952 16711746
0.1630457 -1.1062816 0.1845383 16711746
-2.2109797 -2.1275055 -0.4374646 16711746
