# .PCD v.7 - Point Cloud Data file format
VERSION .7
FIELDS x y z rgb
SIZE 4 4 4 4
TYPE F F F F
COUNT 1 1 1 1
WIDTH 126
HEIGHT 1
VIEWPOINT 0 0 0 1 0 0 0
POINTS 126
DATA ascii

0.0878078 -1.3165891 0.4395865 16711746
-0.2818206 0.5406917 -0.2481032 16711746
0.6714535 -1.1548190 0.4905825 16711746
0.7243395 -1.1718655 0.4820213 16711746
0.0211583 0.4487343 -0.3489586 16711746
0.0764319 0.4459257 -0.4032931 16711746
-0.0196935 0.2883585 -0.2948912 16711746
-0.0169058 0.3574535 -0.3317695 16711746
0.1695619 0.5568835 -0.3927252 16711746
-0.0638962 -0.9558385 0.6416910 16711746
-0.2979850 0.6710224 -0.3255987 16711746
0.4273241 -1.1237290 0.5431709 16711746
0.1863769 -1.1226217 0.3874751 16711746
-0.2835603 0.5794786 -0.2446000 16711746
-0.3669000 0.7493053 -0.3089591 16711746
-0.0444889 0.5246618 -0.3025294 16711746
-0.0397018 -1.0879716 0.3138121 16711746
-0.0564149 -1.1838399 0.3108121 16711746
-0.5314790 -1.1855518 0.3813360 16711746
-0.2355026 0.3842187 -0.2380105 16711746
-0.1020830 -0.9708575 0.5928890 16711746
0.0575380 -1.0839493 0.3910955 16711746
-0.0830293 -1.1160116 0.4955669 16711746
0.0151628 -0.0242642 0.0726804 16711746
-0.2119234 0.5480082 -0.2932417 16711746
-0.1374380 0.5779073 -0.3354202 16711746
0.0763805 0.4008878 -0.3953106 16711746
0.0340768 0.5498195 -0.3234581 16711746
0.0760396 0.4931916 -0.3307179 16711746
0.0258247 0.4832547 -0.3528458 16711746
-0.0076531 0.5026420 -0.3368950 16711746
-0.0868783 0.4185395 -0.2933348 16711746
-0.1583320 0.5026348 -0.3292439 16711746
-0.3584473 0.5760259 -0.3148684 16711746
-0.1474304 0.6773396 -0.3523900 16711746
0.8286162 -1.4323853 0.5403073 16711746
0.0088029 -1.2386162 0.3771981 16711746
0.3378716 -1.1314764 0.4391271 16711746
-0.0673037 -0.9685267 0.6217151 16711746
-0.0514521 0.7003806 -0.3721464 16711746
-0.2010979 -0.9219456 0.5851727 16711746
0.8226420 -1.2180589 0.4072370 16711746
-0.0544547 -1.3256898 0.5764779 16711746
0.1705184 -1.0703799 0.5160269 16711746
0.0789869 -1.0483687 0.5330758 16711746
0.2542318 0.5424975 -0.4363773 16711746
0.2162899 0.5051368 -0.4482873 16711746
-0.0803051 0.3623167 -0.2938238 16711746
-0.1991732 -0.9165304 0.6534655 16711746
-0.1530964 -0.9172258 0.6515763 16711746
0.2422560 0.5800096 -0.3909367 16711746
0.2120751 0.6138697 -0.3809099 16711746
0.3768091 -1.3495511 0.5899997 16711746
0.3507036 -1.1273910 0.4977743 16711746
0.0811435 0.5414245 -0.3431010 16711746
0.2944512 -1.1148238 0.5329108 16711746
0.2609279 -1.0878046 0.4941838 16711746
0.2079422 -1.1906966 0.4287676 16711746
-0.1391543 -1.0933448 0.5397983 16711746
-0.0108521 -1.4281813 0.5444748 16711746
-0.0860611 -1.0415899 0.3659790 16711746
0.1823236 -1.1285902 0.4357314 16711746
-0.4873923 -1.1310849 0.3443255 16711746
-0.2489494 -0.9475350 0.4848377 16711746
1.1496217 0.6820409 -0.7995234 16711746
1.0505290 0.6696886 -0.7348996 16711746
-0.2083632 -0.9131226 0.6102433 16711746
-0.2493937 -0.8827998 0.5959682 16711746
0.0708978 -1.0600840 0.5107119 16711746
0.5112782 -1.1470978 0.6151494 16711746
-0.0546021 0.1800229 -0.1628135 16711746
-0.5176602 -0.8517078 0.5811403 16711746
-0.4936492 -0.8381960 0.6200329 16711746
-0.8180736 -0.7820185 0.5752603 16711746
0.2952951 -1.0765851 0.5352867 16711746
0.1936216 -1.0482450 0.5979009 16711746
-0.2356063 0.6127706 -0.2692625 16711746
0.6217118 -1.4004033 0.2786557 16711746
-0.0415261 -1.4577255 0.2349496 16711746
-0.1278629 -1.3527950 0.6995125 16711746
-0.4786470 -1.1262115 0.4109947 16711746
0.0878412 0.4647141 -0.3854113 16711746
0.1313913 0.4907161 -0.4010174 16711746
-0.0255034 0.3487554 -0.2913767 16711746
0.0164126 0.4206744 -0.3451047 16711746
-0.3969492 -0.9338037 0.3266489 16711746
-0.2321858 0.5957736 -0.3132643 16711746
-0.0894563 -0.9785056 0.5588040 16711746
-0.0874394 -1.6481544 0.6773831 16711746
-0.1036902 -1.2489729 0.5170003 16711746
0.8066690 -1.6193956 0.3254490 16711746
0.4011944 -1.0872056 0.5595521 16711746
-0.0721358 -1.0595392 0.3323579 16711746
0.0217842 -1.0862741 0.3989547 16711746
0.4885154 -1.1510986 0.5877345 16711746
0.4475681 -1.6128945 0.5771892 16711746
-0.2053765 -0.9493262 0.5083564 16711746
0.1224934 -1.0113590 0.6241538 16711746
0.0711893 -1.0194918 0.5939643 16711746
0.3596549 -1.1023157 0.4820369 16711746
-0.3257889 0.5820395 -0.2902083 16711746
-0.1418110 -1.0709977 0.2406364 16711746
0.4107001 -1.1217341 0.4874287 16711746
-0.2331422 -0.8899401 0.6324285 16711746
-0.2555473 -0.9084199 0.6251119 16711746
-1.1357669 -1.2071127 0.8152707 16711746
-0.8370345 -1.2641798 0.5331162 16711746
-0.7047110 -1.3722823 0.6586212 16711746
0.6116177 0.6743095 -0.5570149 16711746
-0.0143261 0.5944938 -0.3312703 16711746
-0.0016621 0.5734184 -0.3206498 16711746
0.0139065 0.6054571 -0.3466828 16711746
0.0920140 -1.0168386 0.6086082 16711746
-3.0349147 -8.6222229 4.3987808 16711746
-19.8200550 -53.4415817 22.8506660 16711746
-3.1217704 -8.6306219 4.3296747 16711746
10.1713648 -22.1900406 16.8590965 16711746
0.0294854 -6.6326604 7.9304185 16711746
0.0556616 -6.5595078 7.8111687 16711746
3.5855498 -28.1037121 26.1167679 16711746
10.3652449 -88.6281509 46.1926308 16711746
-43.2442703 -207.1877289 88.6247711 16711746
0.0183665 -6.7990370 6.6529703 16711746
13.5529690 -134.2965393 75.3729858 16711746
8.9801273 -154.8600464 79.6408539 16711746
-11.3036947 -159.0294647 92.3636475 16711746
