# .PCD v.7 - Point Cloud Data file format
VERSION .7
FIELDS x y z rgb
SIZE 4 4 4 4
TYPE F F F F
COUNT 1 1 1 1
WIDTH 155
HEIGHT 1
VIEWPOINT 0 0 0 1 0 0 0
POINTS 155
DATA ascii

 0.9841076 -2.1235771 3.2251377 16777215
 0.0402381 -0.0702113 0.1096366 16777215
-0.0434649 -3.0979431 0.6354620 16711746
-0.9138008 -1.2471578 -0.1329612 16711746
0.0599653 -3.1136386 0.4535421 16711746
-0.0448077 -3.6675100 0.4117714 16711746
-0.3009219 -4.3738756 1.2145604 16711746
5.6551490 4.2560902 -2.9726944 16711746
0.2537366 -2.3695865 0.0636968 16711746
0.1858217 -2.0942600 0.0264891 16711746
0.5113598 -3.0409462 0.1284328 16711746
-0.1254175 -1.1009226 -0.0052842 16711746
-0.2944318 -1.9593002 0.0159853 16711746
0.1125970 -2.2248995 0.1414113 16711746
0.1863017 -1.2458303 0.2264135 16711746
-0.1102652 -0.6556460 0.1286872 16711746
-0.4496253 -0.4821337 -0.0287749 16711746
-0.3649968 -0.4711103 0.0323537 16711746
-0.4227241 -0.4404556 -0.0014840 16711746
-0.4715149 -0.8494911 0.1052969 16711746
-1.4756566 -2.5203495 0.0507045 16711746
-0.0912569 -1.7207005 0.2354537 16711746
-0.0172317 -0.6833949 -0.0285398 16711746
0.3654504 -3.6505752 0.5542102 16711746
-0.3813926 -1.1074102 0.1413061 16711746
-0.6970873 5.6956477 -1.8916206 16711746
-4.6281142 -2.1866944 -0.3124445 16711746
0.4337623 -4.7615018 0.5582611 16711746
-0.4265790 -0.6147774 -0.0593003 16711746
-2.2743828 -3.7039824 0.6279713 16711746
-1.4930971 -2.3782816 0.3915025 16711746
0.2825733 -5.1121035 1.5050037 16711746
-1.8297418 -3.6332443 1.1476513 16711746
0.3268982 1.5997788 -0.9599028 16711746
-2.9784479 -3.2519672 1.2269170 16711746
-2.5081165 -2.5316710 1.2171290 16711746
-2.2039220 -3.4159143 0.8511139 16711746
-3.2552049 -3.1745503 1.0940555 16711746
-0.2953687 -0.6304392 -0.0710589 16711746
-0.2981087 -0.6506177 -0.1122983 16711746
-1.0957186 -0.6995637 0.0259802 16711746
-0.9007493 -0.8326069 -0.0677704 16711746
-1.9839556 -3.7903354 0.8508710 16711746
-0.8079477 -1.6450584 0.3235243 16711746
-3.0476906 -3.7280211 0.6334710 16711746
-1.6251553 -2.9330592 0.1805750 16711746
-1.4471900 -2.7776873 0.0344525 16711746
-1.4058595 -2.9520185 0.0310401 16711746
0.2336947 -1.0528674 -0.1121815 16711746
0.9971203 -5.6891561 1.5987049 16711746
0.0846222 -5.3633456 0.8817120 16711746
-1.2260685 -2.1301417 0.2555847 16711746
0.3851999 -3.8636098 0.2478539 16711746
-2.3572650 -4.3567185 0.6496383 16711746
-0.0428174 -1.1741265 -0.0383712 16711746
0.0906871 1.8909832 -0.7945881 16711746
0.2040966 1.5236232 -0.5615593 16711746
0.9414988 3.6157627 -1.7008229 16711746
1.3029912 3.7166066 -1.7153904 16711746
2.6405661 2.6718554 -2.1424923 16711746
3.0216956 2.1346531 -2.2408779 16711746
3.1074407 2.1032856 -2.1805749 16711746
4.2355828 3.5470583 -2.0593374 16711746
2.9775965 2.5860131 -1.8626063 16711746
0.7650278 -3.8481197 0.6207578 16711746
-0.5415449 -0.9116776 0.1059005 16711746
-0.7915804 -0.4488529 0.3430956 16711746
-0.7769677 -0.6516338 -0.0344406 16711746
0.0148334 -1.1921209 -0.0312743 16711746
-2.5823450 -1.8025728 -0.3122507 16711746
0.0680939 -0.9052845 0.1595377 16711746
-0.1075990 -5.3026381 0.6872329 16711746
-0.2233092 -3.9201717 0.4607470 16711746
-1.5062191 -2.2623906 0.3854687 16711746
-1.1545929 -1.6189491 0.2824722 16711746
-0.2300319 -0.5133993 0.0288332 16711746
-0.4668231 -0.8949795 -0.0584025 16711746
0.3348273 -3.2611203 0.6786317 16711746
0.0532921 4.4773779 -1.4509476 16711746
0.1591544 3.9291434 -1.1932839 16711746
0.0341826 -0.6467540 0.0607812 16711746
-0.2373586 3.3845539 -1.5484935 16711746
-0.0367855 -0.6696468 -0.0370425 16711746
-0.4905293 -0.5695198 -0.0584396 16711746
0.6262469 3.4955812 -1.6373504 16711746
-0.9906927 5.7453175 -1.6513313 16711746
-0.0126523 4.1713576 -1.5115839 16711746
0.3799292 3.4226344 -1.1720752 16711746
0.8485412 4.9436564 -1.7546813 16711746
-0.2295381 -0.7783403 -0.1014498 16711746
-0.2001354 -0.8184562 -0.1206634 16711746
-0.2465441 -0.6860006 -0.0615241 16711746
-0.1349410 -0.7537804 -0.0261171 16711746
-0.1371667 -0.5786576 0.0093788 16711746
-0.1334811 -0.8486305 -0.0826736 16711746
-0.1165272 -0.9271435 -0.1259521 16711746
-0.1313791 -1.2484072 -0.0805034 16711746
-0.0615460 -5.5776353 1.2424215 16711746
-0.5722310 -4.2047248 1.0156990 16711746
-0.4774507 -0.7543340 0.1116042 16711746
-1.3464477 -2.3657823 0.1557487 16711746
-0.6122289 -1.0651230 0.1281224 16711746
0.6862599 3.0001645 -1.2204951 16711746
0.1788334 -1.5672823 0.2287919 16711746
0.2232514 -3.7587225 0.3547901 16711746
-1.0682371 -5.1953478 0.6449630 16711746
-0.6856629 -5.1784105 0.6007615 16711746
-1.1830353 -1.4126753 0.2467297 16711746
-2.6523864 -3.8817673 0.8110554 16711746
-0.3109155 -0.7842322 0.0679525 16711746
-1.1786133 -2.8052239 0.2485859 16711746
-0.5574482 -1.0120142 0.0718212 16711746
-0.6697963 -1.1188405 0.0610509 16711746
0.0496938 -5.6760950 1.4957355 16711746
-0.1242302 -4.6878724 1.2066108 16711746
0.2973499 -1.9163382 0.1362599 16711746
0.8108702 -4.3227997 0.3957870 16711746
-2.3841989 -3.8254433 0.4708197 16711746
5.1455879 4.1750655 -2.6303520 16711746
-0.0831857 -2.3610682 -0.0649836 16711746
-0.1373362 -2.8344378 -0.1518455 16711746
-2.1119852 7.5763373 -2.2970986 16711746
-0.6175415 -1.0839927 -0.0735488 16711746
-2.4247484 -3.2462463 0.7625055 16711746
-0.4045306 -0.6437722 0.0274719 16711746
-0.3671493 -0.5628833 0.0355372 16711746
-0.2796865 -0.5202037 -0.0357362 16711746
-0.2829088 -0.5395950 -0.0470418 16711746
-0.5671134 -0.8932729 -0.0083017 16711746
-0.8338704 -1.3042117 -0.0795808 16711746
-0.0716922 -3.8160810 0.3129784 16711746
-0.1428291 -0.7257389 0.0152009 16711746
-0.4683507 -1.2453148 0.0290033 16711746
-0.6571139 -1.4141167 -0.0571507 16711746
-0.2670988 -0.7553910 -0.1024829 16711746
-0.2540137 -0.6822794 -0.0695411 16711746
-0.2838200 -0.6871272 -0.1114212 16711746
-0.1419415 1.5478947 -1.2462598 16711746
0.5175087 1.6932982 -1.2956733 16711746
0.0731716 1.9172777 -1.0576344 16711746
0.0299485 3.0655355 -1.6030433 16711746
0.8209096 2.7777209 -1.8233496 16711746
-0.3204008 5.5516691 -1.6996988 16711746
-0.2222977 5.5109205 -1.6292372 16711746
-0.3485464 5.6007094 -1.6358495 16711746
-0.3447687 -0.7679664 -0.0283346 16711746
-0.8555182 -4.8916998 1.3914585 16711746
-0.9240743 -4.2910395 1.1076217 16711746
1.1372811 4.1757212 -1.5684315 16711746
0.9506269 3.5947130 -1.2781222 16711746
-0.3711702 -0.9058641 -0.0666695 16711746
-0.2383777 -0.6074597 -0.0029109 16711746
-0.3400270 -0.8339985 0.0747416 16711746
-0.5745768 -1.2839007 0.0235185 16711746
-0.7074444 -1.4290427 0.0177343 16711746
