# .PCD v.7 - Point Cloud Data file format
VERSION .7
FIELDS x y z rgb
SIZE 4 4 4 4
TYPE F F F F
COUNT 1 1 1 1
WIDTH 141
HEIGHT 1
VIEWPOINT 0 0 0 1 0 0 0
POINTS 141
DATA ascii

0.1664616 1.9839592 -1.8476058 16711746
0.3108477 1.6687303 -1.7591318 16711746
-0.2039986 1.7134086 -1.6772915 16711746
-0.3323257 1.2311436 -1.3813229 16711746
0.0981370 -1.3099158 0.8822245 16711746
0.0068401 -1.5271088 0.9337143 16711746
-0.0285462 -1.3533899 0.9933864 16711746
-0.3546116 1.2852262 -0.9805087 16711746
-0.5688521 1.4033489 -0.7218006 16711746
-0.1516144 -1.4743665 1.0484205 16711746
0.2512708 -1.4191483 0.8129821 16711746
0.2329474 -1.2531936 0.3435398 16711746
0.0894227 -0.4297066 0.1735337 16711746
-0.5507138 -1.5382814 0.6934347 16711746
0.0092090 -0.4012390 0.1570028 16711746
-1.1350615 2.0495872 -1.0732119 16711746
-0.2580323 -1.2454802 0.7288893 16711746
-0.1543076 -1.2726588 0.5652748 16711746
-0.1038030 -1.3964226 0.7794496 16711746
-0.2289590 -1.6034331 0.8100052 16711746
-0.2207889 -1.3979359 0.6375081 16711746
-0.0512558 -1.4252639 1.1619124 16711746
0.1094433 1.9310979 -1.7146962 16711746
-0.2087460 -1.6596745 1.0236219 16711746
0.0647091 -0.6484413 0.2384008 16711746
-0.2262591 -1.4798077 0.2652901 16711746
-0.2578248 -1.8518142 0.4150168 16711746
0.1685636 -0.7252665 0.3787643 16711746
0.2942421 -1.3012047 0.5884205 16711746
0.3433406 -1.4593033 0.9861871 16711746
-0.2488867 -1.6741500 0.1852014 16711746
0.1162549 -0.4276833 0.1936023 16711746
0.1937941 -0.5450453 0.2120394 16711746
0.1586788 -0.6050104 0.2533220 16711746
-1.1083368 1.5193473 -1.0294383 16711746
0.2470801 -1.3237107 0.8864233 16711746
-0.5113625 1.6346200 -1.1033865 16711746
0.1934292 1.9363379 -1.9302398 16711746
-0.2006740 -0.8122973 0.1587450 16711746
-0.5560110 -1.8969811 0.4382503 16711746
-0.2773894 -0.9462290 0.2527393 16711746
-0.2279779 -1.2430847 0.1496026 16711746
-0.2687503 -1.3160489 0.1906004 16711746
-0.3871379 -1.9363923 0.2029997 16711746
0.3819765 -1.0691578 0.4852384 16711746
0.1467133 -1.8658339 0.9370294 16711746
-0.1642608 -1.7587775 0.3410751 16711746
0.0586334 -0.9120347 0.2525062 16711746
-0.2312353 -0.9811089 0.5246124 16711746
-0.0637646 -1.2757267 0.4172441 16711746
-0.0611793 -1.5744767 0.6071730 16711746
-0.3835796 -1.4207476 0.5168946 16711746
-0.4235896 -2.1190205 0.4700268 16711746
-0.7826334 -1.4027174 -0.0896447 16711746
0.0742356 -0.6306853 0.1842285 16711746
-0.2929991 -1.5169905 0.9522456 16711746
-0.3507482 -1.6082819 1.0074800 16711746
-0.1009842 1.6101886 -1.1757094 16711746
0.0893335 -0.5908082 0.1328610 16711746
-1.3002107 2.2467723 -1.1249751 16711746
-1.2054453 2.0648234 -0.9898335 16711746
-0.1438454 -1.4269545 0.4804012 16711746
0.2411750 -1.8617746 0.9056584 16711746
-1.2597278 -2.0167880 -0.0785190 16711746
0.1029804 -0.4886945 0.1764505 16711746
0.2671523 -1.1391407 0.2769014 16711746
0.0739025 -0.4370423 0.1971177 16711746
-0.0593671 -1.3050399 0.3809527 16711746
-0.4805436 -1.4839524 0.3088743 16711746
-0.4132266 -1.4571041 0.5456667 16711746
-0.3215825 -1.7220299 0.5741214 16711746
-0.0950643 -1.8785008 0.8735803 16711746
0.0393585 -1.8123394 0.2624999 16711746
0.0624243 -0.7417825 0.1690753 16711746
0.0621526 -1.9030527 0.2494326 16711746
0.0972947 -0.6061140 0.1944735 16711746
0.1503658 -0.9650635 0.2345835 16711746
-0.8960390 -1.6608382 0.0174316 16711746
-0.3197277 -0.6261640 0.0661952 16711746
0.1387904 -0.5152421 0.1540731 16711746
-0.2829121 -1.9710150 0.7042634 16711746
0.2518745 -1.5626531 0.9477196 16711746
0.4150681 -1.7496361 0.7218356 16711746
-0.3627942 -0.8274249 0.2606334 16711746
0.4040703 -1.2146332 0.4597231 16711746
0.2512270 -0.6887934 0.2032953 16711746
-1.1638123 -1.8110931 -0.2040911 16711746
0.0351835 -0.4464266 0.1620308 16711746
-0.1597036 -2.1356719 0.4543488 16711746
0.1433753 -0.8415343 0.3056805 16711746
0.0782315 -0.4691994 0.1985650 16711746
-0.6691654 -1.3918885 -0.0333574 16711746
-1.0164145 -1.9415734 -0.1572477 16711746
0.3500739 -0.7544209 0.2315206 16711746
0.1040117 -1.3383229 0.9702175 16711746
0.2337895 -0.8978776 0.3860199 16711746
0.1636922 -1.0396875 0.2203489 16711746
0.0359793 -0.3911421 0.1733122 16711746
0.5087761 -1.1923590 0.5377479 16711746
-0.2340208 -1.8123620 0.7138937 16711746
0.2191594 -1.2103592 0.4683627 16711746
-0.0779864 -1.2732352 1.0280648 16711746
-0.1775046 -1.3895731 1.0755959 16711746
-0.5267101 1.6860591 -1.4022224 16711746
0.2367841 -0.6566465 0.2755732 16711746
-0.2755821 -1.1832888 0.2934107 16711746
-0.2044885 -0.9914244 0.2102411 16711746
-0.1461511 -1.4620935 0.1298047 16711746
-0.5040293 1.4679402 -0.9228574 16711746
-1.7326958 2.7847378 -1.2944334 16711746
0.3480222 -0.6499922 0.3878036 16711746
0.3257954 -1.0249193 0.2247086 16711746
0.3575837 -1.2392784 0.2456634 16711746
-0.2576387 -1.1958345 0.2143711 16711746
-0.1773266 -1.7801652 1.0703578 16711746
0.2180389 -1.3004091 0.5559819 16711746
0.2567128 -1.0604569 0.3911990 16711746
-0.0168817 -1.0618850 0.4094081 16711746
-0.2298117 -1.3971491 0.1052256 16711746
0.2093360 -0.4534942 0.1992878 16711746
-1.3075150 2.1375813 -1.0757188 16711746
0.5462483 -1.2882167 0.5512784 16711746
0.1619160 -0.4076969 0.2372672 16711746
0.1537500 -0.3861717 0.2241191 16711746
-0.2372281 -1.4872645 0.8921044 16711746
-0.3885717 -1.0076050 0.5056792 16711746
-0.2630776 -0.7628419 0.3980699 16711746
0.2631022 -0.6098055 0.3936319 16711746
0.4339974 -0.7242000 0.3075475 16711746
-1.0966786 2.0037613 -0.9742488 16711746
0.5003737 -1.1120265 0.6453950 16711746
-0.2492074 -1.2623918 0.7046943 16711746
-0.7166493 -0.9180589 0.0395573 16711746
0.9257531 -1.8559558 0.9674265 16711746
-0.0197676 -1.3449261 0.9035811 16711746
0.0710351 -0.5447201 0.1342705 16711746
-0.1038355 -0.5079144 0.1229142 16711746
-0.1743804 -1.5579492 0.1445209 16711746
-0.4697950 1.7493145 -1.6076683 16711746
-0.5201823 1.2342982 -1.1935874 16711746
-0.3080925 0.8319634 -0.8040707 16711746
