# .PCD v.7 - Point Cloud Data file format
VERSION .7
FIELDS x y z rgb
SIZE 4 4 4 4
TYPE F F F F
COUNT 1 1 1 1
WIDTH 50
HEIGHT 1
VIEWPOINT 0 0 0 1 0 0 0
POINTS 50
DATA ascii

0.7463215 0.1843774 -0.3249798 16711746
-0.9499658 -0.8314390 0.9818011 16711746
-0.7944215 -0.8043371 0.8811666 16711746
-0.7255903 -0.7506838 0.9522687 16711746
0.3319139 -0.7864971 1.0921432 16711746
0.7988232 -0.9434032 1.1788427 16711746
0.3132963 -0.9461033 0.9462343 16711746
0.2286152 -0.8659688 0.7845283 16711746
0.1086246 -0.8551733 0.9153414 16711746
0.1056499 -0.8772672 0.8944963 16711746
-0.4730484 -0.9796556 0.8227111 16711746
0.2882716 0.7647890 -0.6717157 16711746
-1.0494717 -0.7146620 0.8567917 16711746
0.4953514 0.6104699 -0.5847524 16711746
0.5560920 0.5904155 -0.5817029 16711746
-0.3284762 -0.9659971 0.8182346 16711746
0.1315986 -0.7448075 1.0209666 16711746
0.4478242 -0.7740468 1.2081077 16711746
-0.0648188 -1.0188087 0.7606349 16711746
0.3468864 0.8604997 -0.7276683 16711746
0.5329250 0.4526202 -0.1644108 16711746
-0.9538745 -0.7889987 0.8273872 16711746
0.3786594 0.7019029 -0.2229944 16711746
0.3282729 0.8764598 -0.6023359 16711746
0.6449043 0.5789753 -0.4307173 16711746
0.6970906 0.1584801 -0.3546037 16711746
0.7701330 0.1861067 -0.3552149 16711746
0.5111792 0.5983656 -0.5912309 16711746
0.6313560 0.5551707 -0.5472515 16711746
0.3362703 0.9867502 -0.4424707 16711746
0.1228101 1.0404788 -0.3803675 16711746
0.3022818 0.8662436 -0.6387819 16711746
-1.2045681 -0.6593360 0.8573530 16711746
0.0169531 1.0456022 -0.6121851 16711746
0.0527586 -1.0257813 0.8428304 16711746
0.1278784 0.9870462 -0.6446697 16711746
0.1872034 -1.0695745 0.7231263 16711746
0.4885873 0.6243861 -0.5556931 16711746
0.4514523 0.7361959 -0.6584054 16711746
-0.8486575 -0.8184220 0.8464379 16711746
0.1855156 -0.9262808 1.0037931 16711746
0.3106721 -0.9242582 0.9643301 16711746
0.4145237 0.6947226 -0.4809050 16711746
0.2573154 -0.9800786 0.8653051 16711746
-0.2308246 -0.8305340 0.9213879 16711746
-0.2321512 -0.7247604 0.9478965 16711746
0.5288304 0.6157888 -0.5092125 16711746
0.4605200 0.6565828 -0.5069087 16711746
0.4805098 0.5245424 -0.3679681 16711746
0.6954995 0.7416877 -0.4631548 16711746
