# .PCD v.7 - Point Cloud Data file format
VERSION .7
FIELDS x y z rgb
SIZE 4 4 4 4
TYPE F F F F
COUNT 1 1 1 1
WIDTH 86
HEIGHT 1
VIEWPOINT 0 0 0 1 0 0 0
POINTS 86
DATA ascii

-0.1300738 -1.2455653 -0.3565395 16711746
-0.3691176 -1.5726066 -0.5215577 16711746
0.2724930 -1.0694973 -0.0276267 16711746
0.2607871 -1.0909656 -0.0446460 16711746
0.3749336 -0.8297246 -0.0045467 16711746
0.3534062 -0.7449112 -0.1330231 16711746
0.1853193 -1.2817128 -0.2151694 16711746
-0.1604098 -1.2229464 0.0316816 16711746
0.2141742 -0.6279901 -0.0861433 16711746
-0.1333179 -0.9707882 -0.2635742 16711746
0.2636261 -0.5295850 -0.1186275 16711746
-0.0914786 -1.4871517 -0.2015434 16711746
-0.0704023 -1.5193628 -0.2237956 16711746
0.2613795 -1.2100751 -0.1412992 16711746
0.2933887 -1.1582552 -0.0967028 16711746
0.2893292 -0.5931469 -0.0039705 16711746
0.0796837 -1.4783924 -0.1502818 16711746
-0.4845530 -0.8652130 -0.2825571 16711746
0.2578736 -0.5979550 -0.0327710 16711746
0.4079732 -0.9151227 -0.0795853 16711746
-0.5413488 1.2287811 -0.1445183 16711746
0.2781836 -0.5276613 -0.0996901 16711746
0.3892483 -0.7876543 -0.1629383 16711746
0.3421563 -1.1537069 -0.0899213 16711746
0.1798713 -0.6083416 -0.0543213 16711746
-0.1642070 -1.1678609 -0.2664539 16711746
-0.1138491 -1.2298914 -0.3096935 16711746
0.2403370 -1.1590225 -0.1012192 16711746
0.1916268 -1.1843133 -0.1275734 16711746
-0.6619014 -1.0366526 -0.3296712 16711746
0.2685716 -0.7156755 -0.1583210 16711746
0.2208875 -1.0285317 0.0024162 16711746
0.3595263 -0.8504583 -0.0261472 16711746
-0.1837081 -1.1730846 -0.3056698 16711746
0.0835111 -0.7451494 -0.0932931 16711746
0.4248907 -1.0823184 -0.0294732 16711746
-0.9203845 -1.2298783 -0.4559142 16711746
-0.1363670 -1.5566391 -0.2903369 16711746
-0.8947450 -1.2973264 -0.4658508 16711746
0.0005172 -1.0254771 0.0029185 16711746
0.3179992 -1.1462983 -0.0856009 16711746
0.1401435 -1.3897829 -0.0766448 16711746
0.2127058 -1.1349159 -0.0829238 16711746
-0.0506457 -1.5867314 -0.2788510 16711746
-0.1896684 -1.5764095 -0.3441496 16711746
0.0146424 -1.2416350 -0.2303837 16711746
0.2103684 -0.4923281 -0.1091140 16711746
0.3502848 -0.5924506 -0.1354635 16711746
0.2750710 -0.9665366 0.0481599 16711746
0.3662766 -0.7520232 0.0601299 16711746
-0.3800853 -1.3249494 -0.2073008 16711746
-0.8503711 -1.3224763 -0.4031981 16711746
-0.4766699 -1.3054425 -0.3188796 16711746
-0.4600587 -1.3313608 -0.3296492 16711746
-0.7432239 -0.9351823 -0.4345797 16711746
-0.6034190 -1.1416923 -0.3358349 16711746
-0.1905172 -1.2920778 -0.0371018 16711746
-0.1932548 -0.9051939 -0.2496285 16711746
-0.3054217 -1.1676987 -0.3393551 16711746
-0.1938431 -0.9192619 -0.2719017 16711746
0.1496629 -1.1997781 -0.3209671 16711746
0.1666907 -1.2217568 -0.3347794 16711746
0.4977681 -0.7258208 -0.0907245 16711746
0.0899868 -1.3043658 -0.2668720 16711746
-0.5283745 -0.8128371 -0.3373366 16711746
0.3291140 -0.3819239 -0.0705719 16711746
-0.0960787 -1.0313122 -0.3008696 16711746
-0.1820337 -1.0097492 -0.0813385 16711746
-0.0274538 -1.1334110 -0.1182775 16711746
0.2197975 -0.6947414 -0.1715981 16711746
0.2286476 -1.2573091 -0.3428712 16711746
-0.1802473 -0.9166072 -0.2474156 16711746
0.3689658 -1.0894508 -0.0386071 16711746
-0.0406613 -1.2280229 -0.2442856 16711746
-0.0403559 -1.1441737 -0.1368879 16711746
-0.0411080 -1.5228646 -0.2165755 16711746
-0.9828461 -1.1140471 -0.5219514 16711746
-0.9940236 -0.9165651 -0.3807628 16711746
0.2057516 -0.9608971 -0.1824414 16711746
0.2463682 -1.1385144 -0.2253676 16711746
0.3170289 -0.4101775 -0.0264873 16711746
0.2731400 -0.8490055 -0.1100031 16711746
-0.1150268 -1.0091969 -0.2928985 16711746
0.0248664 -1.0247142 -0.2050305 16711746
-0.0001198 -1.0263644 -0.2210423 16711746
0.4701836 -0.8722543 -0.0242387 16711746
