# .PCD v.7 - Point Cloud Data file format
VERSION .7
FIELDS x y z rgb
SIZE 4 4 4 4
TYPE F F F F
COUNT 1 1 1 1
WIDTH 61
HEIGHT 1
VIEWPOINT 0 0 0 1 0 0 0
POINTS 61
DATA ascii

 1.2734395 -2.9249561 5.4713516 16777215
 -0.1322580 -0.0916725 0.0569061 16777215
0.6957616 0.6140232 -0.5065504 16711746
-0.5389139 -0.9748771 0.9197754 16711746
-0.5938808 -0.9472210 1.0570724 16711746
-0.8219100 -0.5939071 0.5542405 16711746
-0.7996984 -0.6236976 0.5161462 16711746
-6.1339335 -10.2692575 3.4133430 16711746
-13.6331072 -25.4692554 8.7143335 16711746
-1.7047893 -60.7911682 13.6344509 16711746
-299.7950134 -86.5542603 -8.3067923 16711746
-259.5911255 -116.4652710 93.8134995 16711746
-287.8722839 -103.5909729 71.6393814 16711746
-224.9536285 -225.1376343 -56.3167686 16711746
-168.6824036 -39.5783119 -24.2370777 16711746
-255.5878296 -133.6636047 83.3834152 16711746
-244.9476166 -71.0144272 -38.0131493 16711746
-234.3853607 -59.1810188 -1.9184169 16711746
48.7227898 -131.1207581 60.2425537 16711746
-156.5394592 -65.2329559 -85.6728897 16711746
-212.6660767 -82.9214249 32.0920792 16711746
-259.1515503 -77.9818573 -11.1234465 16711746
3.5176983 -46.8023491 36.0059395 16711746
-24.0981541 -105.8237915 74.0137863 16711746
-31.4897251 -141.0142365 93.2330017 16711746
-12.1208868 -71.3068466 61.2377968 16711746
-273.2956848 -119.5429840 58.6931419 16711746
-195.5266266 -46.7790146 -1.7701482 16711746
-300.8702087 -101.5107422 1.0666182 16711746
-278.4758911 -147.9908905 -61.6027946 16711746
-219.3203735 -131.6818237 83.2527771 16711746
-32.1543045 -102.3570328 43.5536919 16711746
0.8077947 -18.0169106 8.1607780 16711746
-302.7268677 -52.1377449 43.8611298 16711746
3.2072763 -55.2563705 56.9879799 16711746
2.1808813 -41.0332794 34.1599159 16711746
-228.6064148 -176.5891113 22.8131371 16711746
-277.6254883 -120.4856491 118.2555618 16711746
-172.3486481 -148.6733856 114.4644470 16711746
-262.2114563 -114.4073944 55.8842850 16711746
7.6609502 -123.4592438 89.3874207 16711746
-301.9756165 -126.3022079 -14.8209820 16711746
-203.7538452 -61.5161781 -30.6868572 16711746
-180.7067719 -161.7731781 106.5431595 16711746
-226.6203613 -91.9484940 28.9068298 16711746
-261.9390869 -43.4977570 38.2877274 16711746
-241.1515350 -183.6949005 23.6917648 16711746
2.3914695 -48.8200989 39.7855797 16711746
2.7099228 -51.8243637 50.1319084 16711746
-232.9127502 -156.4745331 63.6825066 16711746
-272.9667358 -105.4210434 -39.7820358 16711746
-149.9305420 -51.1109581 -52.9528389 16711746
-11.2782698 -66.4233322 57.0215988 16711746
-307.9612122 -114.5521469 131.5265656 16711746
-200.4737396 -74.2504349 86.0157928 16711746
-2.5696399 -14.8445911 11.1595840 16711746
-0.9921465 -80.0068207 42.5389175 16711746
-11.4435081 -66.4683151 53.0848885 16711746
-231.7878265 -73.9322205 50.0007782 16711746
-249.2043304 -83.8681030 -13.1251545 16711746
-275.6191711 -118.4189224 38.3891907 16711746
