# .PCD v.7 - Point Cloud Data file format
VERSION .7
FIELDS x y z rgb
SIZE 4 4 4 4
TYPE F F F F
COUNT 1 1 1 1
WIDTH 49
HEIGHT 1
VIEWPOINT 0 0 0 1 0 0 0
POINTS 49
DATA ascii

0.5491884 0.5816928 -0.4147167 16711746
-1.0848794 -0.7015312 0.6403232 16711746
0.6031764 0.5207823 -0.4161714 16711746
0.0456226 -1.1236092 0.6372237 16711746
0.0196310 1.1051981 -0.6212456 16711746
-0.9685855 -0.7664031 0.6204038 16711746
0.1171914 -0.9752620 0.7882078 16711746
0.0093122 -0.8770395 0.7021092 16711746
0.1624323 -1.0078454 0.7603273 16711746
-0.5903036 -0.6565979 0.7377269 16711746
-1.0817881 -0.6740029 0.6768019 16711746
-0.7170158 -0.9087498 0.6686761 16711746
-0.7207434 -0.8137270 0.6763790 16711746
0.1961021 -0.9564563 0.8063956 16711746
0.2135777 -0.7488958 0.7068563 16711746
0.1479061 -0.7662838 0.7116368 16711746
0.1833593 -0.7982261 0.6953840 16711746
-1.3393707 -0.5214216 0.7688390 16711746
-1.3285269 -0.5349131 0.7533826 16711746
1.0286746 0.3582540 -0.3876730 16711746
-0.6810202 -0.7730345 0.7213153 16711746
0.0779136 -0.7989210 0.6872300 16711746
0.0211214 -0.8284492 0.7213572 16711746
-0.2503708 -1.0384088 0.7100102 16711746
0.6297964 -0.8695517 0.8206002 16711746
0.6214853 -1.0281146 0.8156507 16711746
0.1990863 -0.9183412 0.6531253 16711746
0.3217300 -0.8862636 0.6492379 16711746
0.0029449 -0.7865128 0.7458386 16711746
-0.0519640 -1.0507306 0.6019568 16711746
0.1390587 -1.0865551 0.6843022 16711746
-0.0175628 -0.9809538 0.6480968 16711746
0.0330557 -1.0222208 0.7244202 16711746
0.0342924 1.0745862 -0.6327841 16711746
0.0458077 1.1791220 -0.4182960 16711746
0.5810840 0.5285663 -0.4344769 16711746
0.3412786 -0.7602206 0.7072844 16711746
0.9884855 0.4192162 -0.3077334 16711746
0.4138991 0.7476841 -0.3932285 16711746
0.2308462 0.8588430 -0.5376649 16711746
0.1240050 -1.1492059 0.6148711 16711746
-0.0096981 -0.0208012 -0.0157347 16711746
-0.0943070 -0.7173480 0.8185545 16711746
-0.0596847 -0.7386402 0.7927515 16711746
-0.0905275 -0.9753177 0.7394156 16711746
-0.0016528 -0.9342230 0.6739666 16711746
-0.2368467 1.2777363 -0.6399729 16711746
0.4178684 -1.2015429 0.5615518 16711746
0.5976410 0.5890846 -0.3951225 16711746
