# .PCD v.7 - Point Cloud Data file format
VERSION .7
FIELDS x y z rgb
SIZE 4 4 4 4
TYPE F F F F
COUNT 1 1 1 1
WIDTH 237
HEIGHT 1
VIEWPOINT 0 0 0 1 0 0 0
POINTS 237
DATA ascii

-1.1304367 3.0836959 -0.1980050 16711746
0.0145416 -1.6713762 -0.1884766 16711746
-0.4374537 -1.4280450 -0.4511427 16711746
-0.0861056 -0.9074799 -0.3281816 16711746
-0.1172140 -0.8600084 -0.3001636 16711746
0.1025498 -0.9276757 -0.2776966 16711746
0.1739672 -3.0482922 0.1150142 16711746
0.0637099 -3.0086534 0.0871606 16711746
0.1591692 -2.6948347 0.0500525 16711746
-0.4241311 -1.3085513 -0.1704396 16711746
-0.4160140 2.8082571 -0.5669700 16711746
-0.5208124 3.2646790 -0.6325759 16711746
-0.3606572 2.9030285 -0.5075021 16711746
-0.4806946 2.9706347 -0.4665704 16711746
-0.4255266 3.3465354 -0.5210519 16711746
-0.5884288 3.3453135 -0.1418977 16711746
0.1894303 -1.0934174 -0.1130734 16711746
-2.3089652 3.0455551 -0.0855758 16711746
-2.4031601 3.0908577 0.0066231 16711746
-1.3414828 3.0059390 -0.1228340 16711746
-1.8531326 2.9874017 -0.1486879 16711746
-1.4786986 3.0089552 -0.0519598 16711746
0.9828020 -2.4061425 -0.0120385 16711746
-0.2620710 -0.7356158 -0.1731342 16711746
-0.4190952 -1.4505107 -0.4179516 16711746
-0.7201602 -2.0482211 -0.4455282 16711746
-0.2875518 -1.6247363 -0.3380111 16711746
-0.4142877 -1.0404708 -0.4163683 16711746
-0.2612662 -0.6471545 -0.2766187 16711746
-0.1626186 -0.7923738 -0.2711684 16711746
-0.1327382 -0.6922542 -0.2681719 16711746
-0.3894618 -0.6293090 -0.2998526 16711746
-0.3350638 -0.5975019 -0.2456371 16711746
0.3667168 -1.6156336 -0.4837863 16711746
0.2163793 -1.0374312 -0.3168246 16711746
-0.2151144 -1.9444494 -0.2732328 16711746
-0.5496367 -1.3962500 -0.4090076 16711746
0.1304197 -0.7704172 -0.1808573 16711746
0.3348212 -1.5739905 -0.4319881 16711746
0.7635645 -1.9408162 -0.2514117 16711746
-0.2647358 -1.8482664 -0.1881060 16711746
-0.2902339 3.3154759 -0.1399662 16711746
0.3175225 3.1093991 -0.6147926 16711746
0.4337186 3.1646495 -0.5616474 16711746
-0.4665820 -0.8210579 -0.2641437 16711746
-0.1554862 -1.2880874 -0.2292769 16711746
-0.1322405 -0.9401101 -0.1768920 16711746
0.1322117 -1.6614419 -0.0112128 16711746
-0.3150692 -1.0344309 -0.4349910 16711746
-0.4726428 -0.8028432 -0.3111723 16711746
-0.4577030 -0.8629852 -0.3352312 16711746
-0.3977290 -0.6957179 -0.2774107 16711746
-2.2610137 3.1341290 0.0209450 16711746
-1.8619845 3.3261249 0.0083078 16711746
-1.7073669 3.3758302 -0.0246301 16711746
-1.1507550 1.5513492 0.0766957 16711746
-1.1168581 -2.0084352 -0.0033760 16711746
0.5022738 -2.0582390 -0.3165404 16711746
-0.9473623 -0.6398798 -0.2520052 16711746
0.0094369 -0.8184814 -0.2723332 16711746
-0.5395253 -0.5497527 -0.3239938 16711746
-0.2567666 -0.7641338 -0.2537664 16711746
0.6064287 3.9167190 -0.5941508 16711746
0.0285611 -2.3419151 -0.2191097 16711746
1.2347958 -2.6098485 -0.3098719 16711746
-0.0975292 -1.0030916 -0.2479603 16711746
0.8868762 -1.6736134 -0.2241937 16711746
0.1025881 -2.5171866 -0.0531032 16711746
-0.6307384 -1.6481559 -0.2976354 16711746
-0.3156862 -0.7652617 -0.1282085 16711746
-0.7799132 -1.9797791 -0.4217703 16711746
0.3126047 3.2824914 -0.3034237 16711746
0.4060801 -1.1268787 0.0533643 16711746
0.7760249 -1.1704767 -0.3799076 16711746
0.5276219 -1.7726958 -0.2703368 16711746
-0.7308612 3.1317608 -0.2131498 16711746
-0.2854241 3.0932918 -0.3378436 16711746
0.4177251 -1.6633165 -0.4494836 16711746
0.5139383 -1.8074358 -0.5182508 16711746
0.0978887 -1.7940722 -0.2717433 16711746
0.0863688 -1.3475761 -0.1977973 16711746
-0.4761619 3.1365685 -0.6930233 16711746
0.1776293 -0.3266782 0.0286925 16711746
1.4694377 -2.9864461 -0.0173400 16711746
1.4623384 -2.6157036 -0.0511528 16711746
-0.0084442 -1.6362634 -0.1671959 16711746
-0.3579181 -2.5043092 0.0952962 16711746
-0.3885495 -1.0884649 -0.3099810 16711746
-1.1319138 2.9843113 -0.6748435 16711746
-0.9382390 2.6182790 -0.5477647 16711746
-0.7248248 -1.5631721 -0.4171190 16711746
0.4477873 -1.6692926 -0.3584848 16711746
0.8367505 -2.0181322 -0.3340905 16711746
-0.0082379 -1.0313152 -0.2989320 16711746
0.0124410 -0.6934755 -0.1984431 16711746
-0.0203715 -1.1205064 -0.3629995 16711746
0.0796296 -0.7441203 -0.2333309 16711746
0.7349840 -1.5580639 -0.1909554 16711746
-0.4050969 -1.0472240 -0.3265593 16711746
-0.4258860 -0.9821448 -0.3334799 16711746
0.2192479 -1.1344466 -0.1532581 16711746
0.1247261 3.3015108 -0.3204179 16711746
0.1230502 3.3186893 -0.2849064 16711746
-0.6492271 -1.5004964 -0.3508928 16711746
-0.5550383 -1.3041043 -0.3131786 16711746
0.1914041 -1.5307982 -0.0682797 16711746
0.1208610 -1.4719698 -0.0648822 16711746
-0.4848370 -1.6630411 -0.2754225 16711746
-0.2605144 -1.8787725 -0.3171444 16711746
0.9367630 -2.0719931 -0.2945986 16711746
0.2911221 -3.1055708 0.1170309 16711746
0.1850146 -1.0588872 -0.2284667 16711746
-0.7913496 3.3524735 -0.0757200 16711746
-0.0437366 -2.2637637 -0.1555425 16711746
-0.1051211 -1.3896875 -0.2925700 16711746
-0.0555835 -1.4800969 -0.3470730 16711746
-0.4810792 -0.7702083 -0.2702748 16711746
-0.4803433 -0.7735111 -0.2910053 16711746
-0.3810453 -1.4394475 -0.2624836 16711746
-0.4124081 -1.3927293 -0.2714925 16711746
-0.0806577 -1.4765888 -0.4592324 16711746
-0.0380316 -1.0942030 -0.3552748 16711746
-0.0835247 -1.0254337 -0.3329320 16711746
-0.5510544 2.8070838 -0.6810966 16711746
-1.0383950 2.9980459 -0.5741033 16711746
0.6475239 -2.2749188 -0.5497294 16711746
-0.6156913 3.2228074 -0.1748639 16711746
0.1338160 -1.6877999 -0.2964498 16711746
0.0474460 -1.5803320 -0.2803295 16711746
0.2946998 -2.2720199 -0.0889269 16711746
-0.2710876 -1.1390063 -0.3868220 16711746
-0.1461406 -2.1446278 -0.0632323 16711746
-0.2558898 -2.2870989 -0.1255897 16711746
0.5303386 3.2517219 -0.4225146 16711746
0.6347858 3.2872286 -0.3693307 16711746
-0.1069510 -1.2491343 -0.4269200 16711746
0.0120573 -2.0033870 -0.0373223 16711746
-0.1503443 -0.9235203 -0.2936801 16711746
-0.4775119 -0.7782099 -0.2386584 16711746
-0.8745787 -1.2314926 -0.4391854 16711746
-0.6129873 -0.9725690 -0.3363183 16711746
-0.4159892 -0.5916671 -0.2681346 16711746
-0.5680347 -1.5542248 -0.2431377 16711746
0.0299902 -1.1669792 -0.2246763 16711746
0.6417918 3.3454788 -0.7998093 16711746
0.0072778 3.2226028 -0.9289947 16711746
-0.4303728 3.0504835 -0.3083446 16711746
-0.7994140 3.1625137 -0.4626050 16711746
-0.7628556 2.9267750 -0.3464582 16711746
-0.6937366 2.8559396 -0.4655298 16711746
-0.1303433 3.1739488 -0.4593853 16711746
0.1624223 3.2586811 -0.4171607 16711746
-0.1355389 3.0778096 -0.5977290 16711746
-1.4305478 2.8040485 -0.3260776 16711746
-0.2388511 -1.5112345 0.0860515 16711746
3.7805579 3.3672380 -1.2583461 16711746
-1.9757215 -1.3718700 0.0714331 16711746
-2.5002701 -1.5022882 0.1026496 16711746
1.5014391 3.5461948 -0.4481516 16711746
1.7279541 3.2388906 -1.5633829 16711746
2.5568590 3.2800856 -1.6152452 16711746
-0.1359560 -1.3573470 -0.3233278 16711746
0.0503680 -0.7213640 -0.1354637 16711746
0.1399443 -2.0845230 0.0000510 16711746
0.1086319 -1.4534438 -0.1877580 16711746
0.0447688 -0.9082214 -0.1964596 16711746
0.0838435 -0.7725303 -0.1603787 16711746
0.6292070 -1.8520027 -0.4141382 16711746
1.6086557 -1.9742842 -0.3952318 16711746
-0.0835493 -0.6799307 -0.2154577 16711746
-0.0777555 -1.4753131 -0.4330347 16711746
-0.1168640 -1.4133594 -0.4175897 16711746
0.0362606 -1.4515252 -0.3420544 16711746
0.2181747 -1.0358644 -0.0802528 16711746
0.3955732 -2.9699216 0.0915625 16711746
0.5333081 -1.8147016 -0.4186385 16711746
-0.8513685 -1.8339703 -0.2607795 16711746
-0.1781202 -1.3126397 -0.4061222 16711746
-0.2769795 -2.2903321 -0.1581064 16711746
-0.0564491 -0.9821442 -0.0662701 16711746
-0.1565713 -1.9735160 -0.2234662 16711746
-0.6427036 -0.8717600 -0.3063762 16711746
0.0699513 -2.4370613 0.0278320 16711746
-0.1526344 -0.7006292 -0.2334584 16711746
-1.2512783 3.5841281 -0.0910801 16711746
0.0818038 3.3623145 -0.2425389 16711746
-0.0533698 -2.9609451 0.0656736 16711746
-1.1215298 -2.2069037 -0.3641562 16711746
-1.0648705 2.9877656 -0.4257995 16711746
-0.1893365 -1.2249094 -0.2034669 16711746
0.3391766 -1.5210209 -0.2504698 16711746
0.7591804 -1.9224834 -0.2127908 16711746
1.1319638 -2.1631160 -0.2104349 16711746
-0.4577405 -1.2891700 -0.2305951 16711746
-0.3177720 -1.0077689 -0.1845518 16711746
0.1478323 -1.0148830 -0.3341251 16711746
0.1362002 -0.9624274 -0.3417123 16711746
0.4227587 -1.6767060 -0.5030532 16711746
0.4585133 -0.8868817 -0.3183574 16711746
0.5011384 -1.0791446 -0.4046269 16711746
0.6706773 -1.0647670 -0.4032852 16711746
0.6648043 -1.0727509 -0.3470119 16711746
0.3432428 -2.2372406 0.0143339 16711746
-0.4614525 3.1697161 -0.2618008 16711746
-0.3062260 3.2782097 -0.1905965 16711746
-0.3415338 -0.6408246 -0.2855500 16711746
-1.8188723 -1.5616180 -0.0391259 16711746
-2.0262911 -1.3404410 -0.0071193 16711746
-0.9213449 -0.7251274 -0.1040184 16711746
-1.4789950 -1.5987705 -0.1736621 16711746
-0.7421964 -2.2049487 -0.0250241 16711746
-1.5343887 -2.2851064 0.0546112 16711746
0.0064495 -1.0493311 -0.2781677 16711746
-0.0033177 -1.0355220 -0.2797728 16711746
0.0148577 -0.6966872 -0.1774833 16711746
-0.5058461 -0.6870931 -0.2493608 16711746
3.6361191 3.3586183 -1.5568188 16711746
-1.0956798 2.8789823 -0.5386772 16711746
-0.2057841 -2.1638863 0.0962814 16711746
0.5574645 -2.0885992 -0.1076602 16711746
-0.3794484 2.9265082 -0.7792877 16711746
-0.0603674 -1.4288957 -0.2481198 16711746
-0.1120961 -1.5963275 -0.3153702 16711746
0.1763305 -1.0146972 -0.3226651 16711746
6.5417624 -40.1958008 9.9234352 16711746
5.5148091 -37.7716370 10.6343594 16711746
2.1841269 -12.4795809 4.1351962 16711746
0.8912153 -4.1538887 1.7660553 16711746
-0.7718808 -1.7810580 1.0689312 16711746
1.6404094 -10.2425146 4.0294266 16711746
12.6125212 -31.5376282 8.4740667 16711746
4.1264091 -34.0863419 5.5428472 16711746
-1.8456166 -9.4739532 -2.2111862 16711746
-1.0977492 -23.7576103 6.9762626 16711746
17.0399017 -43.2322159 11.0727100 16711746
15.4510355 -34.1922836 9.9614630 16711746
-5.8405242 -57.0076675 -0.1852483 16711746
