# .PCD v.7 - Point Cloud Data file format
VERSION .7
FIELDS x y z rgb
SIZE 4 4 4 4
TYPE F F F F
COUNT 1 1 1 1
WIDTH 277
HEIGHT 1
VIEWPOINT 0 0 0 1 0 0 0
POINTS 277
DATA ascii

 1.0711712 -2.3751483 3.8423388 16777215
 -0.0111635 -0.0251829 0.2091292 16777215
0.1614412 -1.1750251 0.1059787 16711746
0.5941030 -1.2968315 0.1347323 16711746
0.6239916 -1.3000777 0.1167434 16711746
-0.7438956 -0.7227850 -0.2199251 16711746
-0.7512448 -0.7133809 -0.2307492 16711746
0.0011182 -1.1294385 0.1833573 16711746
-0.6449442 -0.8493595 0.0103311 16711746
0.3134016 -1.2239341 0.1566045 16711746
-0.5095866 -0.9114608 0.0447905 16711746
-0.4164971 -0.9713569 0.2429323 16711746
0.0800984 -1.1457562 0.1318731 16711746
-0.0577224 1.6987495 -0.4443177 16711746
0.2106245 -1.2031662 0.2308741 16711746
0.3998547 -1.1921886 -0.0409526 16711746
0.3467862 -1.2769518 0.4647057 16711746
-0.1107753 -1.0507777 -0.0048551 16711746
-0.1020448 -1.0540700 -0.0134217 16711746
-0.5872209 -0.8882145 0.1009306 16711746
-0.5375105 -0.9091989 0.0774238 16711746
0.7966803 -1.4292839 0.3358141 16711746
0.8878557 -1.4053452 -0.0184580 16711746
0.7765045 -1.3668455 -0.0103496 16711746
0.1862737 1.7194523 -0.6405675 16711746
0.1969117 1.7881341 -0.5866673 16711746
0.2952075 1.6532784 -0.5787123 16711746
0.2821950 1.5999460 -0.4762887 16711746
0.6225142 1.5343759 -0.5121841 16711746
-0.8651302 -0.7518617 0.3845141 16711746
-0.4301355 -0.9910997 0.4529371 16711746
-0.5847680 -0.8635430 0.4925715 16711746
1.2218255 1.4798230 -0.4403630 16711746
1.0903199 1.4404428 -0.4889142 16711746
1.0564926 1.4573703 -0.4693560 16711746
0.0878868 -1.1266563 0.0361857 16711746
-0.0872715 -1.0634905 0.0111878 16711746
-0.1361733 -1.0614022 0.0481132 16711746
-0.0062340 -1.1160635 0.1200254 16711746
-0.1575024 -1.0068457 -0.1054161 16711746
0.0286598 -1.0685607 -0.1003194 16711746
0.0029581 -1.0508499 -0.1108236 16711746
-0.0062804 -1.0791510 -0.0370133 16711746
-0.1313641 -1.0831594 0.2617270 16711746
0.7946193 -1.4169533 0.1610646 16711746
0.5512941 -1.3184313 0.1379216 16711746
-0.3876057 -0.9705619 0.0916019 16711746
-0.5144923 -0.9279854 0.2381324 16711746
-0.5116603 -0.9284377 0.2139154 16711746
-0.1148771 -1.0992923 0.4013858 16711746
-0.7247811 -0.8823088 0.1823271 16711746
0.1326611 -1.0989523 -0.0902284 16711746
0.0860450 -1.1716181 0.4233525 16711746
0.0882498 -1.2260052 0.4186385 16711746
0.0073764 -1.0766734 -0.0476812 16711746
-0.0395212 -1.1503032 0.4299090 16711746
0.1446639 1.6987288 -0.3240947 16711746
-0.0845846 -1.1140071 0.4949574 16711746
-0.3353075 1.7052741 -0.5400633 16711746
-0.2502850 1.8097055 -0.7038206 16711746
-0.0970367 2.1448808 -0.3523210 16711746
0.1380973 1.5274227 -0.7865696 16711746
-0.4375592 -0.3493746 1.4368411 16711746
-1.0751262 -0.6351811 0.3936195 16711746
-0.5824729 -0.8733585 -0.0134495 16711746
-0.6743591 -0.8476979 0.0510841 16711746
0.3685144 -1.2123820 0.0470989 16711746
-0.1327659 -1.0832725 0.3826398 16711746
0.0388168 -1.1335047 0.1393460 16711746
0.1055614 -1.1015170 -0.0622163 16711746
0.0174018 -1.0741023 -0.0715572 16711746
-0.1572868 -1.0156964 -0.0691325 16711746
0.9065548 -1.3795341 0.1771010 16711746
0.8970632 -1.4563414 0.1775483 16711746
0.3960507 -1.2994430 0.3734182 16711746
0.3369395 -1.2532399 0.3454056 16711746
1.2114178 1.3050795 -0.6510698 16711746
1.0983121 1.2479399 -0.7046636 16711746
0.9802310 1.5601972 -0.3309131 16711746
0.6759530 1.5476089 -0.4729519 16711746
0.8352857 1.5059575 -0.4617828 16711746
0.9454911 1.4855222 -0.4534440 16711746
0.7640245 1.5533159 -0.5063773 16711746
1.0944475 1.8151367 -0.3835008 16711746
1.1019682 1.5085018 -0.3181797 16711746
0.2173301 -1.2757316 0.5466510 16711746
0.0896456 -1.2172053 0.4708005 16711746
0.0644774 -1.2080116 0.4411863 16711746
0.5097863 -1.2505324 0.0456316 16711746
0.5179709 -1.2376692 0.0167067 16711746
-0.4666707 -1.0060395 0.3205719 16711746
-0.4337879 -0.9679028 0.2963855 16711746
-0.0759303 -1.0876739 0.1048740 16711746
-0.0756442 -1.0850395 0.0895994 16711746
-0.0907469 -1.0784587 0.0794091 16711746
0.3524555 -1.2816296 0.4132697 16711746
0.3757799 -1.4083054 0.4163156 16711746
0.2195789 -1.1333293 -0.0622316 16711746
-0.3979265 -0.9783617 0.2219025 16711746
1.1246810 1.4150952 -0.5205639 16711746
1.1235785 1.4352074 -0.4945179 16711746
-0.4366463 -0.9612721 0.2612220 16711746
-0.4523374 -0.9541910 0.2581191 16711746
-0.4763115 -0.9359195 0.3674147 16711746
0.3686239 -1.3850452 0.4950228 16711746
-0.4455867 -0.9357404 0.0285887 16711746
-0.2869148 -1.2328171 0.3352782 16711746
0.0535402 -1.1607009 0.3382647 16711746
0.2848634 -1.2373334 0.3505154 16711746
-0.0418767 -1.1397599 0.3256277 16711746
-0.0590451 -1.1126550 0.2647147 16711746
-0.0683792 -1.1107368 0.3399656 16711746
0.2961759 -1.2244900 0.2024115 16711746
0.3052789 -1.2532541 0.2983346 16711746
0.4088461 -1.3026258 0.4483213 16711746
0.9592274 -1.4126494 0.3007127 16711746
-0.8806159 -0.6628755 -0.2040252 16711746
0.1867877 -1.1838427 0.1579670 16711746
0.2031997 -1.1929723 0.1332339 16711746
-0.5736538 -0.8854306 0.0570157 16711746
-0.6026703 -0.8781847 0.0504584 16711746
-0.5953612 -0.8872903 0.1167721 16711746
0.7905902 -1.4507521 0.3874160 16711746
-0.2389357 -0.9938796 -0.0670985 16711746
-0.2541118 -0.9888065 -0.0586753 16711746
-0.2395555 -0.9848586 -0.0851688 16711746
-0.9854950 -0.6769370 0.4232911 16711746
1.0390832 -1.4144367 0.2188492 16711746
0.3977333 1.7887919 -0.3340910 16711746
-0.1814189 -1.1968349 0.5723442 16711746
0.0243731 -1.1747472 0.2622355 16711746
-0.6774924 -0.8571528 0.1803527 16711746
-0.1937744 -1.0337120 0.0510772 16711746
-0.1872908 -1.0307755 0.0267422 16711746
0.5999832 -1.3152425 0.2235260 16711746
-1.1312503 -0.6274032 0.4360296 16711746
-0.6129655 -0.9103603 0.4998561 16711746
0.6777508 1.5776378 -0.3593778 16711746
0.7370017 1.6165072 -0.3511266 16711746
0.7085609 1.6412071 -0.3298627 16711746
-0.8392044 -0.7670562 0.3751964 16711746
-0.7098706 -0.8631326 0.4827716 16711746
-0.3861476 -0.9810771 0.3306661 16711746
-0.3545509 -0.9880178 0.4026454 16711746
1.1729461 1.5046003 -0.3956681 16711746
0.4796209 -1.2098910 -0.0351478 16711746
-0.2881786 -1.2279488 0.3345976 16711746
0.9096970 -1.4841635 0.2458130 16711746
0.3658163 -1.2773628 0.3396041 16711746
0.3924799 -1.2681860 0.3137572 16711746
-0.0629840 1.9053923 -0.3607558 16711746
0.3618919 1.7322800 -0.4417486 16711746
0.3536275 1.6622845 -0.3869016 16711746
0.0975179 -1.1347078 0.0599700 16711746
0.4749499 -1.2496108 0.0735957 16711746
-0.0154002 -1.0728699 -0.0453068 16711746
-0.0689333 -1.0444772 -0.0685974 16711746
0.2109892 -1.1916558 0.1514881 16711746
-0.4479057 -0.9462053 0.1106815 16711746
0.2499641 -1.2044835 0.0922344 16711746
0.2547098 -1.1834451 0.0611177 16711746
0.2074851 -1.1818233 0.0607186 16711746
-0.0998864 -1.0908642 0.1725870 16711746
-0.6886225 -0.8514179 0.1532330 16711746
-0.6588835 -0.8634985 0.1373649 16711746
0.6468635 -1.3271205 0.2238554 16711746
0.6126360 -1.2999207 0.1953525 16711746
0.1003653 -1.1630275 0.1675467 16711746
0.2182766 -1.1448354 -0.0265047 16711746
0.2111765 -1.1374888 -0.0458601 16711746
0.3820896 1.7664357 -0.3805727 16711746
0.2873513 1.6962322 -0.3333378 16711746
0.1777452 -1.1682080 0.0571140 16711746
0.1112488 -1.1430857 0.0554665 16711746
0.4755516 -1.3091933 0.5097137 16711746
0.0692551 -1.0914803 -0.0569340 16711746
0.4721489 -1.3293229 0.3629473 16711746
0.4312647 -1.3014578 0.3564955 16711746
0.4189036 -1.2965254 0.3330955 16711746
-0.0361509 -1.1188710 0.2301427 16711746
-0.2384674 -1.0342170 0.1291203 16711746
0.0296369 1.8203794 -0.3263521 16711746
0.0473407 -1.1624641 0.5217591 16711746
0.2101817 -1.1253895 -0.0752753 16711746
-0.2247289 -1.0273632 0.0497689 16711746
-0.6243903 -0.7636812 -0.2404943 16711746
0.5921604 -1.3053248 0.1734206 16711746
0.2409322 -1.1625493 0.0058346 16711746
0.2552013 -1.1655337 0.0022141 16711746
-0.1273498 -1.0252959 -0.0816539 16711746
-0.1934132 -1.0155151 -0.0388986 16711746
0.2295841 -1.1757044 0.0552842 16711746
-0.0401332 -1.1189635 0.2466546 16711746
-0.9089146 -0.6402720 -0.2378100 16711746
-0.7988416 -0.6332313 -0.3054459 16711746
-0.8298717 -0.6426300 -0.2825082 16711746
-0.6847680 -0.7497928 -0.2198828 16711746
-0.4132971 -0.9342000 -0.0396961 16711746
-0.4380351 -0.9114164 -0.0701404 16711746
-0.7705008 -0.8111091 0.0936720 16711746
-0.5781622 -0.8967375 0.1428780 16711746
-0.7360203 -0.8313489 0.2059039 16711746
-0.5520710 -0.9119200 0.2115768 16711746
-0.4322752 -0.9441358 0.0678325 16711746
-0.3651050 -0.9711109 0.0459624 16711746
-0.4182726 -0.9522264 0.0287138 16711746
-0.3892299 -0.9613504 0.0198832 16711746
0.9028254 -1.2838750 -0.0443466 16711746
0.8675508 -1.3034960 -0.0448074 16711746
-0.2654285 -1.0023805 0.0033385 16711746
-1.1015888 -0.6867414 0.2673095 16711746
0.0582712 1.6682203 -0.4452300 16711746
0.0395943 1.7243439 -0.4419328 16711746
-0.9496634 -0.7170051 0.4610870 16711746
-0.3286116 -1.0026653 0.3739655 16711746
0.1237563 -1.1610172 0.1369665 16711746
-0.1996480 1.9439541 -0.3537381 16711746
-0.1121537 1.7349590 -0.3271985 16711746
-0.0027723 1.8489388 -0.3281605 16711746
-0.0942088 -1.0974644 0.2414314 16711746
-0.1595906 -1.0642259 0.1439075 16711746
-0.4534118 -0.9263224 -0.0014456 16711746
0.6700495 -1.3112266 0.1965717 16711746
0.0415801 -1.1445849 0.1942277 16711746
0.0248898 -1.1387911 0.1983518 16711746
0.0103227 -1.1308002 0.1777946 16711746
-0.4815790 -0.9220617 0.0246876 16711746
0.2186948 -1.2005655 0.1950145 16711746
0.3069872 -1.2579497 0.2538086 16711746
0.4585681 -1.3240449 0.3936204 16711746
0.4707532 -1.2954851 0.3798147 16711746
-0.3411394 -0.9988327 0.1350455 16711746
-0.3486328 -0.9814110 0.0848975 16711746
0.3488815 -1.2691449 0.2101886 16711746
-0.3422911 -1.0099071 0.3022985 16711746
0.0533216 -1.1528876 0.2297124 16711746
-0.4315996 -0.9607324 0.1423018 16711746
0.3317679 -1.1784227 -0.0248514 16711746
1.0557796 -1.5192608 0.2566241 16711746
0.4454000 -1.2076591 -0.0213360 16711746
-0.0511065 -1.0643793 -0.0320195 16711746
-0.0536066 -1.0582352 -0.0488023 16711746
-0.2890255 -1.0307792 0.2777690 16711746
0.1827338 -1.2076809 0.2435454 16711746
0.2464483 -1.2101473 0.1262923 16711746
0.1922688 -1.2060426 0.3349158 16711746
0.1962855 -1.2077495 0.3172274 16711746
0.1383916 -1.1877232 0.3111410 16711746
-0.0666827 1.8219993 -0.4474509 16711746
0.2483037 1.6585340 -0.4079953 16711746
0.0121170 -1.1404494 0.4567655 16711746
-0.7827262 -0.8497457 0.2545758 16711746
-0.6029431 -0.8801957 0.3596892 16711746
1.5374525 1.4549890 -0.6786622 16711746
-1.1244711 -0.6079896 0.4860862 16711746
1.5660322 1.6729180 -0.5051618 16711746
1.6426448 1.2691514 -0.4288069 16711746
1.1125726 1.3508704 -0.5973487 16711746
1.1496205 1.3918543 -0.5497074 16711746
1.2223639 1.2725531 -0.6846103 16711746
-0.2043828 1.8057551 -0.3202827 16711746
0.1199166 -1.1444402 0.0366523 16711746
0.2234138 -1.2115928 0.2519072 16711746
1.1040226 1.3874140 -0.4168474 16711746
0.0379349 -1.1510333 0.2800596 16711746
-0.2474044 -0.9920011 -0.0439996 16711746
-0.5257755 -0.9023721 0.0308862 16711746
0.4911576 -1.3350039 0.4476047 16711746
1.4991274 -35.1086807 19.7020969 16711746
3.6395030 -53.7331924 -4.9310579 16711746
3.4741185 -57.0333862 26.9528999 16711746
1.3207606 -18.8090839 9.5206623 16711746
1.5689539 -30.1486645 11.9437618 16711746
1.4781296 -33.8420792 9.4157495 16711746
0.8239827 -15.2873240 5.0297103 16711746
1.5546696 -44.2052917 14.8120794 16711746
2.2536588 -66.1110611 22.0857391 16711746
