# .PCD v.7 - Point Cloud Data file format
VERSION .7
FIELDS x y z rgb
SIZE 4 4 4 4
TYPE F F F F
COUNT 1 1 1 1
WIDTH 168
HEIGHT 1
VIEWPOINT 0 0 0 1 0 0 0
POINTS 168
DATA ascii

0.2446414 -1.0537547 0.6299590 16711746
0.2901417 0.7967066 -0.2904570 16711746
-0.3480609 -1.1819592 0.4415354 16711746
0.2916172 0.7915581 -0.3038760 16711746
0.1803025 0.8760219 -0.2958043 16711746
0.1015086 0.9197975 -0.2866394 16711746
0.2141308 0.8459893 -0.3022188 16711746
0.1723490 0.9364936 -0.2330405 16711746
-1.3018898 -1.0409416 0.7951730 16711746
0.1331434 -1.0292770 0.9234440 16711746
0.1804822 0.8578451 -0.3141456 16711746
0.1325474 -0.9893008 0.9161577 16711746
-0.2875764 -0.8504897 0.2999827 16711746
0.0833681 0.6214639 -0.1162188 16711746
0.2835098 -0.9441894 0.6396792 16711746
0.2005329 0.5343036 -0.1361187 16711746
0.2197700 0.5548694 -0.0821479 16711746
-0.8654410 -1.3057617 0.8473272 16711746
0.3540426 0.4227628 -0.1059663 16711746
0.1015684 -0.9912755 0.9573648 16711746
-1.0310658 -1.2407445 0.9906685 16711746
0.4260728 0.6742706 -0.4962634 16711746
0.3498172 0.7094836 -0.3650411 16711746
0.3882024 0.7750246 -0.4308756 16711746
0.3801841 0.6953188 -0.3776906 16711746
-0.3717782 -0.8599257 1.1528084 16711746
-0.4203460 -0.8447145 1.2784678 16711746
0.1554421 -0.9663442 0.8002005 16711746
-0.0171523 -1.0108322 1.1362857 16711746
-0.0446265 -1.0301951 1.0358934 16711746
-0.2729305 -0.9637001 1.4338914 16711746
0.1833694 -0.9968631 0.8986171 16711746
0.1705467 -0.9991572 0.9149390 16711746
0.3544031 0.6915223 -0.4801002 16711746
0.4391304 0.6807967 -0.4211476 16711746
0.5738620 0.7339196 -0.5858597 16711746
-0.1661660 -1.1279246 0.3794976 16711746
-0.1526390 -1.0017170 0.2716804 16711746
0.5573049 -1.0430037 0.3270300 16711746
0.3458714 -1.0275397 0.3002019 16711746
0.0987450 -0.9991599 1.0161076 16711746
0.0806641 0.8668458 -0.3546109 16711746
0.3343691 0.7501834 -0.3097830 16711746
-0.6814550 -1.1590387 1.1622570 16711746
-0.9259467 -0.9137316 1.0676856 16711746
-0.6660360 -1.0116602 0.7656536 16711746
-0.8911635 -1.2303388 1.3366821 16711746
0.3322428 0.7621622 -0.2926872 16711746
0.1474902 -1.0531135 0.6160309 16711746
0.3180048 -0.9971569 0.6198401 16711746
0.2313625 -1.0918136 0.6823721 16711746
0.2891462 -1.0285034 0.5417062 16711746
0.2818719 -1.0335002 0.5076823 16711746
-0.9067449 -0.9711208 0.7512404 16711746
0.3857868 -0.9461498 0.5325971 16711746
-1.1350354 -1.3372633 1.1054658 16711746
0.3661444 0.6928117 -0.3907203 16711746
0.3243734 0.5543258 -0.0963336 16711746
-0.3479491 -0.8722194 1.3859330 16711746
0.2333481 0.7416209 -0.4345207 16711746
0.1124235 -1.0444306 0.9223217 16711746
-0.7724552 -1.2620275 1.1478375 16711746
0.2397746 -1.1159692 0.7918570 16711746
0.2531518 -0.9906360 0.6838238 16711746
-1.1243677 -1.2843339 1.1014361 16711746
-0.3493637 -0.9810138 0.3330386 16711746
-0.3703051 -0.9957998 0.3536403 16711746
-0.7322329 -1.0762144 0.8400980 16711746
0.0577718 0.9428877 -0.2886940 16711746
0.2189157 -1.0603868 0.4969188 16711746
-0.1472632 -1.0089481 0.8463077 16711746
-0.6343710 -1.0179601 0.7357573 16711746
-0.7409919 -1.2779589 1.1875514 16711746
0.1918145 -0.9982358 0.8833560 16711746
-0.5860536 -1.0217736 0.8073258 16711746
0.2073640 0.9426330 -0.2195233 16711746
0.3809170 -1.0806577 0.4745505 16711746
0.2017261 0.5653458 -0.0457279 16711746
-0.3841282 -1.0464424 0.2813412 16711746
0.0990560 -1.0414895 0.9490656 16711746
-0.7601932 -0.8168980 0.8760660 16711746
-0.1186304 -1.0751008 0.6268441 16711746
-0.0701569 -1.0057384 0.8859981 16711746
-0.1170285 -1.0123246 0.9066351 16711746
-0.1261699 -0.9739552 0.8427961 16711746
0.2718156 -1.1239454 0.6543869 16711746
0.2968978 0.7150903 -0.4252140 16711746
0.2615961 0.7134544 -0.4580194 16711746
0.3059060 0.7415241 -0.3652545 16711746
0.2465382 0.7751878 -0.3771554 16711746
-0.9386876 -1.0428659 0.6202006 16711746
-0.1533544 -0.9088599 1.0525011 16711746
0.3048929 0.7906737 -0.2948278 16711746
0.3325315 0.7651507 -0.2821278 16711746
0.3220575 0.7770401 -0.2836908 16711746
0.3918658 0.7089524 -0.3310640 16711746
-0.6466405 -1.2969919 1.0686362 16711746
-0.5593843 -1.3951960 0.6999497 16711746
-0.3421507 -1.1989154 0.4067585 16711746
-0.7425023 -0.9735448 0.9528739 16711746
-0.9413631 -1.1796391 1.4391532 16711746
-0.8073288 -1.0770277 0.5010728 16711746
-1.0668383 -1.3348894 1.0256130 16711746
0.0255147 -1.0500817 1.0120140 16711746
-1.1803501 -1.1837157 1.2214645 16711746
-0.2156630 -0.9258831 0.4610649 16711746
-0.2295869 -0.9256894 0.4208771 16711746
0.1934804 0.8632136 -0.2899432 16711746
-0.1873622 -1.2260108 0.6210787 16711746
0.2457963 -1.0160267 0.4162670 16711746
0.1604646 -1.0029370 0.6223554 16711746
0.3477969 -1.0697026 0.5431073 16711746
-0.6273099 -1.0768379 0.6916152 16711746
-0.4071017 -1.0034102 0.5619188 16711746
0.3095840 0.7293398 -0.3828135 16711746
-0.9041640 -0.7173500 1.2715977 16711746
-1.0619670 -0.5839286 1.4553807 16711746
0.1050417 -0.9897166 0.4732485 16711746
-0.0375647 -0.9411743 1.0454085 16711746
0.3478999 0.7361014 -0.3081864 16711746
0.3970535 0.6936919 -0.2889937 16711746
0.4078923 0.4509890 -0.1031141 16711746
0.4361609 0.7580820 -0.3867673 16711746
0.3785993 0.6984434 -0.3287257 16711746
0.3823380 0.7033410 -0.3124940 16711746
0.1486561 -1.0243629 0.6970673 16711746
0.1721063 -1.0406682 0.6917326 16711746
0.1290537 -1.0550108 0.7119156 16711746
-0.1329592 -1.0079298 0.8090689 16711746
-0.2225457 -1.0045029 0.9667141 16711746
0.0683640 -1.0545845 0.5981146 16711746
0.1182029 -1.0411428 0.6244764 16711746
-0.0435272 -1.1821184 0.7515000 16711746
0.0069318 -0.9585279 0.3988017 16711746
-0.5889859 -1.2116210 0.4856730 16711746
-0.1212389 -0.9977929 1.0506010 16711746
0.2824872 0.8066315 -0.2950711 16711746
0.3707026 0.6839777 -0.4208122 16711746
0.3154016 0.6994400 -0.4429934 16711746
0.3244195 0.7061402 -0.4330802 16711746
0.2835112 -1.0304142 0.4638226 16711746
-0.2921370 -0.9197696 0.6546516 16711746
-0.9489942 -0.8215265 1.0474900 16711746
0.3910426 -0.9441468 0.4783045 16711746
0.0698276 -1.0281540 0.7408613 16711746
-0.0404483 -1.0266064 0.9358323 16711746
0.0875885 -1.0458695 0.8565546 16711746
0.1393912 -0.9896890 0.7723562 16711746
0.0106591 -1.0074878 0.4681266 16711746
0.1085396 -0.9908367 0.4133157 16711746
-0.0582833 -1.2155790 0.5344489 16711746
-0.1483446 -0.9773417 0.4056227 16711746
0.2763411 -0.9874905 0.6245051 16711746
-0.4961837 -1.2293513 0.9343256 16711746
0.2794672 0.3658999 -0.0524670 16711746
0.0518147 -1.0371448 1.0194933 16711746
-0.1806290 -0.9287328 0.4826132 16711746
-1.0991515 -1.2271135 1.0768309 16711746
-0.6951615 -1.1846203 0.7117491 16711746
-0.8055977 -1.2447542 0.8578951 16711746
-0.1365100 -1.1107359 0.5851604 16711746
0.0414053 -1.0394467 0.1940000 16711746
0.1776614 -0.9682139 0.1668367 16711746
-0.0628501 -0.9340683 0.2060314 16711746
-0.3764955 -0.9820023 0.3256594 16711746
-0.8152038 -1.3578327 0.6972094 16711746
-0.1287728 -0.9506325 1.1063743 16711746
0.3011198 0.8090961 -0.1188729 16711746
