# .PCD v.7 - Point Cloud Data file format
VERSION .7
FIELDS x y z rgb
SIZE 4 4 4 4
TYPE F F F F
COUNT 1 1 1 1
WIDTH 166
HEIGHT 1
VIEWPOINT 0 0 0 1 0 0 0
POINTS 166
DATA ascii

 0.4727971 -0.7721971 1.0287324 16777215
 0.4543327 -0.3767501 0.0964295 16777215
0.1806084 -1.0097038 0.6389588 16711746
0.1707749 -1.0296572 0.6409299 16711746
-0.1003453 -1.3694116 1.2725979 16711746
-0.0632445 -1.1316866 0.7513067 16711746
0.4164180 -0.9746726 0.4653836 16711746
-0.5824860 -1.1981536 1.0966123 16711746
0.4651076 -1.0340041 0.5461277 16711746
0.4690019 -1.0390568 0.6557371 16711746
1.0876076 0.7503392 -0.1353269 16711746
-0.1109858 -0.9915180 0.5235203 16711746
0.1190429 -0.9903094 0.5906546 16711746
0.7569581 -1.2058287 0.7131112 16711746
0.6192957 -1.0212417 0.5367794 16711746
0.6257785 -1.0295846 0.5353485 16711746
0.5256010 -1.2265885 0.8991107 16711746
0.2601597 -0.9697332 0.4946636 16711746
0.2057780 -1.0780165 0.5694112 16711746
0.0976271 -1.0318216 0.5072368 16711746
0.0380172 -1.0524410 0.5350710 16711746
0.0670644 -1.0414518 0.6051195 16711746
0.0882861 -1.1529112 0.5925090 16711746
0.4046910 -0.9764713 0.4789705 16711746
0.2887782 -1.0554959 0.6353707 16711746
0.6407595 -0.9648207 0.4938699 16711746
0.6175491 -0.9769446 0.5071712 16711746
0.1770576 -1.3050425 0.8681465 16711746
0.2499059 -1.0602425 0.5679851 16711746
0.0217012 -1.0543698 0.5115231 16711746
0.0207817 -1.0218893 0.4925003 16711746
-0.6751547 -1.1096246 0.9641915 16711746
-0.4151904 -0.8992308 0.6464019 16711746
0.1141452 -1.2014107 1.0044271 16711746
0.0812270 -0.9994870 0.9079378 16711746
0.3974393 -1.1627600 0.7963179 16711746
-0.4368416 -1.1314772 0.9232320 16711746
-0.1783902 -0.9056070 0.4985113 16711746
0.3612808 -1.0807137 0.6025422 16711746
0.5224924 -0.9266465 0.3787751 16711746
0.4884714 -0.8666863 0.3784605 16711746
0.1815957 -1.0669849 0.8258662 16711746
0.2471136 -1.3185537 1.1144639 16711746
-0.3588904 -1.3149756 1.2660933 16711746
-0.3657145 -0.9655774 0.5255762 16711746
0.2900618 -1.0041207 0.4790376 16711746
-0.2538252 -1.0971246 0.9095888 16711746
-0.4349560 -1.1233495 0.8157930 16711746
-0.0831425 -1.0925822 0.5748848 16711746
-0.0569044 -1.0041091 0.5028891 16711746
0.8774773 0.7102135 -0.1945878 16711746
0.1238801 -1.0497680 0.5686271 16711746
0.0857254 -1.1577210 0.6348650 16711746
0.1260609 -0.9125894 0.4475044 16711746
0.3851287 -0.8946062 0.3889138 16711746
0.3847718 -1.0237621 0.4698059 16711746
0.5185342 -0.8582442 0.3797003 16711746
0.0647840 -0.9804097 0.5422620 16711746
0.0331120 -1.1245381 0.6222169 16711746
-0.0082088 -1.1125183 0.6090328 16711746
0.3531923 -0.9308042 0.4936756 16711746
-0.7114304 -1.0398822 0.8543729 16711746
-0.4854821 -0.8324786 0.5723357 16711746
0.2110255 -0.9642103 0.6498821 16711746
0.1952142 -1.1755909 0.8393453 16711746
0.2180485 -0.9969320 0.6594474 16711746
0.4620101 -1.1698369 0.8634269 16711746
0.1403189 -1.3196280 1.2764140 16711746
-0.6622002 -0.9417135 0.5999250 16711746
0.1510425 -0.9899911 0.4621387 16711746
0.1333957 -1.0070841 0.4646610 16711746
0.0221242 -1.0788927 0.7235410 16711746
-0.0231487 -1.1988208 0.8487996 16711746
0.4825236 -0.9476880 0.4082016 16711746
-0.1034235 -0.9834090 0.5508309 16711746
0.2846936 -1.4047564 1.1231757 16711746
-0.4080975 -1.2195042 1.0714107 16711746
-0.1120530 -1.0375208 0.5093644 16711746
-0.0757623 -0.9452530 0.4586076 16711746
0.2859708 -1.2724134 0.9120988 16711746
-0.2006010 -0.9598240 0.5214555 16711746
-0.3953885 -0.9090064 0.5553799 16711746
-0.4477720 -0.9372680 0.5542084 16711746
0.0012408 -1.3545656 1.2415124 16711746
0.1933097 -1.0580202 0.5815015 16711746
0.5129076 -0.9855142 0.5990373 16711746
-0.1614476 -0.8894463 0.4340965 16711746
-0.0688526 -1.2810255 1.2642760 16711746
0.3466374 -0.9594929 0.6499847 16711746
1.4126542 0.8378905 -0.0418308 16711746
0.0256584 -1.0106874 0.5249894 16711746
-0.2633334 -1.2691303 1.1863720 16711746
0.4027462 -1.0161324 0.5796212 16711746
0.2757088 -0.8956906 0.4584723 16711746
-0.0317120 -1.2244084 1.1647155 16711746
-0.0126337 -1.1923206 0.7998107 16711746
0.0776301 -0.9595483 0.5609922 16711746
-0.0894306 -1.0386803 0.6163141 16711746
-0.0655290 -1.0482570 0.6057181 16711746
0.3254354 -0.9858925 0.4791677 16711746
-0.0365256 -1.2548518 0.7595410 16711746
0.1308435 -1.1659315 0.7172131 16711746
0.2477501 -1.0556548 0.6957726 16711746
-0.2500147 -1.3463531 1.2990572 16711746
-0.0998880 -1.1632136 0.9200170 16711746
0.1160299 -1.3138598 0.7972864 16711746
0.3194100 -1.0217558 0.4560228 16711746
0.2036873 -1.0446355 0.5438971 16711746
-0.0843510 -1.1104577 0.6137449 16711746
-0.1372240 -1.1390252 0.6862514 16711746
-0.3890944 -0.9862207 0.6266888 16711746
1.1100655 -0.7847521 -0.3414693 16711746
0.7701204 -1.1894361 0.7071221 16711746
-0.0170938 -1.0372323 0.5876203 16711746
0.3703017 -1.2419751 0.8352057 16711746
0.3510007 -1.0134789 0.6032616 16711746
0.4566238 -0.8793833 0.3553952 16711746
0.3711098 -0.9520455 0.4116726 16711746
0.3385735 -0.9667300 0.4180084 16711746
0.5286126 -1.1944585 0.7097257 16711746
0.1991618 -1.1320349 0.8091596 16711746
0.4537486 -0.8891695 0.4023795 16711746
0.1268684 -1.0256308 0.5745202 16711746
0.0755807 -1.0621175 0.5964121 16711746
0.5779681 -1.1003678 0.6109242 16711746
-0.5714751 -0.9906093 0.6512437 16711746
-0.5719111 -1.1018902 0.7747883 16711746
0.5268087 -0.9684352 0.4781634 16711746
0.5416284 -1.1535456 0.8060444 16711746
0.5737637 -1.2602841 0.9031009 16711746
-0.2908541 -1.0544769 0.7477354 16711746
0.1241876 -1.1624324 0.8120027 16711746
0.1350714 -1.1785886 0.8155828 16711746
-0.4430155 -0.8567339 0.5854875 16711746
-0.6650274 -0.9519010 0.6671623 16711746
0.6398578 -1.3484272 0.9917253 16711746
-0.1798886 -1.1728367 0.8109466 16711746
-0.0919537 -1.0153416 0.6202832 16711746
0.5682178 -1.0235636 0.5931600 16711746
0.2368470 -1.0686764 0.6140350 16711746
0.1765410 -1.1161938 0.6637539 16711746
-0.3121522 -0.9912667 0.4958227 16711746
-0.3209434 -0.9399517 0.4755717 16711746
0.4199364 -0.9481228 0.4570670 16711746
0.3259046 -1.1479352 0.7843181 16711746
-0.4160584 -1.2044500 1.2850101 16711746
-0.2830371 -1.2191137 0.9275723 16711746
0.4767303 -0.8766079 0.3936670 16711746
0.2778909 -0.9850042 0.4483022 16711746
-0.4444319 -0.8702525 0.6130770 16711746
-0.1899374 -0.9786177 0.5953914 16711746
-0.4132788 -1.1992972 0.8955433 16711746
-0.3421795 -1.2179750 0.8781057 16711746
-0.4029096 -1.2882211 0.8706769 16711746
-0.0867010 -0.9105794 0.4186454 16711746
0.6800398 -1.1193749 0.6671345 16711746
-0.0129589 -1.2165589 0.9590939 16711746
0.6336235 -1.3848245 0.9350286 16711746
0.5828767 -0.9404716 0.4982743 16711746
0.9600289 0.7053154 -0.1847072 16711746
-0.3861584 -1.0202777 0.6972210 16711746
0.1090081 -1.1385481 0.9003282 16711746
0.5760120 -2.5234730 1.2084233 16711746
1.0380713 -1.9621407 1.4326004 16711746
-0.4339843 -1.5697045 1.3684460 16711746
0.8535699 -1.4584301 1.0091090 16711746
