# .PCD v.7 - Point Cloud Data file format
VERSION .7
FIELDS x y z rgb
SIZE 4 4 4 4
TYPE F F F F
COUNT 1 1 1 1
WIDTH 78
HEIGHT 1
VIEWPOINT 0 0 0 1 0 0 0
POINTS 78
DATA ascii

 0.4293572 -0.6464641 0.8128725 16777215
 0.0132252 -0.0190300 0.0191897 16777215
-1.3968203 2.9089088 -0.5324161 16711746
-0.3429272 0.9694797 -0.0384234 16711746
-1.2165486 2.4895127 -0.3367779 16711746
-1.0750186 1.3556992 0.0225422 16711746
-0.8933033 1.2047398 -0.0285067 16711746
0.8325204 -3.4443960 -0.6304802 16711746
0.9649645 -1.6259123 -0.4159641 16711746
0.4318869 -0.7161152 -0.1786138 16711746
0.7769443 -1.5183444 -0.4114588 16711746
0.5583634 -1.1634313 -0.3116400 16711746
0.2639872 -2.6350777 -0.2837026 16711746
0.8114284 -1.3917322 -0.0369011 16711746
-0.0259341 -0.7184253 -0.1079018 16711746
0.8934662 -1.6350131 -0.2935532 16711746
0.8540288 -1.6053001 -0.3330534 16711746
0.2654780 -1.6284997 0.0835787 16711746
-1.3088356 2.3370147 -0.4255377 16711746
-1.1179606 3.6770310 -0.6363059 16711746
-0.0566706 -0.5971593 -0.1153844 16711746
-0.0259464 -0.5350309 -0.0754171 16711746
-3.6634898 4.4744377 0.2524259 16711746
-0.4444494 -0.2307435 -0.1122183 16711746
2.7736502 -5.0699186 -0.8601438 16711746
1.6184123 -4.0278597 -0.7577527 16711746
-0.3130715 -1.6229646 -0.5566437 16711746
-1.0724884 5.4827981 -0.1977614 16711746
-0.0576338 -0.6262572 -0.0345181 16711746
-0.1499750 -1.0156065 -0.3299332 16711746
-0.2319367 -1.9966487 -0.7217368 16711746
1.7729287 -4.1950808 -1.0418760 16711746
0.8701354 -1.5784440 -0.1777745 16711746
-3.0111303 4.4260664 0.2019761 16711746
-0.1478845 -0.7279310 -0.0623763 16711746
0.4953374 -1.1718169 -0.0512388 16711746
0.0964288 -0.8087725 -0.0980479 16711746
0.0993480 -1.1795390 -0.1697286 16711746
-0.1555554 -0.9330406 -0.2449076 16711746
-0.2227140 -1.8746618 -0.5628192 16711746
0.7966616 -1.5590512 -0.2326166 16711746
0.0235182 -2.4111438 -0.3176407 16711746
0.2861469 -0.8626972 -0.1275833 16711746
1.3567454 -2.0175502 -0.3697662 16711746
1.1496906 -1.8241446 -0.3496122 16711746
0.4726925 -0.7113322 -0.1320713 16711746
0.6980813 -1.5341871 -0.3052174 16711746
0.7735357 -1.5658345 -0.3120698 16711746
0.1544306 -1.3687400 -0.1558531 16711746
-0.1328008 -0.5418199 -0.0597133 16711746
0.4356844 -0.7124041 -0.1446216 16711746
0.3678666 -0.6579907 -0.1334078 16711746
0.4144153 -0.6940144 -0.1547748 16711746
0.1371331 -0.6287888 -0.1050859 16711746
0.6650298 -3.2201393 -0.4963770 16711746
0.1808233 -0.8440034 -0.1252017 16711746
0.1130630 -0.6239631 -0.0934020 16711746
-0.2263607 -2.0368154 -0.7557194 16711746
-0.0931261 -1.1767586 -0.4423337 16711746
-0.0375408 -0.6277415 -0.1794866 16711746
0.8099758 -3.2323401 -0.3925871 16711746
0.1980477 -1.3901174 -0.1748506 16711746
1.7152426 -4.1632638 -1.1202933 16711746
0.6159227 -1.4735296 -0.4018998 16711746
3.1604767 -16.4689941 4.4039216 16711746
3.0315053 -15.4394741 4.0895987 16711746
9.5597954 -22.6344414 7.2615271 16711746
10.8092699 -25.6204071 8.2219000 16711746
5.7424736 -33.4571152 10.5961399 16711746
6.2954674 -27.9797974 9.2423859 16711746
10.8676395 -28.4527035 7.1488628 16711746
-1.3622010 -3.1251144 -0.1141825 16711746
5.2068768 -24.8368187 7.6575332 16711746
-40.3963966 -20.9703789 -17.3906136 16711746
-1.3444016 -3.0802071 -0.1107604 16711746
3.9723973 -57.1720238 -5.2893276 16711746
-0.0149978 -1.3919756 0.7086434 16711746
6.8852873 -22.9400024 8.0209703 16711746
