# .PCD v.7 - Point Cloud Data file format
VERSION .7
FIELDS x y z rgb
SIZE 4 4 4 4
TYPE F F F F
COUNT 1 1 1 1
WIDTH 94
HEIGHT 1
VIEWPOINT 0 0 0 1 0 0 0
POINTS 94
DATA ascii

-0.4500811 1.1477128 -0.2646278 16711746
-0.1144353 0.9629260 -0.2657223 16711746
-0.0097674 0.6086942 -0.3542537 16711746
-0.6846549 -1.0846775 0.2765054 16711746
-0.4917943 -0.8819181 0.2072328 16711746
-0.2151445 -0.6740257 0.0485385 16711746
-0.0352930 0.6973018 -0.2772562 16711746
-0.0957707 -0.9412735 -0.0733301 16711746
-0.0981481 -1.1661460 -0.1055489 16711746
-0.3873055 -1.0611897 0.1195623 16711746
-0.0737999 -1.2243198 -0.1998404 16711746
-0.1252701 -1.1820652 -0.2194655 16711746
-0.3356630 -0.7387993 -0.1228679 16711746
0.0496391 -0.7411131 0.1066628 16711746
-0.4347267 -1.2706683 -0.2118675 16711746
-0.3073311 -1.1716297 0.0809424 16711746
-0.1169987 -1.1486562 0.2936524 16711746
-0.3197419 -0.5892670 -0.0789894 16711746
-0.5629216 -1.2658676 0.0394029 16711746
-0.5913405 -0.8905202 -0.0623167 16711746
-0.5672050 -0.8660958 0.0340268 16711746
-0.2183248 -1.0261015 -0.0495420 16711746
0.1424371 -0.7827405 -0.0905521 16711746
-0.3328058 -0.4776496 -0.1763584 16711746
-0.6024308 -0.8245413 -0.0168257 16711746
-1.0209197 -0.7233371 0.4277169 16711746
-0.5143481 -0.9031811 0.1114576 16711746
-0.5684978 -0.9929159 -0.1286921 16711746
-0.6868572 -1.1667348 0.2104276 16711746
-0.5255226 -0.8658413 0.1436386 16711746
-0.5421427 -0.9588219 0.1884946 16711746
-0.3695214 -1.1417421 0.0378274 16711746
-0.1485940 -1.3630210 0.0178131 16711746
-0.0788725 -0.8638691 0.0060621 16711746
-0.5589888 -1.1100781 0.3503003 16711746
-0.7519908 -1.2145526 0.3674673 16711746
-0.7291026 -0.6816065 0.1838902 16711746
-0.8436882 -1.1744531 0.3194089 16711746
0.7736865 0.9933311 -0.5580068 16711746
0.4794292 -0.9711911 0.1172566 16711746
-0.2242041 -0.6670612 0.0680847 16711746
0.2551258 -0.7652039 -0.1044674 16711746
0.1160868 -0.4600212 -0.0016352 16711746
-0.7232242 -1.2706715 0.1018079 16711746
-0.0770115 -0.9311395 -0.1921499 16711746
0.1942396 -1.0708982 0.2463582 16711746
-0.0017687 -0.6153903 -0.0558055 16711746
-0.3782979 -1.0516791 0.1497691 16711746
0.0825485 -0.7003232 -0.1089804 16711746
0.0098780 -1.3590702 0.1867033 16711746
0.0333007 -1.2631987 -0.0592745 16711746
-0.0236484 -1.1827910 -0.0623691 16711746
0.0742123 -1.1635383 0.2671744 16711746
0.0372740 -1.0195525 0.2296622 16711746
0.0538627 -1.3231857 0.2831586 16711746
-0.3707702 -0.8275481 -0.0657673 16711746
0.0927498 -1.1918449 0.3631144 16711746
-0.4468762 -0.6400390 -0.2320524 16711746
-0.4327799 -0.9618102 0.2374028 16711746
0.1248804 -1.1520399 0.3457306 16711746
0.3271279 -0.9113648 0.1455662 16711746
-0.3918644 -0.8536423 0.0916741 16711746
0.0065352 -1.3080946 -0.2276710 16711746
-0.0301161 -0.8941653 -0.1534520 16711746
-0.0812094 -1.1400820 0.0224492 16711746
-0.4356959 -1.1584549 0.3787352 16711746
-0.0613114 -1.0705184 0.2666419 16711746
-0.0491707 -1.2321368 -0.1623552 16711746
-0.5864846 -0.8607343 -0.0119335 16711746
-0.6907753 -1.0695523 0.2478077 16711746
0.4877225 0.9653295 -0.5318296 16711746
0.0893036 -0.7517182 -0.0176835 16711746
0.0672846 -1.0107983 -0.1185703 16711746
0.1101799 -1.2642233 0.1044272 16711746
0.2032776 -0.8497666 0.1279831 16711746
-0.2125991 -0.9933003 0.0883032 16711746
-0.0418721 -0.9781354 -0.0233533 16711746
-0.9617373 -0.7786313 0.4476985 16711746
0.0985969 -1.2320694 0.1607275 16711746
-0.2890793 -0.9559145 -0.0892920 16711746
-0.3294696 -0.9058023 -0.1071428 16711746
-0.7036014 -1.2259605 -0.0995658 16711746
-0.3379485 -1.3431674 -0.2559834 16711746
-0.4800847 -0.9023078 0.1977260 16711746
-1.0768980 -0.7153455 0.3841740 16711746
-0.1021888 -1.1003481 0.0968087 16711746
0.3951694 -0.6362492 0.0000823 16711746
-0.4546588 -1.2068812 0.3288281 16711746
-0.4254031 -1.1238151 0.2918352 16711746
0.1224577 -1.0715783 0.1348888 16711746
-0.4463738 -0.6484085 0.0367311 16711746
-0.2589242 -1.2302974 0.0637213 16711746
-0.0814904 -1.3285689 0.3808024 16711746
-0.6528678 -1.1536194 0.2481910 16711746
