# .PCD v.7 - Point Cloud Data file format
VERSION .7
FIELDS x y z rgb
SIZE 4 4 4 4
TYPE F F F F
COUNT 1 1 1 1
WIDTH 46
HEIGHT 1
VIEWPOINT 0 0 0 1 0 0 0
POINTS 46
DATA ascii

 1.3060023 -3.1441791 6.2013335 16777215
 0.0221302 -0.0472718 0.0980730 16777215
2.4020863 1.0622659 -1.4540515 16711746
1.9672743 1.0481476 -1.3955935 16711746
1.9124299 1.1606203 -1.3598095 16711746
-2.4102283 -1.2649174 0.6812845 16711746
0.3878883 0.9712776 -0.6671301 16711746
-0.0259556 0.4000004 -0.2055314 16711746
-2.0122612 -0.8912030 0.4693371 16711746
-2.4617629 -1.3025681 0.0979028 16711746
-0.0880687 -0.2337770 0.1698693 16711746
-1.5715966 -0.6697277 0.5152024 16711746
-1.7009387 -1.0480214 0.1894433 16711746
-1.8910142 -1.4327651 0.3150823 16711746
0.0190648 0.3638582 -0.2763816 16711746
0.1073905 0.4084526 -0.3636978 16711746
0.1921548 1.3761253 -1.2964523 16711746
-2.1419115 -1.3019906 0.4640453 16711746
-2.1678164 -1.5748949 0.9674370 16711746
2.9105527 1.0451697 -1.6537808 16711746
-2.6570251 -1.0176054 0.8871632 16711746
-0.0106740 0.2570137 -0.1494544 16711746
0.0179772 0.3102172 -0.3209948 16711746
0.8763581 1.2731405 -1.5253838 16711746
0.8530985 1.6560738 -1.9589130 16711746
-0.6596993 -0.9091392 0.2901520 16711746
-0.0364767 -0.5431611 0.3186560 16711746
-1.9032080 -1.3312932 1.3732769 16711746
-0.3048274 -0.8491890 0.6746689 16711746
-0.2489594 -1.1657286 0.7248972 16711746
-0.9123669 -1.3794190 0.5658028 16711746
-1.0384022 -2.0531461 0.6652773 16711746
-1.0937133 -1.8385311 0.5094076 16711746
-100.8940887 -273.5581360 144.6954651 16711746
-78.8390808 -214.7287903 114.6916809 16711746
0.5661660 -90.3749008 82.2035065 16711746
-21.1210766 -20.2210636 -3.3945062 16711746
1.5030633 -81.1834488 80.3288879 16711746
1.2404265 -75.9188080 72.0849838 16711746
-1.3985189 -45.6367683 8.4073305 16711746
-0.7111439 -12.5186520 6.2212272 16711746
-0.0565026 -6.3672557 7.7488489 16711746
-85.5384064 -280.4727783 -9.2783108 16711746
-53.9018517 -177.9524841 90.8492203 16711746
16.1728973 -148.2571411 88.7667999 16711746
-11.7374887 -159.6213379 87.8695221 16711746
