# .PCD v.7 - Point Cloud Data file format
VERSION .7
FIELDS x y z rgb
SIZE 4 4 4 4
TYPE F F F F
COUNT 1 1 1 1
WIDTH 189
HEIGHT 1
VIEWPOINT 0 0 0 1 0 0 0
POINTS 189
DATA ascii

 1.2660502 -3.0635953 5.9191971 16777215
 0.0105284 -0.0280821 0.0545754 16777215
-0.6049769 -1.3216630 -0.0306758 16711746
-0.8529752 -0.4779535 0.3081710 16711746
-0.1242914 -0.8490247 0.0230497 16711746
0.2887070 -1.1100767 0.1050234 16711746
-0.9861344 -0.8193483 0.7833877 16711746
-0.2680450 -1.5566858 -0.0628459 16711746
-0.0898359 -1.1129173 0.0740089 16711746
-0.0181195 -0.5566396 0.0368826 16711746
-0.1979765 -1.0041850 0.3253031 16711746
-0.1073230 -0.5760526 0.2233440 16711746
-0.2415903 -0.3138569 -0.0366389 16711746
-0.5441279 -0.6544887 -0.1668330 16711746
-0.7813559 -0.7148618 -0.2117580 16711746
-0.8009295 -0.7470316 -0.2375609 16711746
-0.0788517 -1.3945609 0.2092867 16711746
-0.6030858 -1.3074931 0.2466589 16711746
-0.3422951 -1.3084084 0.3294315 16711746
-0.3757140 -1.2125926 0.2908245 16711746
-0.6189246 -1.1818782 0.0910705 16711746
-0.3173620 -0.5906652 0.0579442 16711746
-0.3881555 -1.1826845 0.3330471 16711746
-0.5875599 -1.4153552 0.4080488 16711746
-0.4177943 -0.9527177 0.2805609 16711746
-0.1496213 -0.3527080 0.0451727 16711746
-0.3290599 -0.6775474 0.0198569 16711746
-0.3246828 -1.3194866 0.0650317 16711746
-0.6174321 -1.2195263 -0.0272308 16711746
-0.3582361 -1.2930042 0.5379333 16711746
-0.5986664 -1.3107749 0.5974193 16711746
-0.6166629 -1.2395834 0.5456062 16711746
-0.0614797 -1.4784269 0.2733366 16711746
-0.8536122 -0.6132526 -0.2829490 16711746
-0.6443010 -1.0501071 0.3203989 16711746
-0.6657901 -0.9760553 0.3718241 16711746
-0.1559977 -1.2015600 0.2791737 16711746
-0.6984750 -0.5449197 -0.1276270 16711746
-0.9275766 -1.1788019 0.0144803 16711746
-0.0673200 -0.3188690 0.0983265 16711746
-0.6594152 -1.1225194 0.0871381 16711746
-0.6595769 -0.8547926 0.2314489 16711746
-0.6574165 -0.8380816 0.2107588 16711746
0.8629513 0.8447894 -0.8155763 16711746
0.5010242 0.5865003 -0.6145093 16711746
0.5057435 0.7561542 -0.7494025 16711746
0.4906163 0.5466745 -0.6161427 16711746
-0.3764617 -0.1858193 -0.0296671 16711746
-0.1838586 -1.1049829 0.2756562 16711746
-0.0573486 -0.2403845 0.1264551 16711746
-0.3333064 -1.2858002 0.0784447 16711746
-0.1348189 -1.3004478 0.3412575 16711746
-0.6681967 -0.9493405 0.1003835 16711746
-0.6683688 -0.9192702 0.0930453 16711746
-0.0832425 -1.3190180 0.2735015 16711746
-0.2274291 -0.3220692 0.0661066 16711746
-0.2709623 -0.3569786 0.0585618 16711746
-0.5666429 -1.5103636 0.1760626 16711746
-0.5773138 -1.4530410 0.1489430 16711746
-0.1633574 -0.5202724 0.1132396 16711746
-0.1755484 -0.6293080 0.1176647 16711746
-0.1771175 -0.5692133 0.1065926 16711746
-0.5786271 -0.6678409 0.1862820 16711746
-0.7886544 -0.4021108 0.2249154 16711746
-0.2976005 -0.1572607 0.1101252 16711746
-0.5931777 -1.3697159 0.4603983 16711746
-0.4991722 -0.2633914 -0.0713635 16711746
-0.5852769 -0.7723450 0.0679565 16711746
-0.3678085 -0.9785368 0.0838415 16711746
-0.6694592 -1.0328668 0.8374008 16711746
-0.6283060 -1.1401626 0.8591833 16711746
0.6933352 0.7209432 -0.6010090 16711746
-0.9865389 -0.8305222 0.6595767 16711746
-0.7023450 -0.8411150 0.6351203 16711746
0.3455766 0.7977398 -0.6878696 16711746
-1.0220135 -0.7126515 0.4545198 16711746
-0.9493223 -0.6944571 0.3804856 16711746
-0.9258493 -0.5743326 0.4423329 16711746
0.7158270 0.4671257 -0.5143758 16711746
0.6533609 0.4474582 -0.5072699 16711746
0.7126835 0.4841089 -0.5069516 16711746
0.9399373 0.4414074 -0.6232645 16711746
-0.7156680 -0.8603782 0.7018877 16711746
0.0733684 -1.0958674 0.1039402 16711746
-0.5953916 -0.8075392 -0.1859878 16711746
-0.3304308 -1.2084483 -0.0480116 16711746
-0.3661057 -1.1453226 0.1914923 16711746
-0.3802662 -0.7279207 0.1365062 16711746
-0.6347402 -1.2234652 0.1764501 16711746
-0.6051843 -1.0695059 0.1504578 16711746
-0.7031057 -0.7651959 0.5018893 16711746
-0.6512043 -1.1016146 0.5347367 16711746
-0.6651921 -1.0422993 0.5217701 16711746
-0.6886234 -0.7544599 0.2835412 16711746
-0.1661500 -1.2181108 0.3551814 16711746
-0.1639828 -0.1527425 0.1028878 16711746
0.1270655 -0.9169425 0.2222813 16711746
-0.2675061 -0.7824041 0.3320169 16711746
-0.1068353 -1.2915771 0.5216473 16711746
-0.3429707 -1.2580229 0.2011099 16711746
-0.0558531 -0.2357806 0.1248915 16711746
-0.0483989 -0.2171005 0.1195646 16711746
-0.3651398 -0.8947284 0.0555425 16711746
-0.3597448 -0.9841570 0.0223814 16711746
-0.9959165 -0.8184083 0.1588848 16711746
-0.5590156 -0.5139404 0.1618091 16711746
-0.9746762 -0.7453127 0.1918333 16711746
-0.6171859 -1.2599063 0.3768352 16711746
-0.5736423 -1.4741403 0.1280790 16711746
-0.4230515 -0.9575111 0.3036712 16711746
0.0936560 -1.1034902 0.0662198 16711746
-0.6048566 -1.3728770 0.2075130 16711746
-1.0170015 -0.7294820 0.4743147 16711746
-0.9234722 -0.5827407 0.4126315 16711746
-1.0864186 -0.8689951 0.2636610 16711746
-0.8584365 -0.4881270 0.2393893 16711746
-0.4386612 -0.9454978 0.4098139 16711746
-0.4973805 -0.5585815 -0.1178974 16711746
-0.0909896 -0.7777933 0.2610393 16711746
-0.1201229 -0.2207074 0.1107803 16711746
-0.0851089 -1.2824916 0.2285858 16711746
-0.3096080 -0.1198261 0.1258873 16711746
-0.6529472 -1.0786108 0.2135870 16711746
-0.5722094 -1.4782820 0.2346326 16711746
-0.6456022 -0.8136677 0.3109300 16711746
-0.2259200 -0.2612978 0.1546827 16711746
-0.6902515 -0.8064857 0.3941796 16711746
1.7082784 0.3765085 -0.6419387 16711746
-0.1410793 -1.1252576 0.5001728 16711746
-0.0576278 -0.2412737 0.1267594 16711746
-0.2837137 -1.4514931 -0.0265482 16711746
-1.0907838 -0.4629876 0.3412711 16711746
-0.2451513 -0.3015436 -0.0482551 16711746
-0.4139632 -0.3800602 -0.0904366 16711746
-1.4071274 -1.1672469 -0.4645276 16711746
-0.8126394 -0.6799936 -0.2469746 16711746
-0.3626899 -1.2622110 0.2791364 16711746
-0.3781087 -1.2481176 0.7156481 16711746
-0.6741268 -1.0239205 0.3052049 16711746
-0.6949016 -0.9254254 0.6399277 16711746
-0.6502882 -1.0846373 0.7601473 16711746
-0.6569234 -1.1046867 0.7345843 16711746
-0.6769819 -0.5704098 0.4268904 16711746
-0.9949858 -0.8134539 0.5672218 16711746
-0.6085190 -1.2847042 0.4850130 16711746
-0.6198438 -1.2626737 0.3003350 16711746
-0.6264023 -1.1315019 0.1927508 16711746
-0.4296082 -0.5140445 0.0807194 16711746
-0.6245874 -0.9230109 0.1538257 16711746
-0.6617085 -0.8782585 0.1400972 16711746
-0.4751781 -0.4941528 -0.1437605 16711746
-0.4444728 -0.4287374 -0.1275997 16711746
-0.7921643 -0.3823788 0.3911232 16711746
-0.9443362 -0.6816152 0.3075790 16711746
-0.6588437 -1.0569998 0.6837963 16711746
-0.6525723 -1.1132400 0.6834065 16711746
-0.6802319 -1.0394781 0.7382412 16711746
-0.3627302 -0.8492236 0.0569434 16711746
0.0984091 -1.0726542 0.0361270 16711746
-0.5244584 -0.6071711 0.0705269 16711746
-0.6658484 -0.9914579 0.3994187 16711746
1.3672873 0.3918169 -0.6565135 16711746
1.2913501 0.4142086 -0.6495334 16711746
-0.0568670 -0.2388354 0.1259238 16711746
-0.9855442 -0.3632547 0.4419741 16711746
0.5080565 0.5819716 -0.6172127 16711746
-0.3456188 -0.7138786 0.0582879 16711746
-0.6193947 -1.1750171 0.0562931 16711746
-0.1949161 -0.9733891 0.2878934 16711746
-0.1839758 -1.0431120 0.2193409 16711746
-0.6487349 -1.2768921 0.1788994 16711746
-0.1791423 -0.6466285 0.1003684 16711746
-0.5761760 -1.4402207 0.4561037 16711746
-0.1090998 -1.3849465 0.3734135 16711746
0.2513447 -1.1819929 0.2382126 16711746
-0.3560529 -1.1981183 0.0818443 16711746
-0.6626870 -0.9177061 0.2619333 16711746
-0.3558302 -1.3537033 0.6825275 16711746
-2.6145101 -64.5783997 19.8985138 16711746
16.7081242 -59.1737442 23.9889832 16711746
-1.2602395 -23.9324474 6.6302652 16711746
0.7542400 -316.4658508 5.1426568 16711746
4.3006792 -129.9955597 100.4580307 16711746
4.0985174 -31.6645718 30.7749844 16711746
-28.4915466 -266.8235474 107.7772446 16711746
107.1835175 -675.6140137 95.3796005 16711746
-19.2332211 -201.4858093 77.3137817 16711746
-0.9471579 -102.5111008 52.8066254 16711746
41.2886009 -291.4794922 52.2310867 16711746
