# .PCD v.7 - Point Cloud Data file format
VERSION .7
FIELDS x y z rgb
SIZE 4 4 4 4
TYPE F F F F
COUNT 1 1 1 1
WIDTH 84
HEIGHT 1
VIEWPOINT 0 0 0 1 0 0 0
POINTS 84
DATA ascii

 1.3731520 -3.5017328 8.2298183 16777215
 0.0280473 -0.0723158 0.1683912 16777215
0.0101507 -0.8270903 0.2413939 16711746
0.0156426 -0.6341890 0.2100807 16711746
1.7493784 -3.5129719 1.2392887 16711746
1.2455786 -3.4202108 1.8801016 16711746
0.0729489 -0.7703741 0.2801289 16711746
-0.0949167 -0.5784135 0.3440647 16711746
0.2920209 -0.8399003 0.6072152 16711746
1.7778404 -4.0187273 1.3305076 16711746
0.5335596 -1.6711837 0.4872919 16711746
1.2871128 -4.6579857 1.9569201 16711746
0.3124683 -0.9634140 0.2740838 16711746
0.1843804 -0.6528028 0.2271089 16711746
1.6426197 -3.7981565 1.3970484 16711746
0.4712020 -3.0724356 1.3371993 16711746
-0.2003228 -0.5976729 0.3860381 16711746
0.5132987 -1.9671097 0.8120019 16711746
-1.5457928 3.4737518 -2.2550836 16711746
-0.2004265 -0.5979134 0.3861369 16711746
2.8317273 -4.5919056 1.0921079 16711746
1.1341602 -1.7494630 0.8302389 16711746
0.2278894 -0.7728357 0.3523965 16711746
0.0230339 -0.7543384 0.2753551 16711746
0.0714918 -0.5655340 0.2077828 16711746
1.1860040 -2.7481384 1.5987991 16711746
-0.0184599 -0.6949898 0.1896628 16711746
-0.0870900 -1.1679339 0.1828622 16711746
0.0209649 -0.9303068 0.2430140 16711746
0.7317916 -2.2505236 0.5600091 16711746
1.4373724 -2.3375897 0.9672387 16711746
1.5482202 -2.5999298 1.0263656 16711746
1.7026066 -3.1612933 1.1581529 16711746
-0.1235519 -0.7201155 0.1866275 16711746
-0.2005464 -0.5981852 0.3862499 16711746
-0.1482595 -3.2159877 0.6835260 16711746
0.0106154 -2.3910983 0.6092839 16711746
1.1011037 -2.2321939 0.7324697 16711746
-0.0945327 -1.1685088 0.2041446 16711746
0.8990049 -3.6381412 0.5634236 16711746
0.8346673 -4.1587677 0.5954249 16711746
0.0934034 -0.7687405 0.2521899 16711746
0.1108886 -0.9192028 0.4137837 16711746
0.4733027 -3.6657467 1.1874508 16711746
-0.1005450 -0.8166263 0.3498923 16711746
0.2058275 -0.6006508 0.3906914 16711746
0.3866954 -1.0032778 0.4836486 16711746
0.1788808 -2.6542938 1.4264097 16711746
1.0343590 -4.4704714 2.2051835 16711746
1.6844301 -4.1127915 1.4145520 16711746
0.1181031 -1.3138871 0.4623726 16711746
1.1963980 -3.1993296 1.8433386 16711746
0.3188387 -1.0107709 0.2587731 16711746
0.7484776 -3.0623136 0.6985811 16711746
-2.6555185 4.6548576 -2.5421333 16711746
0.4859360 -3.9780169 1.0846692 16711746
0.1644940 -1.1022378 0.3915819 16711746
0.1191157 -1.0175800 0.4882534 16711746
0.2034079 -0.6922457 0.3928442 16711746
0.6017581 -1.4981283 0.5000140 16711746
0.1926350 -0.8408509 0.4042920 16711746
0.4288386 -0.7806228 0.2581131 16711746
-0.2010629 -0.5993582 0.3867375 16711746
1.0082351 -1.6864021 0.9051288 16711746
2.7907016 -3.8081100 1.7791623 16711746
0.3981336 -0.9790671 0.5508546 16711746
0.4611364 -1.7606412 0.8648434 16711746
0.0530030 -0.9137324 0.2065133 16711746
0.0136944 -0.8150578 0.2462588 16711746
0.6849874 -2.8550174 0.7567258 16711746
0.4475491 -1.3324661 0.6147459 16711746
0.4537388 -0.8449726 0.2967055 16711746
0.8620147 -1.5491214 0.3844406 16711746
4.6696067 -107.7901001 74.7886810 16711746
96.8407898 -6.8045926 107.1152802 16711746
-23.5081959 -288.1187134 60.3845253 16711746
-47.4047661 -310.0341797 99.7519531 16711746
-35.3846855 -361.5680237 69.4255524 16711746
-51.0428009 -340.6845398 91.7410278 16711746
-124.1331024 -237.4112701 76.7766800 16711746
-216.0110626 -484.5473022 140.9927673 16711746
-65.0775833 -280.8743286 34.4916229 16711746
-231.4152985 -323.5076294 60.3367462 16711746
51.2274132 -115.7138977 114.8373413 16711746
