# .PCD v.7 - Point Cloud Data file format
VERSION .7
FIELDS x y z rgb
SIZE 4 4 4 4
TYPE F F F F
COUNT 1 1 1 1
WIDTH 147
HEIGHT 1
VIEWPOINT 0 0 0 1 0 0 0
POINTS 147
DATA ascii

-0.1605212 1.5656527 -0.6212248 16711746
-0.0571136 -1.3827182 0.4796736 16711746
-0.5382562 1.6876329 -0.7805352 16711746
-0.4858402 1.6572696 -0.7554790 16711746
-0.8727093 1.9477605 -0.8983082 16711746
-0.7644905 1.6797349 -1.0550255 16711746
-0.2853309 1.1566914 -0.8706713 16711746
-0.9684222 -0.4333391 0.1318957 16711746
-0.6487756 -0.3001744 0.0741978 16711746
0.6240612 1.4188133 -0.6897701 16711746
-0.9636306 -0.4057770 0.3250866 16711746
0.6895306 1.1432464 -0.8401152 16711746
0.7166101 1.1066316 -0.9547195 16711746
1.1408579 1.0008285 -0.9094160 16711746
1.2426215 1.0578942 -0.8766977 16711746
-0.6265385 -1.0453992 0.1145801 16711746
-0.4983086 -0.8694851 0.0326035 16711746
-0.0434285 1.5179020 -0.6342069 16711746
-0.0872736 -1.2801288 -0.0304518 16711746
-0.4248532 -1.2066194 0.0123421 16711746
-1.2072382 -0.7224609 0.1660913 16711746
1.0238577 1.0880609 -0.8092650 16711746
0.1286668 -1.4625424 0.5219798 16711746
-0.5874164 -0.9988726 -0.1023947 16711746
-1.2661421 -0.6522640 0.1956769 16711746
1.1657116 1.1505631 -0.7979150 16711746
1.0539647 1.1309047 -0.7428373 16711746
-0.6354902 -0.9498349 -0.2324155 16711746
-0.0772016 -1.4101051 0.3804384 16711746
-0.3874668 -1.0348380 -0.1576537 16711746
-0.2266301 -1.2343036 0.0789745 16711746
0.2228285 -1.5913076 0.2723008 16711746
0.0076006 1.2258523 -0.7443318 16711746
0.0134630 1.2863171 -0.7214019 16711746
-0.2577921 1.3537009 -0.8806663 16711746
0.0032106 1.2870207 -0.8354141 16711746
-0.1256860 1.2650312 -0.8913136 16711746
-0.5677685 1.8064210 -0.6296656 16711746
-0.6424553 -0.7975403 -0.0287570 16711746
-0.6588274 -1.2062346 -0.1419300 16711746
-1.6619135 -0.7451895 0.0598435 16711746
-0.1679106 -1.3033148 0.5112854 16711746
-0.0866902 -1.2830515 -0.0932842 16711746
-0.1120352 -1.2726241 0.0003713 16711746
-0.0541818 -1.2890500 -0.1154393 16711746
-0.0372210 -1.3065969 0.3536480 16711746
0.0090316 -1.4355320 0.3589891 16711746
0.1977665 -1.4886724 0.4512798 16711746
-0.1122586 -1.2608894 -0.0329085 16711746
-0.0500368 -1.2623700 0.0857400 16711746
-0.5585997 -0.9804258 0.0972691 16711746
-0.5115716 -0.8730803 0.0684292 16711746
-0.3195964 1.6422596 -0.6057550 16711746
-0.2558917 1.1932908 -0.8245229 16711746
0.3049174 1.5108654 -0.8268049 16711746
0.1059193 1.1663288 -0.8043122 16711746
-0.3689485 1.1608063 -1.0930190 16711746
-0.9950811 1.7887545 -1.1839508 16711746
-0.6914461 -0.9885340 0.1901229 16711746
-0.4976378 -1.1277529 0.4824595 16711746
-0.5039474 -1.1773965 0.4804638 16711746
-0.4556384 -1.1605219 0.4694719 16711746
-0.4376451 -0.4024230 0.0381948 16711746
0.2190986 -1.5640353 0.4122833 16711746
0.0794568 -1.5228505 0.1025178 16711746
0.4859788 -1.6315835 0.3842052 16711746
-0.5302016 1.8304940 -0.5142288 16711746
-0.4263752 -0.9739499 -0.0192162 16711746
-0.4825687 -0.9679679 -0.0466060 16711746
-0.3927736 -1.0340071 -0.2339930 16711746
0.0314990 -1.4518169 0.3319763 16711746
-0.4559775 -1.0607049 0.0855202 16711746
-0.5893034 -1.3638963 0.0780564 16711746
-0.0968859 -1.2837423 -0.1382046 16711746
-0.4268958 1.6096890 -0.9368314 16711746
-0.4711638 1.3675650 -0.7048132 16711746
-0.9057499 1.7811886 -1.1096638 16711746
-0.4732468 1.7819074 -0.5302669 16711746
-0.6264613 1.7839214 -0.7612372 16711746
-0.3169758 -0.9529931 -0.2228181 16711746
-1.0408742 -0.8275838 0.1021833 16711746
-0.4953897 -1.0876305 0.1515369 16711746
-0.4462796 -1.2607822 0.3114297 16711746
-0.6918315 -0.9999944 0.1602360 16711746
-0.7041847 -1.0112679 0.1149010 16711746
-0.4713420 -0.9757083 0.0298304 16711746
-0.4849020 -0.8825220 0.0647307 16711746
-0.9835939 -0.9075606 0.4081675 16711746
-0.7390832 -1.0159547 0.4570877 16711746
-0.5348721 -1.1927714 0.3529205 16711746
-0.5282913 -0.9881105 0.3619600 16711746
-0.7512968 -1.0545870 0.2545942 16711746
-0.6674040 -0.7987439 0.2881357 16711746
-0.3997992 -1.1529033 0.0736818 16711746
-0.9220039 -1.1154374 -0.0257300 16711746
-0.4899212 -1.0590878 0.2338795 16711746
-0.4687913 -0.9552693 0.2031577 16711746
0.2727951 -1.5450771 0.3360951 16711746
-0.4782166 -1.0785416 0.1969502 16711746
-0.5359876 -1.1263739 0.1862568 16711746
-0.5651731 -0.8535730 0.0712506 16711746
-0.4285774 -0.9711356 0.3682000 16711746
1.3190132 1.1382033 -0.7431073 16711746
1.1564492 1.1345593 -0.6881115 16711746
0.2977364 -1.4950626 0.2659855 16711746
-0.6639746 -0.9836864 0.2317052 16711746
-0.8258356 -1.3039571 0.2697059 16711746
0.3120741 1.5165867 -0.6213741 16711746
-0.1646272 -1.3946137 0.3007066 16711746
0.1062342 -1.4374981 0.4334368 16711746
-0.1485282 -1.2336479 0.3077086 16711746
-0.1728476 -1.3890334 0.3146365 16711746
-0.5111062 -1.2129579 0.3391593 16711746
0.3845455 -1.5199844 0.1488443 16711746
-0.5124188 -0.8299371 -0.1315759 16711746
0.0171084 1.5030438 -0.6504245 16711746
0.0154001 1.3844199 -0.7509340 16711746
-0.2820013 1.4985055 -0.7563397 16711746
0.3368787 1.4999888 -0.6332420 16711746
-0.2777362 1.5504421 -0.6949031 16711746
-0.2537975 1.4220531 -0.5870110 16711746
0.2122539 -1.5147194 0.3624438 16711746
-0.6145796 -0.9841786 0.2809716 16711746
1.0441331 1.1252931 -0.9269684 16711746
1.0716956 1.0581561 -0.8301326 16711746
1.4752835 0.9523434 -1.0605146 16711746
1.2854192 0.9345067 -0.9402255 16711746
1.1929806 1.2263150 -0.6956259 16711746
0.0747889 -1.3438326 0.0676325 16711746
-0.0067695 1.1298800 -0.8615834 16711746
-0.1584841 1.0940163 -0.9172637 16711746
-0.1796196 1.5421051 -1.2031230 16711746
0.3015229 1.1277171 -0.8648924 16711746
0.1445260 1.0978756 -0.8499774 16711746
-0.5907290 -1.3884676 0.0234159 16711746
-0.3974532 -0.9794265 0.0001070 16711746
-0.5266763 -1.1954379 -0.0167390 16711746
-0.5198473 -0.9968922 0.1385301 16711746
0.3592160 1.4466376 -0.5698299 16711746
0.1475601 1.5011806 -0.6344070 16711746
-0.0427355 -1.4133558 0.4206902 16711746
0.2752504 -1.5614001 0.5024737 16711746
0.0258190 1.5845284 -0.5814586 16711746
-0.0419142 -1.2930566 0.1275677 16711746
-0.0876085 -1.2745552 0.0958422 16711746
-0.4588156 -1.0185834 0.3734658 16711746
-0.5519664 -0.8301453 -0.0613328 16711746
