# .PCD v.7 - Point Cloud Data file format
VERSION .7
FIELDS x y z rgb
SIZE 4 4 4 4
TYPE F F F F
COUNT 1 1 1 1
WIDTH 110
HEIGHT 1
VIEWPOINT 0 0 0 1 0 0 0
POINTS 110
DATA ascii

0.1357296 -1.1736993 0.1691021 16711746
-0.1341438 -1.1281960 0.1740863 16711746
0.3007155 -0.9770474 0.3417788 16711746
-0.4671205 -1.2899133 0.2967567 16711746
-0.3736883 -1.0192376 0.2520112 16711746
-0.8370479 -1.4553201 -0.1415357 16711746
0.1576173 -1.1602300 0.2627428 16711746
0.0381976 -1.1130053 0.2034296 16711746
-0.1323330 -1.0157101 0.3892779 16711746
-0.1184287 -0.9671736 0.3563697 16711746
0.1541355 -1.0764503 0.2594889 16711746
0.1640398 -1.2004359 0.5555702 16711746
0.1196388 -1.0865214 0.4852895 16711746
-0.1287839 -0.9356268 0.2854825 16711746
-0.0676057 -0.8710473 0.2048411 16711746
-0.1727278 0.4397551 -0.1455313 16711746
0.0147099 0.2097351 -0.0557610 16711746
0.3651902 -0.8389148 0.3059482 16711746
0.0011418 -1.2675152 -0.0670812 16711746
0.0431145 -1.1864432 0.4999479 16711746
-0.6461596 -1.4562484 0.1054987 16711746
-0.0979583 0.6844755 -0.2837876 16711746
-0.5027434 -1.2459178 0.2761916 16711746
-0.9704286 -1.3974928 -0.0534312 16711746
0.0898924 -0.9886965 0.2401513 16711746
-0.0004759 -1.1769902 0.4032956 16711746
-0.0432104 -1.0261655 0.3029429 16711746
0.0432143 -1.1681399 0.4601588 16711746
-0.0529647 -1.0729666 0.4123554 16711746
0.0880409 -1.0591934 0.1901210 16711746
-0.0167604 -0.8797966 0.1985482 16711746
0.0128303 -0.0226666 0.0487902 16711746
0.2615244 -1.1746973 0.5087370 16711746
-0.1081887 -1.0052693 0.2936430 16711746
0.1663387 1.1753297 -1.1329283 16711746
-0.0497497 1.1778691 -1.2060908 16711746
0.0540172 0.9531158 -1.0246081 16711746
-0.0142599 0.9689415 -1.0237437 16711746
-0.0544689 0.9996374 -0.7047336 16711746
0.0077084 -1.1177649 0.3644209 16711746
-0.4156400 -1.2607459 0.2500742 16711746
-0.5687596 -1.4956845 0.2755429 16711746
-0.1404556 0.3967975 -0.1088171 16711746
0.0140197 -1.2597699 -0.0109405 16711746
0.0269672 -1.1072127 0.1675628 16711746
0.1712124 -0.8746138 0.1783196 16711746
0.1644970 -1.0071163 0.1868764 16711746
-0.6284724 -1.3277688 0.2790840 16711746
-0.1958904 0.4339696 -0.1557864 16711746
-0.3999257 -1.5089179 -0.1263370 16711746
-0.0073967 -0.9898728 0.2172225 16711746
-0.1708376 0.7218546 -0.4026937 16711746
-0.8452271 -1.5052119 -0.0475478 16711746
0.3550432 -0.9172754 0.3451279 16711746
-0.1123160 0.9912374 -0.8999361 16711746
0.2480271 1.2507509 -0.9073657 16711746
0.4894242 1.6685320 -1.3495387 16711746
-0.3890478 0.7605883 -0.8128640 16711746
0.0558027 1.1392053 -0.6155860 16711746
-0.0497454 0.8758518 -0.4872337 16711746
-0.0935216 0.8747871 -0.5751177 16711746
-0.0015679 0.9952716 -0.6514362 16711746
-0.3039008 -1.4085125 0.0729983 16711746
-0.1009869 -1.0883982 0.1220056 16711746
0.1255763 -1.3407674 -0.0573779 16711746
0.0291790 -1.1283317 0.3555173 16711746
0.2161889 -1.2778975 0.4271494 16711746
0.1611487 -1.0988250 0.3746220 16711746
0.1466627 -1.0920501 0.3449734 16711746
-0.0702033 -1.0904555 0.2347417 16711746
0.2057400 -1.1439193 0.4120933 16711746
-0.1365772 0.3444339 -0.0858553 16711746
-0.6560384 -1.2019863 -0.1507613 16711746
-0.7063586 -1.3098803 0.2736139 16711746
-0.1274699 -1.0532173 0.4537831 16711746
-0.5110632 -1.2751818 0.1153494 16711746
-0.2149552 0.8430858 -0.9768975 16711746
-0.4523107 0.6760071 -0.6471363 16711746
-0.1965434 0.8282475 -0.6773686 16711746
-0.2389575 0.7722425 -0.5832406 16711746
-0.0651406 0.9007381 -0.4676340 16711746
-0.0195440 -1.1496135 0.0611646 16711746
0.1065163 -1.1784761 0.3896105 16711746
-0.0481752 -1.0345491 0.3282276 16711746
-0.1564954 0.3905590 -0.1134244 16711746
0.2639446 -1.1466030 0.2609282 16711746
-0.6020717 -1.4267985 -0.0077933 16711746
-0.4142389 -1.4582747 0.0351271 16711746
-0.6717088 -1.5132682 0.1756775 16711746
0.1227676 -1.1921786 0.1841148 16711746
-0.2577237 -1.3157716 0.0204049 16711746
0.0151075 -1.0635976 0.2080006 16711746
-0.0513995 -1.0728711 0.3931266 16711746
-0.0024135 -1.1542250 0.5407071 16711746
0.0746780 -1.1870282 0.5717131 16711746
0.0590426 1.1878458 -0.5795279 16711746
-0.0939233 0.7880485 -0.3916142 16711746
-0.1933689 1.0621172 -0.8075482 16711746
-0.3522231 0.7436321 -0.6891384 16711746
-0.0349255 -1.1524626 0.1014626 16711746
-0.1653691 -1.4165282 0.0368667 16711746
-0.0649124 0.7697477 -0.3050755 16711746
-0.1128348 0.7675052 -0.2982788 16711746
-0.0948932 -0.9781491 0.3455059 16711746
0.2603001 -1.1918943 0.4710098 16711746
0.2440581 -1.1987420 0.3032564 16711746
-0.1325999 0.9115933 -0.5625867 16711746
-0.2879418 0.6883962 -0.4956440 16711746
-0.0908698 0.4134410 -0.1326032 16711746
-0.1612089 0.7205670 -0.3765469 16711746
