# .PCD v.7 - Point Cloud Data file format
VERSION .7
FIELDS x y z rgb
SIZE 4 4 4 4
TYPE F F F F
COUNT 1 1 1 1
WIDTH 60
HEIGHT 1
VIEWPOINT 0 0 0 1 0 0 0
POINTS 60
DATA ascii

 1.3454365 -3.4573720 7.7480383 16777215
 0.0528214 -0.1165434 0.2736158 16777215
-0.3500768 -1.3863344 0.4035625 16711746
-0.1562631 -1.1350650 0.4397610 16711746
0.2786302 -1.2838899 0.4599796 16711746
-0.2491152 -0.3768843 0.1989833 16711746
0.3444264 -1.1288399 0.3772964 16711746
-0.1670292 -0.4226449 0.2181936 16711746
-0.8506132 -1.4784913 0.6781109 16711746
-1.0876210 -7.6576972 2.5681391 16711746
0.5629040 -1.6355720 0.4932181 16711746
-0.3500145 -0.9304555 0.5764524 16711746
0.2604024 -1.9409708 0.6134171 16711746
-0.1731558 -0.3115337 0.1996542 16711746
0.3375263 -1.5494186 0.6553361 16711746
-0.1845429 -0.3456284 0.1898421 16711746
-0.5873218 -1.1522837 0.6565980 16711746
0.5261034 -10.1969852 3.6234496 16711746
-0.2573981 -0.6086509 0.1943473 16711746
-0.1202457 -0.7473713 0.3506861 16711746
-0.3574805 -1.4890454 0.4319104 16711746
-0.3871750 -2.6873198 0.9295860 16711746
-0.2542220 -0.3529346 0.1669338 16711746
0.1773813 -0.9489257 0.3726187 16711746
-0.1763050 -0.4106801 0.1976860 16711746
-0.1109919 -0.3733797 0.2206645 16711746
-0.8848919 -2.1965752 1.1422400 16711746
0.9127088 -2.6976790 0.8908175 16711746
0.1336221 -1.0156316 0.3569601 16711746
6.1676297 -12.6674700 2.7611356 16711746
-0.1462102 -3.2580712 1.0296520 16711746
-0.1484762 -2.7403424 0.9665421 16711746
-0.2991564 -1.0085932 0.3948030 16711746
1.7008237 -4.5480576 1.4186326 16711746
0.1966895 -1.0816491 0.4870712 16711746
-0.1328474 -1.3048112 0.4104136 16711746
0.0335785 -0.9850382 0.3073834 16711746
0.2138009 -1.0253803 0.3507621 16711746
-0.3487678 -0.8611144 0.3912891 16711746
0.0746037 -1.2803202 0.3508474 16711746
0.1362356 -1.1980238 0.3452626 16711746
0.3655864 -1.5587864 0.3967047 16711746
0.1444118 -1.0649816 0.3279811 16711746
-0.9583972 -1.7322408 0.7976917 16711746
1.2849731 -3.2229555 1.2617471 16711746
0.0214657 -0.8175563 0.2876447 16711746
-0.0987686 -1.0742307 0.3021379 16711746
-0.2287084 -0.3816744 0.2146334 16711746
-0.2046122 -1.2363018 0.6377062 16711746
0.5196468 -1.5454108 0.4167592 16711746
-0.1651207 -0.9766698 0.3424293 16711746
0.4697865 -4.4852037 1.8712430 16711746
-0.1061426 -0.8763839 0.3018520 16711746
-0.8131526 -1.7432022 0.6174459 16711746
-52.6737633 -56.9599113 -3.5514266 16711746
22.0658913 -36.1482010 26.5221481 16711746
-27.0954857 -107.3431396 123.6748276 16711746
-7.0364985 -81.7638702 80.0240860 16711746
7.8405042 -69.3292618 89.3933640 16711746
-1.2911326 -41.7149315 38.8784256 16711746
