# .PCD v.7 - Point Cloud Data file format
VERSION .7
FIELDS x y z rgb
SIZE 4 4 4 4
TYPE F F F F
COUNT 1 1 1 1
WIDTH 106
HEIGHT 1
VIEWPOINT 0 0 0 1 0 0 0
POINTS 106
DATA ascii

0.5421611 -2.1583037 0.7016839 16711746
-0.2330547 -0.8692251 0.0659281 16711746
-0.5148532 -0.4568434 0.2287238 16711746
-0.3698583 -0.4176541 0.1302659 16711746
-0.2849343 -0.6170363 0.0362904 16711746
-0.2670906 -0.6280149 0.0601246 16711746
0.2349868 -1.9966542 0.4369264 16711746
-0.3067419 -0.9206555 0.7148038 16711746
-0.1162476 -1.3636460 0.3227802 16711746
-0.2246643 -1.0980027 0.3896967 16711746
-0.2317554 -0.5595505 0.0535859 16711746
-0.1845953 -0.9417048 0.5907165 16711746
-0.5826341 -0.2726508 0.3059099 16711746
-0.5787857 -0.4053895 0.2478055 16711746
0.2078077 -2.2103834 0.1348097 16711746
0.3833564 -1.7687237 0.1947845 16711746
-0.0828237 -1.0925294 0.0806281 16711746
-0.1683034 -0.7300256 0.1330781 16711746
-0.1799511 -1.1034616 0.2562514 16711746
0.1645202 -1.2307760 0.3775800 16711746
-0.3300327 -0.7961298 0.1055852 16711746
-0.0677418 -1.7235748 0.6485882 16711746
-0.1269935 -1.4968482 0.4625065 16711746
-0.2133358 -1.1495535 0.4349086 16711746
1.5416826 -4.3114481 2.0641158 16711746
-0.1370085 -1.1070833 0.6342682 16711746
-0.1969500 -1.2834811 0.7182175 16711746
-0.0790432 -1.6798273 0.4604582 16711746
-0.1550147 -1.5154818 0.7173483 16711746
-0.5335162 -0.8067948 0.2869908 16711746
5.5578938 -8.6761122 3.8007205 16711746
-0.0893843 -1.2678651 0.1883202 16711746
-0.4465504 -0.6074556 0.1490102 16711746
-0.1898486 -0.9135277 0.4151416 16711746
-0.2028054 -0.8746980 0.3827966 16711746
0.2240339 -1.4655212 0.2046407 16711746
-0.4758561 -0.5583227 0.0801167 16711746
-0.4442260 -0.5406074 0.0788236 16711746
0.3345902 -1.6940925 0.2547251 16711746
-0.1679102 -1.4058567 0.1967208 16711746
-0.2991232 -0.7267922 0.2461926 16711746
2.3573561 -4.4949646 1.5883262 16711746
-0.1027497 -1.0199862 0.6083952 16711746
-0.0540538 -1.0431460 0.2814741 16711746
-0.1574560 -1.3668234 0.4044844 16711746
-0.1772841 -1.2973460 0.4930679 16711746
0.5155187 -2.4764163 0.8702213 16711746
-0.1835616 -1.0749365 0.2336401 16711746
-0.2995432 -0.7557508 0.2974116 16711746
-0.4215737 -0.9925244 0.3436358 16711746
0.3488799 -1.9553729 0.6196423 16711746
0.2624196 -1.6522725 0.5208892 16711746
-0.2105356 -1.1274703 0.2696982 16711746
0.5461513 -2.3379128 0.8153206 16711746
0.3551292 -1.6202254 0.5786728 16711746
-0.3798416 -0.7771488 0.2656829 16711746
-0.1961580 -0.7131638 0.1999264 16711746
-0.1727265 -0.6786929 0.1042459 16711746
-0.2016027 -0.7495131 0.0880762 16711746
-0.5911945 -0.3955259 0.2565973 16711746
-0.4832453 -0.4925923 0.3153838 16711746
-0.4875505 -0.6580064 0.4377109 16711746
-0.4612966 -0.5812988 0.5777359 16711746
-0.0299160 -1.2504461 0.2402450 16711746
0.0226671 -1.4313740 0.3580267 16711746
0.0042821 -1.3764726 0.3300451 16711746
1.1586620 -3.3638160 0.7528566 16711746
-0.0164978 -2.9461105 1.2280349 16711746
-0.1686686 -1.3193475 0.5657439 16711746
-0.1413737 -1.5120906 0.1779640 16711746
-0.4570127 -0.5441083 0.1129580 16711746
-0.4151402 -0.5467197 0.0803755 16711746
0.4088234 -1.5406184 0.2211905 16711746
-0.3956704 -0.8869453 0.2825741 16711746
-0.1349178 -1.9229562 0.4467859 16711746
-0.3998435 -0.6977931 0.2122144 16711746
-0.5909337 -0.3711429 0.2755705 16711746
0.3737424 -1.4736661 0.1823344 16711746
-0.1482351 -0.6550699 0.1447688 16711746
0.2909510 -2.1333530 0.5853930 16711746
0.3636564 -1.5317336 0.2286600 16711746
-0.4074344 -0.8287780 0.4353753 16711746
-0.0763252 -0.9906524 0.1404126 16711746
-0.1913593 -0.9117838 0.3853894 16711746
-0.4249730 -0.5594434 0.1511173 16711746
-0.4331789 -0.6785198 0.2529414 16711746
-0.2944951 -0.6733786 0.1307342 16711746
0.0735729 -1.2693622 0.4327947 16711746
-0.2052463 -1.3606325 0.1805316 16711746
-0.3091007 -0.8222073 0.0618136 16711746
-0.3108653 -0.7604631 0.0553873 16711746
-0.3034366 -0.8562769 0.6273207 16711746
-0.2887607 -0.6555240 0.1104581 16711746
0.4869003 -2.3682935 0.9546841 16711746
-0.4110925 -0.8151116 0.2026726 16711746
-0.4342123 -0.8053339 0.3203825 16711746
-0.3917743 -0.7644941 0.3894208 16711746
-0.4387822 -0.4957609 0.2172318 16711746
-5.0498505 -13.8086061 8.2149887 16711746
-15.9403677 -36.6413040 21.6765156 16711746
-0.3699249 -237.6478882 53.4615555 16711746
-156.1839142 -641.4011230 187.5855103 16711746
-36.1590614 -257.8131714 84.6585159 16711746
-23.2362938 -201.8396454 119.4145355 16711746
-71.3120804 -164.2139282 57.5077972 16711746
-4.6212230 -140.1266174 114.4904327 16711746
