# .PCD v.7 - Point Cloud Data file format
VERSION .7
FIELDS x y z rgb
SIZE 4 4 4 4
TYPE F F F F
COUNT 1 1 1 1
WIDTH 108
HEIGHT 1
VIEWPOINT 0 0 0 1 0 0 0
POINTS 108
DATA ascii

-0.7831566 -0.8024565 -0.2556259 16711746
-0.7819387 -0.7603049 -0.2604279 16711746
-0.1232059 -1.1261030 0.0495988 16711746
-0.8330966 -0.8894556 -0.3615283 16711746
0.2530169 -0.9322132 -0.0280980 16711746
-0.7852846 -1.2814324 -0.1175767 16711746
-0.7868977 -1.2340928 -0.1086636 16711746
-0.1290927 -0.6230762 0.0566121 16711746
-0.7947745 -1.0749264 -0.1585803 16711746
-0.4020967 -0.7459778 -0.1224056 16711746
-0.3173435 -1.5132571 -0.2126716 16711746
0.1972148 -0.8341978 0.1119136 16711746
-0.7948871 -1.0660743 -0.1718791 16711746
-1.8397603 -2.0918083 -0.0705565 16711746
-0.4177705 -0.5858593 -0.2094718 16711746
-0.3963555 -0.6025047 -0.2036642 16711746
0.7560953 -2.6895027 -0.1116530 16711746
0.3065183 -0.9747750 -0.0160839 16711746
-0.7929695 -0.9670789 -0.2892118 16711746
-0.4776145 -0.5495827 -0.1619306 16711746
-0.7935117 -0.8981329 -0.1521921 16711746
0.0587620 -1.9879477 0.0993646 16711746
-0.4128260 -0.7209598 -0.1345044 16711746
-0.5511538 -0.4114248 -0.1104693 16711746
-0.7855125 -0.6387789 -0.2317479 16711746
-0.7873619 -0.5936691 -0.2419487 16711746
-0.7823563 -0.7090774 -0.2563659 16711746
-0.7842718 -0.6539746 -0.2590225 16711746
0.0837058 -0.7087919 0.1531399 16711746
-0.4318360 -0.6886370 -0.1225394 16711746
-0.1072472 -1.1227261 0.0890426 16711746
0.0751583 -1.9291068 -0.2501235 16711746
0.3082621 -2.2176015 -0.1771331 16711746
0.0185193 -1.3935736 -0.0315516 16711746
-0.0599158 -1.2436508 0.0137471 16711746
-0.0967260 -1.2004429 -0.0170692 16711746
-1.4697130 -3.2561593 -0.8676572 16711746
0.0750426 -1.5005032 -0.0549342 16711746
-0.7373070 -1.0066640 -0.3323281 16711746
-0.1370273 -0.4548728 0.1039420 16711746
-0.0628987 -1.2620268 -0.0387023 16711746
-0.4854043 -0.6049675 -0.0115380 16711746
-0.4860767 -1.2810580 -0.3327802 16711746
-1.4289882 -3.3536847 -0.9898461 16711746
-0.4703161 -0.5400341 -0.1909356 16711746
-0.1589255 -0.7758020 -0.1121102 16711746
-0.0595710 -0.6908061 -0.0631649 16711746
-0.1611166 -1.1144556 -0.0503920 16711746
0.2943581 -0.9667135 -0.0412846 16711746
-0.7929215 -1.0753188 -0.2370396 16711746
-0.7905909 -1.0157355 -0.2542098 16711746
-0.4511135 -0.6327562 -0.1447437 16711746
-0.7872275 -1.0569630 -0.3028744 16711746
-0.7920784 -1.1121264 -0.2582658 16711746
-0.1156565 -1.1801192 -0.0404707 16711746
-0.6986832 -2.1652989 0.8410401 16711746
-0.4625035 -0.5214500 -0.2301091 16711746
-0.7821395 -0.6325421 -0.3114105 16711746
-0.7782093 -0.6935630 -0.3486729 16711746
-2.8292232 -1.8965937 -1.0078820 16711746
-0.7885187 -0.9539562 -0.0272630 16711746
0.0653413 -0.7269721 0.1166408 16711746
-0.1224721 -0.5467940 0.1680459 16711746
-0.1529031 -1.1361085 -0.0912744 16711746
-0.8408169 -2.2680414 -0.6172786 16711746
-0.7409462 -0.9542295 -0.4078675 16711746
-0.4132715 -0.6919216 -0.1798971 16711746
-0.4286996 -0.6782528 -0.1524481 16711746
-0.7823911 -0.4486650 -0.1064701 16711746
-0.0807064 -1.2482644 -0.0885647 16711746
-0.0181087 -1.3510957 -0.0905590 16711746
-0.4322666 -0.6607314 -0.1653983 16711746
0.0020198 -0.4015244 0.1108514 16711746
-2.5172801 -1.6668683 -0.9450307 16711746
-0.0533848 -0.5886407 -0.0204006 16711746
-0.2131551 -1.0472448 -0.1153840 16711746
0.2798760 -2.2463176 0.0578851 16711746
-0.7948244 -0.9636142 -0.1395282 16711746
-0.2103570 -4.8316741 1.1520904 16711746
-0.1391441 -1.0167998 0.1546390 16711746
-0.7873629 -0.8073903 -0.2057423 16711746
-0.1382976 -0.4788848 0.1550664 16711746
-0.6397622 -1.1104634 -0.3408480 16711746
-0.1350195 -1.0868301 0.0820587 16711746
-0.7772896 -0.8774825 0.0527003 16711746
-0.7901119 -1.0493306 -0.0647126 16711746
-0.7848355 -0.8608710 -0.2585983 16711746
0.6933981 2.1238935 -0.9719984 16711746
-0.7164752 -2.1200066 0.5273880 16711746
-0.7722115 -2.2757599 0.5630694 16711746
1.0468657 1.0146624 -0.7450275 16711746
1.0092186 1.0583506 -0.5798389 16711746
0.0167154 -0.7348587 0.0356624 16711746
-0.1918739 -1.0548116 -0.0078696 16711746
-10.9864779 -23.6349487 2.1324010 16711746
1.6679277 -54.5699997 29.7577915 16711746
4.6365943 -57.3063889 39.4069214 16711746
2.1621218 -31.5975666 19.1856613 16711746
1.2565402 -81.8037643 42.6026688 16711746
7.0266142 -79.6193237 54.3784637 16711746
-16.1142216 -176.3784485 8.6763010 16711746
5.7287855 -81.6265640 52.7197227 16711746
-7.2751474 -207.5854187 39.1035690 16711746
-14.3786650 -123.7358398 14.5628757 16711746
-177.8096466 -100.7550735 34.2082901 16711746
-1.9316474 -217.9602661 24.6450214 16711746
-13.3470993 -140.6645355 2.7502916 16711746
5.7565651 -65.5156097 38.2880325 16711746
