# .PCD v.7 - Point Cloud Data file format
VERSION .7
FIELDS x y z rgb
SIZE 4 4 4 4
TYPE F F F F
COUNT 1 1 1 1
WIDTH 363
HEIGHT 1
VIEWPOINT 0 0 0 1 0 0 0
POINTS 363
DATA ascii

-1.4910651 -0.5148785 0.2912908 16711746
-0.1163696 -1.1390369 -0.0175491 16711746
-0.0768302 -1.1400326 -0.0244872 16711746
-0.1240451 -1.1119710 -0.1316303 16711746
-0.2153338 1.7115382 -0.7691497 16711746
0.4310403 -1.3371662 0.4289018 16711746
0.1751841 -1.2437502 -0.0876156 16711746
0.1890447 -1.2500355 -0.0245115 16711746
-0.2691526 -1.0678312 0.2759940 16711746
-0.1499833 -1.0733923 0.2671573 16711746
1.8205507 0.8246939 -0.5828198 16711746
0.2212523 -1.2606095 -0.0977297 16711746
0.0836849 -1.1648550 0.1921768 16711746
0.0824278 -1.1799953 0.1779560 16711746
-0.7784939 -0.8327291 -0.1468711 16711746
-0.5644579 -0.9273859 -0.1663033 16711746
-0.5773641 -0.9148214 -0.1782587 16711746
0.0628520 1.7083633 -0.7093681 16711746
0.5426531 -1.5009217 0.3521941 16711746
0.4965399 -1.3578202 0.3181877 16711746
0.6852605 -1.4371353 0.1336777 16711746
-0.8288420 -0.8118708 -0.1315784 16711746
-0.7659678 -0.8451971 -0.1129930 16711746
0.3697355 -1.3626109 0.3095220 16711746
0.4371274 -1.3462931 -0.0151230 16711746
0.1604083 -1.1879793 0.3192790 16711746
0.4623686 1.6078196 -0.8053281 16711746
0.4005505 1.6727474 -0.7450472 16711746
0.0209232 -1.2152742 0.4686659 16711746
0.0857287 1.9192066 -0.6421011 16711746
-0.2085229 1.7369481 -0.7172043 16711746
-0.2057389 -0.9703528 0.3270034 16711746
-0.2614422 -0.9619187 0.3101061 16711746
0.3120870 1.8720771 -0.6729066 16711746
-0.4894024 1.6973678 -0.9008336 16711746
-0.6249369 1.9344318 -0.9511852 16711746
-0.4990090 1.4565252 -0.8531790 16711746
-0.2941506 1.7320342 -0.6042842 16711746
-0.3339366 1.9948586 -0.6016448 16711746
0.1591631 1.2742312 -1.0221978 16711746
0.0895672 1.3334104 -1.0163145 16711746
-0.0536386 1.2796010 -1.0349405 16711746
0.1491119 1.2119342 -1.0595225 16711746
0.2330252 1.3299134 -1.1494211 16711746
0.6501564 1.2820692 -0.9604968 16711746
0.3020667 1.2052650 -1.0679924 16711746
0.1815685 1.4850769 -0.8968151 16711746
-1.0550568 -0.7135257 0.0261366 16711746
-0.4599917 -0.9043359 0.2677875 16711746
0.3773215 -1.4933680 0.3897199 16711746
0.3095341 -1.2987612 0.3287660 16711746
-0.2836429 -1.0472151 -0.0517396 16711746
-0.3025306 -1.0477688 -0.0837334 16711746
-0.4900814 -0.9164178 0.2926493 16711746
1.4079986 1.0205977 -0.6833302 16711746
1.2403768 1.2212753 -0.8017442 16711746
0.0546498 -1.1956306 0.0234211 16711746
0.2492120 -1.2726548 0.0419786 16711746
0.0832917 -1.1934464 0.0804695 16711746
-0.1520650 -1.0992461 0.0117184 16711746
-0.1956502 -1.0864269 -0.0424877 16711746
-0.0052702 -1.1663865 0.0512180 16711746
-0.2481761 -1.0578957 0.0378571 16711746
-0.0191204 -1.1420857 0.0980386 16711746
-0.0941416 -1.1175066 0.0897328 16711746
0.2608106 -1.2815233 -0.1177312 16711746
0.4011645 -1.3350546 -0.0819689 16711746
-0.1378261 -1.1218259 -0.0472082 16711746
-0.1261335 -1.1158649 -0.0656130 16711746
0.2968461 -1.3179870 0.1377184 16711746
-0.2414136 -1.0042264 0.2454087 16711746
-0.2597955 -1.0005308 0.2363540 16711746
-0.1475693 -1.0956438 0.0772121 16711746
-0.1570947 -1.0972005 -0.1022218 16711746
-0.2455053 -1.0722058 -0.1045092 16711746
-0.5008237 -0.9462466 0.1899158 16711746
-0.5345044 -0.9239249 0.1508043 16711746
-0.1210561 -1.1203272 -0.1391603 16711746
0.1143478 -1.2161419 -0.0044652 16711746
0.6894289 -1.4623054 0.1605247 16711746
-0.0756515 -1.0835618 0.3305973 16711746
0.4273309 -1.3491371 0.4090217 16711746
0.3687578 -1.3150419 0.3831062 16711746
0.4354316 -1.3669217 0.3951292 16711746
0.3213557 -1.1988704 0.4031768 16711746
0.2659626 -1.2198900 0.3940343 16711746
-0.1925688 1.5859437 -0.7461652 16711746
0.1967744 1.5619631 -0.7621043 16711746
-0.0616508 1.5619098 -0.8496495 16711746
0.6552417 1.7316037 -0.6681182 16711746
0.0016341 -0.0868463 0.0770261 16711746
0.4111244 1.6918956 -0.6509548 16711746
0.3026514 1.7901797 -0.6940910 16711746
0.5105207 1.5858479 -0.7715548 16711746
0.3694467 1.6349602 -0.7790364 16711746
-0.2449070 -1.0300540 0.2010925 16711746
-0.6393311 -0.9045063 -0.0880264 16711746
1.2741163 1.1194422 -0.7732419 16711746
1.2716120 1.1572741 -0.7349803 16711746
-0.9073071 -0.7927136 0.1441403 16711746
-0.8935312 -0.7878989 0.1105644 16711746
-1.2424589 -0.6056036 -0.0593074 16711746
-1.2456565 -0.6191938 -0.0792432 16711746
-1.4315536 -0.5632185 0.0001237 16711746
-0.8598834 -0.7963027 -0.0654389 16711746
-1.1188078 -0.6626066 -0.0758516 16711746
-0.3043629 -0.9853868 0.2290480 16711746
-0.4424546 -0.9369755 0.2408089 16711746
-0.3322430 -0.9805605 0.2708311 16711746
-0.7462151 -0.8416892 0.1892127 16711746
-0.5917762 -0.8839813 0.2241753 16711746
-0.0435436 -1.0308059 0.3599786 16711746
0.1561378 -1.1158552 0.3743234 16711746
-0.0593509 -1.1418043 0.2555092 16711746
0.0372493 -1.1344460 0.2688411 16711746
0.2740182 -1.3018627 0.2682647 16711746
-0.1645074 -1.0910727 0.0958884 16711746
-0.0276515 -1.1293584 0.1379401 16711746
0.7645277 -1.4631184 0.3002342 16711746
0.4550710 -1.3275558 0.2573058 16711746
0.5551380 -1.3475983 0.3025065 16711746
0.3833512 -1.2793919 0.2877201 16711746
-0.9085963 -0.7491483 -0.1550939 16711746
-0.3281038 -1.0283337 -0.0907927 16711746
0.7247354 -1.4599181 -0.0104787 16711746
0.4795449 -1.3199565 0.2496431 16711746
0.4303162 -1.3207135 0.2412049 16711746
-0.7246801 -0.8714184 -0.0385218 16711746
-0.4138432 -0.9929345 0.0070330 16711746
-0.4349810 -0.9838455 -0.0064128 16711746
0.0720010 1.7708598 -0.6447951 16711746
0.4032557 -1.4665954 0.1598959 16711746
-0.2204560 -1.0725743 0.0157299 16711746
-0.2386723 -1.0656198 0.0063004 16711746
-0.6130008 1.9292338 -0.5397751 16711746
-0.4718755 -0.9696100 -0.0540582 16711746
-0.2619829 -1.0579453 -0.0265636 16711746
0.0139418 -1.1246763 0.2122350 16711746
-0.0305298 -1.1811556 0.2234010 16711746
-0.9542845 -0.6981214 0.3732971 16711746
-1.4488970 -0.5273592 0.3147890 16711746
-0.8807009 -0.7856929 0.1612074 16711746
-1.2287046 -0.6434075 0.1943740 16711746
-1.0544351 -0.7120777 0.2122051 16711746
-1.2279794 -0.6439816 0.1794002 16711746
-0.9946336 -0.7555717 0.2199974 16711746
-1.3006637 -0.6031276 0.0521561 16711746
-1.4220935 -0.5219640 0.1489964 16711746
-0.4775186 -0.8476281 0.4264425 16711746
-0.3725348 -0.8656182 0.4065007 16711746
-1.3969315 -0.5703080 0.0358646 16711746
0.4071025 -1.4526291 0.5230737 16711746
0.2663578 -1.2584435 0.1749147 16711746
0.2625431 -1.2519600 0.1455816 16711746
-0.7266364 -0.8691782 -0.0597277 16711746
-0.7681029 -0.8336884 -0.1053567 16711746
0.2394371 -1.2194332 0.3641550 16711746
-0.4947676 -0.9399451 0.1163457 16711746
-0.6525221 -0.8923365 0.0331000 16711746
0.1130698 -1.2256261 0.0033955 16711746
-0.2646633 -1.0356456 0.0989415 16711746
-0.3671447 -1.0179967 0.0987518 16711746
-0.3517278 -1.0084113 0.0838089 16711746
-0.1417668 -1.0919760 0.1220800 16711746
-0.0857622 -1.1206396 0.1065428 16711746
-0.5009561 -0.9164591 0.2105036 16711746
0.1692445 -1.1844605 0.2534103 16711746
0.1301849 -1.1898220 0.2298570 16711746
-0.2113124 -1.0696241 0.0760784 16711746
-0.3687544 0.1175669 -0.9618359 16711746
-0.0366322 -1.0748100 0.3000749 16711746
-0.5272848 -0.9443818 -0.0200821 16711746
-0.5283730 -0.9531898 -0.0461693 16711746
-0.1290280 -1.0916618 0.1466017 16711746
-0.0905417 -1.1107168 0.1466145 16711746
-0.4784988 -0.9234564 0.2211637 16711746
-0.4328161 -0.9612485 0.2210011 16711746
-0.1343462 -1.0630695 0.3021001 16711746
-0.1712131 -1.0315306 0.2793294 16711746
0.0882959 -1.2159613 -0.0301613 16711746
0.1057614 -1.2135435 -0.0517055 16711746
-0.1099658 -1.1198378 -0.1626860 16711746
-0.1860778 -1.0909952 -0.0704041 16711746
-0.0305689 -1.1611508 -0.0545491 16711746
-0.0094966 -1.1619768 -0.0927640 16711746
0.4220372 -1.3591980 0.0651720 16711746
0.5200357 -1.3951645 0.1446505 16711746
0.3818543 -1.3356164 -0.0986773 16711746
0.6728692 -1.4369919 0.0269477 16711746
0.1877919 -1.1881704 0.3152673 16711746
-0.3970855 -0.9795341 0.2057777 16711746
-0.1540132 -0.9439787 0.3943374 16711746
-1.1619588 -0.6309599 0.3486153 16711746
-0.5433459 -0.9359747 0.0426400 16711746
0.5214115 -1.4487010 0.3948209 16711746
1.3110560 1.2222309 -0.6740589 16711746
1.2930400 1.1998311 -0.6103458 16711746
-0.0975687 -1.1705896 0.2385750 16711746
-0.2048174 1.8751680 -0.6203530 16711746
-0.8004838 -0.8206933 -0.1527653 16711746
-0.7219229 -0.8472500 -0.1622513 16711746
-0.6965021 -0.8685482 -0.1602583 16711746
-0.1635292 -1.0414875 0.4107420 16711746
-0.1831626 -0.9569928 0.3638200 16711746
0.0720068 1.5416898 -0.8542991 16711746
-0.0942431 1.6910524 -0.9592659 16711746
-0.0517388 1.5515655 -1.0969440 16711746
0.6940723 1.5453731 -0.7976162 16711746
0.4173345 1.5278804 -0.8688316 16711746
0.2899791 1.5486354 -0.8500345 16711746
0.5422568 1.3777139 -0.9049442 16711746
-0.2641819 -0.9760388 0.2702069 16711746
-0.2414867 1.6622313 -1.1066788 16711746
-0.3777993 1.5076691 -0.9549886 16711746
-0.9228419 -0.7149091 0.4026333 16711746
0.5330837 -1.3708105 0.1260869 16711746
0.3382793 -1.3183588 -0.0532909 16711746
0.2861480 -1.3114909 -0.0447785 16711746
0.0184404 -1.1333777 0.2475366 16711746
-0.0210667 -1.1153721 0.2371934 16711746
-0.5883134 -0.9278759 -0.0606516 16711746
-0.2999420 -1.0361105 0.0843392 16711746
-0.2825354 -1.0381228 0.0591787 16711746
0.1327777 -1.1934676 0.1855543 16711746
-0.4313518 -0.8777879 0.3439135 16711746
0.2968935 -1.3034774 0.1861047 16711746
0.2334291 -1.2685554 0.1738881 16711746
-0.4014100 -0.9907147 0.1041144 16711746
-0.6831143 -0.8805348 0.0035624 16711746
-0.3415337 -1.0149089 0.0606686 16711746
-0.3707626 -1.0107259 0.0609903 16711746
0.3178530 -1.2820160 0.2293569 16711746
1.3871142 0.9970271 -0.7453946 16711746
1.1750481 1.0783085 -0.8483254 16711746
1.2282133 1.1403455 -0.7814921 16711746
1.3441396 0.9668540 -0.8584028 16711746
1.2691046 0.9265234 -0.8730239 16711746
1.1408581 1.0717828 -0.8921866 16711746
1.0236423 1.3602102 -0.7270110 16711746
1.0537882 1.3054638 -0.7995155 16711746
1.0360005 1.3071921 -0.7698699 16711746
1.0662359 1.3081112 -0.7504531 16711746
1.2492827 1.2850679 -0.6458020 16711746
1.2348553 1.2937955 -0.6070259 16711746
-0.4034588 -0.9973111 -0.0141005 16711746
-0.4088007 -0.9954050 -0.0204983 16711746
-0.1382687 -1.0618570 0.2201623 16711746
-0.1336348 -1.1120814 0.2057286 16711746
0.3284456 -1.3111825 0.0110449 16711746
-0.1531094 1.8003874 -0.6687430 16711746
-0.2312009 1.7211454 -0.6091610 16711746
-0.4661002 -0.9749940 0.0336850 16711746
-0.1805167 -1.1017212 -0.1075161 16711746
0.1399851 -0.0872588 -0.0043062 16711746
-0.0593174 -1.0405354 0.3109719 16711746
-0.5562555 -0.9337053 -0.0587666 16711746
-0.5171674 -0.9015126 0.3105985 16711746
-0.7233462 -0.8748201 0.1209023 16711746
-0.7012893 -0.8708476 0.1094014 16711746
-0.4708993 -0.8824944 0.3212764 16711746
0.1039638 -1.2062277 -0.0927724 16711746
-0.4857476 -0.9555550 -0.1902968 16711746
-0.0087850 1.8297889 -0.7898966 16711746
-0.6060419 -0.9203926 -0.0615471 16711746
-0.5306274 -0.9478006 0.0141269 16711746
-0.5430263 -0.9387534 0.0066544 16711746
-0.5652730 -0.9471295 -0.0077851 16711746
-0.0698172 -1.1433519 -0.0591027 16711746
0.3922522 -1.3401620 0.0142988 16711746
0.4166552 -1.3376819 -0.0046068 16711746
-0.4397784 -0.9832936 0.2850889 16711746
0.0780304 -1.1322254 0.3190270 16711746
0.0305423 -1.1407727 0.3147988 16711746
-1.0668380 -0.6378838 0.4429046 16711746
-0.5489618 -0.8182712 0.4549967 16711746
-0.5368264 -0.8353804 0.4308955 16711746
0.8877911 1.5144587 -0.6580240 16711746
-0.6104900 -0.8128097 0.3804959 16711746
-0.5151752 -0.8914527 0.2724672 16711746
-0.3326345 -0.9387994 0.3484561 16711746
-0.3250331 -1.0031340 0.3378883 16711746
-0.5064111 -0.8608345 0.3420563 16711746
-0.4098527 -0.8692039 0.3740465 16711746
-0.3161765 -0.8957022 0.3715059 16711746
-0.5773474 -0.8456554 0.3327150 16711746
-0.1943067 -1.1357225 0.1339209 16711746
-0.2036079 -1.0556027 0.1135833 16711746
-0.1312404 -1.0034031 0.3336786 16711746
-0.0369940 1.8061887 -0.8307297 16711746
-0.4016559 -0.9987101 -0.0845253 16711746
-0.3397665 -1.0195410 0.0134857 16711746
-0.2912459 -1.0333207 0.0175029 16711746
-0.6723539 -0.8734245 -0.1564150 16711746
-0.5843477 -0.9199253 -0.1579467 16711746
-0.7178909 -0.8666133 -0.1161072 16711746
-0.5915212 -0.9257387 -0.0767536 16711746
-0.4287786 -0.9739596 -0.2281853 16711746
-0.5276888 -0.9423984 -0.1740447 16711746
-1.0074662 -0.7332903 -0.0031348 16711746
-0.9308870 -0.7862530 0.0362412 16711746
-1.0755641 -0.6951193 0.0915026 16711746
0.0089569 -0.1031011 0.0977429 16711746
-0.4169934 -0.9829375 -0.1586577 16711746
-0.7350376 -0.8554983 0.0763256 16711746
-0.3817880 -1.0079925 -0.1557822 16711746
-0.6091576 -0.8461094 0.3119948 16711746
1.7410609 0.7507150 -0.6208006 16711746
1.7584463 0.7794114 -0.7301686 16711746
1.8831537 0.8137887 -0.5196776 16711746
1.8408679 0.7172462 -0.5533885 16711746
1.7429949 0.8309537 -0.6554065 16711746
-1.4658855 -0.4831446 0.4198473 16711746
1.0586118 1.2153237 -0.8861985 16711746
0.9390562 1.2455745 -0.8556890 16711746
0.9351391 1.2883505 -0.8705460 16711746
0.8165531 1.1584225 -1.0099510 16711746
1.3592154 1.0241542 -0.8242680 16711746
0.3161508 -1.4246666 -0.0018663 16711746
0.3015034 -1.3011124 -0.0093325 16711746
0.1976948 -1.2493228 0.0431996 16711746
0.2013893 -1.2535664 0.0132663 16711746
-1.1025361 -0.6413352 0.3970557 16711746
-1.1756567 -0.6182866 0.3890370 16711746
-1.1320632 -0.6629033 0.3847555 16711746
-1.2729498 -0.6248148 0.1629439 16711746
0.2120769 -1.2192252 0.2199462 16711746
0.8871191 -1.4950749 0.2182752 16711746
0.9158133 -1.5121640 0.2005903 16711746
1.3756231 1.1597906 -0.7050318 16711746
1.3545613 1.1683669 -0.6584394 16711746
0.3862925 -1.3385590 -0.0013459 16711746
0.6697925 -1.4886676 0.0957114 16711746
-0.6332062 1.9775312 -0.5163557 16711746
0.4768966 -1.4257716 0.3674678 16711746
0.4002482 -1.3664020 0.3487764 16711746
-1.0235546 -0.6860934 0.3794464 16711746
-0.3675670 -0.9779384 0.1545551 16711746
-0.6789317 -0.9019436 -0.0447013 16711746
0.0608367 -1.1075003 0.3406490 16711746
0.3035568 -1.2953006 -0.0852616 16711746
-0.6176756 -0.9071458 0.0245426 16711746
-0.2351563 -1.0677702 -0.0148346 16711746
0.4359683 -1.3498777 -0.0524596 16711746
0.8786473 -1.5179940 0.1324744 16711746
-0.0685751 -1.0294294 0.3430038 16711746
-0.7331212 1.7799667 -0.7065261 16711746
-0.2905615 -1.0268681 0.1040354 16711746
-0.3155197 -1.0264601 0.1044132 16711746
-0.3593274 -1.0150846 -0.1694246 16711746
-0.3921206 -0.9840580 -0.1639082 16711746
-0.6912574 -0.8567317 0.1493559 16711746
0.2035317 -1.3171765 0.3048751 16711746
-0.6774874 -0.8568805 0.1849218 16711746
-0.7272292 -0.8564574 0.0033462 16711746
-0.5781198 -0.9218485 0.0788709 16711746
-0.5691873 -0.9341886 0.0291883 16711746
-0.5192264 -0.9544091 0.0250507 16711746
0.0693739 1.7481703 -0.6689203 16711746
0.0383860 1.8055824 -0.6508893 16711746
-0.0844621 1.7422135 -0.7017509 16711746
0.0754645 -1.1070606 0.4450392 16711746
-0.4182470 -0.9920560 -0.0697068 16711746
0.1022245 -1.1769639 0.2232537 16711746
