# .PCD v.7 - Point Cloud Data file format
VERSION .7
FIELDS x y z rgb
SIZE 4 4 4 4
TYPE F F F F
COUNT 1 1 1 1
WIDTH 101
HEIGHT 1
VIEWPOINT 0 0 0 1 0 0 0
POINTS 101
DATA ascii

 0.7477233 -1.4209985 1.9989756 16777215
 0.0197076 -0.0455792 0.0560526 16777215
0.6690904 -1.7933619 -0.2260995 16711746
-0.6377150 -4.2290702 0.1949547 16711746
0.8209101 -2.7154582 -0.0449184 16711746
-5.5059090 7.4143620 -0.6673470 16711746
-0.2299373 -0.4439942 -0.0718335 16711746
0.5063825 -1.9268425 0.1101717 16711746
1.5402234 -6.0266404 0.1286853 16711746
-0.3163738 -0.5411193 -0.1679372 16711746
-0.3325114 -4.7165489 -0.0103975 16711746
-0.3225928 -5.1345816 -0.0801062 16711746
-0.4174440 -5.0709333 -0.5303315 16711746
0.0728439 -6.5112176 0.2853132 16711746
-1.4222631 5.3550744 -0.5273832 16711746
1.4459534 -2.3884873 -0.2029950 16711746
-0.3693769 -0.7871570 -0.0929361 16711746
-0.2781157 8.0862675 -1.1119324 16711746
0.3722299 -0.9448933 -0.1287721 16711746
0.1571930 -0.6668903 -0.1175729 16711746
-0.1393057 -3.6286955 -0.8719019 16711746
0.2852351 -1.5452865 -0.0667455 16711746
1.6798364 -6.3014107 -0.4884963 16711746
0.2709992 -0.5512170 -0.0542632 16711746
-0.0858278 -0.4482899 -0.0801837 16711746
0.4505580 -0.6343641 -0.1285714 16711746
0.3471432 -0.7345002 -0.0048708 16711746
-0.0596470 -0.6907326 -0.1618276 16711746
-0.1088476 -0.4254014 -0.0561395 16711746
0.1028376 -0.6644621 -0.1456045 16711746
-0.1950140 -0.8854327 -0.1702945 16711746
0.7646158 -6.7842541 -0.1513295 16711746
-0.1133557 -1.2072366 -0.1819130 16711746
-0.0250633 -0.6180453 -0.0719583 16711746
-0.1587648 -0.4762777 -0.0507672 16711746
-0.0423563 -0.5025778 -0.0618746 16711746
-0.1303875 -1.0459520 -0.1115814 16711746
0.1012717 -0.5384938 -0.1087177 16711746
-0.0237730 -0.3668691 -0.0572204 16711746
1.0235047 -1.4700290 -0.0884101 16711746
-0.4639964 -1.5040488 -0.2728986 16711746
-0.9540790 -5.5863757 -0.2801233 16711746
0.5313248 -0.9089369 0.0536013 16711746
-0.1276404 -2.6673524 -0.4926690 16711746
0.3937787 -0.9394072 -0.0817290 16711746
-0.1699194 -0.5619841 -0.1541088 16711746
-0.0921160 -0.3209718 -0.0602723 16711746
0.6141938 -1.2058406 -0.0207960 16711746
0.1357390 -0.6599132 -0.0812672 16711746
0.4781513 -0.8372395 -0.0988721 16711746
0.2013017 -2.3764067 -0.2222018 16711746
0.3853112 -0.9287841 -0.0592459 16711746
-0.0738186 -0.5963616 -0.1104986 16711746
0.7955176 -6.9482946 -1.2765517 16711746
-0.0485443 -2.0789821 -0.0510010 16711746
3.8370330 -6.9298639 -0.2041748 16711746
2.0582683 -6.5994148 0.3438429 16711746
1.0748640 -1.3940696 0.0410453 16711746
1.0387509 -1.3130721 -0.0145362 16711746
-0.2438744 -0.5534512 -0.0912015 16711746
-0.3047081 -0.6668832 -0.1595199 16711746
-0.2927252 -0.4734149 -0.0816377 16711746
-0.0718116 -0.4664540 -0.0941582 16711746
-0.3449299 -0.8050345 -0.2396487 16711746
0.4507422 -0.9669163 -0.1158317 16711746
-1.7203581 -4.8712831 -0.7702457 16711746
5.5344396 -7.8491869 -0.0651244 16711746
3.8927808 -5.5538950 -0.0917003 16711746
3.1388774 -5.0610271 -0.1223041 16711746
-1.5340164 -3.2052016 -0.6123283 16711746
1.3598382 -7.9501152 -1.0940721 16711746
-4.8577399 7.0010610 -0.3173131 16711746
1.6191485 -7.8389068 0.5588437 16711746
0.1996762 -0.7278888 -0.0900438 16711746
0.2182706 -1.3882248 -0.0918768 16711746
0.7192710 -4.3603086 -0.5050167 16711746
0.2904554 -0.6302826 -0.1352823 16711746
0.6443515 -2.4071729 -0.0659564 16711746
0.0507641 -0.9842910 -0.0320721 16711746
-0.3613131 -3.2739100 -0.1204841 16711746
-2.2694020 3.2875543 -0.1971552 16711746
-2.6544533 7.3584604 -0.6351483 16711746
-0.0950580 -2.7433500 -0.1526176 16711746
-0.1143606 -1.8631858 -0.1191956 16711746
0.0370192 -0.8855764 0.0053668 16711746
0.0104591 -0.6096088 0.0177365 16711746
0.0389659 -0.8913982 -0.0099105 16711746
-0.2202205 -0.3222874 -0.0466272 16711746
-1.1709428 -1.8040881 -0.6390478 16711746
0.0063941 -1.2258867 -0.1007666 16711746
0.0036178 -4.3509612 -0.5698184 16711746
0.2172876 -4.1312938 0.2902349 16711746
-0.3090920 -0.8894839 -0.0986593 16711746
-1.5753927 -4.9342937 -0.7008672 16711746
-0.0719567 -0.5180718 -0.1043951 16711746
0.5574945 -3.9051652 -0.4883412 16711746
0.5809861 -4.1107712 -0.6247084 16711746
-0.1277652 -4.7922730 0.3326076 16711746
-0.1458575 -0.4112757 -0.0768585 16711746
0.0086849 -0.7731685 -0.1243038 16711746
0.1645763 -1.9359609 0.1203816 16711746
