# .PCD v.7 - Point Cloud Data file format
VERSION .7
FIELDS x y z rgb
SIZE 4 4 4 4
TYPE F F F F
COUNT 1 1 1 1
WIDTH 45
HEIGHT 1
VIEWPOINT 0 0 0 1 0 0 0
POINTS 45
DATA ascii

 1.3065267 -3.1730094 6.3277383 16777215
 0.0881176 -0.3174766 0.2701175 16777215
0.3334354 -1.5028700 0.5379566 16711746
-0.1670606 1.1731228 -0.7349557 16711746
0.0589029 -1.1793274 0.5600358 16711746
0.0896365 -1.1126257 0.5293471 16711746
-0.2305889 1.0661455 -0.7729527 16711746
0.0338484 -0.9430088 0.5732732 16711746
-0.5198112 1.1754929 -0.5084965 16711746
-0.6027401 1.1378814 -0.4770729 16711746
0.2451644 1.3722214 -0.6984250 16711746
0.0860886 -0.9253839 0.5634930 16711746
0.0689005 -1.0234497 0.5583487 16711746
-0.3359084 -1.1112895 0.5108011 16711746
-0.4493765 0.9915071 -0.7055466 16711746
-0.5240378 0.9266970 -0.8277355 16711746
-0.0681752 1.2288275 -0.7317002 16711746
-0.0332838 -1.3100262 0.4496557 16711746
-0.1572393 -1.2445493 0.3812967 16711746
0.4860089 -1.3104209 0.6302869 16711746
0.3503311 1.4486129 -0.7689931 16711746
-0.5964023 1.1249655 -0.5250352 16711746
0.1744372 -1.0452355 0.5627220 16711746
0.1551493 -1.2279371 0.7979853 16711746
0.0447783 1.3324350 -0.8708014 16711746
-0.1758341 1.0411258 -0.8607354 16711746
-0.6125793 1.0654435 -0.6213601 16711746
-0.3061660 -1.1805234 0.4683710 16711746
0.3303587 -1.2871183 0.5643545 16711746
0.4017965 -1.3705922 0.5857096 16711746
-0.1792933 1.3201711 -0.5714601 16711746
-0.7262945 0.8212665 -0.6063808 16711746
-0.6365131 -1.1355439 0.4144109 16711746
0.6502702 -1.8343223 0.3593130 16711746
0.0278970 -1.1424227 0.5088860 16711746
-0.1402244 -1.3108678 0.3088504 16711746
0.3745252 -1.5582347 0.5226143 16711746
0.5071129 -1.6316066 0.5951657 16711746
0.1438474 -0.2910889 0.2029478 16711746
-0.0661021 -13.5454702 6.6530366 16711746
-3.7594202 -29.4505329 3.8819807 16711746
-1.5657194 -12.6881638 9.9228067 16711746
-3.0482254 -9.5531158 7.8841033 16711746
-29.2676163 -122.0797958 -4.8261294 16711746
-0.0590467 -13.9230261 6.8302321 16711746
