# .PCD v.7 - Point Cloud Data file format
VERSION .7
FIELDS x y z rgb
SIZE 4 4 4 4
TYPE F F F F
COUNT 1 1 1 1
WIDTH 61
HEIGHT 1
VIEWPOINT 0 0 0 1 0 0 0
POINTS 61
DATA ascii

-0.8311929 -1.4928681 0.8823740 16711746
-1.7132888 -0.9958181 0.8456455 16711746
-0.2913631 -2.3060291 1.1189684 16711746
-1.2138963 -1.2704521 1.2158787 16711746
-0.6817963 -0.6909497 0.6608372 16711746
-1.1384404 -1.4918827 1.3958908 16711746
-1.3159761 -1.1813705 1.0071503 16711746
2.4874046 0.6211496 -1.1306155 16711746
-1.7324021 -0.8316050 0.8585526 16711746
-2.0566387 -0.8227987 0.8106772 16711746
-1.6952660 -0.7742661 0.8719582 16711746
1.0895414 1.3076453 -1.6787831 16711746
0.4841781 1.1308830 -1.5041181 16711746
0.3179898 1.6467546 -1.6576635 16711746
-0.1220340 0.8401402 -0.9753094 16711746
-0.0846199 -0.0836728 0.1308334 16711746
-1.8193358 -1.0124077 0.7842830 16711746
-1.7309893 -1.0425519 0.8400416 16711746
-0.7810423 -1.7037070 1.1321199 16711746
-0.9210681 -2.4133577 1.5302185 16711746
-0.2609365 -0.8872311 0.5914347 16711746
0.7608787 1.2553166 -1.2729003 16711746
1.0303680 1.4568808 -1.3782829 16711746
-0.1259053 0.4887388 -0.6356242 16711746
-0.0908325 2.1789260 -3.1259365 16711746
1.2088772 1.2070419 -1.3943532 16711746
1.2280366 1.1591617 -1.4375755 16711746
1.3200507 0.6561026 -0.9534830 16711746
-0.2020380 -0.8837225 0.6634920 16711746
-1.0999167 -2.2895970 1.3043278 16711746
-1.8069994 -0.9115343 0.7387773 16711746
-1.9835632 -0.9778698 0.7191912 16711746
-1.3083556 -1.6271315 1.0626181 16711746
-1.1631607 -1.7624395 1.4204764 16711746
-1.3127733 -1.7415965 0.9908253 16711746
0.2589635 0.0391819 -0.0259520 16711746
-1.4317379 -0.6271533 0.8575593 16711746
0.3141511 1.4667412 -1.7483808 16711746
0.4030975 1.8986771 -2.6208358 16711746
1.1443595 1.8910297 -2.1089625 16711746
-1.9319897 -0.7627337 0.8583606 16711746
0.9479289 0.8114466 -0.8982445 16711746
1.3684824 1.0184829 -1.1592457 16711746
-18.3198299 -209.8755035 116.8508072 16711746
-1.3086016 -7.9881272 6.3592834 16711746
-0.1687319 -90.3481903 80.4712296 16711746
17.3339005 -68.2770004 65.9409256 16711746
-129.2518005 -291.3258667 68.9315109 16711746
-8.0483618 -160.8198547 101.0339203 16711746
-21.0041027 -220.2511749 114.5688171 16711746
-23.9492607 -264.5502319 75.1880569 16711746
-88.7262268 -239.2896118 86.4970779 16711746
-160.9477386 -419.3039551 21.5105095 16711746
-314.4148254 -556.8383789 2.3887789 16711746
-3.8734279 -8.3989544 7.7118220 16711746
6.1469278 -191.2877197 123.7884140 16711746
-49.1606216 -205.0493774 72.1868439 16711746
-173.8684692 -278.9391174 66.0875092 16711746
-11.9156313 -139.4192810 81.0191269 16711746
-75.5810852 -164.1868591 80.9218445 16711746
-38.4575195 -160.7410126 56.5742416 16711746
