# .PCD v.7 - Point Cloud Data file format
VERSION .7
FIELDS x y z rgb
SIZE 4 4 4 4
TYPE F F F F
COUNT 1 1 1 1
WIDTH 290
HEIGHT 1
VIEWPOINT 0 0 0 1 0 0 0
POINTS 290
DATA ascii

0.4357333 1.4033586 -0.6681224 16711746
0.0376469 -0.9753113 0.1701588 16711746
0.2926135 1.7055973 -0.6500037 16711746
-0.1550943 2.0370812 -0.5738180 16711746
0.6970708 1.1755451 -0.4488159 16711746
0.0692296 -1.0331126 0.3371265 16711746
-0.0050175 -1.0444686 0.2762081 16711746
0.0842979 -1.0643604 0.3273089 16711746
0.1019086 -1.0663381 0.1680098 16711746
0.1151204 -1.1836058 0.2762376 16711746
-0.1638937 -1.1766871 0.5156779 16711746
0.4416547 1.4681841 -0.2958785 16711746
0.1137965 1.6131036 -0.8910134 16711746
0.0902226 -1.1216613 0.1754573 16711746
-0.3423052 1.7345521 -0.8806927 16711746
0.4615535 1.3383321 -0.6262270 16711746
-0.0935216 -1.5668539 0.3215223 16711746
-0.3877366 2.0072453 -0.5114480 16711746
-0.1502969 -0.3729397 0.1403779 16711746
0.1459527 -1.0737725 0.1872634 16711746
0.1131795 -1.1123006 0.1862780 16711746
-0.2316659 1.6850311 -0.5351483 16711746
-0.2785402 -1.1431340 0.1731180 16711746
-0.2998581 -1.1686386 0.1930630 16711746
-0.3317197 -1.2000788 0.1830544 16711746
0.7807643 1.3893217 -0.0316889 16711746
0.8405393 1.3375006 0.0031478 16711746
-0.5249537 -1.3928579 0.3867423 16711746
-0.5696173 -1.3583263 0.2688080 16711746
-0.4401831 -1.3448609 0.4137518 16711746
-0.2477657 1.9282334 -1.1700712 16711746
0.0417296 -1.0437322 0.1245234 16711746
-0.3268670 1.8005698 -1.0990913 16711746
-0.0890499 1.8893100 -0.9895131 16711746
-0.0482235 -0.9866556 0.1353963 16711746
-0.0918791 -0.9903860 0.1060805 16711746
0.6763432 1.3294497 -0.6710548 16711746
0.4590373 1.7286024 -0.6662959 16711746
0.1455888 -0.9580910 0.2169255 16711746
0.4901269 1.4951937 -0.4313226 16711746
-0.0332888 -0.6270658 0.0193988 16711746
-0.2295553 -0.9667537 0.0256244 16711746
-0.0438509 -0.6479291 0.0017265 16711746
-0.1469322 -0.3689650 0.1454268 16711746
-0.0878903 -1.0237854 0.1832573 16711746
-0.1128750 -0.9787950 0.0856082 16711746
-0.0594290 -1.1864049 0.1613901 16711746
-0.0837987 -0.4545036 0.1030374 16711746
0.2981260 1.4573396 -0.7614792 16711746
-0.0546755 -0.9705250 0.1064393 16711746
0.3387329 1.5864068 -0.8689222 16711746
0.2662038 1.5775340 -0.8369536 16711746
0.3688197 1.5346547 -0.7854994 16711746
0.1268067 -1.5050763 0.5029367 16711746
-0.5799576 1.7658176 -0.9508401 16711746
0.1613937 -1.0394272 0.1611707 16711746
0.1521997 -0.9232922 0.0903166 16711746
0.5495954 1.5188488 -0.7535084 16711746
0.5096843 1.4709696 -0.6172992 16711746
0.2102154 1.9119172 -0.5402320 16711746
0.5655065 1.5133506 -0.3985044 16711746
-0.0152005 1.7639867 -0.7524293 16711746
0.3534897 1.9160025 -0.6353781 16711746
-0.0646625 1.7421947 -0.7411699 16711746
-0.5019517 1.7607934 -0.9403202 16711746
-0.1183418 -1.0280764 0.1852016 16711746
-0.0684058 -1.0392781 0.2261182 16711746
-0.1728635 1.9914492 -1.1167387 16711746
-0.1450128 1.8665762 -1.0397029 16711746
0.5974678 1.3708230 -0.4965266 16711746
0.4880542 1.7402599 -0.6809700 16711746
-0.0928349 -1.0318412 0.1959304 16711746
-0.1537136 -1.1000267 0.2359055 16711746
-0.0572353 -0.9876413 0.1324594 16711746
-0.1255887 -1.0028355 0.1510447 16711746
0.0809365 -0.9638724 0.2055023 16711746
-0.1064740 -1.0182078 0.1659252 16711746
-0.0170511 -0.9837710 0.1613314 16711746
0.2960919 1.5565872 -0.7414717 16711746
-0.3410965 1.8449774 -1.1105087 16711746
-0.1409096 1.5814873 -0.7540248 16711746
0.0993089 -1.0126784 0.2130068 16711746
-0.3598351 -1.2417349 0.2578996 16711746
-0.3650893 -1.2525734 0.2295130 16711746
0.8369645 1.2029841 -0.5731752 16711746
-0.0379608 -0.6493227 0.0188646 16711746
-0.5005794 -1.2816879 0.4346863 16711746
-0.4868778 -1.2658240 0.5283989 16711746
-0.6736072 -1.4183553 0.4789095 16711746
-0.1084130 -1.1056468 0.4112131 16711746
-0.3257017 -1.1994946 0.3013572 16711746
-0.3579837 -1.2238380 0.2643534 16711746
-0.1846139 -1.1130712 0.2804931 16711746
-0.0469300 -1.1298546 0.5422935 16711746
0.0604748 -1.0888351 0.3989665 16711746
-0.4453948 -1.2811261 0.1555873 16711746
-0.1480952 -1.0544335 0.1127296 16711746
-0.1287793 -0.9529219 0.1145949 16711746
-0.0981476 -1.0202188 0.1258898 16711746
0.1574888 -1.0601485 0.4197057 16711746
0.1481270 -1.0648806 0.3584721 16711746
0.0278808 -1.0495155 0.2381753 16711746
0.0790653 -1.0518092 0.2762493 16711746
-0.0737964 -1.0413188 0.2292170 16711746
-0.0921580 -1.0657244 0.2687061 16711746
-0.1359747 -1.1174611 0.2784579 16711746
-0.0409467 -1.0779035 0.3166718 16711746
-0.0977175 -1.0466962 0.2331417 16711746
-0.2010139 -1.0795220 0.1661131 16711746
-0.2273535 -1.2145921 0.5075193 16711746
-0.1708692 -1.1577398 0.4613065 16711746
-0.1188741 -1.1408069 0.4981596 16711746
-0.1163695 -1.1571138 0.4880474 16711746
-0.0931711 -1.1039739 0.3705158 16711746
-0.0809686 -1.0702972 0.3152142 16711746
-0.1870800 -1.1616868 0.4018962 16711746
-0.4789886 1.7315861 -0.9179675 16711746
-0.4623983 1.8083378 -1.0292820 16711746
-0.6520259 -1.3998306 0.4074035 16711746
-0.4561085 1.7475122 -0.8605084 16711746
0.3875112 1.5162686 -0.6878491 16711746
0.4060548 1.4670637 -0.6168336 16711746
-0.0527330 -0.6499206 0.0062925 16711746
-0.0178114 1.6400298 -0.9424825 16711746
-0.3282509 1.7967263 -0.9596917 16711746
-0.2321321 1.7434415 -0.9282333 16711746
-0.4184727 1.8748516 -1.1507078 16711746
-2.7799437 -12.4074755 0.8407809 16711746
0.9183664 -7.5761008 0.1468794 16711746
-3.8182595 -13.2589369 1.0058128 16711746
-0.3329457 -9.2509842 0.4477867 16711746
-3.6720850 -14.4123030 1.4459792 16711746
-3.4301820 -13.2409286 1.3414243 16711746
0.8409653 -7.8409457 0.7860867 16711746
-2.2697847 -11.6418200 0.6349300 16711746
1.8969753 -6.6228514 0.5836847 16711746
2.1447439 -6.2766185 0.7494906 16711746
1.5616225 -6.9643764 0.2380965 16711746
-0.5887107 -9.6192579 0.7191911 16711746
1.2447159 -7.3109856 0.1612268 16711746
-2.2057879 -11.4099207 0.4889638 16711746
2.8362002 -4.8692813 1.1448394 16711746
2.0536406 -6.3678331 0.4469679 16711746
-1.0257528 -10.5388346 0.9155127 16711746
-0.1888611 -8.9894733 0.6353615 16711746
0.6959603 -7.8960786 0.2481298 16711746
2.4221163 -5.5574279 1.0685953 16711746
-3.9868891 -14.0937262 0.9820218 16711746
1.5929083 -7.1511731 0.3255804 16711746
-0.0487136 -8.8242178 0.7282366 16711746
1.6655942 -7.3712740 0.7167824 16711746
2.1391165 -5.8523068 1.1157527 16711746
-1.0321225 -10.2377224 1.1024899 16711746
-0.5956784 -9.9096785 1.0411063 16711746
-3.3280861 -14.0005913 1.7623999 16711746
-3.8914914 -14.2401829 1.4992285 16711746
1.9285624 -6.4636049 0.7317140 16711746
2.3983505 -5.6013894 0.8965559 16711746
-2.8595824 -12.7316132 0.8097005 16711746
2.7565856 -5.1978240 1.0350814 16711746
-1.9618696 -12.4225454 1.3207980 16711746
0.2913070 -8.6440029 0.8056678 16711746
-2.7576673 -12.6467199 0.7867733 16711746
0.0613116 -8.9097214 0.1762342 16711746
3.3057537 -4.6000061 1.0889578 16711746
1.8838863 -6.5006909 0.5798488 16711746
2.8684578 -4.5865865 1.4079314 16711746
2.3427916 -5.9455910 1.0769222 16711746
2.1000412 -6.1954384 0.9322821 16711746
1.7487390 -6.6770749 0.3334410 16711746
1.4891009 -6.7423348 0.2959677 16711746
2.7125781 -5.5311460 0.7572321 16711746
2.6109545 -5.1472421 1.1278905 16711746
1.8826210 -6.7527523 0.8394317 16711746
1.3644139 -7.4258499 0.3332982 16711746
2.2619655 -6.1818695 0.7391824 16711746
-0.3720395 -9.7391081 -0.3038012 16711746
2.1695879 -6.5712652 0.8528358 16711746
0.8948258 -7.8715935 0.7810375 16711746
-2.4653947 -13.0358715 1.8953665 16711746
-3.1778243 -13.2198963 0.8237874 16711746
0.6542468 -7.9222898 0.4045808 16711746
0.4930065 -8.3556604 0.7303285 16711746
0.5371854 -8.2772112 0.5620877 16711746
1.2927011 -7.0904121 0.3100370 16711746
1.1067393 -7.2454467 0.2510177 16711746
1.5226172 -7.0808234 0.7932431 16711746
1.6254531 -6.9602237 0.6207547 16711746
2.8860030 -4.4990911 1.4146259 16711746
-1.6555053 -10.9560575 1.1111914 16711746
2.8248036 -4.8823376 1.2861925 16711746
0.0597358 -8.9091692 0.9365085 16711746
-0.3189386 -9.3240709 0.7785063 16711746
-3.2391965 -13.6929607 1.7130047 16711746
-3.4997945 -13.7863321 2.2228260 16711746
-0.0595049 -8.9906635 0.6430022 16711746
-2.9247196 -12.1139650 0.7751284 16711746
2.8222740 -4.7736692 1.3254265 16711746
-0.6097987 -9.7662487 0.4830887 16711746
-7.5663819 -18.7034779 2.5459862 16711746
-0.3672965 -9.2778921 0.4090915 16711746
-7.4730244 -18.2525921 1.9357177 16711746
2.7721233 -3.9155655 1.9038603 16711746
0.9120873 -7.8601236 0.7206574 16711746
-3.9513297 -13.6910973 0.9972266 16711746
2.9339921 -4.6682587 1.2618622 16711746
1.5861881 -6.9407148 0.7934180 16711746
2.7971704 -3.6762805 2.0043921 16711746
2.7905042 -3.6584589 1.9914531 16711746
1.9044600 -6.7066593 0.8263599 16711746
-1.9642483 -11.8134251 1.0927808 16711746
0.8107285 -7.9725151 0.7484787 16711746
-1.4727572 -10.8017111 0.8201217 16711746
2.5806079 -5.4770241 0.7084776 16711746
2.8925409 -4.0246549 1.7462442 16711746
2.6132896 -5.3531127 0.8700919 16711746
2.6579504 -5.3856673 0.8124262 16711746
2.6495628 -3.1797562 2.1910512 16711746
2.8291852 -5.0189514 1.0546820 16711746
-0.9947057 -10.1586037 0.7127398 16711746
-0.4871635 -9.4263468 0.4510497 16711746
2.0924428 -6.2785120 0.6245997 16711746
0.0282535 -8.7065420 0.3746105 16711746
-0.0965545 -8.9588823 0.3555255 16711746
-0.9860522 -6.2894397 3.2496538 16711746
2.7852497 -3.6569240 1.9902343 16711746
0.2262805 -8.6318550 0.5187095 16711746
2.2393970 -5.9429703 0.9432857 16711746
2.6600883 -5.3939695 0.8144255 16711746
2.8187637 -3.6897492 1.9542739 16711746
-0.5399755 -9.5857286 0.5325262 16711746
2.7902222 -4.9893131 1.1299471 16711746
2.7356772 -3.3815358 2.0967176 16711746
-0.7442079 -4.7148638 0.9770633 16711746
-5.3971796 -15.8601408 1.6757557 16711746
-4.8652296 -15.1313734 1.3416271 16711746
-0.6449699 -9.9083633 0.6921078 16711746
-0.2375787 -9.3103886 0.7423545 16711746
-2.7905798 -12.4738331 1.0837827 16711746
1.6686556 -6.8189664 0.5801201 16711746
1.2849876 -7.5036931 0.1692496 16711746
-3.6099415 -14.1933727 2.2972929 16711746
2.1573150 -6.0931048 0.3959244 16711746
-0.1575407 -4.9445801 0.7607992 16711746
2.8115799 -3.6818268 1.9486175 16711746
2.8672800 -4.2249150 1.6346602 16711746
-0.7746179 -5.2515059 1.2399737 16711746
0.4332663 -8.2686110 0.7015364 16711746
0.5075582 -8.3122997 0.5632505 16711746
0.1153825 -8.5803423 0.4562083 16711746
0.2649388 -8.5723934 0.4507644 16711746
0.3386519 -8.4595766 0.3251613 16711746
2.7750323 -4.9299779 1.2161485 16711746
2.8753064 -5.3496490 0.5399045 16711746
-1.4762338 -10.8727684 0.8166994 16711746
-7.8780427 -19.3611641 2.6283364 16711746
-1.8842919 -11.3085766 0.7827072 16711746
2.6368115 -4.9147019 1.4320220 16711746
-0.6291995 -9.8651114 0.6834801 16711746
2.7778211 -3.9297345 1.9131755 16711746
2.8025353 -4.3303661 1.6913017 16711746
2.5702794 -5.4310966 0.9692183 16711746
2.4826713 -5.5781512 0.9079250 16711746
2.8928397 -4.7453384 1.3247215 16711746
-0.1720922 -7.8185349 0.4009590 16711746
0.5472587 -8.2198772 0.4704523 16711746
-0.6449694 -9.9083633 0.6921076 16711746
2.0681300 -6.3732500 0.4480006 16711746
2.8787460 -4.9008069 1.1482670 16711746
2.9111657 -4.0203266 1.7075454 16711746
-8.0057783 -19.3357182 2.0043015 16711746
-1.0641807 -10.1258135 0.6252608 16711746
2.6608233 -5.1758456 1.1253926 16711746
2.7603302 -4.3733134 1.6909004 16711746
0.5302250 -8.2867241 0.5700066 16711746
0.3869136 -8.6054831 0.4471031 16711746
0.4902843 -8.5041342 0.7451969 16711746
0.3876259 -8.1106691 0.8554801 16711746
2.7611792 -4.9103951 1.3458000 16711746
3.0314832 -4.3248982 1.4592134 16711746
-2.9050429 -12.9161234 0.8334122 16711746
-3.1607075 -12.7039185 0.8751222 16711746
2.6505852 -5.1399765 1.1339215 16711746
-7.6849976 -18.6294403 1.9568470 16711746
2.7428067 -3.7773120 1.9985243 16711746
2.6947496 -3.7211378 1.9586571 16711746
2.8880208 -3.9190302 1.8202841 16711746
-2.4180357 -16.0161667 1.7122499 16711746
2.9413102 -4.0765753 1.6969817 16711746
2.8565013 -4.4427419 1.5738860 16711746
