# .PCD v.7 - Point Cloud Data file format
VERSION .7
FIELDS x y z rgb
SIZE 4 4 4 4
TYPE F F F F
COUNT 1 1 1 1
WIDTH 142
HEIGHT 1
VIEWPOINT 0 0 0 1 0 0 0
POINTS 142
DATA ascii

 1.3414191 -3.2528079 6.6769500 16777215
 0.0320059 -0.0719402 0.1406997 16777215
-8.6374559 -5.6959543 -0.8506469 16711746
-4.8238311 -2.6886430 -0.8994135 16711746
-0.7070630 -1.7074922 0.6081765 16711746
-0.2733137 -1.3290538 0.3583283 16711746
-0.2922053 -1.3533084 0.3588328 16711746
-0.2337232 -1.2930781 0.3398077 16711746
-2.2239535 -2.5370624 -0.8123835 16711746
-3.6789029 -2.5553930 -1.3168374 16711746
-2.3151941 -1.8439268 -0.8066376 16711746
-3.2404435 -2.9782481 -0.8764761 16711746
-1.1389586 -1.7220678 -0.2481501 16711746
-0.1534858 -1.1671202 0.3659986 16711746
-0.1077465 -0.9058536 0.3024919 16711746
0.1298036 -0.9398848 0.2556957 16711746
0.0904688 -0.7614414 0.2262942 16711746
-0.0601925 -1.0628724 0.3335864 16711746
0.0731718 -0.9449792 0.2676293 16711746
0.5181071 -0.8935525 0.3260647 16711746
0.4440856 -0.7386011 0.2733438 16711746
-0.4722367 -1.1616293 0.0760784 16711746
0.0819608 -0.7671856 0.1785745 16711746
0.1081918 -0.7496740 0.2181213 16711746
-0.1224577 -0.8666686 0.0949858 16711746
-2.0457144 -3.2255280 -0.1698070 16711746
-1.0075961 -1.6544269 -0.0599555 16711746
0.3145055 -0.9296309 0.2406327 16711746
-0.1374374 -1.1392658 0.3737454 16711746
0.0640426 -0.8037348 0.2751945 16711746
0.0376389 -1.0049545 0.2907503 16711746
0.1934943 -0.8115149 0.2551197 16711746
-0.4452965 -1.3575178 0.1444155 16711746
0.2780474 -0.9557946 0.2688764 16711746
0.1096838 -0.7761070 0.1672522 16711746
-0.4197020 -1.4440614 0.4526949 16711746
-0.5143359 -1.5891312 0.4332846 16711746
-0.0969848 -1.2156527 0.2001349 16711746
0.1815364 -0.7814465 0.3057490 16711746
-0.0096409 -0.9856870 0.3668701 16711746
0.1391821 -1.1051636 0.3332586 16711746
-0.3315921 -1.0737568 0.0618868 16711746
0.0143596 -1.0078229 0.3161511 16711746
-3.7056513 -3.3041444 -0.7485412 16711746
-1.2467666 -1.1500363 -0.1813713 16711746
-0.5507301 -1.9363258 0.0436771 16711746
-0.3116680 -1.2886256 0.0781254 16711746
0.2105521 -1.0447700 0.2822334 16711746
-0.3463362 -1.5765796 0.1687603 16711746
0.0745001 -0.8265955 0.1315375 16711746
0.0995484 -0.9495557 0.2197269 16711746
0.0333458 -0.9577226 0.3447604 16711746
0.1716831 -0.8386412 0.3197190 16711746
-0.6514803 -2.6987154 0.2978156 16711746
-0.0058525 -1.0066304 0.3418630 16711746
-1.7783602 -1.9305816 -0.5359745 16711746
-1.8950071 -2.0143795 -0.5570173 16711746
0.1729983 -0.8820096 0.1915932 16711746
0.1934411 -0.8655955 0.1805055 16711746
0.1691039 -0.8692542 0.2161826 16711746
0.1917413 -0.8557398 0.1981744 16711746
0.1947178 -1.0549906 0.2960006 16711746
0.1578164 -0.8917634 0.2792905 16711746
-0.0027757 -0.8721909 0.1605483 16711746
-0.0663380 -0.9567596 0.1536629 16711746
0.3491978 -0.8309028 0.2882653 16711746
0.3065793 -0.8062850 0.2319443 16711746
0.1577918 -0.9130861 0.1718118 16711746
-0.5700604 -1.2074569 0.0186326 16711746
-1.9154701 -2.1328373 0.2897383 16711746
-1.4597331 -2.5507016 -0.0813609 16711746
0.0406938 -1.3419598 0.2715884 16711746
-0.2809422 -1.3963094 0.2847545 16711746
-0.2383814 -1.3569974 0.2716443 16711746
-0.5075202 -1.9948541 -0.0098651 16711746
-0.5214988 -1.5813669 -0.0787156 16711746
-0.4457255 -0.8393439 -0.0305527 16711746
-0.8242365 -1.5233688 -0.2120587 16711746
-0.7398895 -1.4285393 -0.0735330 16711746
-0.2853801 -1.3773524 0.3311424 16711746
-0.8822721 -1.5436758 -0.0449655 16711746
-0.4991387 -1.0100900 0.0201956 16711746
-5.7765789 -7.3362803 -0.4866304 16711746
0.0214574 -0.9392341 0.3750883 16711746
0.2831425 -0.9850649 0.2322992 16711746
0.2062984 -0.7621948 0.2042712 16711746
-0.7018616 -1.7190942 -0.0688249 16711746
-3.6264007 -3.2293820 -0.5563236 16711746
-5.7107887 -6.7330103 0.6203477 16711746
-1.0401961 -2.0591855 0.0064623 16711746
0.2060089 -0.8407556 0.2873847 16711746
0.1134840 -0.8352657 0.3738685 16711746
-0.2896788 -0.9885610 0.4017339 16711746
-3.6071920 -3.2167630 -1.3083709 16711746
-10.0184193 -7.1397796 -3.0294695 16711746
-1.7895352 -1.2815359 -0.5785337 16711746
0.2610054 -0.7337723 0.2583790 16711746
-0.0695781 -1.1441796 0.2725335 16711746
-0.0316645 -0.8896483 0.2334407 16711746
-0.1527636 -1.0869290 0.0667118 16711746
0.0092059 -0.8978232 0.1162604 16711746
-0.0271464 -0.7810793 0.1064656 16711746
-0.1406750 -1.0482944 0.1210646 16711746
0.0796640 -0.9600348 0.2383250 16711746
-0.1240881 -0.9903641 0.2012558 16711746
-1.5430427 -1.9560664 -0.4698410 16711746
-0.6446020 -1.6221724 0.0276102 16711746
-0.1921404 -1.0843440 0.1571510 16711746
0.3540743 -0.8498190 0.2619201 16711746
0.0823776 -0.9888686 0.2543036 16711746
0.3835251 -1.1519502 0.3340594 16711746
-0.1170850 -0.9290638 0.2846883 16711746
-0.1419586 -1.1919744 0.3130454 16711746
-0.1430781 -0.9699165 0.2644893 16711746
-5.0683990 -5.3646040 -1.1158307 16711746
-1.2049068 -1.5245595 -0.2872027 16711746
-0.7761927 -1.3505713 0.0656244 16711746
-0.9176943 -1.6324520 0.0357306 16711746
-0.0576862 -1.0685606 0.3425793 16711746
-0.4428692 -1.2345468 0.3031256 16711746
0.3906373 -0.9647798 0.4354813 16711746
-2.4296288 -2.3975434 -0.5718502 16711746
-2.2484090 -1.5982335 -0.3029404 16711746
-8.4702196 -8.1497622 -1.5072660 16711746
0.2568186 -0.9885258 0.2680843 16711746
0.3145616 -1.1602051 0.2725886 16711746
-0.0122201 -1.1504469 0.1301329 16711746
-0.0148651 -0.9137465 0.1348913 16711746
-8.2343769 -9.1062250 0.5834463 16711746
-0.5030559 -1.4831805 -0.0082522 16711746
-0.4609948 -1.4909680 -0.0321126 16711746
0.0426503 -0.7525744 0.3423494 16711746
-0.2850556 -1.2115741 0.0925652 16711746
-0.3387684 -1.2465291 0.1401339 16711746
-0.9796292 -1.9654720 0.0735639 16711746
-0.3526950 -1.0295707 0.1602514 16711746
-1.4828479 -2.4978619 0.1076470 16711746
-0.7323841 -1.5052897 -0.1041521 16711746
-0.1889815 -1.2237413 0.3536945 16711746
-0.3589940 -1.1925037 0.2375621 16711746
-0.1523181 -0.8845365 0.1068641 16711746
0.1341374 -0.8659294 0.2015382 16711746
