# .PCD v.7 - Point Cloud Data file format
VERSION .7
FIELDS x y z rgb
SIZE 4 4 4 4
TYPE F F F F
COUNT 1 1 1 1
WIDTH 50
HEIGHT 1
VIEWPOINT 0 0 0 1 0 0 0
POINTS 50
DATA ascii

 1.3517860 -3.4576902 7.8524866 16777215
 0.0181379 -0.0379564 0.0947943 16777215
-0.8237937 -0.7393305 -0.1131589 16711746
-0.5722390 -0.5671393 -0.0519755 16711746
-0.3795743 -0.3737030 -0.0115074 16711746
-0.1387764 -0.9605648 0.1879612 16711746
-0.5185710 -0.4966526 -0.0640763 16711746
-0.8808566 -1.3286903 0.2647272 16711746
0.3094527 -1.7422522 0.4668294 16711746
0.0375650 -1.2475396 0.2368719 16711746
-0.3253807 -0.3805734 -0.0194098 16711746
0.3260810 -1.6043131 0.2803713 16711746
0.0961293 -1.0656385 0.1791408 16711746
-0.6955914 -1.3897797 0.0886001 16711746
-0.5143963 -1.4517373 0.1717026 16711746
-0.1706998 -0.6205451 0.1242433 16711746
-0.2375654 -1.1994625 0.3214555 16711746
0.1492702 -0.6488428 0.1525531 16711746
-0.0065451 -0.8327677 0.2402713 16711746
-0.7508676 -1.2861493 0.1412873 16711746
-0.4095106 -0.8950784 0.0590885 16711746
-0.6811945 -0.7173538 0.1881302 16711746
-0.8718385 -1.7199191 0.3295563 16711746
-0.0661401 -0.8018041 0.1016334 16711746
0.0034429 -0.6085421 0.1191114 16711746
-0.1735720 -0.7239695 0.1454005 16711746
-1.0074511 -1.8773128 0.0861389 16711746
-0.9735568 -1.0171751 0.2009666 16711746
-0.1153637 -1.5040715 0.2400146 16711746
0.2140151 -1.7700489 0.4305892 16711746
-0.1151291 -1.2869544 0.1338560 16711746
-0.5967001 -0.9344066 0.1331140 16711746
-0.1233981 -0.6315877 0.1674766 16711746
-0.1765585 -0.7889711 0.1776805 16711746
-1.0927724 -1.6162288 0.1040304 16711746
-0.3296914 -0.3798161 -0.0046087 16711746
0.1694167 -0.7385381 0.2086933 16711746
0.0823709 -1.4923387 0.2019178 16711746
0.0924848 -1.2458620 0.1633769 16711746
-1.0546851 -1.6890215 0.1265637 16711746
-0.0741475 -0.7588629 0.1229877 16711746
0.3880789 -1.2781811 0.2359151 16711746
-0.3391099 -0.6987677 0.1385265 16711746
-1.1609021 -2.9270802 0.4516026 16711746
-1.2022011 -1.1755404 -0.2138074 16711746
-0.1739905 -2.0547256 0.3765820 16711746
0.2166703 -1.2944777 0.3488377 16711746
0.2739174 -2.0314934 0.4510924 16711746
-0.0923792 -0.9979710 0.2534703 16711746
-0.0727094 -1.1682391 0.1403205 16711746
