# .PCD v.7 - Point Cloud Data file format
VERSION .7
FIELDS x y z rgb
SIZE 4 4 4 4
TYPE F F F F
COUNT 1 1 1 1
WIDTH 145
HEIGHT 1
VIEWPOINT 0 0 0 1 0 0 0
POINTS 145
DATA ascii

0.1277230 -2.4713559 0.5761144 16711746
0.2532319 -0.9564912 -0.0478405 16711746
0.6975478 -1.8668029 0.4026837 16711746
0.3081148 -0.6048768 0.0885771 16711746
-0.2611296 -0.7198821 -0.0482331 16711746
-0.0481609 -1.0927157 0.0132964 16711746
-0.7453354 -2.4441552 0.5990580 16711746
-0.2062182 2.5500505 -0.7282333 16711746
0.2302378 -2.2162902 0.6839693 16711746
-0.8841483 -2.2402399 0.7748719 16711746
0.1937074 -0.7001523 -0.0641241 16711746
-0.0984730 -0.8258909 -0.1143715 16711746
0.0088094 -0.6583546 -0.0537812 16711746
-3.1029096 3.8297970 -0.9759561 16711746
0.4832288 -2.1770811 0.4965199 16711746
-0.9133450 -2.2066057 -0.0266056 16711746
-0.4001130 -1.1561594 0.0075682 16711746
-0.8170537 -1.9808649 -0.0320349 16711746
-0.2590858 2.5138793 -0.8364670 16711746
-0.2122576 2.6064301 -0.7902150 16711746
-0.2590808 -0.8462501 0.1525609 16711746
-0.8220289 -2.2048206 0.2778881 16711746
0.0740399 -1.9673278 0.4496554 16711746
-0.0907934 -1.7290998 0.1606301 16711746
-0.2972339 2.1848326 -0.9149047 16711746
-0.1468228 -1.3485510 -0.0689378 16711746
-0.2615684 -2.0971067 0.5816999 16711746
-0.0426836 -0.6049687 -0.0664367 16711746
-0.3065397 2.0378006 -0.9351724 16711746
-0.3841817 2.3843818 -0.7949622 16711746
0.2562597 2.9073026 -0.9406502 16711746
-0.2525227 2.0469506 -0.7886996 16711746
0.1356469 -0.9877547 0.1807460 16711746
-0.7963089 2.6906054 -0.6292439 16711746
0.3389193 -0.9554300 -0.0652622 16711746
0.3979278 -0.8088791 -0.0501963 16711746
0.6929740 -2.1770303 0.4944424 16711746
0.6773342 -2.2903194 0.4958804 16711746
0.2057232 -1.7435873 0.4496212 16711746
0.0645523 -1.3341879 0.2073077 16711746
-0.1859201 -2.0577426 0.5756030 16711746
-0.1017544 -1.9270469 -0.1249973 16711746
-0.0417630 -1.8526427 -0.1499920 16711746
-0.3390484 -0.7924933 0.0994327 16711746
-0.2598874 -0.6174988 0.0824554 16711746
-0.4733642 2.5536668 -0.9181182 16711746
-0.6024595 -2.1573780 0.7053292 16711746
0.1079735 -1.0929583 0.2244218 16711746
-0.5194539 -1.8091482 0.3839110 16711746
-0.6210293 -1.3666842 0.2871553 16711746
-0.2490185 -1.8595239 0.1912046 16711746
-0.4060535 -1.5880580 0.1314354 16711746
-0.7750331 -1.4906821 0.2056305 16711746
-2.7962298 3.9709947 -0.6380024 16711746
-0.1286416 2.2082345 -0.8317547 16711746
-0.4690420 -1.3660622 -0.1460597 16711746
-0.4917059 -1.3895009 -0.1868063 16711746
-0.0532144 -0.9012172 0.2255771 16711746
-0.0360111 -0.9120711 0.1663896 16711746
-0.0566090 -0.9655420 0.1621033 16711746
-0.6006775 -1.6797343 0.4180022 16711746
-0.6507312 -1.8661548 0.4110114 16711746
-0.0834547 -0.6289585 -0.0542639 16711746
-0.0264734 -1.7937266 -0.0890115 16711746
-0.2626413 -0.8860765 0.0416632 16711746
-0.2291835 1.9598240 -1.3420620 16711746
-0.8965467 2.1478202 -1.4648813 16711746
-1.0614125 2.5230608 -1.6449498 16711746
-0.8604752 2.2035222 -1.7379020 16711746
-0.5517153 -0.9303693 0.2665317 16711746
-2.8109810 3.8320258 -0.6475157 16711746
-0.0484967 -2.3021874 0.2237849 16711746
-0.0340664 -1.6433178 0.1414383 16711746
0.1181043 -2.1811740 0.2182724 16711746
-0.1377717 2.1272781 -0.9841419 16711746
-0.0488834 -1.5338421 0.3048832 16711746
-0.1093726 2.1480463 -0.9312063 16711746
-0.1055518 2.1721814 -0.8889378 16711746
-0.0503676 -1.8158772 -0.0624106 16711746
-0.1093557 2.2446306 -0.7970841 16711746
-0.1804132 -1.5581830 0.3937107 16711746
0.9793611 -1.7221588 0.2025812 16711746
0.5143386 -1.7975273 0.3159603 16711746
0.6962710 -1.9213008 0.3930714 16711746
0.5335737 -1.0650123 0.1767610 16711746
-0.6360101 -1.1942483 0.1980501 16711746
-0.8300523 -1.5163940 0.2135969 16711746
-0.4743547 -1.2325742 0.0675845 16711746
-0.0578304 -2.2566113 0.2885514 16711746
-0.0117564 -1.5709689 0.1748064 16711746
-0.5860751 -2.0875897 0.2414203 16711746
-0.4794277 -2.0217700 0.2304949 16711746
-0.7709666 -1.8079603 -0.1132090 16711746
0.1131124 -1.9282373 0.3567952 16711746
-0.9861627 -1.8489565 0.1176758 16711746
-0.8913183 -2.6910748 0.4378825 16711746
-0.5866728 2.0617101 -0.8168617 16711746
-0.4887763 2.4971323 -1.0237055 16711746
-0.3535488 2.1077244 -1.7377428 16711746
-0.2904435 2.2308047 -1.7647146 16711746
0.1852594 1.9769415 -1.7018173 16711746
-0.2461152 2.0478649 -1.2697318 16711746
-0.7807050 2.1068919 -0.8307509 16711746
-0.6118757 2.0488703 -0.9550890 16711746
0.5345066 -0.7434224 0.1252639 16711746
0.1840510 -2.3637147 0.7073869 16711746
-0.2910454 -0.8301580 -0.0493665 16711746
-0.6372792 -1.8525599 -0.0447233 16711746
-0.2422659 -0.7989916 -0.0071625 16711746
-0.2872767 -1.1275525 -0.1294195 16711746
-0.3300390 -0.5762528 -0.1512339 16711746
-0.9843270 -2.0614228 0.4154029 16711746
0.1445495 -1.9510386 0.2827865 16711746
0.0641794 -2.0927758 0.2875170 16711746
0.2821861 -1.7931149 0.3261846 16711746
-0.5600706 -1.4655110 -0.1999561 16711746
-1.1020027 2.8733261 -0.6720752 16711746
-0.1254894 2.8493662 -0.9818915 16711746
0.1442716 -0.9454940 0.1669644 16711746
-0.5577273 -1.5971047 0.0801635 16711746
-0.6623479 -1.6332742 0.1892225 16711746
-0.3068199 2.2236118 -0.8217333 16711746
-0.5825042 2.0356803 -0.9699711 16711746
-1.0303239 2.0359526 -1.0635930 16711746
-0.7600983 2.0953674 -1.0727507 16711746
-0.7403889 2.6087372 -0.8535590 16711746
0.5381420 -1.5423720 0.2684031 16711746
-0.0259811 -0.6265327 0.0430085 16711746
-1.1554515 2.6041493 -0.8423428 16711746
0.3236420 -1.1202241 0.1796038 16711746
0.1299740 -2.3616397 0.5966008 16711746
-1.2032497 2.6304691 -0.8027627 16711746
-1.1064608 2.5715358 -0.7224193 16711746
-1.3449851 2.9949617 -0.7562311 16711746
-0.5054473 -1.5414892 0.1210629 16711746
7.4081240 -11.4028234 3.2689121 16711746
-27.3415394 -44.3091240 -1.7445159 16711746
-1.7209491 -9.9875669 2.7743361 16711746
-5.5456667 -12.7805605 0.2838110 16711746
4.2721300 -57.3197365 24.6760426 16711746
4.1149712 -67.1701431 18.3465004 16711746
4.1520953 -56.4009171 24.3093929 16711746
4.2127333 -66.6874924 18.1611919 16711746
-2.9671512 -6.7015910 1.2104536 16711746
-9.6278410 -171.6053162 -18.9159908 16711746
