# .PCD v.7 - Point Cloud Data file format
VERSION .7
FIELDS x y z rgb
SIZE 4 4 4 4
TYPE F F F F
COUNT 1 1 1 1
WIDTH 52
HEIGHT 1
VIEWPOINT 0 0 0 1 0 0 0
POINTS 52
DATA ascii

 1.1588321 -2.6101725 4.4483633 16777215
 0.0219846 -0.0479399 0.0814325 16777215
-0.0086951 -0.5803384 0.0589262 16711746
0.0719889 -0.3839782 0.1778722 16711746
0.1146855 -1.0988989 0.2880378 16711746
-0.0190183 -0.7099553 0.2973278 16711746
0.7796769 -0.9597995 0.1178014 16711746
0.1204470 -0.4782853 0.0572293 16711746
0.9599155 -4.6187282 -0.1774330 16711746
0.9553403 -4.4539275 -0.2253170 16711746
0.8729922 -3.0618598 0.8046266 16711746
-0.1689699 -2.2439327 -0.0941023 16711746
0.1333697 -1.1157254 0.0217381 16711746
2.3961337 -6.2971535 0.5460926 16711746
0.6202839 -1.1574274 -0.0083537 16711746
0.9036036 -5.4733143 0.1265393 16711746
0.1649310 -0.9795209 0.0714745 16711746
0.4654909 -1.1048167 -0.0309686 16711746
0.0702576 -1.3323646 -0.0183282 16711746
0.9604082 -4.7947125 -0.0295537 16711746
-0.1189182 -0.6192091 -0.0183413 16711746
-0.1410996 -2.0110798 -0.1978246 16711746
-0.5914721 -3.3802710 0.6927248 16711746
0.0131930 -0.5313588 0.1277730 16711746
0.9484261 -5.1404438 -0.2443855 16711746
0.2018237 -0.5383710 0.1789427 16711746
0.4085554 -0.9634145 0.3667160 16711746
-0.0800466 -0.6107376 -0.0197148 16711746
0.9045023 -3.8041980 1.0199029 16711746
-1.0688720 4.0724869 -2.1936224 16711746
0.0865981 -1.2847792 0.0557122 16711746
-0.0013185 -1.6061631 0.0456417 16711746
-0.7432845 -3.7189398 0.1460555 16711746
-1.4929796 -3.2650821 -0.1407114 16711746
0.0769530 -0.4434881 0.1395011 16711746
1.8362448 -3.6514075 0.3625407 16711746
2.4996753 -5.2652216 -0.2228809 16711746
0.4559750 -1.0799441 0.0010262 16711746
0.6563428 -1.7647278 0.2917651 16711746
-0.5172220 -3.3265657 0.1077939 16711746
-0.2508990 -0.6315973 0.1043784 16711746
0.7020177 -1.8295165 0.1744673 16711746
0.2090171 -0.5140203 0.1009565 16711746
-0.1509530 -1.9987971 -0.2355477 16711746
0.7845036 -1.1210599 0.0069608 16711746
0.5941271 -0.9979571 0.0132967 16711746
0.5553941 -1.3939016 0.2655097 16711746
0.2000999 -0.7231066 0.1440856 16711746
0.9624121 -4.2715564 0.4527128 16711746
0.0966362 -0.5171189 0.0936954 16711746
0.1263506 -1.1269604 0.1123471 16711746
4.6506133 -69.1102982 45.0431557 16711746
