# .PCD v.7 - Point Cloud Data file format
VERSION .7
FIELDS x y z rgb
SIZE 4 4 4 4
TYPE F F F F
COUNT 1 1 1 1
WIDTH 107
HEIGHT 1
VIEWPOINT 0 0 0 1 0 0 0
POINTS 107
DATA ascii

 19.8153648 49.5684319 60.3144722 16777215
 0.1794197 0.4580784 0.5548247 16777215
0.4651358 -0.1858116 0.7566886 16711746
0.2017693 -0.5060582 1.0758899 16711746
0.1921930 -0.5310932 1.0653877 16711746
0.4167831 -0.3023906 0.8250815 16711746
0.7351583 -0.3839149 0.7613302 16711746
-0.0618844 -0.4573992 1.1119989 16711746
-0.0771710 -0.4594851 1.1062906 16711746
0.3956849 0.0325818 0.9304183 16711746
0.2947230 0.0647294 0.7291453 16711746
0.0175872 -0.4794788 1.2637230 16711746
-0.0192935 -0.4645279 1.2652067 16711746
0.5876862 -0.0548413 0.7300940 16711746
-0.3671046 -0.4925139 1.0758768 16711746
0.1979901 -0.6087587 1.0065702 16711746
0.3991893 -0.2118465 1.0132467 16711746
0.4492119 -0.1391922 0.8063266 16711746
0.3379192 -0.3257824 1.0613126 16711746
-0.0469238 -0.4098844 1.1354849 16711746
0.4860299 -0.3541973 0.8473794 16711746
0.6605317 -0.1722372 0.7694785 16711746
0.1929775 -0.2956415 1.2399896 16711746
-0.1005859 -0.1968597 1.1605507 16711746
-0.0707830 -0.6817246 1.1923988 16711746
0.1200884 -0.5823125 1.0506192 16711746
0.2513561 -0.5714447 1.0090210 16711746
0.4095078 -0.4028387 0.9574282 16711746
0.0293696 -0.4592797 1.2665851 16711746
-0.5288770 -0.1964936 1.0278710 16711746
-0.5504610 -0.3718515 1.0512401 16711746
0.1664598 -0.2576730 0.9521891 16711746
0.1246762 -0.5247225 1.0874698 16711746
-0.4844141 -0.2663901 0.8796817 16711746
-0.3670804 -0.4111137 1.1025546 16711746
-0.6232691 -0.2480658 0.9167067 16711746
0.0643705 -0.5981968 1.0423560 16711746
0.0189758 -0.5930912 1.0426975 16711746
0.4668687 -0.1395960 0.8969969 16711746
-0.4335513 -0.4413016 1.2342656 16711746
-0.3418269 -0.3362586 1.1428882 16711746
0.4817535 -0.2288260 0.8765466 16711746
0.0148905 -0.6140751 1.0229781 16711746
0.2503023 -0.4480715 1.0811421 16711746
0.1980564 -0.5426041 1.0560224 16711746
-0.4712530 -0.1499241 0.8944635 16711746
0.0698426 -0.6276565 1.2208318 16711746
-0.0039162 -0.0759401 0.9210153 16711746
-0.4491749 -0.3923865 0.9462647 16711746
-0.2000912 -0.3227243 1.3496389 16711746
0.1876992 -0.4738912 1.0969087 16711746
-0.4959682 -0.2374096 0.8584244 16711746
0.0555079 -0.5615602 1.0700525 16711746
-0.0337792 -0.5125346 1.2554234 16711746
0.0228031 -0.4021300 1.1465333 16711746
-0.0123463 -0.3999993 1.1444383 16711746
0.4204387 -0.0116336 0.9309442 16711746
0.1721409 -0.5255762 1.2306111 16711746
0.4588278 -0.3072169 0.9109558 16711746
0.3919274 -0.0780522 0.7901991 16711746
0.4958742 -0.3785501 0.9701980 16711746
0.4472731 -0.2999133 0.9328956 16711746
0.0872317 -0.5291483 1.0896997 16711746
0.1135700 -0.4515109 1.1243248 16711746
0.0177751 -0.1173231 1.0929357 16711746
-0.0940364 -0.1157861 0.8334856 16711746
-0.2738292 -0.3983571 0.9763417 16711746
-0.1708151 -0.5074201 1.0195923 16711746
0.1527105 -0.4752349 1.1065736 16711746
0.1047076 -0.4873211 1.1099623 16711746
-0.2149738 -0.5509173 1.1927969 16711746
-0.1232024 -0.4247120 1.1049068 16711746
-0.2623498 -0.5043093 1.1782293 16711746
-0.2018845 -0.3888313 1.0736127 16711746
-0.0417699 -0.5508261 1.0616229 16711746
-0.0940889 -0.4679887 1.0956862 16711746
-0.2666127 -0.5696913 1.1519147 16711746
-0.1947226 -0.4362459 1.0525724 16711746
-0.1599540 -0.2950954 0.9601305 16711746
-0.3794172 -0.4257549 1.0814521 16711746
-0.3533012 -0.4736196 1.1021342 16711746
-0.1293902 -0.4899502 1.0649743 16711746
-0.1768691 -0.4751791 1.0409408 16711746
0.2173464 1.0374037 -0.5631633 16711746
0.2454056 -0.3715715 1.1097337 16711746
0.3054757 0.0422801 0.8098243 16711746
0.3653704 -0.3412251 1.0322424 16711746
0.1782100 -0.4337789 1.1164035 16711746
0.3371103 -0.4878832 0.9980660 16711746
0.2673017 -0.3916072 0.9536757 16711746
0.4483038 -0.2060608 0.7991080 16711746
0.2987683 -0.2397191 1.1001128 16711746
0.0477884 -0.3409187 1.2716216 16711746
-0.5344548 -0.2601347 1.0460305 16711746
-0.1772188 -0.5182732 1.0022807 16711746
-0.4144015 -0.4689650 1.0000272 16711746
-0.3757721 -0.5532774 1.0291487 16711746
-0.5384641 -0.4250989 1.0837926 16711746
375.8817444 -422.9625244 1318.1658936 16711746
321.9508057 -362.3212891 1129.6074219 16711746
-191.6787415 -678.9299316 662.5692139 16711746
-187.8484802 -654.3873291 639.7452393 16711746
-336.1134033 -575.1989136 523.4613647 16711746
501.5954590 -1436.5769043 2614.9973145 16711746
416.8406982 -1105.7503662 2107.0524902 16711746
-89.4728394 -139.9813232 200.6039734 16711746
599.0974731 -910.0088501 2255.2075195 16711746
