# .PCD v.7 - Point Cloud Data file format
VERSION .7
FIELDS x y z rgb
SIZE 4 4 4 4
TYPE F F F F
COUNT 1 1 1 1
WIDTH 92
HEIGHT 1
VIEWPOINT 0 0 0 1 0 0 0
POINTS 92
DATA ascii

-0.9210523 -0.9134914 0.1562340 16711746
-1.2323706 -0.6048417 0.3792110 16711746
-0.6904555 -1.1608906 0.4059727 16711746
-0.5258228 -1.2468989 0.5686761 16711746
-0.5212638 -1.2237928 0.3741814 16711746
-0.5688347 -1.2470312 0.3347529 16711746
-0.5633483 -1.2166809 0.3325288 16711746
-0.7836459 -1.0418448 0.0332098 16711746
-1.3213576 -0.5806122 0.3172805 16711746
0.4731571 1.1245630 -0.7198375 16711746
-0.6874588 -1.1312453 0.5053862 16711746
-0.6099400 -1.1916940 0.3993122 16711746
0.6067488 0.9092925 -0.7325079 16711746
-0.3785113 -1.3420693 0.5129290 16711746
-0.2398010 -1.4244537 0.5001559 16711746
-1.1495830 -0.7040629 -0.2751843 16711746
-0.0144267 1.0073842 -1.0702513 16711746
0.3255973 0.6996955 -0.6673940 16711746
0.2405756 0.9269149 -0.8808604 16711746
0.2559297 1.0051938 -0.9157862 16711746
-0.6884277 -1.2275597 0.7884938 16711746
-0.7715908 -1.1931051 0.4804320 16711746
-0.5540435 -1.2273415 0.4953038 16711746
0.7533606 0.7415956 -0.7874299 16711746
0.5231045 0.7155555 -0.7909980 16711746
0.8957789 0.7055308 -0.7181616 16711746
0.9339193 0.6866922 -0.6993700 16711746
-0.7640581 -1.1032282 0.4697786 16711746
0.7728261 0.7961811 -0.7367457 16711746
0.5984381 0.7730978 -0.6829464 16711746
0.7054933 0.7200938 -0.8314208 16711746
0.4175517 0.9168779 -0.7655529 16711746
0.4895923 0.8262104 -0.6907995 16711746
0.2867255 1.0296932 -0.7919433 16711746
-0.6271006 -1.2055779 0.6782096 16711746
-1.0002160 -0.8182523 -0.3308606 16711746
-0.5041074 -1.2672446 0.4349835 16711746
-0.8056065 -1.0299462 0.0545273 16711746
-0.3350823 -1.3670176 0.8235717 16711746
0.1936804 0.8998081 -0.7592283 16711746
-0.0103082 1.1548786 -0.9522679 16711746
0.2587610 1.0747212 -0.7908531 16711746
-0.5614852 -1.2062609 0.4617894 16711746
-1.3712337 -0.6166080 0.4370405 16711746
-1.2286305 -0.5593946 -0.0554258 16711746
0.2395806 1.1420056 -0.7198643 16711746
0.3724635 1.3024009 -0.7549745 16711746
0.1030684 0.8867223 -0.8774672 16711746
-0.1245227 0.9132718 -0.9229861 16711746
0.9577104 0.5789299 -0.7320165 16711746
0.8099269 0.9122317 -0.6254840 16711746
-0.8870158 -1.0918776 0.7814436 16711746
0.9370400 0.6633288 -0.7092241 16711746
0.9611956 0.6264996 -0.7069466 16711746
-1.0833209 -0.6643234 -0.2060054 16711746
-1.1139634 -0.5614120 -0.2717184 16711746
-1.1863410 -0.6547975 -0.0551037 16711746
-0.9242674 -0.9196431 0.1293954 16711746
-0.7622113 -1.0452803 0.6943484 16711746
-0.7758213 -1.0484903 0.6546163 16711746
0.6080769 1.0484095 -0.6568241 16711746
-0.6769583 -1.1859643 0.7929834 16711746
-0.7794960 -0.9590479 0.1135889 16711746
-0.7114071 -1.0599961 -0.1886521 16711746
-1.1563888 -0.6427191 -0.0859306 16711746
-0.5420870 -1.2098056 0.3944995 16711746
-0.1434920 -1.4975332 0.4785278 16711746
-0.4658140 -1.2682481 0.2217574 16711746
-0.4752951 -1.2822785 0.6581494 16711746
-0.5618320 -1.1990366 0.5291803 16711746
-0.4033934 -1.3316193 0.5824088 16711746
-0.5184479 -1.2305647 0.3898315 16711746
-1.1673858 -0.6579962 -0.1523685 16711746
-0.8106436 -0.9618485 -0.1915519 16711746
0.1165311 1.0382445 -0.6996221 16711746
0.1809282 1.2319932 -0.7491009 16711746
-0.4687234 -1.2765371 0.7394975 16711746
-0.5428001 -1.3336302 0.7264652 16711746
-0.2880209 -1.3961625 0.7694110 16711746
-5.5479794 -104.5805511 13.8621655 16711746
-22.6280804 -95.1641846 -5.4059844 16711746
0.7107314 -89.3117371 62.3377647 16711746
3.6908631 -109.6560516 81.5589142 16711746
-3.6465304 -13.9803934 4.8175473 16711746
-31.1181679 -146.2283325 111.9988098 16711746
-0.7642683 -62.5424957 39.1107597 16711746
-24.8139286 -199.0260925 53.6989517 16711746
14.0937204 -122.6495209 79.7804794 16711746
-46.8504829 -262.4552307 159.2058868 16711746
-68.5755081 -238.7261047 66.7960968 16711746
-68.5103531 -209.6292419 81.0694504 16711746
-1.9266086 -60.7091980 33.1103477 16711746
