# .PCD v0.7 - Point Cloud Data file format
VERSION 0.7
FIELDS x y z rgb
SIZE 4 4 4 4
TYPE F F F F
COUNT 1 1 1 1
WIDTH 1196
HEIGHT 1
VIEWPOINT 0 0 0 1 0 0 0
POINTS 1196
DATA ascii
3.3679426 -15.618412 16.223799 16711746
7.4784851 -14.752991 13.621758 16711746
0.74601084 -10.261703 16.8612 16711746
6.6319494 -9.0709515 12.30067 16711746
8.3188038 -13.971521 17.862696 16711746
6.2216482 -10.155234 13.923249 16711746
10.833031 -13.704154 11.361882 16711746
-0.31687388 -13.637402 18.029076 16711746
6.5633001 -15.883566 19.897989 16711746
6.6685867 -10.601701 23.232729 16711746
-2.1370363 -17.281218 21.145264 16711746
1.7305375 -14.5734 13.152348 16711746
3.1944625 -10.33469 11.478513 16711746
-2.8766444 -13.302675 16.858194 16711746
7.9556212 -20.843159 14.750339 16711746
-0.34532055 -14.326553 22.838154 16711746
7.7600369 -9.7140722 12.652959 16711746
7.1277704 -10.399614 13.512789 16711746
16.788485 -13.910014 9.8498716 16711746
10.248628 -11.823622 12.554231 16711746
-0.57083869 -13.299227 16.76001 16711746
-1.160643 -13.756743 17.829489 16711746
7.6557994 -10.728274 16.391983 16711746
-1.4781367 -12.685032 18.067003 16711746
3.7842836 -14.786938 14.972878 16711746
0.13696395 -13.416945 18.359503 16711746
-22.908239 -17.549706 16.254812 16711746
14.440832 -12.62303 15.544724 16711746
12.495335 -12.0945 15.67348 16711746
3.2970064 -14.357599 16.944092 16711746
2.0624735 -20.208979 19.625126 16711746
-0.97180945 -23.176538 21.777136 16711746
11.646933 -11.14577 13.148983 16711746
10.296755 -6.9196601 11.265356 16711746
7.8964653 -11.775556 31.806271 16711746
11.689108 -12.21434 11.742278 16711746
11.773836 -12.91531 11.885902 16711746
8.6150103 -12.690896 20.369595 16711746
16.882093 -10.757573 22.686348 16711746
-14.848335 -12.41695 12.285857 16711746
8.6969442 -12.747326 20.39183 16711746
8.1272774 -8.8270493 13.917458 16711746
-3.6189315 -16.052477 26.722729 16711746
7.3912077 -6.2583804 14.189426 16711746
8.8327894 -12.814066 12.660277 16711746
6.7100749 -11.101665 20.590786 16711746
8.217267 -11.074848 12.526358 16711746
7.4291754 -18.56658 13.751487 16711746
12.865198 -12.132115 18.653328 16711746
8.7900715 -12.780835 11.547921 16711746
3.3841836 -16.321329 15.267256 16711746
8.2839842 -12.254969 18.48691 16711746
-9.5531778 -12.573642 12.863032 16711746
-13.289941 -10.047745 12.108654 16711746
-5.5274224 -13.705986 18.176199 16711746
0.34664986 -15.562419 18.486567 16711746
17.163542 -10.277721 21.880487 16711746
4.2540469 -13.714269 24.229895 16711746
24.063251 -11.522415 18.38014 16711746
12.784369 -13.563347 24.329618 16711746
7.9457245 -12.61381 23.035336 16711746
10.412207 -11.65421 9.9215784 16711746
9.968544 -13.398633 10.979276 16711746
13.173872 -12.30913 31.10927 16711746
3.8462758 -15.18609 19.775307 16711746
13.71193 -19.416048 26.482353 16711746
9.2364216 -13.257788 14.02114 16711746
14.707341 -12.74104 34.981277 16711746
18.501554 -16.892109 41.861469 16711746
8.2391043 -10.755699 17.44252 16711746
8.1956625 -10.762432 17.452122 16711746
9.5872211 -13.509788 39.513515 16711746
-1.382916 -13.157845 15.987878 16711746
14.56666 -19.045338 28.67119 16711746
-3.6296501 -16.692757 44.823181 16711746
-4.6161714 -14.4486 38.862175 16711746
5.7338963 -13.110509 24.934559 16711746
6.9586434 -16.609343 15.849863 16711746
16.329815 -15.054091 10.912817 16711746
10.02837 -15.570695 39.810577 16711746
13.017828 -14.035614 16.794668 16711746
8.565361 -11.505228 35.861206 16711746
7.9556527 -10.899547 27.129171 16711746
10.545794 -15.834279 44.59753 16711746
-2.8069625 -13.5644 13.453133 16711746
6.8993926 -6.4715662 14.41549 16711746
1.5588856 -10.067361 19.282904 16711746
-3.6675155 -13.8464 26.742908 16711746
1.3007716 -4.6281867 7.2497096 16711746
20.449554 -12.134307 27.796934 16711746
10.409857 -10.605006 11.63857 16711746
25.003395 -24.372746 17.768894 16711746
24.994482 -27.040253 63.28344 16711746
-4.2965164 -15.54064 14.787496 16711746
14.749738 -14.978646 10.584078 16711746
3.9483521 -13.542648 14.863609 16711746
1.5739568 -12.72602 12.602442 16711746
13.601013 -13.013813 16.983347 16711746
7.9521766 -17.941765 13.843059 16711746
-1.0979503 -15.970177 14.660176 16711746
-2.5098062 -13.890519 16.849638 16711746
6.8514333 -9.9554558 12.678717 16711746
19.859442 -12.246315 17.709162 16711746
1.967845 -13.049712 12.712224 16711746
11.789572 -10.102098 15.756007 16711746
4.1597376 -12.01757 10.720685 16711746
-2.6998606 -15.304498 18.486822 16711746
-1.3493849 -13.336759 17.272501 16711746
-1.443379 -16.688522 19.586298 16711746
17.799849 -12.452702 17.500671 16711746
-2.1579692 -10.743465 21.666574 16711746
10.582417 -11.128573 10.540348 16711746
3.8305168 -15.285087 19.800905 16711746
5.906127 -9.0782089 20.38188 16711746
18.74803 -12.549372 15.796486 16711746
10.131554 -9.6974106 11.187086 16711746
6.6614323 -10.439522 12.236057 16711746
1.1535712 -14.210101 12.063635 16711746
12.997199 -11.712842 13.683393 16711746
1.6695279 -14.812773 13.224186 16711746
12.865915 -13.594819 17.133621 16711746
5.6872225 -12.277552 24.987736 16711746
17.669683 -8.9514256 22.443979 16711746
-3.4538159 -11.337597 20.702187 16711746
-6.4586821 -14.919779 14.220525 16711746
17.35606 -7.8176584 21.031668 16711746
-5.4735103 -13.563905 18.037945 16711746
-1.8209325 -15.764534 30.852062 16711746
6.9299107 -7.3541851 15.14138 16711746
3.2784331 -12.942011 19.536339 16711746
19.707449 -21.773285 49.833317 16711746
15.837513 -9.9150429 21.146631 16711746
12.531628 -15.972508 13.424475 16711746
14.37803 -11.111982 14.903941 16711746
7.0394163 -12.466816 26.80607 16711746
10.126189 -15.367707 37.120987 16711746
-3.4413903 -15.414721 14.237962 16711746
2.8996623 -9.0653753 22.168756 16711746
2.1141248 -10.525739 15.320421 16711746
2.8115315 -10.687207 23.821489 16711746
2.8153195 -13.098982 18.981319 16711746
20.500994 -10.269152 16.072363 16711746
7.9801793 -6.4790783 18.874792 16711746
4.2940779 -12.360196 21.683626 16711746
6.422894 -15.687582 24.398941 16711746
16.638586 -19.314573 44.058762 16711746
-3.4621987 -12.910577 13.691476 16711746
3.3511806 -14.938256 14.40194 16711746
6.0798254 -18.017082 19.852758 16711746
-6.8988757 -17.852762 14.786962 16711746
-7.1658945 -15.591236 26.108511 16711746
-3.5180342 -11.899202 17.524063 16711746
3.6056864 -14.644217 19.512228 16711746
-3.9779024 -15.016684 14.636574 16711746
-6.0579462 -14.173605 24.180265 16711746
4.357594 -10.851207 19.922895 16711746
-4.7261133 -13.896132 19.775307 16711746
-4.8772306 -14.024222 19.925533 16711746
5.4089222 -18.758263 18.01359 16711746
7.3698473 -11.222397 16.145145 16711746
7.6541033 -11.246187 13.102609 16711746
6.8553977 -10.678859 12.893397 16711746
8.0406113 -14.297915 13.590815 16711746
-1.0934747 -15.55588 16.422903 16711746
14.669178 -13.417407 12.011399 16711746
8.6912985 -19.501982 15.907698 16711746
5.6444473 -15.784887 15.020113 16711746
6.7855086 -11.854361 18.430946 16711746
-2.4802318 -12.399727 18.155828 16711746
3.3589985 -8.7828979 13.400898 16711746
0.49039406 -14.267745 13.066807 16711746
15.205307 -14.273401 10.34202 16711746
6.4161639 -14.642388 17.49893 16711746
6.917047 -13.196239 18.606398 16711746
13.576539 -13.39372 19.541359 16711746
15.934979 -13.051605 9.2226572 16711746
-1.7088326 -16.052692 19.908373 16711746
6.2239642 -12.544538 17.099964 16711746
3.5402398 -13.686937 14.378194 16711746
3.3864682 -9.7838917 16.74254 16711746
-4.3243561 -16.388319 15.651168 16711746
13.866334 -12.501267 11.490153 16711746
-5.3507395 -10.718083 18.798422 16711746
-2.078016 -12.8902 17.071857 16711746
-2.1856258 -10.818328 16.844978 16711746
-2.1073353 -15.39482 24.341297 16711746
5.3141122 -17.669296 17.198597 16711746
-4.0906954 -13.684173 17.48737 16711746
-5.1593266 -12.999907 13.401267 16711746
-4.5924077 -11.098338 17.039045 16711746
-1.8891054 -18.482969 17.307068 16711746
6.7475662 -11.889105 13.743094 16711746
5.5816374 -9.73419 13.950558 16711746
-0.85356921 -15.2137 23.169271 16711746
10.925484 -14.840217 12.476381 16711746
7.180449 -13.840938 17.436932 16711746
7.2052431 -15.035897 13.4207 16711746
0.9403522 -16.300106 13.927892 16711746
5.7976322 -5.5283556 11.914313 16711746
-0.32727161 -12.323695 19.205843 16711746
5.5061522 -4.7673764 11.572814 16711746
-2.7002273 -20.984362 16.691694 16711746
6.5976777 -15.6239 18.332453 16711746
11.499895 -11.975816 16.894402 16711746
-2.6739645 -13.853943 17.917292 16711746
33.313412 -14.883853 24.685503 16711746
5.2320919 -14.206061 23.286867 16711746
8.8972292 -11.986951 17.024763 16711746
31.285324 -13.922867 23.36249 16711746
-14.86163 -17.348667 16.172237 16711746
15.870104 -11.176257 22.805325 16711746
10.052675 -15.590466 21.460028 16711746
17.961906 -14.47921 11.354898 16711746
8.0304451 -16.033298 24.986893 16711746
-1.8945804 -15.879934 22.207628 16711746
16.958525 -9.0848236 21.255964 16711746
7.6785765 -9.2029743 14.396088 16711746
3.5694988 -14.220439 22.326605 16711746
3.7496009 -14.220122 16.775919 16711746
19.972212 -19.46229 14.537333 16711746
22.346394 -9.8434343 26.674767 16711746
14.136149 -12.107438 33.354 16711746
35.803482 -11.067465 30.275019 16711746
-1.377762 -12.019778 17.159016 16711746
11.621575 -12.66996 11.311301 16711746
14.244702 -17.667843 31.966074 16711746
3.2031279 -11.183962 26.829918 16711746
13.012122 -11.771702 14.954062 16711746
12.858436 -10.73484 14.280396 16711746
13.577295 -12.826794 15.278447 16711746
6.5030971 -11.723782 22.011559 16711746
15.516806 -12.610035 14.986872 16711746
9.6202173 -13.496979 18.338514 16711746
-10.253483 -16.520704 24.130484 16711746
19.468891 -18.52729 38.505993 16711746
14.01076 -13.07772 18.023197 16711746
-3.5931234 -18.029692 15.875504 16711746
15.318466 -16.9893 21.510708 16711746
11.772442 -12.680188 16.648935 16711746
19.378426 -12.575574 18.566128 16711746
-4.246634 -12.630269 19.01409 16711746
12.91026 -11.768437 15.852822 16711746
14.436324 -9.052494 19.576204 16711746
5.636085 -11.723974 23.046724 16711746
11.421886 -9.7892637 14.980647 16711746
-0.24196641 -18.668192 15.937647 16711746
3.5593612 -15.435281 15.605504 16711746
3.9508345 -12.480056 13.537321 16711746
8.1003685 -12.781051 21.308567 16711746
-5.7344742 -12.12963 18.840563 16711746
1.4501941 -13.027633 11.887106 16711746
-14.121222 -15.187279 15.048532 16711746
4.3789191 -13.662024 24.575657 16711746
12.240149 -11.311375 17.854549 16711746
3.7017798 -15.744598 15.014397 16711746
12.472691 -11.661447 15.02367 16711746
10.270962 -10.601742 15.938791 16711746
12.413581 -11.543063 18.092806 16711746
8.5733156 -12.484016 23.142105 16711746
12.714443 -11.689391 15.649534 16711746
-1.2996385 -13.139183 17.039349 16711746
12.935141 -11.324278 17.238798 16711746
3.2825694 -12.003879 18.71426 16711746
-3.1994791 -10.923116 12.244927 16711746
7.2243648 -8.7950783 15.217818 16711746
-4.0776172 -13.317909 16.47756 16711746
13.480545 -10.527224 14.913843 16711746
2.2120757 -15.05537 16.536268 16711746
-1.855976 -10.564814 15.119704 16711746
8.091938 -10.372201 13.139091 16711746
-4.1850948 -14.33387 24.939486 16711746
-1.845197 -9.9692965 12.439856 16711746
4.6004381 -13.869906 22.172466 16711746
-4.7733607 -13.090915 11.555895 16711746
8.3628225 -13.877332 20.70841 16711746
-3.9193277 -12.319508 12.508781 16711746
-0.25340375 -16.993492 15.283772 16711746
3.1222413 -12.825234 18.21302 16711746
4.2697453 -14.807332 14.531466 16711746
3.9866519 -15.459384 16.546751 16711746
4.6855898 -16.169746 25.027037 16711746
10.31911 -14.026314 13.181312 16711746
9.4540129 -12.553862 26.19451 16711746
-4.0960951 -15.08026 21.745386 16711746
5.6463523 -10.35046 14.428778 16711746
3.3181851 -13.27804 14.552011 16711746
0.43497297 -14.890531 16.08202 16711746
-10.068827 -15.300343 13.551318 16711746
12.230027 -10.941295 18.254169 16711746
6.4100857 -11.757837 16.341896 16711746
7.7184792 -16.498793 21.942602 16711746
12.111901 -11.322742 17.78624 16711746
-2.9744303 -9.963871 12.284426 16711746
11.649704 -14.068869 18.765888 16711746
13.710092 -12.711452 29.152643 16711746
-5.5469971 -16.01333 13.68626 16711746
15.002916 -10.959796 35.543247 16711746
-3.3987305 -16.042271 15.899138 16711746
0.19801936 -16.266212 15.536779 16711746
10.281495 -10.507105 15.77588 16711746
-6.8617029 -23.686409 18.347755 16711746
15.424352 -12.613973 14.997916 16711746
19.821934 -16.077553 14.250897 16711746
2.9407179 -11.11499 17.587818 16711746
13.079136 -13.782788 16.942486 16711746
10.518495 -15.443216 40.686001 16711746
-4.2589464 -18.071154 48.158642 16711746
13.500122 -12.450881 14.099067 16711746
18.001978 -21.231695 49.101536 16711746
5.9178104 -16.13826 15.759813 16711746
3.4993291 -15.887826 41.501194 16711746
-5.8878765 -10.716096 18.395569 16711746
-17.071342 -19.749462 17.687172 16711746
2.2587638 -12.318871 20.772797 16711746
5.9410739 -16.783508 16.092375 16711746
-2.9877782 -14.29463 18.480686 16711746
3.323086 -4.3556118 9.9081383 16711746
-3.5691321 -18.382536 23.077927 16711746
15.694638 -15.530746 31.489759 16711746
8.4371452 -12.157001 24.281855 16711746
12.037474 -12.084396 18.345827 16711746
7.2471018 -11.723049 14.569273 16711746
6.693018 -21.051151 18.533016 16711746
4.2731614 -14.381867 14.913706 16711746
-3.1289556 -12.125937 16.787189 16711746
-2.2454948 -15.708301 14.347229 16711746
1.1166501 -12.699549 23.756279 16711746
12.187546 -10.902639 16.1103 16711746
2.5810173 -11.780209 18.442608 16711746
7.5075464 -12.483951 15.123172 16711746
3.9404111 -17.314959 22.508257 16711746
8.7515297 -17.628565 19.668251 16711746
4.3944893 -14.29049 23.961643 16711746
4.3215141 -16.180893 16.002436 16711746
4.1325746 -13.571389 13.915197 16711746
2.6651876 -13.835449 22.702536 16711746
8.5531597 -13.975174 22.72966 16711746
-1.8627672 -18.646446 15.353563 16711746
-1.8749601 -18.125727 15.188115 16711746
8.8599253 -12.752725 20.205584 16711746
-5.2067733 -15.238299 12.726378 16711746
12.716428 -12.28122 18.400167 16711746
8.0990143 -12.740299 21.279594 16711746
10.989283 -10.673585 11.769142 16711746
5.5864701 -15.223448 14.619795 16711746
6.9589019 -11.628415 12.692335 16711746
7.6315093 -10.516315 19.850412 16711746
8.1050901 -12.828367 21.377085 16711746
4.5866504 -17.794498 16.986654 16711746
3.6484234 -14.043756 20.336853 16711746
1.6134247 -13.666222 20.925453 16711746
3.0626528 -11.864778 13.997886 16711746
2.9642141 -9.3656445 17.736355 16711746
5.9811134 -9.462903 18.710533 16711746
-9.1416073 -14.493281 20.71032 16711746
4.3106561 -17.680864 17.338369 16711746
-12.830126 -15.016411 14.416596 16711746
3.0845335 -12.475053 14.452909 16711746
14.320539 -11.745953 20.97514 16711746
2.8506455 -10.454506 17.56963 16711746
3.0511293 -10.683188 17.334877 16711746
-4.9515676 -14.329698 13.433521 16711746
9.2989626 -14.182368 27.567255 16711746
14.051287 -14.783319 20.901974 16711746
18.112827 -9.204978 22.720716 16711746
12.911834 -13.328942 17.542738 16711746
6.9321995 -10.187769 13.143179 16711746
8.3786106 -3.8582523 15.009974 16711746
10.102172 -16.05266 30.529346 16711746
21.121265 -16.420675 18.822145 16711746
5.5997114 -16.748392 28.200775 16711746
3.4328539 -12.033481 13.425305 16711746
18.495419 -12.420643 15.723935 16711746
-4.4908652 -16.97473 39.951653 16711746
3.4485447 -13.000031 21.198574 16711746
24.754505 -14.728998 32.163673 16711746
11.301874 -18.446951 34.653198 16711746
10.517334 -16.249111 29.601673 16711746
12.897084 -12.266523 18.085268 16711746
11.28504 -12.627296 19.494165 16711746
20.830509 -30.007824 45.724781 16711746
17.131283 -16.214102 24.34091 16711746
20.749706 -15.719011 12.30493 16711746
6.5176845 -10.128266 13.752684 16711746
6.3616519 -6.2269931 13.29537 16711746
-2.1586587 -13.662395 37.109371 16711746
-7.7017026 -21.124527 65.357941 16711746
-5.8265114 -16.690105 43.938583 16711746
8.9846506 -13.990227 18.261494 16711746
7.5039253 -10.031322 16.129765 16711746
16.072506 -11.939385 17.947186 16711746
6.4216313 -15.444469 18.163397 16711746
-5.8788414 -17.804892 54.724823 16711746
-1.042443 -10.314834 27.683781 16711746
-41.982208 -19.471319 44.090466 16711746
20.143105 -13.65167 11.754925 16711746
-1.8298267 -17.74696 15.469365 16711746
13.813754 -12.453066 15.576299 16711746
12.243937 -10.926077 17.235067 16711746
13.83741 -9.8194885 18.550631 16711746
4.2790871 -12.710443 21.925093 16711746
10.744469 -11.028283 15.424782 16711746
0.16061606 -13.58427 23.285673 16711746
5.3897219 -16.173906 15.508217 16711746
13.842547 -11.081669 20.180561 16711746
7.1679277 -5.0877066 16.24337 16711746
-2.8524148 -14.699072 14.319777 16711746
13.950503 -10.329101 15.982986 16711746
12.736347 -10.056129 15.764435 16711746
1.9287988 -15.572247 25.656458 16711746
-0.37192824 -15.226306 25.303539 16711746
7.7749949 -11.959138 20.494337 16711746
12.021231 -9.6219883 14.751381 16711746
5.2850032 -14.291809 24.77898 16711746
6.7845573 -10.756434 12.871449 16711746
4.5585613 -14.655563 15.432489 16711746
6.8089695 -11.839049 20.054428 16711746
14.799346 -9.0015869 19.782633 16711746
13.739537 -9.9236937 16.117075 16711746
14.04665 -11.233575 16.786476 16711746
11.691129 -12.181044 16.654806 16711746
4.1833162 -12.070783 13.318256 16711746
6.4664288 -5.8529081 13.728414 16711746
12.534955 -11.370411 16.491264 16711746
13.095234 -9.1426907 17.697441 16711746
4.2150855 -15.229241 22.291946 16711746
10.280208 -12.567114 19.296345 16711746
-0.65636754 -11.580314 28.037149 16711746
5.5098996 -15.436293 19.626181 16711746
3.3143346 -10.90028 13.861584 16711746
-3.9962375 -14.522567 28.975872 16711746
-0.82006758 -12.172251 13.413806 16711746
13.575892 -11.926181 13.966411 16711746
6.2942109 -11.32021 13.080518 16711746
3.2048073 -13.973506 15.796153 16711746
0.5608058 -12.253991 16.9988 16711746
8.2451582 -11.008564 19.894573 16711746
13.820556 -11.04867 20.191204 16711746
11.213363 -10.334129 13.028475 16711746
18.637218 -12.036159 18.116823 16711746
3.8188431 -14.59506 21.195688 16711746
3.1870661 -12.857159 15.07612 16711746
2.5276861 -11.26758 18.509726 16711746
17.427315 -9.6981792 16.724447 16711746
2.8241973 -17.683372 20.473793 16711746
15.027412 -11.136103 15.566887 16711746
13.633098 -10.691836 15.206473 16711746
7.6665344 -14.840168 18.968712 16711746
14.739752 -8.0262299 14.975938 16711746
12.444698 -10.725993 13.284525 16711746
-1.2083378 -14.523157 28.887182 16711746
1.483804 -12.183142 18.008339 16711746
2.154053 -13.158511 20.747469 16711746
12.868567 -11.811329 19.146378 16711746
1.0970446 -13.501311 24.824312 16711746
13.215446 -12.405328 18.213079 16711746
9.0020952 -12.681693 20.133135 16711746
1.1278729 -13.04881 24.187187 16711746
3.969835 -14.336804 22.223087 16711746
6.5736094 -13.377919 14.305799 16711746
-13.680374 -15.308628 13.773008 16711746
8.1802063 -15.242464 31.003035 16711746
6.5920858 -13.464399 14.352376 16711746
0.61760932 -15.323233 23.684134 16711746
2.4345336 -12.832245 18.931686 16711746
-4.9389124 -15.077384 24.961216 16711746
18.615593 -10.75796 22.8902 16711746
9.7364063 -12.788866 18.640783 16711746
-4.4721613 -14.35969 24.065094 16711746
17.735052 -11.667559 18.757801 16711746
3.3033009 -7.9285722 20.211615 16711746
3.1568449 -13.82147 17.829556 16711746
16.298595 -14.085774 38.586788 16711746
7.1116562 -14.348075 16.917633 16711746
8.481884 -15.365509 20.906252 16711746
15.450517 -14.460397 31.050924 16711746
15.113679 -11.988728 15.172878 16711746
14.68364 -11.31492 15.060012 16711746
13.046208 -10.7826 19.151415 16711746
16.135506 -10.618306 20.653463 16711746
-6.905232 -21.423014 55.191212 16711746
27.949301 -27.485064 59.326412 16711746
-6.8789873 -21.605268 55.226227 16711746
13.86247 -15.149702 20.969501 16711746
28.606173 -28.367218 60.961918 16711746
-5.7323632 -16.951262 29.207027 16711746
-4.6453094 -17.058104 44.704807 16711746
13.244579 -13.576239 16.779644 16711746
7.9852839 -9.8373928 17.12569 16711746
1.4810774 -12.305421 20.44009 16711746
-5.223176 -14.017462 24.056612 16711746
0.98660946 -13.172636 24.267445 16711746
37.546432 -18.977596 60.320629 16711746
15.162536 -10.779915 20.720497 16711746
-5.6955814 -17.441877 15.125407 16711746
12.677503 -10.561269 14.642143 16711746
0.48716527 -14.135622 15.643896 16711746
13.328195 -10.713098 14.639248 16711746
3.4568412 -10.100993 14.665746 16711746
13.458289 -9.6927757 15.962543 16711746
8.8575048 -8.8169556 14.678126 16711746
3.3387806 -7.8633013 15.206052 16711746
3.2212775 -12.544724 14.871048 16711746
6.420053 -10.725408 13.646665 16711746
8.0514603 -6.2138963 16.617847 16711746
-0.025850454 -13.365659 20.471777 16711746
-0.66724938 -11.21946 17.766907 16711746
-0.018995013 -7.5856547 18.253256 16711746
0.51172125 -11.665236 18.841129 16711746
2.4946539 -14.316872 15.395929 16711746
0.1578493 -12.956532 21.578815 16711746
3.2709193 -9.782362 13.181042 16711746
12.597723 -10.366532 18.500566 16711746
17.477789 -12.354585 14.924775 16711746
3.8589766 -13.23346 16.642817 16711746
2.3947084 -12.418151 18.599556 16711746
12.532651 -11.52543 18.614683 16711746
-0.45342526 -10.12458 18.513887 16711746
5.2605333 -16.636339 28.493837 16711746
18.178896 -12.774065 15.65659 16711746
3.7267263 -15.561222 15.686919 16711746
-13.037796 -25.578461 40.727901 16711746
21.948858 -9.9224958 24.685522 16711746
2.9770596 -10.806539 13.944113 16711746
5.8780255 -14.005339 14.192154 16711746
17.280539 -22.089087 47.886353 16711746
3.887845 -12.151778 14.359527 16711746
15.298065 -14.589727 21.815086 16711746
3.3828545 -10.617179 16.332851 16711746
16.109922 -22.949198 44.874767 16711746
13.702755 -10.908681 17.755301 16711746
8.9128513 -11.379195 20.288651 16711746
11.739132 -13.91039 23.154663 16711746
2.70348 -9.6454506 22.517992 16711746
9.2733746 -13.639975 18.640783 16711746
12.676291 -13.677471 16.807627 16711746
3.2152324 -9.8850327 14.806878 16711746
-7.9734797 -12.877007 27.220158 16711746
-4.1450992 -14.08668 25.149681 16711746
-4.4222703 -17.048903 27.657606 16711746
17.442322 -32.442581 38.710899 16711746
0.41456619 -14.198859 15.646953 16711746
4.7344007 -13.603134 37.788666 16711746
14.566893 -11.025009 21.675339 16711746
14.135649 -9.4848967 18.858814 16711746
12.612082 -12.132333 18.217199 16711746
-1.301384 -9.9527798 34.480637 16711746
-4.3859911 -14.120307 28.463297 16711746
13.666298 -15.135183 35.63158 16711746
13.431287 -10.738241 15.936853 16711746
-6.2157168 -12.484925 24.557705 16711746
6.4204397 -14.594422 19.672318 16711746
3.3120372 -7.6408968 15.97141 16711746
2.4834018 -15.420512 16.740366 16711746
12.7441 -13.736576 24.182985 16711746
13.516108 -8.3133564 15.719539 16711746
12.805589 -14.034789 24.411074 16711746
3.1748974 -11.845765 15.767807 16711746
16.125303 -10.348761 17.641687 16711746
3.4462531 -10.995348 14.212051 16711746
6.2867446 -9.9341812 23.768362 16711746
1.2782305 -13.815204 25.518192 16711746
3.733844 -13.327581 19.058372 16711746
8.6604662 -13.12676 23.24972 16711746
-2.7204802 -11.442579 17.969564 16711746
-2.2018321 -10.917416 16.072599 16711746
-3.4920042 -14.010581 30.962978 16711746
-0.33009335 -11.698261 25.036043 16711746
-2.4446344 -10.856076 17.459362 16711746
-2.7533967 -13.5763 33.122787 16711746
0.44065499 -9.9693117 16.595314 16711746
2.024003 -12.854421 18.617258 16711746
-6.1973214 -10.681786 18.829586 16711746
15.274153 -10.265052 17.954006 16711746
-4.314312 -13.932872 28.196127 16711746
15.577039 -15.984917 37.967438 16711746
3.0826964 -14.585257 18.011885 16711746
2.8785348 -15.712377 25.709644 16711746
0.35309273 -13.298885 17.717937 16711746
13.327162 -13.065227 16.997993 16711746
18.638212 -12.063187 25.128222 16711746
13.855939 -13.945587 39.636383 16711746
17.665913 -14.993472 43.40255 16711746
17.385504 -14.762594 42.752747 16711746
3.4798994 -15.972654 19.555922 16711746
2.4837008 -15.202053 23.894608 16711746
10.632683 -13.161755 20.180952 16711746
14.342495 -11.803102 16.040846 16711746
28.590334 -11.424726 20.729706 16711746
24.763437 -19.606983 58.253311 16711746
-20.41177 -116.7177 63.221294 16711746
4.136313 -12.948762 22.900486 16711746
7.0575519 -13.692285 23.997578 16711746
5.2912111 -14.775331 27.52335 16711746
3.1826091 -16.299488 19.169018 16711746
6.9645438 -12.455227 15.570616 16711746
-6.2448053 -16.211504 43.405609 16711746
-5.4333572 -11.671064 23.414356 16711746
-1.405952 -10.362112 17.435081 16711746
1.9365618 -9.6659956 15.494424 16711746
-1.4076515 -10.09874 17.207233 16711746
3.1190143 -14.961294 36.004734 16711746
-4.8129387 -17.934578 43.4533 16711746
2.2822363 -14.323467 29.912361 16711746
29.396845 -22.760029 29.395756 16711746
0.61520195 -11.126925 17.579367 16711746
-0.40589744 -11.647958 17.274332 16711746
-4.0170569 -12.139767 18.358803 16711746
-4.53825 -13.861287 21.855921 16711746
13.708848 -14.551691 25.407482 16711746
-0.10337432 -15.430042 25.944296 16711746
-3.7294822 -11.549586 14.653749 16711746
-0.31938761 -11.219273 21.490358 16711746
0.54052734 -10.771097 18.077267 16711746
-1.2192067 -8.7178936 16.637749 16711746
5.015676 -16.604982 22.195499 16711746
0.79868901 -12.336375 22.339474 16711746
-1.115671 -14.262078 17.33313 16711746
-2.1539302 -10.383203 16.947132 16711746
-3.1322355 -10.847856 16.760857 16711746
3.3274591 -12.86255 15.155905 16711746
1.8742707 -8.5802803 16.412453 16711746
-2.0318451 -10.527204 17.985016 16711746
2.1871328 -10.592196 21.605463 16711746
-2.2576656 -10.571874 17.119225 16711746
0.88980639 -10.959469 18.817564 16711746
-0.18696705 -13.331023 22.810593 16711746
-0.63830763 -14.712583 23.584194 16711746
-1.1687857 -10.973579 18.87044 16711746
-3.1391258 -12.108438 17.00918 16711746
3.5299189 -10.130867 17.369873 16711746
1.2048926 -10.797235 20.578867 16711746
-0.59511966 -12.39164 22.019682 16711746
-3.0087075 -13.387954 14.481657 16711746
-3.7058263 -15.842579 18.679504 16711746
-1.9770418 -10.354832 17.796535 16711746
-1.0287011 -8.567318 16.442377 16711746
1.823437 -9.8566437 16.543852 16711746
-5.3327384 -11.224593 18.475227 16711746
-7.5131021 -15.340409 21.139812 16711746
-0.59426707 -15.078737 24.280804 16711746
0.53972059 -19.115026 27.716406 16711746
-8.8968153 -10.949026 18.080177 16711746
-10.590061 -12.886129 28.778963 16711746
-5.6782422 -13.078196 19.252172 16711746
-0.7277987 -12.171983 21.659445 16711746
7.2294307 -10.582405 17.82324 16711746
-3.5982845 -10.44884 15.729562 16711746
-2.577539 -9.6718063 13.500926 16711746
-1.9830904 -13.138221 29.863609 16711746
11.281116 -10.413596 21.891127 16711746
7.9588103 -13.456219 20.183414 16711746
-1.9751844 -12.467759 17.611893 16711746
-2.793642 -11.750031 17.098309 16711746
-3.7598319 -10.729713 15.887665 16711746
-6.7172918 -11.853462 21.190538 16711746
13.38958 -11.715277 17.69717 16711746
13.15866 -11.44095 19.023781 16711746
3.0328546 -17.633663 19.822472 16711746
4.0312057 -11.661804 22.530273 16711746
22.296663 -14.503384 28.048515 16711746
14.460272 -14.758 21.21632 16711746
4.0218329 -5.651257 13.102369 16711746
-5.1850939 -20.937883 28.22649 16711746
5.3460827 -33.858223 89.189911 16711746
28.606993 -14.476957 46.861393 16711746
-4.2268124 -13.662628 17.007854 16711746
23.641939 -23.725485 54.650639 16711746
4.6575885 -17.263557 18.659782 16711746
2.0350058 -10.388462 17.548052 16711746
-0.71042818 -13.352242 16.812759 16711746
1.4350697 -6.8894773 14.889348 16711746
4.3750634 -12.577915 23.299366 16711746
6.3195362 -6.1928644 14.848192 16711746
19.250202 -19.924953 36.700207 16711746
12.773678 -11.528619 16.088249 16711746
-2.7033296 -11.020916 18.059483 16711746
-1.9516809 -9.9959059 17.198524 16711746
-2.1491611 -10.235782 16.907419 16711746
-1.5184424 -11.61212 18.4123 16711746
-6.60393 -12.794994 18.874563 16711746
14.80077 -10.198761 15.692612 16711746
-20.166382 -12.634878 33.078587 16711746
15.666039 -14.201846 35.754833 16711746
11.080991 -16.097538 21.911688 16711746
17.900517 -12.61519 24.74354 16711746
15.561645 -22.250694 43.607285 16711746
-3.5975895 -12.702 14.850451 16711746
3.0189109 -11.488519 18.198009 16711746
15.424017 -10.129841 16.324499 16711746
-6.1102762 -10.61393 19.152611 16711746
2.810853 -13.589081 21.125536 16711746
17.494871 -11.237666 23.452391 16711746
9.8021259 -11.924358 19.135189 16711746
-1.6178949 -9.9882555 20.392708 16711746
13.703469 -35.737068 36.198746 16711746
4.5222874 -5.4122677 15.09403 16711746
9.9687872 -13.543782 19.924625 16711746
8.7033854 -11.646962 18.855602 16711746
16.987761 -18.349274 44.678261 16711746
13.633795 -16.316175 21.195591 16711746
-13.776024 -27.04423 34.922493 16711746
13.831079 -17.733442 25.607328 16711746
-10.617767 -22.828272 30.477644 16711746
-4.042768 -12.596272 15.271768 16711746
6.2926173 -17.686316 19.058769 16711746
10.983024 -15.180862 19.683416 16711746
-0.15633483 -11.285705 19.446529 16711746
-2.4339471 -12.277812 17.940792 16711746
14.895254 -10.314363 16.752359 16711746
19.280025 -11.255248 28.218691 16711746
21.381886 -11.696455 36.729061 16711746
12.760189 -13.68816 19.767689 16711746
12.808001 -15.855378 20.506241 16711746
22.840666 -12.513712 31.542233 16711746
12.058005 -14.51598 22.513746 16711746
15.392617 -9.5031414 23.436535 16711746
14.431295 -12.792221 18.588692 16711746
-2.3493934 -10.772678 21.941353 16711746
-1.8026232 -14.349869 17.199406 16711746
20.169075 -9.640192 34.107101 16711746
11.914001 -10.965928 17.415232 16711746
-4.2704039 -10.846474 23.205399 16711746
3.7598007 -14.665281 21.205578 16711746
-2.6840103 -13.551287 16.739182 16711746
8.3303261 -12.56914 22.578638 16711746
-1.6186666 -13.815657 24.296478 16711746
-5.2010365 -13.536077 15.995317 16711746
13.30468 -14.864363 18.77667 16711746
-4.6619835 -12.391577 23.176754 16711746
14.038773 -13.640759 20.58503 16711746
11.948982 -12.570337 17.522257 16711746
11.621679 -12.463261 16.787775 16711746
-6.1860781 -16.006678 16.904184 16711746
7.6011906 -13.114273 22.098778 16711746
-2.105392 -12.035892 16.984175 16711746
0.89214963 -12.291644 17.49988 16711746
14.270571 -12.107306 16.730614 16711746
27.317091 -9.8815804 35.681561 16711746
22.063021 -13.841129 32.276672 16711746
21.511126 -9.1180744 26.977072 16711746
15.530538 -10.943007 16.130459 16711746
-5.8211722 -10.833691 20.26721 16711746
-1.5038074 -13.64315 17.361105 16711746
19.792505 -9.6680355 27.343151 16711746
16.235598 -10.89607 20.801622 16711746
16.055428 -11.967466 21.474659 16711746
1.0391868 -10.111399 18.042622 16711746
12.211925 -14.45483 23.775423 16711746
12.63512 -11.957016 18.183918 16711746
-3.7541757 -11.011827 22.658297 16711746
22.742031 -11.137401 37.994843 16711746
9.4463654 -12.606215 33.726677 16711746
21.90831 -9.4536915 27.429497 16711746
-0.083812743 -12.210347 22.685921 16711746
16.16921 -11.480759 18.284582 16711746
1.586498 -9.3602629 16.955433 16711746
-6.8319855 -17.636839 17.522272 16711746
-0.99218512 -12.374527 16.769926 16711746
8.5835314 -13.141093 20.394514 16711746
-2.1906734 -10.194092 21.56233 16711746
20.387489 -7.2508273 26.314075 16711746
16.544998 -10.070049 36.39423 16711746
13.69917 -6.6416283 19.400528 16711746
1.9674214 -13.248848 20.723951 16711746
8.8493919 -14.337567 26.2983 16711746
0.98644996 -14.772081 17.253731 16711746
17.419264 -10.86054 25.89259 16711746
14.877249 -9.9754782 22.082565 16711746
17.209208 -9.2069626 25.374254 16711746
11.711227 -15.299955 20.805464 16711746
-1.225226 -10.578067 16.143503 16711746
22.619377 -14.144698 38.935139 16711746
9.0975723 -14.874427 20.617979 16711746
25.68651 -9.4193964 31.704468 16711746
-9.3187904 -14.275921 23.098427 16711746
-3.9823763 -12.53974 15.268253 16711746
16.534172 -23.311831 68.05114 16711746
-47.29422 -163.53719 143.54427 16711746
22.610041 -18.6534 70.946419 16711746
8.9912033 -11.527469 18.166353 16711746
17.105932 -22.960327 68.717323 16711746
2.6347203 -9.0540829 22.46883 16711746
-5.2943616 -14.833629 17.432735 16711746
18.808235 -13.208782 29.143658 16711746
12.123889 -15.351188 35.294544 16711746
8.4915209 -13.627617 23.273588 16711746
7.9143386 -7.8185382 30.181044 16711746
1.0636126 -11.818798 18.808163 16711746
11.592059 -12.426131 16.72728 16711746
20.521275 -9.1572323 37.997391 16711746
13.482827 -9.0650749 40.45982 16711746
12.434678 -12.728154 16.339636 16711746
-1.9883269 -9.9462948 15.545661 16711746
16.877918 -15.353723 33.644218 16711746
2.0720224 -13.704349 22.458576 16711746
-6.5676837 -12.227489 25.683037 16711746
20.696573 -11.605702 29.867851 16711746
11.630429 -14.477016 33.941711 16711746
-0.84644967 -9.6329679 15.882771 16711746
12.392644 -11.769103 17.899464 16711746
15.237272 -10.399145 45.018059 16711746
21.793129 -13.197014 36.134666 16711746
12.476703 -9.6307764 24.823524 16711746
-1.4224497 -9.2572336 18.254705 16711746
17.11916 -12.131296 16.864321 16711746
7.7996478 -14.745658 23.760189 16711746
20.865305 -12.3673 30.501242 16711746
12.248658 -11.581738 19.098354 16711746
-6.646997 -10.654723 20.770359 16711746
7.323751 -14.402452 24.619152 16711746
14.681023 -10.052248 15.683809 16711746
-2.8403375 -12.436133 42.130524 16711746
21.307913 -9.7620897 39.474236 16711746
0.040881451 -13.269451 17.692184 16711746
6.8164744 -17.725227 20.854874 16711746
2.6052322 -11.577412 16.400648 16711746
14.0655 -12.213172 20.003555 16711746
21.727522 -13.247699 36.091614 16711746
16.791811 -10.570806 25.211399 16711746
24.303547 -12.666262 32.806446 16711746
7.7118068 -11.859509 29.357277 16711746
-1.2387701 -13.832654 17.688749 16711746
-9.4360704 -16.99823 40.419262 16711746
-8.142334 -10.234182 27.69194 16711746
7.9317055 -9.5643835 18.979301 16711746
11.489345 -14.467497 32.024708 16711746
16.314468 -13.801047 32.64436 16711746
13.404367 -8.884984 15.591342 16711746
18.022966 -9.1932659 25.905493 16711746
14.993011 -14.114628 20.556528 16711746
-1.104153 -9.2383804 17.298502 16711746
-4.4872546 -12.106072 16.840784 16711746
-0.092024975 -10.486302 20.711275 16711746
14.281273 -7.8436427 20.663157 16711746
24.469517 -13.518846 28.55068 16711746
15.866817 -8.2646866 20.530638 16711746
6.2710958 -17.262529 18.900053 16711746
-9.6778107 -13.90337 21.807461 16711746
5.9322472 -13.261599 17.860126 16711746
8.2524958 -12.396282 32.683769 16711746
2.2751627 -11.342182 18.804268 16711746
-6.0296683 -16.752808 43.23489 16711746
-1.1325612 -10.022557 31.957523 16711746
-0.76283497 -11.924718 22.206829 16711746
18.029503 -8.2061377 23.487848 16711746
6.0618849 -10.949401 22.584192 16711746
-6.8547359 -15.043343 25.901878 16711746
14.156571 -9.8657227 16.527065 16711746
8.1948853 -12.053357 17.065853 16711746
11.488871 -17.329672 41.515163 16711746
20.387878 -19.872963 38.867699 16711746
13.22789 -19.603432 61.211578 16711746
10.076369 -15.93319 46.41835 16711746
48.618118 -46.697613 109.75715 16711746
12.068662 -8.9553604 18.199495 16711746
13.095693 -7.9544024 16.150305 16711746
-3.2368052 -13.289184 17.969021 16711746
13.577435 -10.613821 19.614466 16711746
-2.5398717 -14.686743 20.520094 16711746
12.791986 -10.358076 18.934391 16711746
8.2978821 -18.936886 22.1455 16711746
-9.3222599 -16.202269 22.416601 16711746
11.676144 -11.289413 16.848732 16711746
12.554486 -11.039022 18.358973 16711746
11.121689 -8.9755974 15.594539 16711746
15.316607 -8.6030855 22.747028 16711746
15.179561 -9.2194862 23.133347 16711746
13.609946 -8.9351006 19.943878 16711746
15.557182 -24.355154 28.658543 16711746
11.625331 -12.668241 16.821178 16711746
14.113567 -10.105972 16.120678 16711746
13.764134 -18.651731 23.175461 16711746
-7.2017012 -14.750094 36.340866 16711746
-3.5949273 -13.636292 23.875376 16711746
12.810538 -9.7878675 18.862265 16711746
7.9065208 -5.6326909 19.510481 16711746
20.328917 -9.7511616 34.377556 16711746
23.295366 -12.742182 31.940767 16711746
11.127534 -8.7980852 25.161222 16711746
26.93782 -31.113676 55.148514 16711746
-5.5113792 -13.625244 16.153078 16711746
13.271896 -6.2051525 31.631107 16711746
-5.324616 -12.210906 25.097794 16711746
8.5378532 -12.954882 34.153332 16711746
17.924641 -17.759163 35.132378 16711746
9.6590862 -7.3741064 22.974693 16711746
14.335059 -12.927975 26.426235 16711746
16.372162 -26.443077 79.363792 16711746
21.145998 -13.624274 28.594549 16711746
9.9476414 -13.360717 20.414661 16711746
-6.8432384 -11.318167 20.868988 16711746
9.8251724 -37.260014 37.399338 16711746
12.70808 -7.3235664 18.131695 16711746
15.037982 -8.333456 20.306297 16711746
7.1975536 -14.426168 19.963591 16711746
18.570295 -9.3311501 20.094843 16711746
7.5634694 -11.768255 19.096125 16711746
11.894379 -8.408638 17.420742 16711746
10.549186 -12.648881 19.775227 16711746
14.556811 -9.2986755 15.841949 16711746
7.0573611 -12.565222 21.301926 16711746
1.4287111 -10.722456 28.185085 16711746
5.2273126 -18.146675 22.089178 16711746
13.191035 -9.8106232 16.993214 16711746
-17.121914 -20.654682 39.745216 16711746
2.4451442 -14.1977 31.701986 16711746
22.379566 -10.034805 41.064945 16711746
14.599269 -10.731497 44.353966 16711746
16.636974 -11.707869 50.773487 16711746
52.133953 -24.635103 79.338272 16711746
15.918343 -11.041675 23.809248 16711746
20.18428 -35.750328 104.25458 16711746
20.212059 -36.854332 108.15711 16711746
10.050872 -11.600173 21.461292 16711746
26.390488 -12.522973 31.918989 16711746
3.2642546 -25.914116 35.699642 16711746
10.379957 -8.8677139 25.115507 16711746
11.546323 -9.4149799 23.422297 16711746
10.14026 -4.4836464 16.201054 16711746
12.465273 -7.9517913 21.494951 16711746
9.7553949 -8.0280333 19.601643 16711746
11.017649 -5.7288361 18.214643 16711746
11.190779 -6.2804756 19.868259 16711746
7.5693264 -3.7331877 17.443821 16711746
19.895878 -8.7089605 23.942347 16711746
15.837704 -14.338139 21.987019 16711746
18.664492 -12.262713 44.130051 16711746
35.103069 -23.811321 47.586605 16711746
0.30265325 -25.189068 29.460823 16711746
27.37429 -29.309275 51.450905 16711746
9.7949848 -10.275856 20.330412 16711746
10.794997 -10.675913 20.896242 16711746
19.966558 -8.0626431 25.35074 16711746
8.6007299 -10.204996 18.138283 16711746
18.763283 -9.1648121 24.074781 16711746
25.567575 -34.256634 32.313385 16711746
11.485395 -15.540061 36.789642 16711746
8.6430998 -5.6104269 20.335144 16711746
6.6905155 -14.766076 22.129238 16711746
11.034459 -14.044759 20.064484 16711746
14.232796 -9.2280807 20.686762 16711746
7.1609149 -12.204071 23.769991 16711746
16.707136 -13.383215 23.108686 16711746
8.5923243 -15.050679 31.921846 16711746
7.0621266 -12.451842 23.908512 16711746
3.5709672 -15.032118 19.971703 16711746
10.060425 -10.580163 20.636929 16711746
-15.261382 -18.818115 42.151917 16711746
-1.1537398 -9.301199 36.34005 16711746
1.2860743 -16.0121 34.181541 16711746
8.4829865 -14.57876 31.543964 16711746
6.2406321 -8.2241879 22.767303 16711746
8.4761457 -12.9213 28.001459 16711746
7.1215186 -16.508881 28.05018 16711746
14.622787 -17.644373 27.333395 16711746
-0.64510441 -15.872756 34.828213 16711746
15.584026 -9.3171368 21.31217 16711746
-0.18574043 -8.0085287 27.447794 16711746
12.968463 -4.9626474 20.597277 16711746
12.719148 -7.0811119 18.788792 16711746
11.539546 -4.7993674 19.714058 16711746
13.381708 -7.940598 21.149502 16711746
-9.0961895 -13.380769 36.311043 16711746
10.137052 -5.2481809 16.968904 16711746
11.911089 -6.9629688 20.727953 16711746
10.151114 -7.0014062 21.564308 16711746
11.696926 -10.098998 22.943455 16711746
-20.960766 -22.768513 58.17384 16711746
0.75171667 -4.8151612 18.558708 16711746
0.82366306 -22.048241 28.869474 16711746
-4.5431676 -11.974203 38.04266 16711746
-16.006508 -19.041954 50.13829 16711746
18.275173 -20.763388 24.727262 16711746
18.805729 -5.1824999 23.1147 16711746
20.868406 -24.669243 27.080862 16711746
20.785704 -6.9374356 25.43952 16711746
-6.1565166 -11.018575 23.682425 16711746
16.535355 -15.117848 34.945431 16711746
15.071029 -13.709367 21.08185 16711746
21.717262 -22.677132 50.01593 16711746
22.280045 -10.469831 36.892036 16711746
16.025204 -20.829414 28.857756 16711746
24.215567 -17.921026 54.322102 16711746
10.947063 -7.7349186 23.805468 16711746
15.382048 -8.421773 24.437906 16711746
14.307427 -9.3069344 23.712034 16711746
17.053776 -7.0999565 21.834866 16711746
17.066822 -7.3974485 22.645479 16711746
17.913465 -7.7019753 22.544945 16711746
13.939792 -8.5080395 19.738407 16711746
-5.8578477 -9.4687433 24.423462 16711746
16.038359 -20.233526 41.307331 16711746
12.600436 -7.522357 19.060373 16711746
14.702357 -9.0840139 23.364363 16711746
21.886478 -6.7298989 25.523485 16711746
14.878495 -9.2701521 23.492186 16711746
13.236679 -12.112429 27.250278 16711746
15.261317 -9.7108297 24.019438 16711746
22.93829 -8.2158356 27.678625 16711746
17.700012 -6.393362 23.12401 16711746
13.672941 -9.7849655 19.65613 16711746
11.627932 -9.0350008 22.50227 16711746
21.062532 -7.8578782 35.128052 16711746
18.094305 -7.7659888 22.62421 16711746
17.428753 -7.0804081 23.097849 16711746
18.479044 -9.9977655 27.575083 16711746
15.45129 -4.7743182 21.312916 16711746
14.570291 -13.655356 27.714645 16711746
12.231661 -5.3402228 18.91493 16711746
19.533009 -8.7962103 26.209494 16711746
14.760064 -9.3483114 24.647089 16711746
20.988064 -9.300106 36.496628 16711746
8.3676453 -6.5435514 28.68499 16711746
14.739336 -8.4764357 22.937 16711746
7.0249887 -14.245424 32.550583 16711746
14.024087 -8.8776922 23.897898 16711746
13.841568 -9.8117161 20.324886 16711746
12.157842 -7.3030181 28.834314 16711746
18.585432 -13.448641 29.696283 16711746
20.913418 -10.579172 25.281328 16711746
12.160786 -6.3915749 18.739763 16711746
19.702286 -6.9480844 24.519684 16711746
19.419714 -7.2596798 23.763086 16711746
12.464358 -8.4020185 21.739965 16711746
-3.3589125 -28.394253 33.246166 16711746
8.479475 -7.6374516 28.805691 16711746
-4.5659814 -9.763485 22.661264 16711746
18.576036 -19.013985 34.001221 16711746
-11.403689 -12.776222 28.97747 16711746
8.8461723 -11.243459 29.215391 16711746
11.568107 -9.5289249 22.543594 16711746
11.857344 -4.952198 19.976915 16711746
19.816401 -13.736021 25.192436 16711746
9.6269407 -8.2871618 19.925159 16711746
12.636386 -7.0469742 20.654764 16711746
11.991886 -10.227168 23.242701 16711746
11.625592 -10.606487 23.393883 16711746
18.491575 -9.6118565 23.030735 16711746
8.8722153 -5.4902921 20.312544 16711746
6.9231653 -11.924092 21.926449 16711746
-2.2385037 -13.479736 21.697226 16711746
9.0088253 -9.122139 19.504347 16711746
12.730229 -8.0472612 22.479975 16711746
14.716997 -8.3595276 24.82329 16711746
15.600535 -8.2347002 23.374313 16711746
5.8029785 -10.988852 20.397018 16711746
9.3692369 -10.207583 20.069176 16711746
9.2366571 -9.7743464 19.995173 16711746
16.830591 -7.3107796 22.627674 16711746
11.74403 -9.7782984 22.788412 16711746
14.560634 -7.0404267 23.105404 16711746
17.077732 -6.7912111 22.774662 16711746
9.6733303 -14.054957 33.028694 16711746
14.976314 -9.8085814 25.008493 16711746
0.96314442 -17.239637 24.576048 16711746
2.5184236 -11.226748 20.211166 16711746
14.415061 -7.7201514 23.519943 16711746
13.135653 -7.2593517 20.800385 16711746
9.2487717 -5.9109087 20.712481 16711746
5.8555336 -11.158422 21.780899 16711746
10.816042 -6.1865716 18.484715 16711746
13.196951 -8.7690687 20.078707 16711746
4.9585218 -9.056344 21.778563 16711746
10.181465 -6.0844002 21.332853 16711746
8.3590221 -4.3585324 20.103115 16711746
10.021209 -8.7456083 25.535736 16711746
-3.6406896 -9.3910017 19.544758 16711746
6.2276731 -10.009636 20.678173 16711746
-2.0312307 -11.672851 21.148336 16711746
15.573425 -13.207554 21.373333 16711746
5.8677764 -11.056995 21.72645 16711746
5.187377 -9.6000471 20.004524 16711746
4.9894691 -9.2122955 19.824862 16711746
4.7698917 -8.0967636 21.438894 16711746
5.0288177 -9.7421389 24.091913 16711746
0.47717825 -15.073638 22.815519 16711746
8.2476702 -4.0655107 19.745123 16711746
13.092978 -7.1719193 38.441833 16711746
11.902378 -9.304862 24.544519 16711746
13.100588 -7.1841049 38.371944 16711746
15.117277 -8.6022663 24.078117 16711746
5.6710935 -10.828471 20.913736 16711746
0.64504391 -6.1205125 18.343643 16711746
-4.9760652 -8.9202824 23.140535 16711746
16.398832 -7.6246462 22.207386 16711746
4.2328205 -4.0755138 18.412565 16711746
18.065315 -7.6917796 23.421347 16711746
-10.727346 -14.10417 41.031967 16711746
13.538243 -9.2218208 22.998322 16711746
19.722282 -22.672506 25.956352 16711746
18.753849 -16.507841 44.611973 16711746
17.288641 -25.094446 73.464226 16711746
11.871809 -10.055584 24.640591 16711746
22.347937 -13.463511 39.596939 16711746
10.630897 -17.189859 45.732521 16711746
11.132548 -9.9350729 21.837296 16711746
11.700632 -6.7388701 19.823793 16711746
8.8844461 -4.4234233 19.543768 16711746
11.037737 -4.6695848 17.828743 16711746
2.0211244 -3.2482629 19.975676 16711746
4.0055661 -5.0244927 20.051125 16711746
3.4485412 -4.6382251 20.866451 16711746
9.4194546 -5.2885313 20.529036 16711746
10.614013 -6.1473804 17.738041 16711746
8.6492386 -13.322398 30.037964 16711746
8.1534853 -11.435468 28.272715 16711746
10.497928 -13.66218 21.98329 16711746
8.9393711 -9.5601702 19.113615 16711746
11.383724 -9.5881586 22.05035 16711746
11.513413 -6.4555416 19.601683 16711746
2.5151343 -9.0693932 24.762865 16711746
14.314732 -6.9709773 18.783533 16711746
11.53641 -6.6223679 27.261354 16711746
10.922637 -15.297768 33.414276 16711746
7.0822101 -3.7777562 23.006193 16711746
12.999886 -12.120294 24.848894 16711746
9.0174446 -7.4060903 24.286921 16711746
20.304287 -9.817606 27.486761 16711746
-3.0599611 -8.4835768 28.212002 16711746
16.490746 -10.067774 21.647928 16711746
15.547795 -9.0126314 25.707037 16711746
21.59997 -13.928295 52.138565 16711746
5.998167 -18.316013 36.191074 16711746
-1.2526698 -5.3711648 24.067991 16711746
-5.6436386 -10.33755 31.382883 16711746
32.572182 -31.732189 78.468681 16711746
31.821949 -32.232944 78.453804 16711746
26.907616 -19.328447 64.950493 16711746
13.436272 -5.7720494 18.10833 16711746
8.5317688 -3.8530011 18.720036 16711746
11.34442 -4.5627933 19.488436 16711746
15.419333 -7.4113026 24.196692 16711746
22.395321 -11.173351 31.069752 16711746
10.780822 -6.7976174 19.149641 16711746
16.617331 -8.5369291 21.459948 16711746
18.048834 -6.6109948 22.494041 16711746
15.676962 -6.9904547 19.272079 16711746
5.6814709 -12.549459 21.839155 16711746
18.62463 -6.2876468 23.751852 16711746
20.677919 -8.733181 26.662367 16711746
16.47171 -10.864479 22.607897 16711746
3.5629423 -8.4964418 19.45787 16711746
12.273159 -4.2929721 18.875681 16711746
17.381035 -7.2936435 30.248137 16711746
22.21316 -7.1819725 29.558531 16711746
2.1001573 -8.6896143 23.609167 16711746
29.890022 -12.643706 47.41716 16711746
-0.42538747 -6.2967906 19.393408 16711746
-1.5113229 -8.01406 20.541922 16711746
-1.3233236 -7.7482314 20.364542 16711746
-1.7842442 -8.1531382 20.71657 16711746
-4.4320889 -7.316051 23.417326 16711746
22.672117 -12.274585 31.835869 16711746
0.22551079 -4.9798946 19.754854 16711746
16.431374 -6.759572 21.606087 16711746
15.351747 -8.7080345 21.043024 16711746
20.773899 -7.7501054 26.291695 16711746
5.2522006 -3.5141234 22.528469 16711746
10.881162 -11.938862 45.779377 16711746
21.708164 -15.910767 27.047335 16711746
-2.5964332 -7.4506936 21.958187 16711746
-3.1210642 -7.872663 22.454859 16711746
-2.981106 -7.6838059 22.285065 16711746
13.332912 -7.8286047 39.697647 16711746
15.757453 -6.0160251 21.864899 16711746
17.350529 -5.1936512 23.874588 16711746
9.8640394 -8.5292025 35.464001 16711746
10.331347 -10.351042 26.797403 16711746
9.2992811 -9.4781256 33.720249 16711746
12.978609 -8.6942396 39.068211 16711746
23.175056 -7.930541 28.664127 16711746
10.28848 -13.334221 33.957592 16711746
18.216049 -6.4160957 22.836138 16711746
-0.61314291 -5.7511973 23.631639 16711746
12.851222 -7.3890991 21.35149 16711746
19.757404 -6.0501428 24.775358 16711746
17.633064 -6.055337 22.441072 16711746
8.4494371 -4.9546642 27.225706 16711746
-0.3668018 -5.5208259 23.507141 16711746
5.2815652 -3.2256761 22.013298 16711746
17.255627 -5.9960532 25.111164 16711746
11.189212 -6.3562579 19.470383 16711746
8.5048647 -4.9696035 27.234793 16711746
9.7274075 -6.2607293 20.677763 16711746
17.043882 -8.4999437 22.096443 16711746
18.843372 -6.8261647 26.545237 16711746
-0.51146829 -5.3811936 23.826065 16711746
5.5664301 -6.9810071 22.546431 16711746
12.393275 -7.6567321 18.834059 16711746
9.4977074 -9.7204733 20.28742 16711746
10.319281 -7.0600414 24.838943 16711746
17.434658 -12.94886 23.039032 16711746
-0.74495292 -6.3218832 19.994745 16711746
19.356535 -11.428947 41.954197 16711746
21.821917 -12.683812 31.622299 16711746
