# .PCD v0.7 - Point Cloud Data file format
VERSION 0.7
FIELDS x y z rgb
SIZE 4 4 4 4
TYPE F F F F
COUNT 1 1 1 1
WIDTH 298
HEIGHT 1
VIEWPOINT 0 0 0 1 0 0 0
POINTS 298
DATA ascii
0 0 0 16777215
0.045698106 -0.02252838 0.25158289 16777215
0.060652837 -0.027667182 0.31122297 16777215
0.058735255 -0.028169138 0.31131318 16777215
0.10932401 -0.054161254 0.38864982 16777215
0.087285496 -0.076466456 0.58670396 16777215
0.095577024 -0.074697927 0.64190054 16777215
0.087677874 -0.07396473 0.71048397 16777215
0.10622283 -0.064886823 0.85872364 16777215
0.093988977 -0.027769506 1.0925673 16777215
0.095476314 -0.0035845917 1.2864245 16777215
0.083547816 0.015132794 1.4732003 16777215
0.076769404 0.019556932 1.6659948 16777215
0.076219097 0.012747901 1.904551 16777215
0.074183881 0.011464409 2.1812179 16777215
0.082445607 0.021021709 2.3523002 16777215
0.065147884 0.055292465 2.7196665 16777215
0.055257015 0.059330672 2.8978076 16777215
0.00098457432 0.022780567 3.2485917 16777215
-0.0022551748 -0.013568111 3.4054258 16777215
-0.009554076 -0.035214242 3.6296556 16777215
-0.026431227 -0.016332492 3.8810637 16777215
-0.054230545 0.0275004 4.2584357 16777215
-0.020678477 0.057593569 4.5581594 16777215
-0.021134509 0.10166576 4.9135928 16777215
-0.06094934 0.1500106 5.2775488 16777215
-0.068991095 0.16747673 5.5094223 16777215
-0.049935319 0.16057181 5.7391768 16777215
-0.037885163 0.10951657 5.9900551 16777215
-0.033347417 0.096434303 6.2472286 16777215
-0.082773529 0.13763011 6.6070585 16777215
-0.099537075 0.13162115 6.9536662 16777215
-0.11282963 0.093598202 7.2208447 16777215
-0.11866376 0.090916812 7.5692625 16777215
-0.11558032 0.14059754 7.9193769 16777215
-0.11179189 0.14409672 8.097928 16777215
-0.12248765 0.15244223 8.3886366 16777215
-0.13944457 0.15594143 8.6737041 16777215
-0.16527554 0.16646235 8.9502115 16777215
-0.13836169 0.18453357 9.3198786 16777215
-0.1084772 0.18850891 9.5898685 16777215
-0.13518238 0.21532688 9.9493294 16777215
-0.1493451 0.2403038 10.203488 16777215
-0.20428143 0.24130933 10.49013 16777215
-0.16438523 0.2700457 10.846994 16777215
-0.18626341 0.30302247 11.077433 16777215
-0.14163207 0.28552735 11.361518 16777215
-0.10459933 0.31725609 11.589584 16777215
-0.16325402 0.36009797 11.969095 16777215
-0.16208655 0.36403304 12.276119 16777215
-0.11141562 0.33128831 12.620519 16777215
-0.13865255 0.33264109 12.883512 16777215
-0.12617859 0.40175384 13.217758 16777215
-0.075205527 0.41110811 13.583592 16777215
-0.021452762 0.40889484 13.884613 16777215
-0.0071538747 0.39738125 14.040401 16777215
0.0076461621 0.4174619 14.281082 16777215
0.0012746289 0.481058 14.665156 16777215
-0.028100651 0.49589914 14.942364 16777215
-0.10978406 0.49306142 15.177981 16777215
-0.097746797 0.48674065 15.525828 16777215
-0.10032103 0.5089137 15.66449 16777215
-0.11679049 0.52607685 15.916344 16777215
-0.060103346 0.55340081 16.159456 16777215
-0.01102691 0.55082667 16.40917 16777215
-0.0044152755 0.49714392 16.636335 16777215
-0.020324772 0.5568428 16.985455 16777215
-0.058123723 0.60787958 17.244818 16777215
-0.074696317 0.63183886 17.510977 16777215
-0.09228088 0.64646327 17.79598 16777215
-0.093857646 0.61553377 18.033154 16777215
-0.10294119 0.62808347 18.166065 16777215
-0.12343274 0.65876561 18.486092 16777215
-0.11618057 0.6693961 18.645754 16777215
-0.103141 0.67403615 18.847046 16777215
-0.12110425 0.67562097 19.143551 16777215
-0.11478347 0.67296702 19.287933 16777215
-0.10761751 0.6813181 19.685646 16777215
-0.1381788 0.73294139 19.856533 16777215
-0.17304981 0.72339541 20.264608 16777215
-0.1442772 0.73419106 20.462822 16777215
-0.15023057 0.74788088 20.76827 16777215
-0.17337772 0.7490741 20.938377 16777215
-0.1751108 0.75610876 21.248348 16777215
-0.14689252 0.76086563 21.507818 16777215
-0.12155061 0.75950885 21.874508 16777215
-0.19866647 0.86061782 22.280998 16777215
-0.14784406 0.85208541 22.5452 16777215
-0.21115494 0.88184983 22.93029 16777215
-0.24721758 0.90457803 23.277397 16777215
-0.25786015 0.93949497 23.517962 16777215
-0.21212259 0.96059 23.739365 16777215
-0.18958937 0.95462132 23.942003 16777215
-0.17851652 0.93797058 24.225452 16777215
-0.21161096 0.97454244 24.622416 16777215
-0.2236039 0.9570924 24.877863 16777215
-0.23616166 0.98685849 25.336935 16777215
-0.24216983 0.99900937 25.545252 16777215
-0.26709518 1.0102699 25.859255 16777215
-0.25514817 0.9982729 26.204237 16777215
-0.29721332 0.9964214 26.451847 16777215
-0.29815361 1.0063114 26.653057 16777215
-0.28768018 1.0320779 26.879404 16777215
-0.3152926 1.0610706 27.26733 16777215
-0.37032482 1.0275789 27.623457 16777215
-0.34014302 1.048354 27.877876 16777215
-0.37877348 1.0874454 28.087858 16777215
-0.4014098 1.1437893 28.442331 16777215
-0.37675756 1.1536125 28.696777 16777215
-0.36726314 1.1271024 28.952524 16777215
-0.40191257 1.1733934 29.293911 16777215
-0.42337337 1.2089976 29.662218 16777215
-0.40796986 1.1750468 29.920986 16777215
-0.40849519 1.1606172 30.059578 16777215
-0.41272515 1.2111142 30.346373 16777215
-0.40648979 1.2405145 30.621927 16777215
-0.39817733 1.2375252 30.783525 16777215
-0.40417579 1.2840058 31.024248 16777215
-0.38536978 1.2323929 31.270998 16777215
-0.45115659 1.2303674 31.553699 16777215
-0.49151528 1.2332582 31.895851 16777215
-0.50721127 1.2219986 32.145332 16777215
-0.48743033 1.2088066 32.343533 16777215
-0.51646399 1.2323688 32.69183 16777215
-0.50477403 1.2352967 32.973766 16777215
-0.49543825 1.268553 33.203228 16777215
-0.47661453 1.2689229 33.465878 16777215
-0.51516116 1.2660892 33.767895 16777215
-0.53134865 1.2617344 34.106155 16777215
-0.55152756 1.2499678 34.384068 16777215
-0.56162709 1.2932496 34.775368 16777215
-0.49786344 1.2939321 35.16161 16777215
-0.44432661 1.2986929 35.444679 16777215
-0.44502598 1.3189452 35.644501 16777215
-0.48892334 1.3441268 35.879704 16777215
-0.5099442 1.3139256 36.207298 16777215
-0.52278072 1.3409064 36.541214 16777215
-0.52110654 1.3733836 36.902603 16777215
-0.51893836 1.4182454 37.258553 16777215
-0.50933105 1.4252801 37.591354 16777215
-0.47114214 1.3955792 37.926308 16777215
-0.53556085 1.4392719 38.298969 16777215
-0.57580113 1.4556664 38.663101 16777215
-0.56075937 1.430331 38.928757 16777215
-0.59541607 1.4314921 39.146374 16777215
-0.58147007 1.460637 39.490658 16777215
-0.55279255 1.4915664 39.662277 16777215
-0.5397957 1.4919289 39.940228 16777215
-0.548428 1.5111362 40.25782 16777215
-0.55392379 1.5012591 40.511551 16777215
-0.56267536 1.5125663 40.688339 16777215
-0.54988068 1.5390435 40.982796 16777215
-0.53300679 1.6012933 41.24472 16777215
-0.4778513 1.5991645 41.504391 16777215
-0.43933687 1.6131566 41.670849 16777215
-0.43904036 1.6096283 41.991776 16777215
-0.44373038 1.6455491 42.191975 16777215
-0.46926889 1.6480895 42.483685 16777215
-0.45421749 1.664721 42.732559 16777215
-0.47834358 1.6671131 43.010521 16777215
-0.49836782 1.6934291 43.251942 16777215
-0.50269687 1.7173144 43.435905 16777215
-0.46197724 1.7074975 43.70435 16777215
-0.45791569 1.6844873 43.95435 16777215
-0.49017701 1.6924583 44.21389 16777215
-0.50210547 1.664016 44.499393 16777215
-0.52043211 1.6720552 44.761257 16777215
-0.54391205 1.6699749 45.126236 16777215
-0.52725887 1.6848024 45.413021 16777215
-0.51765728 1.692932 45.547512 16777215
-0.44779438 1.6799109 45.843903 16777215
-0.43459126 1.7029485 46.080437 16777215
-0.46810627 1.7204236 46.431206 16777215
-0.49656788 1.7465808 46.807339 16777215
-0.48507929 1.7485354 47.027058 16777215
-0.47660163 1.7404259 47.154648 16777215
-0.50157535 1.7945824 47.46645 16777215
-0.52920145 1.8067092 47.7617 16777215
-0.53615063 1.8049423 47.984467 16777215
-0.58366483 1.8108175 48.311123 16777215
-0.63894445 1.8230327 48.627041 16777215
-0.63274044 1.8083447 48.914955 16777215
-0.65854806 1.8166902 49.102623 16777215
-0.63560718 1.8197213 49.412991 16777215
-0.65040481 1.8254837 49.518547 16777215
-0.59737152 1.7770567 49.782089 16777215
-0.57664871 1.7972935 50.058491 16777215
-0.5849427 1.8054707 50.367134 16777215
-0.61241001 1.8103356 50.645966 16777215
-0.63733059 1.8186626 50.942635 16777215
-0.66356355 1.8625704 51.193161 16777215
-0.64545858 1.8549081 51.365704 16777215
-0.62937582 1.8680171 51.524082 16777215
-0.60988492 1.834187 51.685413 16777215
-0.62491864 1.8556195 51.966709 16777215
-0.65352046 1.8666078 52.089207 16777215
-0.65143448 1.883435 52.390903 16777215
-0.65858752 1.8854581 52.600811 16777215
-0.67929989 1.9114213 52.863373 16777215
-0.7086308 1.9576728 53.033264 16777215
-0.70786458 1.9468998 53.211811 16777215
-0.69934988 1.9660248 53.465836 16777215
-0.69605535 1.9742955 53.557678 16777215
-0.72809345 1.9899061 53.851833 16777215
-0.74259704 1.9682075 54.172142 16777215
-0.76041359 1.9908012 54.308769 16777215
-0.77232283 1.9754348 54.467766 16777215
-0.79586232 1.9484177 54.64513 16777215
-0.87214589 1.9625248 54.937462 16777215
-0.77914149 1.9505213 55.166714 16777215
-0.78758448 1.9324461 55.375389 16777215
-0.79045606 1.970594 55.665058 16777215
-0.78621393 1.9683307 55.963589 16777215
-0.78567255 1.9846987 56.208237 16777215
-0.82521909 1.9984642 56.488815 16777215
-0.82283902 1.9900237 56.777416 16777215
-0.77832294 1.9998477 57.01437 16777215
-0.77082503 2.0443444 57.270447 16777215
-0.77745271 2.0692697 57.552025 16777215
-0.81881851 2.0737004 57.76503 16777215
-0.80079812 2.0718601 58.010765 16777215
-0.80890274 2.101788 58.219154 16777215
-0.79696941 2.0954165 58.466137 16777215
-0.78765053 2.0844848 58.767437 16777215
-0.84594995 2.107466 59.051006 16777215
-0.81563199 2.092844 59.289433 16777215
-0.82158375 2.1200383 59.476929 16777215
-0.81654006 2.1208084 59.706276 16777215
-0.79556346 2.1194654 59.906609 16777215
-0.76592952 2.1226566 60.101421 16777215
-0.75727057 2.1181786 60.338707 16777215
-0.80123317 2.1360686 60.598038 16777215
-0.84945554 2.1622338 60.780727 16777215
-0.82712942 2.1301279 60.989487 16777215
-0.83143753 2.1372004 61.190166 16777215
-0.82142663 2.1471391 61.405056 16777215
-0.80328691 2.1231611 61.655815 16777215
-0.75219059 2.120321 61.895107 16777215
-0.8468523 2.1214564 62.190262 16777215
-0.81428564 2.1252131 62.428169 16777215
-0.80350125 2.1226172 62.626343 16777215
-0.76823139 2.1434119 62.872452 16777215
-0.78795993 2.091711 63.131596 16777215
-0.75884891 2.0630658 63.336746 16777215
-0.90092653 2.1190882 63.522018 16777215
-0.9278928 2.1138442 63.642975 16777215
-0.8669982 2.1121609 63.743652 16777215
-0.82765311 2.0988119 63.9398 16777215
-0.83540648 2.1053927 64.142242 16777215
-0.83223116 2.1113026 64.345604 16777215
-0.78150624 2.1133759 64.536224 16777215
-0.77840263 2.099462 64.682678 16777215
-0.78898078 2.113719 64.901611 16777215
-0.81920528 2.1049771 65.207161 16777215
-0.80000526 2.1568494 65.336372 16777215
-0.79390693 2.150403 65.584084 16777215
-0.81277573 2.1927726 65.87896 16777215
-0.7871381 2.1936476 66.166351 16777215
-0.76784223 2.2209272 66.431732 16777215
-0.78674579 2.26425 66.665962 16777215
-0.82791173 2.3032703 66.953926 16777215
-0.79623455 2.2921896 67.133911 16777215
-0.79066956 2.2759805 67.330994 16777215
-0.80069494 2.318691 67.578117 16777215
-0.79008216 2.3171341 67.795853 16777215
-0.77613622 2.2999339 67.919006 16777215
-0.80118883 2.3132894 68.137947 16777215
-0.80889785 2.3005795 68.377769 16777215
-0.84397107 2.3167233 68.547539 16777215
-0.84431511 2.3056619 68.67202 16777215
-0.84868932 2.3192365 68.914474 16777215
-0.83548462 2.3579323 69.128204 16777215
-0.87411582 2.3378258 69.340401 16777215
-0.8733182 2.342639 69.511742 16777215
-0.88093054 2.3629725 69.703621 16777215
-0.87914509 2.3660772 69.86702 16777215
-0.93970448 2.329257 70.108955 16777215
-0.94493669 2.3452101 70.275909 16777215
-0.95379788 2.3577397 70.509819 16777215
-0.94694692 2.3259833 70.686577 16777215
-0.90590984 2.3318579 70.843033 16777215
-0.89788425 2.3178208 70.9813 16777215
-0.92806602 2.3429234 71.222359 16777215
-0.95930248 2.3867226 71.44693 16777215
-0.94735307 2.3468907 71.609337 16777215
-1.0145338 2.4103305 71.84211 16777215
-0.99641335 2.4209223 72.089165 16777215
-0.97772098 2.4245772 72.288872 16777215
-0.98565716 2.4138706 72.503113 16777215
-0.99525231 2.4426007 72.73716 16777215
-1.0243441 2.42942 72.97773 16777215
-1.0400851 2.4383006 73.118385 16777215
-1.0262543 2.4495509 73.298302 16777215
-1.0092256 2.4425797 73.417229 16777215
-1.0180047 2.4094505 73.559998 16777215
-1.0448992 2.4129531 73.712357 16777215
-1.0810916 2.3987067 73.838997 16777215
-1.1251485 2.3541775 73.939964 16777215
