# .PCD v0.7 - Point Cloud Data file format
VERSION 0.7
FIELDS x y z rgb
SIZE 4 4 4 4
TYPE F F F F
COUNT 1 1 1 1
WIDTH 1196
HEIGHT 1
VIEWPOINT 0 0 0 1 0 0 0
POINTS 1196
DATA ascii
24.247704 -13.365759 98.542717 16711746
15.439472 -15.209131 85.235619 16711746
26.058588 -9.2798462 97.701515 16711746
20.52622 -8.787014 85.521988 16711746
13.541071 -12.0907 82.69397 16711746
6.8694005 -8.5923452 72.904671 16711746
27.281313 -12.462802 99.668419 16711746
15.061768 -10.865711 86.380142 16711746
19.333057 -10.653007 89.677582 16711746
14.51353 -6.3881073 77.768768 16711746
10.213491 -13.125924 93.759529 16711746
21.40523 -11.787883 97.029282 16711746
27.892326 -10.058097 99.833092 16711746
33.981213 -5.8316922 99.494049 16711746
21.904331 -10.703645 86.689102 16711746
14.433187 -11.961205 82.073959 16711746
7.4885888 -21.427721 133.07471 16711746
31.067627 -11.352612 103.05023 16711746
22.06402 -13.46417 85.825127 16711746
14.791464 -12.121859 91.411583 16711746
0.22579867 -11.668037 99.911774 16711746
11.641582 -11.835681 82.37429 16711746
15.851738 -5.0363836 81.782555 16711746
24.738457 -16.95265 105.73817 16711746
18.496365 -9.0120869 84.135429 16711746
23.475792 -10.003564 99.136452 16711746
9.5010986 -7.2861528 84.071426 16711746
9.8760719 -12.685859 93.191368 16711746
13.50531 -9.5638685 84.64698 16711746
2.6868267 -9.9578428 79.641106 16711746
3.0209897 -10.290222 77.685837 16711746
2.7560232 -11.975165 78.316902 16711746
8.5756245 -5.4250226 77.056129 16711746
3.3607147 -13.277793 85.115768 16711746
11.237451 -8.7905741 82.124229 16711746
2.7734194 -9.8809462 77.533028 16711746
10.621474 -11.610995 78.949333 16711746
-4.0612407 -12.14317 75.417763 16711746
4.1817689 -5.4184241 72.321793 16711746
4.3627949 -12.572216 78.126923 16711746
3.010704 -8.4391603 75.698326 16711746
3.8862259 -23.571627 93.714828 16711746
15.846964 -13.87208 84.728027 16711746
3.7922013 -5.965097 74.123894 16711746
4.9510517 -9.6983576 75.652519 16711746
29.651777 -10.64786 101.75883 16711746
6.4548965 -3.2381594 74.465454 16711746
15.451649 -5.8220448 82.035309 16711746
4.3798227 -10.581545 76.767097 16711746
3.5816267 -6.3372226 73.795982 16711746
4.2593107 -11.151223 79.324715 16711746
4.3387604 -23.339838 93.415504 16711746
5.6264076 -7.217452 75.330009 16711746
5.0483007 -5.7179089 76.155205 16711746
23.406984 -11.998102 93.923775 16711746
17.491655 -11.823553 85.682114 16711746
18.045624 -12.21606 86.191994 16711746
15.607541 -13.676279 84.68132 16711746
8.2317419 -8.4341927 75.97876 16711746
19.726276 -17.428444 86.874054 16711746
29.443676 -10.72681 101.58337 16711746
1.7196443 -9.657979 76.133232 16711746
2.9002683 -1.8703423 71.971413 16711746
10.539086 -9.2476063 77.38765 16711746
6.9332747 -4.7250113 71.979279 16711746
22.884636 -18.917433 75.961128 16711746
0.49659684 -5.4069247 75.221039 16711746
3.3720503 -9.0309124 75.229622 16711746
1.9127966 -9.2011385 76.699532 16711746
2.7713704 -10.011065 77.911034 16711746
2.5767992 -7.3889747 75.634949 16711746
1.031871 -8.2732773 76.748985 16711746
1.5078045 -5.1063881 74.270561 16711746
2.378994 -8.7190332 78.163544 16711746
3.2401059 -9.1674938 76.266685 16711746
2.3046765 -7.0098767 75.783463 16711746
0.70432752 -3.9610438 72.793411 16711746
23.752619 -14.834138 93.950142 16711746
25.528658 -13.497441 96.32019 16711746
17.742683 -7.4997778 85.589172 16711746
14.022977 -5.3875566 72.670197 16711746
2.7798471 -12.077419 78.882042 16711746
12.124482 -13.522203 79.262497 16711746
14.632526 -9.4195013 85.305061 16711746
16.143559 -7.4318604 86.788742 16711746
-2.8500645 -17.18766 112.85755 16711746
-3.9475296 -3.1486533 77.014992 16711746
15.015051 -11.089155 83.163795 16711746
-3.6281111 -29.788807 86.309387 16711746
0.7897011 -3.5591943 73.5867 16711746
-0.72009605 -44.493233 102.44485 16711746
53.54361 -99.924698 100.76114 16711746
1.3963608 -5.1640663 74.567314 16711746
11.680276 -6.4721923 80.02227 16711746
17.970938 -18.045368 94.857338 16711746
15.613081 -14.827954 82.987778 16711746
21.276852 -24.99865 105.22147 16711746
20.599356 -19.985605 100.13405 16711746
18.851444 -16.038441 84.720253 16711746
10.101494 -15.727526 78.753532 16711746
14.211938 -7.154047 80.374474 16711746
4.5697823 -11.193626 76.337379 16711746
4.4868441 -25.053001 83.241493 16711746
10.318712 -12.257873 79.446381 16711746
0.56888008 -3.1000741 73.389748 16711746
9.9463062 -11.831479 79.061577 16711746
6.1308484 -5.0141597 73.124435 16711746
13.046294 -17.342636 82.311104 16711746
19.079325 -10.518939 89.480186 16711746
22.402485 -13.728792 92.427979 16711746
11.626235 -31.352375 81.474052 16711746
12.067498 -6.7494898 80.413399 16711746
-0.66157669 -9.3177986 75.478058 16711746
-1.4216931 -32.087975 86.327232 16711746
7.8609962 -7.0191226 74.048012 16711746
6.832962 -4.6735034 71.228745 16711746
12.76538 -6.2789192 71.452499 16711746
21.695238 -21.197172 101.62484 16711746
3.3162494 -10.88432 77.107803 16711746
5.672802 -8.1511507 76.427162 16711746
6.3313365 -7.5523005 75.320854 16711746
13.578566 -15.234384 77.081345 16711746
13.698545 -21.282507 102.5628 16711746
0.31288192 -9.6300812 78.933197 16711746
7.9706755 -3.4292023 72.470062 16711746
7.368104 -4.1021047 76.261139 16711746
15.237362 -6.0137701 74.371048 16711746
11.376421 -2.1005392 79.535622 16711746
0.78590459 -11.007245 79.137856 16711746
32.425114 -6.8263993 108.52271 16711746
13.467975 -6.8250918 70.074089 16711746
7.3795776 -7.3543806 73.854256 16711746
8.0896196 -8.2099895 74.162491 16711746
11.324329 -9.9932947 77.888474 16711746
4.3712349 -2.304534 71.286568 16711746
22.538002 -22.996195 82.777779 16711746
10.647331 -10.238848 77.036217 16711746
-9.5399771 -60.982059 107.0819 16711746
6.4308939 -8.3898659 76.315392 16711746
-3.7473502 -11.018416 94.175194 16711746
-10.812382 -58.149067 101.98066 16711746
22.292995 -21.312517 88.179245 16711746
14.16792 -17.252462 79.065285 16711746
2.0705564 -23.821749 85.799171 16711746
11.99496 -19.001226 80.349373 16711746
14.960752 -7.5284667 80.751556 16711746
13.449824 -17.799204 81.172501 16711746
13.195999 -19.095684 79.239037 16711746
2.6667943 -1.1153374 71.384415 16711746
22.326838 -16.735729 94.580292 16711746
23.324507 -8.284564 94.839668 16711746
29.977629 -26.061848 94.823174 16711746
9.8269711 -14.347291 74.792076 16711746
9.1531601 -13.401198 74.429352 16711746
10.430752 -12.469423 76.594154 16711746
11.515402 -10.125902 77.971321 16711746
16.21064 -17.374144 82.611023 16711746
10.616788 -14.646797 77.501808 16711746
-5.6758523 -31.631351 87.079063 16711746
1.5432155 -24.970854 82.878952 16711746
6.932138 -25.458517 79.849625 16711746
1.735682 -30.054653 85.367256 16711746
13.10874 -17.341534 81.26416 16711746
-3.5550601 -43.695038 93.527725 16711746
8.9496584 -12.724417 77.604271 16711746
-1.3339225 -24.600626 88.094299 16711746
7.0593967 -26.747459 84.34063 16711746
-8.0209055 -42.841759 93.749992 16711746
11.874393 -12.077167 74.982086 16711746
9.8249807 -13.538394 76.713776 16711746
0.11262499 -19.15892 83.231956 16711746
29.982033 -36.485085 93.583595 16711746
17.580454 -23.262022 98.279213 16711746
10.941113 -18.894476 76.476921 16711746
8.1633339 -9.4397173 75.101402 16711746
4.2807879 -14.882326 79.11097 16711746
6.1596279 -7.3746829 76.174843 16711746
3.0321279 -7.9088445 75.194473 16711746
9.3612566 -14.162854 77.508957 16711746
11.95104 -14.924097 77.367188 16711746
14.421574 -13.093804 81.648918 16711746
10.219721 -11.183317 78.102928 16711746
6.0904489 -24.577986 84.372421 16711746
10.967488 -13.896738 76.497673 16711746
15.897875 -9.7537975 77.36956 16711746
14.985978 -21.153675 82.95916 16711746
14.485284 -6.2513804 75.151329 16711746
19.203205 -14.905549 80.44326 16711746
17.354706 -19.139576 81.505882 16711746
10.684154 -13.671897 86.653435 16711746
19.287754 -22.506388 87.641991 16711746
22.681423 -7.4392595 87.520042 16711746
22.555126 -9.7410431 98.017654 16711746
23.453606 -8.3322039 87.750793 16711746
24.531717 -14.228172 92.275726 16711746
19.503071 -23.279371 97.323013 16711746
17.845253 -15.15865 88.794151 16711746
19.857063 -23.466587 85.556267 16711746
14.905784 -10.384066 80.161125 16711746
21.37813 -5.2289796 88.118896 16711746
8.0556011 -8.0038652 74.811363 16711746
18.238665 -10.436538 77.437599 16711746
18.324295 -20.309929 90.667816 16711746
22.366907 -21.878338 94.009605 16711746
23.343128 -13.824518 80.485924 16711746
29.556444 -6.863575 76.432076 16711746
10.348114 -9.5269413 77.782654 16711746
12.606971 -10.253348 77.773544 16711746
19.786453 -8.3956652 83.545746 16711746
19.049522 -16.525629 81.54451 16711746
15.449785 -14.159725 75.597916 16711746
21.064728 -22.417458 83.519913 16711746
3.6939633 -6.2174211 77.135902 16711746
12.50827 -9.4093847 74.35891 16711746
13.359087 -9.1289806 75.333046 16711746
8.9192696 -7.550014 75.995178 16711746
1.6852995 -2.8086948 74.285576 16711746
14.561134 -19.031103 79.442848 16711746
27.590927 -9.3201113 91.421608 16711746
19.783464 -12.292867 96.062141 16711746
16.691795 -4.942018 80.293259 16711746
7.4507136 -7.7889605 80.215187 16711746
14.59077 -23.762085 80.932236 16711746
4.0313821 -4.7467589 73.490791 16711746
11.94394 -8.6037197 74.307777 16711746
3.0524359 -2.5225751 73.106873 16711746
12.103402 -7.2411604 75.301285 16711746
17.594608 -16.965271 89.697792 16711746
17.5002 -8.8194532 75.365456 16711746
1.9368873 -2.2543423 73.388802 16711746
13.020865 -6.9548192 74.493828 16711746
25.276596 -14.847943 93.127342 16711746
6.3068628 -4.4793997 75.047707 16711746
3.8693109 -5.726727 74.730904 16711746
3.6270549 -5.2168579 74.106155 16711746
13.273817 -18.606602 81.691917 16711746
10.298851 -14.153674 89.850143 16711746
13.112195 -20.813496 80.607811 16711746
16.726105 -16.012632 88.693657 16711746
15.791772 -13.72323 81.588226 16711746
10.13109 -9.2013121 81.569397 16711746
17.738417 -8.4484625 79.799324 16711746
8.9215384 -14.575737 87.984459 16711746
12.695838 -18.487514 82.711189 16711746
10.568926 -17.180334 88.685158 16711746
14.996606 -16.438103 87.329552 16711746
18.243105 -14.136989 87.097397 16711746
18.728498 -10.696247 87.537621 16711746
17.810175 -11.159975 75.645485 16711746
10.66683 -20.90707 79.787598 16711746
16.726583 -6.5671525 75.945442 16711746
10.540761 -10.378036 78.504219 16711746
13.527732 -21.470814 80.19603 16711746
9.357873 -17.914709 77.850929 16711746
10.08604 -18.846474 91.646774 16711746
10.363333 -16.77927 90.535629 16711746
13.478063 -12.218512 81.780968 16711746
17.606333 -14.628469 76.855621 16711746
7.0612741 -14.059231 88.927864 16711746
14.950917 -19.127285 89.494171 16711746
19.399302 -17.371223 86.770744 16711746
18.173813 -19.287073 87.741028 16711746
13.841626 -18.381308 80.340378 16711746
15.362058 -18.753618 91.319595 16711746
16.027735 -15.477095 78.401085 16711746
10.188652 -17.839056 87.314507 16711746
9.4627342 -13.656203 87.581757 16711746
21.020626 -16.459806 89.386665 16711746
17.628414 -17.348783 83.773415 16711746
10.662278 -18.845015 93.88562 16711746
12.365159 -15.309137 76.207062 16711746
16.946365 -10.940393 76.232109 16711746
5.6693707 -11.917999 91.987747 16711746
18.226986 -13.635694 90.685814 16711746
14.741285 -19.485899 80.91259 16711746
13.912527 -20.107153 82.460037 16711746
7.7589054 -13.38435 87.419403 16711746
8.0081367 -12.488764 88.068398 16711746
14.359056 -13.276992 75.417427 16711746
12.082461 -16.16819 82.470421 16711746
10.231199 -20.50548 82.6092 16711746
-0.52383304 -9.8578587 77.292404 16711746
17.452766 -15.630444 85.397766 16711746
5.1336269 -12.205156 90.59993 16711746
17.142937 -10.464978 92.799515 16711746
20.756939 -10.612772 84.85862 16711746
22.599459 -8.2524529 87.675995 16711746
13.665152 -17.715239 91.081856 16711746
18.381533 -15.905749 98.063591 16711746
14.716344 -8.0621157 83.741989 16711746
14.536056 -24.866232 81.987457 16711746
11.25736 -19.658981 86.385704 16711746
12.867786 -19.429548 89.91098 16711746
14.146046 -18.367914 92.041428 16711746
10.864941 -6.6085281 74.868378 16711746
-8.9403696 -12.039135 96.113586 16711746
18.829344 -8.3197346 80.720421 16711746
15.711249 -13.693515 87.231613 16711746
-10.610594 -18.115953 85.099304 16711746
17.060286 -18.517065 83.40152 16711746
10.266387 -18.504715 93.294357 16711746
14.415041 -8.8188686 92.325333 16711746
11.850352 -9.7119408 89.008064 16711746
8.2073469 -7.2303848 84.772461 16711746
16.442635 -15.640359 90.391273 16711746
11.047482 -14.319345 88.947762 16711746
9.7738953 -8.1350002 85.196518 16711746
12.266903 -14.842157 96.606598 16711746
19.68775 -19.362314 85.214478 16711746
11.266582 -19.004652 91.112724 16711746
16.86894 -20.685808 77.671349 16711746
12.4581 -25.308569 85.442284 16711746
10.440859 -12.480424 93.012558 16711746
22.192659 -8.3946867 85.438858 16711746
18.986382 -17.908669 92.793587 16711746
0.18955553 -4.786406 75.974007 16711746
11.861585 -14.522417 93.61013 16711746
17.207279 -12.95631 89.593582 16711746
20.09038 -9.8245125 84.301117 16711746
19.16774 -14.823159 87.825119 16711746
16.059315 -13.726945 84.983261 16711746
16.29739 -14.990801 85.634911 16711746
18.274582 -11.410456 94.331841 16711746
12.0914 -17.52096 88.115173 16711746
9.1095591 -17.755676 88.216125 16711746
19.836773 -8.4304132 75.357811 16711746
18.18778 -12.911532 86.933807 16711746
17.514147 -14.568419 89.550659 16711746
17.555145 -15.185941 86.252937 16711746
12.041918 -18.90992 79.262856 16711746
11.285001 -18.441921 78.215248 16711746
18.730753 -5.3473039 74.267166 16711746
21.5949 -4.839808 75.347664 16711746
17.390095 -16.817495 83.662971 16711746
16.04184 -15.379869 88.096527 16711746
17.46166 -16.214493 91.073181 16711746
15.659082 -14.848202 84.942245 16711746
11.570124 -18.824022 78.300255 16711746
15.203353 -21.93981 87.527946 16711746
8.0476828 -18.664328 87.713982 16711746
14.535129 -20.374521 79.263 16711746
6.9037781 -17.065315 89.392853 16711746
14.912338 -17.886166 82.679527 16711746
11.657554 -16.802679 87.532005 16711746
14.292617 -17.370138 82.136086 16711746
10.18187 -19.31531 88.588257 16711746
17.248766 -13.105468 86.062798 16711746
18.504122 -9.5872068 84.304077 16711746
16.141317 -16.716331 80.879013 16711746
20.515455 -7.041523 92.386803 16711746
22.264418 -9.7337074 90.19059 16711746
11.549055 -14.90872 77.864265 16711746
12.682762 -15.673191 78.388687 16711746
6.5428371 -17.664648 90.271805 16711746
17.879086 -4.9734721 74.144089 16711746
12.824646 -21.74091 89.161835 16711746
19.730999 -11.951609 76.920761 16711746
10.596596 -18.003326 87.272514 16711746
14.388405 -18.217285 86.305931 16711746
13.423256 -14.502106 85.495766 16711746
23.0616 -8.5873804 83.181801 16711746
21.545702 -7.1982841 86.96537 16711746
11.693048 -11.305201 86.71489 16711746
16.087206 -9.0938005 75.144951 16711746
16.595375 -10.419168 75.516251 16711746
7.4937735 -17.356165 88.38591 16711746
10.241296 -20.886366 91.063759 16711746
18.139011 -9.76863 75.864403 16711746
12.623015 -21.748129 82.052284 16711746
17.366119 -9.6281071 73.973373 16711746
8.9720926 -17.366676 81.859161 16711746
14.663045 -18.72646 86.750862 16711746
11.566566 -19.393942 87.446182 16711746
14.658171 -16.145372 86.985954 16711746
10.286783 -16.961561 81.185516 16711746
21.996016 -9.9978399 94.312317 16711746
18.664112 -6.8721552 81.025871 16711746
20.705984 -7.7904181 84.485352 16711746
11.164742 -23.261377 92.867592 16711746
8.5056229 -14.757968 85.161224 16711746
10.066148 -22.901596 83.17691 16711746
11.844443 -19.406109 92.973854 16711746
11.494798 -17.075674 88.617523 16711746
14.60645 -20.178232 83.994461 16711746
7.4925189 -12.268069 93.914841 16711746
8.3161631 -20.236286 96.062576 16711746
18.776604 -11.542364 94.918144 16711746
25.082268 -9.1178312 89.332779 16711746
15.856652 -8.2263584 73.189735 16711746
6.3572335 -17.29364 85.973061 16711746
7.0095487 -19.709549 87.550346 16711746
6.1942825 -21.450855 92.362457 16711746
9.9423275 -25.47118 83.108459 16711746
6.0249882 -8.8869419 86.420868 16711746
6.0008087 -11.033399 87.949661 16711746
18.256876 -10.409904 75.584579 16711746
15.21499 -16.878075 82.622879 16711746
15.811455 -17.940075 83.107391 16711746
22.18005 -8.0007629 75.874458 16711746
12.887725 -13.961418 75.816666 16711746
15.012306 -15.731189 81.915909 16711746
13.456179 -9.3883114 74.547684 16711746
12.987996 -18.723145 78.556686 16711746
17.992619 -8.8961554 75.377815 16711746
19.602171 -13.589651 88.190521 16711746
10.702079 -12.805652 75.754791 16711746
8.189271 -14.717181 89.9953 16711746
15.225054 -10.003063 75.541229 16711746
15.087763 -14.149663 77.130653 16711746
12.117253 -19.809097 93.348961 16711746
-6.8653202 -25.607519 87.444321 16711746
15.588864 -3.1266332 73.962593 16711746
6.0991693 -29.151194 98.279732 16711746
6.2861042 -26.238852 103.55617 16711746
4.7877884 -39.782665 109.01764 16711746
24.769218 -12.874931 95.620651 16711746
1.442258 -5.5508065 76.547859 16711746
1.3801919 -4.4483495 76.335693 16711746
14.469353 -12.737812 75.897705 16711746
15.143046 -17.363678 79.310242 16711746
7.9831433 -13.108218 78.472618 16711746
2.0793154 -9.9717894 84.310326 16711746
3.8073578 -11.699935 88.870239 16711746
3.1711309 -14.697056 85.110916 16711746
21.413359 -14.110843 86.811562 16711746
24.684317 -11.376467 97.340332 16711746
4.8537087 -5.679141 83.635216 16711746
32.123657 -13.592331 103.93208 16711746
5.6546149 -36.589626 105.58482 16711746
27.797493 -29.102484 109.18868 16711746
23.143442 -19.361916 92.935364 16711746
14.796168 -10.036925 84.332161 16711746
7.0406165 -13.995438 85.609756 16711746
9.613286 -11.517049 75.50473 16711746
9.0921926 -15.976583 80.214134 16711746
12.469868 -11.186791 76.189552 16711746
6.2690334 -14.812056 85.569771 16711746
6.1090717 -15.142924 89.046364 16711746
7.0494647 -12.338202 78.445801 16711746
5.0345221 -16.242699 85.079758 16711746
12.47601 -10.776832 74.323784 16711746
4.9117985 -8.1409531 88.460587 16711746
16.633926 -11.506251 86.020935 16711746
12.665425 -10.901238 89.274162 16711746
10.4977 -9.3856869 75.21611 16711746
13.174182 -16.999117 85.478844 16711746
0.98902422 -7.1471591 79.342102 16711746
6.510776 -11.440565 94.577919 16711746
5.5188966 -12.537986 86.317604 16711746
19.735203 -10.111018 91.137787 16711746
14.660899 -6.3361287 74.010361 16711746
17.423256 -10.773353 83.309929 16711746
4.1915922 -12.882054 79.630974 16711746
9.1212225 -18.698139 89.770447 16711746
8.168519 -12.150393 83.343521 16711746
7.1863589 -12.139777 77.289406 16711746
14.788139 -16.469753 82.208763 16711746
1.7847399 0.013142697 73.238647 16711746
16.698929 -17.337717 81.175285 16711746
18.684652 -16.305466 87.96814 16711746
13.504082 -17.952868 82.854225 16711746
15.86723 -18.527807 79.810677 16711746
20.798761 -17.698687 92.941864 16711746
1.9950351 -21.239241 90.265953 16711746
9.3510942 -15.069919 87.120186 16711746
6.6557193 -15.566806 102.54896 16711746
18.790253 -13.348449 86.967216 16711746
22.604195 -11.255359 86.898178 16711746
20.259602 -10.41321 84.433655 16711746
13.950826 -20.017845 82.467194 16711746
16.839493 -14.772471 84.790535 16711746
14.506823 -19.855049 79.304451 16711746
-1.1269155 -16.172878 86.154846 16711746
17.038853 -14.054528 88.979446 16711746
17.46249 -13.624087 83.93631 16711746
4.788075 -9.8687525 79.833092 16711746
17.842579 -16.57402 96.68792 16711746
13.784315 -17.658478 85.954636 16711746
29.095448 -7.9003563 101.60963 16711746
31.826046 -25.10434 95.905258 16711746
21.469433 -10.532804 86.439804 16711746
17.559109 -17.103687 77.771126 16711746
37.502224 -10.275643 100.97024 16711746
32.279076 -14.533145 98.138313 16711746
24.071201 -16.038698 88.548683 16711746
26.515917 -13.359643 89.562225 16711746
26.891798 -11.294303 98.780014 16711746
25.510765 -11.640602 83.808311 16711746
22.893023 -11.479012 87.223495 16711746
22.054424 -10.030921 82.353287 16711746
28.86482 -23.065876 93.991394 16711746
26.980839 -6.2296081 91.081711 16711746
17.611183 -12.853125 93.584221 16711746
34.823849 -18.019625 96.943756 16711746
9.8141775 -41.191769 102.71635 16711746
16.965115 -35.258881 92.112511 16711746
31.80298 -20.905434 92.049019 16711746
19.170979 -16.314199 80.136932 16711746
25.53459 -17.37903 89.644821 16711746
22.865166 -13.072747 75.722496 16711746
20.96265 -26.883514 101.11312 16711746
12.640411 -18.539637 81.639595 16711746
21.57563 -15.483685 89.726761 16711746
1.7655101 -0.99773067 73.773331 16711746
20.192942 -22.770817 92.83419 16711746
7.3338957 -12.349642 77.44059 16711746
2.3910677 -7.9861703 77.973122 16711746
1.243154 -6.4736218 78.018211 16711746
0.97783536 -8.2807217 83.808571 16711746
-0.4367159 -0.73759764 74.440697 16711746
17.022211 -23.135908 96.736862 16711746
5.7188387 -8.243 82.603409 16711746
-0.53543276 -2.571003 77.607552 16711746
7.5925317 -7.5437608 80.408829 16711746
-0.62318558 0.57137215 74.196495 16711746
0.61387402 -1.0328522 76.236603 16711746
-1.0713103 -0.66243881 74.697784 16711746
0.16315331 0.12512794 75.087738 16711746
-0.37049642 -3.2545612 78.343567 16711746
3.254081 -0.18951605 73.897255 16711746
1.1618259 -1.4737223 77.325775 16711746
6.427177 -9.8713799 86.290466 16711746
7.5281057 -6.1400795 80.897675 16711746
39.840328 -2.9873822 87.414322 16711746
0.19856495 -7.9279137 77.457695 16711746
6.3257432 -7.6794739 83.925507 16711746
-0.21612373 0.24359754 74.398254 16711746
2.4876115 -5.7295218 75.951309 16711746
4.3046184 -29.433115 16.817862 16711746
1.5363718 -3.760226 2.9856353 16711746
8.6607704 -21.517912 15.726595 16711746
0.46110868 -0.77651489 0.78859162 16711746
1.6692586 -4.3051286 2.665689 16711746
-1.0758141 -18.595541 8.2109394 16711746
-0.99889731 -6.4540739 2.7854846 16711746
2.876312 -5.9201236 2.6019502 16711746
1.6156228 -5.3356185 5.1480708 16711746
1.6824013 -4.1975522 3.6982188 16711746
2.8641613 -14.37357 7.3095956 16711746
-0.9978838 -29.016235 11.11825 16711746
5.9292941 -12.851453 6.0428376 16711746
0.9012658 -2.2549047 2.717011 16711746
0.044220436 -9.7646017 4.2654085 16711746
2.7040622 -11.86713 7.2417808 16711746
-3.2609568 -9.9723043 5.3358483 16711746
1.7039452 -3.6024399 2.0155249 16711746
1.2199398 -2.3987854 2.2453499 16711746
3.1016524 -7.9831409 6.9444818 16711746
-0.59906352 -5.1924815 2.4639187 16711746
12.405442 -10.347844 2.8217175 16711746
5.0456696 -11.079127 4.2937517 16711746
0.22116826 -2.075892 2.2234468 16711746
-4.3365049 -17.529089 7.8363357 16711746
-11.325011 -22.286665 14.925048 16711746
2.5924935 -9.0724564 4.8145957 16711746
-5.558486 -9.2278013 11.524926 16711746
11.315286 -22.715309 9.460928 16711746
4.0321002 -10.128571 4.520411 16711746
-1.4864663 -7.2553658 3.8153365 16711746
5.3277011 -11.827499 10.360584 16711746
2.5801101 -4.4286132 4.236033 16711746
-8.3291731 -12.311845 9.3018637 16711746
-5.300323 -10.559132 6.034945 16711746
0.42401311 -9.1488352 17.243721 16711746
2.5051067 -6.5669589 4.9184513 16711746
8.4925213 -20.252708 15.943763 16711746
2.9112692 -22.591417 17.573065 16711746
-13.273661 -41.614304 19.751284 16711746
-2.2411151 -7.8773122 4.2113457 16711746
0.78722113 -28.825655 12.789909 16711746
-0.74426401 -2.533628 1.894773 16711746
-1.3736197 -3.3351221 2.2898636 16711746
1.4010106 -2.3264291 2.2399757 16711746
0.21621719 -21.245148 13.544641 16711746
2.6152346 -6.382503 5.8801742 16711746
13.635866 -34.898495 15.400461 16711746
0.73777163 -4.4227328 3.7344556 16711746
4.1454663 -24.334404 25.540205 16711746
2.8145828 -2.162786 1.2745765 16711746
3.7140317 -7.5991149 3.2823322 16711746
1.8583583 -3.3697362 3.8391097 16711746
2.3956819 -9.6188927 4.4170451 16711746
3.5943511 -4.9384251 5.3404646 16711746
1.6685134 -4.7773957 2.7950773 16711746
-1.1695647 -23.315685 20.869905 16711746
5.3781366 -24.73572 12.24329 16711746
7.1210389 -39.008106 19.901142 16711746
-6.4105182 -16.340061 9.9959116 16711746
-9.0979471 -10.163364 12.171651 16711746
-0.52483535 -15.869085 11.230832 16711746
-2.5487454 -44.922039 18.470377 16711746
-7.0673003 -7.7858763 7.602088 16711746
-6.5230427 -6.463264 9.3347788 16711746
0.84724873 -24.199535 10.807904 16711746
2.2526844 -19.224375 16.443338 16711746
-5.304924 -19.996185 9.6032801 16711746
3.79475 -18.16243 10.822439 16711746
1.0366431 -14.57892 5.8602238 16711746
1.4890324 -17.283936 6.5611811 16711746
-3.675689 -11.270331 10.635148 16711746
-0.45301861 -13.560093 6.8417687 16711746
3.3367498 -21.544275 12.433944 16711746
2.2850463 -25.701382 13.874466 16711746
2.4217989 -18.776821 9.4292278 16711746
-0.28576908 -18.971342 13.040923 16711746
-0.23095195 -11.472918 8.1868973 16711746
-5.443377 -21.213575 9.1853199 16711746
-4.468606 -29.328127 11.039871 16711746
-5.7894506 -26.088816 9.596118 16711746
-17.046049 -22.045952 30.882523 16711746
-10.576416 -15.163528 20.042271 16711746
-7.7248826 -11.152608 9.008646 16711746
6.9254713 -32.990829 22.229279 16711746
4.7363 -25.886404 13.501727 16711746
-6.4088068 -7.9876657 17.107069 16711746
-7.2597084 -28.593927 14.024937 16711746
-6.7246962 -8.074338 14.350341 16711746
-9.6028452 -12.900178 18.013302 16711746
-8.0603418 -8.7159863 10.417561 16711746
-8.0573406 -8.6149206 9.4954262 16711746
2.5237973 -24.148293 18.897514 16711746
5.135838 -20.682673 8.3762512 16711746
-10.904158 -13.056513 20.196678 16711746
1.0253978 -14.455037 5.9988503 16711746
-6.4566159 -7.4556732 6.2810664 16711746
-3.2032504 -24.597549 10.174753 16711746
-12.534624 -21.251101 13.718264 16711746
-4.5518217 -5.6250315 5.4990792 16711746
-6.6127315 -13.098078 16.152033 16711746
-6.6527524 -7.4515276 11.714101 16711746
-5.2488613 -10.557 13.127327 16711746
0.27299216 -30.573463 19.534761 16711746
1.749599 -35.446629 14.672294 16711746
-12.644076 -11.787111 13.467761 16711746
12.95434 -25.804226 11.414029 16711746
7.462523 -34.675663 17.077433 16711746
5.278616 -29.134859 13.210379 16711746
-11.442418 -27.264381 15.114892 16711746
1.8409991 -17.419142 15.133623 16711746
3.2048666 -23.680851 18.414845 16711746
-5.9437675 -6.1654477 6.5264478 16711746
-2.7805376 -12.24351 5.8598838 16711746
7.5508971 -26.682665 11.57544 16711746
2.633497 -12.651959 5.6380806 16711746
-6.3942089 -13.130858 7.9938307 16711746
-6.7703543 -7.6154909 6.9367185 16711746
5.045011 -36.339699 25.627409 16711746
-0.51269084 -10.39756 5.3095336 16711746
-10.817157 -11.253875 14.46328 16711746
5.3838744 -41.772793 20.920794 16711746
2.7435477 -33.551727 16.198286 16711746
2.5257802 -25.820339 20.107374 16711746
-7.2417579 -14.725322 8.3758173 16711746
-6.3243079 -7.4116821 8.091547 16711746
2.3578959 -22.489031 13.123771 16711746
-8.6814852 -25.101751 11.731983 16711746
17.17766 -27.521505 27.067623 16711746
-6.6796041 -14.736569 8.0474958 16711746
-13.296836 -13.810271 16.401377 16711746
-8.0799217 -10.148398 15.394119 16711746
-13.707704 -17.944824 25.337679 16711746
-7.1640668 -16.461824 9.6736269 16711746
8.7267818 -28.12916 22.033108 16711746
-9.3171816 -13.105856 10.490471 16711746
-3.4193492 -18.013344 8.3592825 16711746
-0.38945231 -9.8744431 6.0271964 16711746
5.5965576 -33.809895 20.130075 16711746
-13.23716 -18.340609 19.230757 16711746
5.7729545 -16.368128 9.7861328 16711746
-5.5292072 -8.4652653 16.326828 16711746
-11.702101 -20.178158 23.365414 16711746
8.0312366 -22.343014 14.354546 16711746
-10.561948 -28.278677 14.563159 16711746
10.048345 -33.670979 22.490227 16711746
3.4340801 -19.820461 20.801842 16711746
-3.17291 -5.5778713 4.218112 16711746
-9.499342 -18.853962 12.663245 16711746
-12.039964 -16.976885 12.949216 16711746
8.0686207 -26.91913 13.709059 16711746
-6.1436863 -8.1763935 13.252251 16711746
-10.563212 -13.437066 11.511585 16711746
4.219099 -15.444545 15.057738 16711746
-9.6695614 -22.495098 11.701909 16711746
-11.921766 -12.40741 15.955532 16711746
4.6357889 -23.048386 22.742598 16711746
5.3769088 -15.129112 13.973762 16711746
2.5227597 -25.941612 22.295784 16711746
-8.3941345 -11.441277 17.869587 16711746
-9.568675 -13.5703 14.157958 16711746
-1.2974578 -26.011522 23.122738 16711746
-3.2680671 -24.886173 10.277229 16711746
1.4840201 -22.998629 9.8958473 16711746
-6.6734519 -16.770496 10.255414 16711746
-5.939641 -12.788548 8.8317232 16711746
-3.5805366 -17.202112 11.364704 16711746
-4.0825276 -16.866161 7.995225 16711746
-6.0277958 -26.417866 17.341784 16711746
-4.6227779 -9.939147 6.7151804 16711746
-7.9195018 -22.913519 10.80122 16711746
-2.1240814 -9.1614161 7.0802841 16711746
-6.8675241 -29.013411 16.83806 16711746
-1.283233 -23.20199 11.323778 16711746
-3.4065964 -16.146772 9.0632696 16711746
-6.8797827 -12.48492 7.1887088 16711746
-3.2051156 -15.71258 7.6257601 16711746
-6.7643204 -29.810148 12.548967 16711746
-10.005338 -35.448326 19.521814 16711746
-0.93022609 -20.578449 14.407838 16711746
3.6878922 -26.655985 13.669252 16711746
-1.4152876 -25.368778 12.285375 16711746
-4.0494685 -14.367526 7.0838227 16711746
-6.489727 -15.449471 8.2062702 16711746
-6.8578 -14.692977 7.7570314 16711746
-5.8279061 -16.935589 15.854536 16711746
-8.0172081 -12.352403 8.9608793 16711746
-9.6083927 -13.629217 9.6620245 16711746
-12.41688 -24.21866 16.18231 16711746
-4.2051973 -6.8994541 4.6384764 16711746
7.1160336 -16.831985 10.00329 16711746
-1.4185846 -22.801325 9.8660517 16711746
-4.8863997 -9.2146635 5.7443867 16711746
-7.5053711 -18.894873 11.096885 16711746
-5.3866086 -11.360819 6.567853 16711746
9.1677904 -34.276344 18.631718 16711746
-4.5830483 -20.464876 16.522545 16711746
-6.2947845 -27.302801 17.776604 16711746
-7.4934664 -26.558121 19.902061 16711746
-6.8701754 -29.085945 16.794859 16711746
1.8236532 -5.3558569 6.8551097 16711746
3.4208405 -2.6279535 5.4086914 16711746
3.9954829 -25.080242 26.375561 16711746
-8.0127983 -17.427383 8.5417213 16711746
-11.63436 -19.993662 12.055174 16711746
4.566895 -6.621922 6.7841682 16711746
9.3710041 -23.057938 10.922599 16711746
-9.450367 -22.08065 13.401437 16711746
-9.4044991 -18.006063 20.170431 16711746
10.268208 -54.762447 24.410341 16711746
11.089535 -16.204752 16.562252 16711746
10.117925 -25.513699 17.298029 16711746
9.9413023 -31.759609 14.373662 16711746
4.4771752 -21.281294 13.833572 16711746
-5.5992246 -10.451699 6.1048174 16711746
-0.68202311 -28.981579 19.599449 16711746
-10.164006 -35.970226 26.587347 16711746
-4.2790504 -12.923481 12.15557 16711746
-8.428607 -24.445671 21.053055 16711746
-6.2112336 -27.062029 17.543427 16711746
-6.8765402 -15.48441 7.6114039 16711746
4.9866962 -3.7098606 7.837975 16711746
-3.1819289 -10.424408 9.4169083 16711746
-0.15151809 -16.177752 8.4564018 16711746
0.95470589 -29.220018 12.932677 16711746
1.6347011 -16.020815 13.509383 16711746
-8.9709244 -16.006163 18.655579 16711746
0.53942508 -25.873459 11.947767 16711746
-4.5086298 -7.8779349 10.965542 16711746
-4.5501823 -8.2564783 11.89472 16711746
-11.006499 -13.516827 22.306681 16711746
-9.2616806 -21.695709 13.227272 16711746
-7.4068985 -13.360096 15.506536 16711746
-10.473149 -16.330601 20.514889 16711746
9.44491 -44.048126 29.838787 16711746
6.5082746 -32.03117 17.467993 16711746
-0.0076131281 -13.486781 9.3183746 16711746
5.5845728 -29.992748 18.296793 16711746
-8.5453997 -11.534253 19.278311 16711746
4.9815712 -13.725111 11.813187 16711746
-10.326984 -16.142488 23.152987 16711746
-0.45637032 -22.938093 15.372915 16711746
-5.5709324 -6.738698 16.200142 16711746
8.9537716 -40.569992 27.343227 16711746
-6.6066737 -8.0725164 17.220842 16711746
5.5909247 -22.210846 23.208593 16711746
-0.11466745 -20.452515 12.210169 16711746
2.2902536 -25.15469 12.30823 16711746
-7.7161779 -8.3249092 10.067185 16711746
-5.871263 -16.588209 9.0214472 16711746
1.1994315 -27.882378 16.652119 16711746
10.465908 -38.478447 17.624557 16711746
3.984664 -22.086716 10.124874 16711746
-9.5669117 -23.769707 13.863261 16711746
9.8677044 -35.280327 15.097335 16711746
-8.832756 -7.8754392 10.240249 16711746
-11.19861 -12.936372 27.98539 16711746
12.492976 -26.60783 13.005254 16711746
9.5461798 -23.901043 11.335774 16711746
4.8527102 -11.197611 8.9957323 16711746
3.2737956 -10.135732 9.744256 16711746
0.51464391 -12.426205 10.399482 16711746
9.7284489 -20.511639 10.136137 16711746
6.2617712 -31.537323 21.954819 16711746
-7.8957024 -10.900776 15.396939 16711746
-8.9615927 -9.744174 15.266058 16711746
3.4156833 -20.790632 10.177909 16711746
-1.6729279 -25.689051 11.067452 16711746
-6.8602285 -12.576405 14.699363 16711746
-7.367034 -9.8882236 19.060915 16711746
-0.28691879 -5.5146885 12.42719 16711746
5.0580626 -27.20454 19.627115 16711746
-7.7369151 -9.9261541 16.313858 16711746
-5.7984648 -7.4977412 11.595924 16711746
4.6405668 -19.853317 10.752699 16711746
3.3536913 -20.106089 19.576826 16711746
3.1916039 -22.073145 18.073093 16711746
2.0523467 -22.295025 19.502153 16711746
3.0569494 -17.066029 17.983503 16711746
-7.4665508 -10.738855 15.068944 16711746
6.5520234 -17.962763 13.897112 16711746
2.5913744 -29.441217 14.272903 16711746
-6.1452389 -12.699951 7.3311114 16711746
-15.449575 -13.72435 19.70591 16711746
-8.2171135 -11.652499 17.388063 16711746
10.29023 -20.601452 7.701323 16711746
3.18787 -32.717068 19.053888 16711746
-10.767087 -11.376539 18.064432 16711746
-12.18391 -14.481314 22.178581 16711746
4.8276563 -25.300369 22.226357 16711746
-10.445868 -11.277509 19.007406 16711746
2.2847738 -9.1840687 12.45206 16711746
-5.8966098 -9.5000877 21.098293 16711746
-5.2463651 -11.290839 16.150061 16711746
-6.2398634 -7.2082367 7.0923352 16711746
-5.2306046 -21.515604 17.282549 16711746
-4.1939812 -6.7277303 6.2515101 16711746
3.6491165 -23.501362 22.767073 16711746
-9.123558 -10.117344 11.163872 16711746
10.120105 -26.143202 17.626215 16711746
-13.770591 -14.554221 24.574158 16711746
-4.3606076 -6.3315959 12.160364 16711746
-4.3897877 -6.4464712 12.288033 16711746
-10.634289 -19.802326 24.289757 16711746
10.304112 -31.473434 24.728806 16711746
14.65213 -18.284607 26.662966 16711746
-9.1603947 -12.040472 10.720251 16711746
-6.0117784 -6.5107837 5.8132215 16711746
-4.8738875 -8.6384668 5.5288815 16711746
-8.3738079 -10.778262 9.2999697 16711746
-8.3551817 -19.662718 10.430332 16711746
0.78700525 -1.8808761 1.5968215 16711746
-6.1635203 -7.2828956 7.0668631 16711746
-9.2785301 -9.5753021 10.613113 16711746
-8.1254187 -12.083082 9.1825218 16711746
-7.1832142 -10.536427 15.658848 16711746
-3.877795 -7.2298465 4.6860218 16711746
5.7544403 -17.669146 11.807213 16711746
6.0803432 -12.008003 8.2300472 16711746
7.4051771 -17.96797 14.936284 16711746
17.426155 -15.238645 17.681278 16711746
14.109282 -25.925232 20.363249 16711746
26.442249 -26.724104 26.920616 16711746
26.892607 -32.214516 32.798046 16711746
20.584827 -33.832836 35.666035 16711746
2.2304208 -12.29643 7.5487671 16711746
-1.8187569 -26.887476 11.547786 16711746
4.3502922 -29.152798 16.670172 16711746
5.3843393 -17.173847 17.419037 16711746
10.819563 -29.821165 25.722988 16711746
5.4327345 -19.439106 19.102695 16711746
15.812183 -19.469822 19.510426 16711746
4.5296621 -31.988434 22.443705 16711746
4.0085888 -25.775314 24.795399 16711746
4.5583177 -13.774136 6.9829636 16711746
18.840595 -23.850561 25.057171 16711746
6.7738705 -24.188169 16.917654 16711746
3.7414203 -27.804182 21.492327 16711746
17.918224 -25.643021 26.140785 16711746
8.3119936 -19.665428 17.251713 16711746
9.4001427 -21.923161 12.810862 16711746
3.5277159 -20.075861 10.858444 16711746
3.7392092 -18.729469 10.629208 16711746
5.968574 -12.872226 5.0528245 16711746
8.0063143 -18.497482 7.113831 16711746
-0.9291811 -21.432388 10.179185 16711746
9.7193174 -26.374531 19.442179 16711746
7.1085539 -31.633493 19.997763 16711746
-4.4567914 -13.573511 12.805189 16711746
-12.390204 -24.625719 15.986134 16711746
5.6316166 -12.155555 4.8141551 16711746
-9.4914999 -22.292744 13.786435 16711746
6.9627256 -20.757986 9.6325207 16711746
-4.9806685 -22.121748 14.707845 16711746
-7.3010092 -31.845318 12.430376 16711746
8.6372252 -26.724817 13.115283 16711746
11.357979 -30.683384 10.984074 16711746
-12.720434 -13.748822 14.997968 16711746
6.532908 -16.241585 13.477577 16711746
7.9783082 -20.300566 15.235613 16711746
-5.4134111 -24.274492 11.262613 16711746
-10.447661 -22.008383 10.821568 16711746
11.385758 -23.109522 13.193553 16711746
4.925972 -25.420025 15.777794 16711746
-6.8210282 -7.7323117 14.494479 16711746
-1.3343084 -10.371081 20.197145 16711746
6.6657138 -21.693693 8.852253 16711746
-9.9127274 -25.331274 11.802076 16711746
9.0235615 -27.517302 11.774542 16711746
7.5231161 -23.205366 15.553072 16711746
-10.237817 -16.208614 23.147919 16711746
4.783843 -22.952837 14.856464 16711746
4.6744132 -16.684612 8.4995642 16711746
0.38933951 -13.70687 11.137306 16711746
0.51137358 -17.920761 16.527239 16711746
-9.623271 -19.272385 13.012012 16711746
-0.32757157 -24.228981 14.45289 16711746
10.003217 -23.021223 10.181899 16711746
4.2303195 -28.281097 20.838463 16711746
5.9377451 -31.50593 22.238935 16711746
4.1742425 -19.933599 18.696293 16711746
6.938848 -34.712921 21.843782 16711746
10.725469 -31.618437 19.65974 16711746
4.8463478 -28.957825 14.037903 16711746
4.5049896 -20.539961 9.8307505 16711746
0.42145821 -21.675045 21.168037 16711746
-14.332555 -19.544571 16.981613 16711746
-9.4519386 -27.739494 12.388248 16711746
-7.4526553 -11.071298 20.129646 16711746
-10.290059 -16.291494 23.296402 16711746
11.488929 -17.206219 12.859461 16711746
3.9485097 -19.122301 18.037148 16711746
-6.9308553 -10.342268 21.049635 16711746
-8.684063 -16.766485 18.799328 16711746
3.7925401 -16.460918 16.1206 16711746
-0.73884726 -20.567944 13.364821 16711746
-8.5645065 -16.346378 9.8299236 16711746
10.935917 -14.935578 11.567493 16711746
-6.6832848 -19.687729 12.294395 16711746
-9.4105492 -21.77496 13.281362 16711746
10.676345 -20.243036 10.683215 16711746
0.3815048 -21.380726 20.830725 16711746
-8.489954 -30.451807 22.718885 16711746
12.325605 -26.576406 10.859517 16711746
-3.3754978 -11.803884 21.1548 16711746
-4.3368073 -8.8778248 15.877783 16711746
9.3537045 -13.555265 8.2885609 16711746
-10.249058 -14.773446 13.205579 16711746
17.649801 -27.092813 19.441843 16711746
17.268721 -23.182779 30.191021 16711746
-0.99553353 -8.9075127 20.489382 16711746
3.7150428 -25.146782 24.258921 16711746
-12.361466 -24.551563 13.623708 16711746
6.0839086 -25.175262 18.240906 16711746
-9.3133497 -13.410281 11.340064 16711746
14.915187 -17.971041 14.798089 16711746
7.7224669 -9.2437725 7.4181452 16711746
12.228586 -17.165558 13.680775 16711746
-4.7899289 -6.3214951 11.054405 16711746
9.9271622 -32.244972 33.198856 16711746
-9.9189081 -15.518931 19.467653 16711746
-4.4311357 -17.579027 22.371799 16711746
23.570337 -23.606958 30.573809 16711746
8.7394123 -25.613361 10.335657 16711746
5.2454147 -15.986313 12.56519 16711746
4.3273888 -18.88983 19.456978 16711746
6.3042154 -29.638361 24.484705 16711746
4.3822732 -9.537591 4.1933928 16711746
4.1684966 -8.9450245 3.7929645 16711746
1.950357 -20.5833 8.1917849 16711746
6.431807 -19.456436 15.73017 16711746
8.0892677 -19.541471 7.9411354 16711746
3.1639142 -20.16988 11.32874 16711746
9.2673874 -24.208889 10.835147 16711746
6.2907667 -22.924271 19.873049 16711746
5.9190168 -17.832512 14.164001 16711746
5.2282743 -17.589207 14.076303 16711746
11.168877 -24.0049 9.19732 16711746
6.5755486 -30.790548 14.478895 16711746
10.851794 -29.131754 12.011345 16711746
8.0322084 -19.311899 7.8366709 16711746
10.919635 -32.86208 23.068182 16711746
5.4920554 -19.913248 13.95636 16711746
-5.4332919 -9.082386 6.4346795 16711746
-6.6989985 -11.185111 15.119027 16711746
7.4724431 -22.301943 9.9011803 16711746
-5.7800732 -17.868637 16.079479 16711746
6.9214959 -20.598875 16.641991 16711746
7.0384974 -18.311827 8.2509651 16711746
-10.588869 -22.424274 10.95267 16711746
2.833637 -8.1351967 8.4900799 16711746
11.668458 -30.698635 13.606007 16711746
2.317111 -16.609219 8.0232983 16711746
5.4784889 -23.525887 9.9781332 16711746
21.37569 -21.465309 21.832432 16711746
5.26476 -12.788987 5.6086106 16711746
5.5214381 -18.881054 14.959088 16711746
-0.63951081 -21.293652 8.34375 16711746
9.4982042 -31.742105 13.889116 16711746
5.5762291 -21.390602 22.774155 16711746
-8.4023743 -21.146391 10.80141 16711746
4.5809102 -13.348081 5.8412857 16711746
-6.565896 -10.410127 8.5331841 16711746
-10.045033 -23.011284 11.962691 16711746
6.7257566 -21.443253 15.813095 16711746
-9.6127129 -19.8985 10.411354 16711746
-13.940618 -19.321087 20.216957 16711746
5.2787323 -14.428167 11.036186 16711746
6.4561038 -22.433931 16.491045 16711746
5.5929022 -20.007036 10.210136 16711746
-7.8127098 -11.06861 15.86946 16711746
-7.7010288 -11.630335 16.401991 16711746
-2.1177855 -14.813102 6.9016228 16711746
-3.564436 -5.7805247 3.9861789 16711746
-8.0834465 -16.581993 9.6349249 16711746
3.6097186 -4.6001983 4.5679469 16711746
0.82062894 -17.835361 8.2020054 16711746
-0.26114422 -21.900331 15.11362 16711746
3.6159272 -22.373207 21.684225 16711746
-9.4831085 -23.567308 13.773519 16711746
12.563885 -15.929867 19.778061 16711746
-8.560895 -25.395445 11.494217 16711746
16.977186 -16.121778 17.234062 16711746
19.656902 -21.144373 19.505213 16711746
2.7037868 -18.886782 16.103899 16711746
14.307692 -19.710062 22.71752 16711746
4.4911566 -29.295404 15.656704 16711746
23.19087 -24.638124 29.139553 16711746
20.530155 -24.454166 25.283243 16711746
-10.770409 -14.181177 20.349127 16711746
-8.469512 -20.980518 11.547287 16711746
-10.173026 -16.07604 20.101309 16711746
9.8455963 -41.563175 28.997696 16711746
18.354055 -21.907158 22.615667 16711746
6.2044187 -19.630457 12.865225 16711746
6.8616195 -29.92387 13.739233 16711746
-13.609627 -21.850376 29.570745 16711746
6.3456802 -23.298321 12.861134 16711746
-1.4350266 -17.735447 8.6793537 16711746
4.8969994 -29.076216 20.593502 16711746
1.2822356 -1.526451 3.8073568 16711746
1.2622339 -1.9112811 3.566879 16711746
2.129034 -1.6618502 3.0257595 16711746
1.4568187 -2.5546906 3.5699029 16711746
3.0167041 -7.6523781 6.119328 16711746
4.0430751 -3.8717611 4.6403108 16711746
11.326303 -15.031768 10.739979 16711746
-14.535635 -21.435406 29.370745 16711746
27.568682 -28.940756 34.120422 16711746
-13.481348 -17.598242 18.620308 16711746
27.965828 -29.730768 34.931385 16711746
2.8726573 -25.890169 22.82357 16711746
21.790869 -19.076864 20.915585 16711746
20.993477 -27.925779 32.715286 16711746
14.211224 -19.587849 22.550814 16711746
-14.285331 -22.6856 16.097872 16711746
29.456179 -25.541515 29.170355 16711746
33.424744 -11.801596 39.355267 16711746
-14.383092 -22.942551 16.240992 16711746
28.323946 -18.999132 44.646496 16711746
15.623385 -20.228495 14.468865 16711746
26.086163 -22.387032 26.063328 16711746
0.98410863 -1.2117829 2.2344487 16711746
2.1966326 -23.629787 19.839804 16711746
2.5419991 -19.215994 9.5683317 16711746
-9.3437433 -21.488646 11.659648 16711746
-10.18508 -21.636953 10.667013 16711746
20.77684 -26.786772 22.252539 16711746
22.57962 -15.833071 33.182674 16711746
25.282032 -9.4765053 36.855511 16711746
0.47061765 -27.846502 25.539619 16711746
26.096375 -18.84411 20.9216 16711746
24.716446 -28.146112 25.451147 16711746
22.879656 -29.042341 25.645287 16711746
-8.016221 -24.969084 12.874192 16711746
-9.6914663 -22.429308 11.685996 16711746
23.117689 -21.185059 36.344482 16711746
24.983532 -22.209389 31.835672 16711746
-6.8932285 -25.525927 12.092486 16711746
20.201607 -14.149083 32.886932 16711746
-8.6597404 -15.431133 10.322154 16711746
21.809618 -27.840225 25.753469 16711746
-2.6554501 -11.756678 32.271233 16711746
16.237371 -18.943037 28.684996 16711746
21.824192 -28.263021 29.439159 16711746
9.9420347 -30.564459 24.029446 16711746
6.2096577 -21.501497 14.157308 16711746
24.742628 -17.512777 36.303642 16711746
7.7693501 -29.234203 16.887146 16711746
-8.985631 -23.205439 11.018574 16711746
-9.2573824 -22.924623 12.542554 16711746
3.4333782 -23.904541 12.500571 16711746
-11.400255 -13.98241 18.194857 16711746
29.05554 -24.779955 28.81271 16711746
5.0812745 -22.433687 14.852386 16711746
18.184715 -22.827641 24.027122 16711746
3.6872911 -27.599146 13.037229 16711746
21.816072 -23.074705 24.810946 16711746
25.829203 -27.971746 36.816269 16711746
2.1058867 -19.662518 11.542212 16711746
-12.536413 -16.234663 14.569361 16711746
-10.427617 -20.582964 13.709452 16711746
-7.9613643 -23.012138 13.311198 16711746
20.667208 -26.584566 22.077812 16711746
-8.030983 -29.137865 21.873749 16711746
2.22296 -26.220425 12.819479 16711746
28.886055 -16.259033 43.753178 16711746
32.027424 -29.185728 29.345533 16711746
22.284822 -21.073698 20.011852 16711746
29.230246 -31.188999 40.885715 16711746
5.686914 -24.65926 16.310915 16711746
24.860229 -22.257645 24.064028 16711746
3.7289326 -34.188404 19.237072 16711746
18.153593 -22.90778 17.197556 16711746
6.5840235 -11.380179 12.546591 16711746
3.4612823 -25.156042 13.005321 16711746
-15.006654 -15.773726 16.148125 16711746
-3.7213645 -12.693675 25.921152 16711746
26.71073 -25.03084 26.076088 16711746
17.168596 -21.206139 16.959961 16711746
-5.9630723 -22.340464 10.824353 16711746
25.78949 -20.875137 41.746433 16711746
20.745266 -26.20751 37.555073 16711746
18.858723 -24.056463 37.337563 16711746
6.9761887 -28.117178 19.700674 16711746
16.431845 -20.267448 16.334391 16711746
10.173956 -16.697416 18.13052 16711746
24.635174 -32.325474 26.825478 16711746
-12.593421 -20.00115 11.063642 16711746
-12.173924 -14.321941 23.402187 16711746
4.4468846 -26.898806 18.276411 16711746
13.829614 -16.114164 14.92428 16711746
-6.3326621 -13.756668 8.6279345 16711746
0.32126769 -34.658699 31.200453 16711746
-8.9124146 -14.455038 10.752455 16711746
11.799633 -6.3318224 4.4841881 16711746
24.060898 -21.887968 37.527168 16711746
2.0406616 -23.456402 21.541674 16711746
-8.7082109 -22.243526 11.988181 16711746
-7.212862 -22.651087 11.908542 16711746
-8.019496 -23.646959 11.194116 16711746
4.3896375 -25.632494 13.139968 16711746
-3.9945228 -23.272854 9.9390812 16711746
4.0941715 -22.05578 12.788245 16711746
2.9760845 -40.358738 33.134983 16711746
21.22473 -26.92745 38.171913 16711746
1.0633636 -36.279762 15.545175 16711746
2.6940989 -22.327999 19.750925 16711746
29.460932 -42.985725 36.934856 16711746
-13.08799 -23.267834 14.460041 16711746
-0.44002333 -29.731989 11.669276 16711746
-9.9542675 -20.141466 13.906781 16711746
-5.9775548 -8.7437191 7.4936414 16711746
6.9030871 -4.2086349 9.1913395 16711746
-6.7645893 -15.725623 9.6669483 16711746
-8.6771202 -11.290613 8.592618 16711746
-12.149272 -18.565163 12.683747 16711746
8.09167 -14.906967 12.813273 16711746
-3.8549509 -18.599415 11.147286 16711746
-10.396765 -21.876627 10.782372 16711746
23.467758 -16.283669 34.227562 16711746
4.9615207 -35.023216 25.048101 16711746
16.80315 -22.984228 26.384998 16711746
49.717739 -14.459478 59.259983 16711746
29.850031 -24.086819 30.024668 16711746
4.2983365 -27.375862 24.54809 16711746
3.7522876 -26.982889 21.875202 16711746
34.484119 -38.662182 37.985168 16711746
17.312399 -22.378998 32.065643 16711746
21.641312 -15.080459 31.813808 16711746
-0.42616677 -29.432426 12.232238 16711746
23.069914 -25.003086 22.759325 16711746
2.1858025 -22.029247 18.519567 16711746
2.9568682 -23.880617 21.169174 16711746
1.9848317 -1.532282 2.4110403 16711746
8.2670126 -23.622402 12.44597 16711746
4.1787615 -24.069609 13.109224 16711746
5.3598619 -29.048418 20.127083 16711746
-9.6887875 -29.72015 16.368328 16711746
7.491858 -34.487644 28.353436 16711746
3.4139082 -27.955973 16.53039 16711746
4.0445857 -28.506596 16.271479 16711746
22.602468 -22.652 23.236162 16711746
5.3615065 -31.496801 16.977776 16711746
28.911221 -37.796509 39.381573 16711746
-6.1254401 -8.8839474 7.6019673 16711746
5.1869445 -3.1949377 7.4910116 16711746
15.742575 -19.916847 31.049541 16711746
22.080973 -19.962086 21.642689 16711746
4.6099658 -26.637186 15.825264 16711746
20.480743 -31.385321 22.358269 16711746
3.6566293 -27.390961 21.178802 16711746
45.926468 -13.401464 55.033642 16711746
-18.052042 -19.073397 34.868118 16711746
41.420547 -12.167891 49.586357 16711746
-22.140251 -23.272121 26.890942 16711746
1.8708055 -7.4499712 7.2999206 16711746
9.3862791 -45.867741 27.667704 16711746
1.2528821 -4.1763539 4.393611 16711746
4.3318896 -25.562418 14.387888 16711746
-15.095381 -16.149878 19.37735 16711746
-8.8823471 -24.978962 11.60858 16711746
-12.916129 -14.811444 15.522335 16711746
-14.021249 -31.735804 15.474892 16711746
-9.6961689 -20.615072 10.248096 16711746
-15.267523 -15.141 22.501373 16711746
-4.8973598 -9.5381098 7.088048 16711746
27.663759 -34.882263 48.404964 16711746
