# .PCD v.7 - Point Cloud Data file format
VERSION .7
FIELDS x y z rgb
SIZE 4 4 4 4
TYPE F F F F
COUNT 1 1 1 1
WIDTH 152
HEIGHT 1
VIEWPOINT 0 0 0 1 0 0 0
POINTS 152
DATA ascii

 -41.9782410 45.9328613 96.7997665 16777215
 -0.7805283 0.8547612 1.7997044 16777215
-0.5875361 -0.1192845 2.1038313 16711746
-0.8230760 1.0797433 1.5405928 16711746
-0.6668067 1.3135940 1.3412455 16711746
-0.6636358 1.3196918 1.3447695 16711746
-0.9906229 0.1634220 2.2872427 16711746
-1.1843957 -0.2166367 2.5424619 16711746
-0.8875185 1.3108504 1.2337165 16711746
-0.9100145 1.3310753 1.2278808 16711746
-0.7652251 0.1788502 2.1589456 16711746
-1.2554578 -0.6044079 2.0766804 16711746
0.0765890 -0.2293570 2.3347497 16711746
-0.7190781 1.3925955 1.2490549 16711746
-0.7682959 1.2347531 1.4292196 16711746
-0.8682706 1.1330415 1.4999478 16711746
-0.7825431 1.0869775 1.5543338 16711746
-0.6808017 -0.5062794 2.2761531 16711746
-0.7032617 -0.5138500 2.2625873 16711746
-1.1029910 0.0136260 2.3693397 16711746
-1.2405782 -0.2124901 2.5395508 16711746
-1.2381858 -0.2125440 2.5052238 16711746
0.0347614 -0.3370304 2.2578132 16711746
-0.5082956 -0.1327733 2.1186090 16711746
-0.7219329 1.2528360 1.3128465 16711746
-0.6699906 1.4412973 1.0768876 16711746
-1.0012196 -0.2212486 2.1054151 16711746
-0.4434712 -1.0661746 1.5963830 16711746
-1.2056071 -0.5424543 1.9882290 16711746
-0.2247256 -0.3919654 2.0087063 16711746
-1.4306571 -0.2435061 2.4946711 16711746
-1.4662701 -0.2310632 2.4913442 16711746
-0.3643695 1.8488053 0.8421003 16711746
-0.5703372 1.4175810 1.2579529 16711746
-0.7991837 1.0753657 1.5568763 16711746
-1.2425299 -0.7856367 1.8789686 16711746
-0.7970302 1.2339108 1.3390766 16711746
-0.1053423 -0.6882589 1.8001730 16711746
-0.2873958 -0.0177370 2.4785109 16711746
-0.7910203 0.1220792 2.0973270 16711746
-0.8434922 -0.4337495 2.3294489 16711746
-0.3012815 -0.9469730 1.7012179 16711746
-0.4043442 -0.7199833 1.7146099 16711746
-0.6573066 -0.5934986 2.1646187 16711746
-0.6936633 -0.7192825 2.1848953 16711746
-0.6431932 -0.7529210 2.1566398 16711746
-0.9661770 -0.2030888 2.5130641 16711746
-0.6919453 -0.5276144 2.2446229 16711746
-1.0759574 0.1187693 2.3785024 16711746
-1.2373936 -0.2180214 2.6056540 16711746
-1.2863337 -0.2217502 2.6388876 16711746
-0.6298922 -0.5603207 2.2017288 16711746
-0.4199612 -0.6721333 2.1612780 16711746
-1.3071991 -0.3104684 2.2112303 16711746
-0.5826846 -1.0886159 1.8983281 16711746
-0.9147300 -0.5391484 2.0286324 16711746
-0.8988766 -0.7200655 1.8304808 16711746
-0.5234762 1.4806147 1.2504431 16711746
-0.3195731 1.8731124 0.8861928 16711746
-0.7874506 -0.8514266 1.6789615 16711746
-0.0519578 2.0981579 0.6826274 16711746
-0.1152301 -0.9738235 1.8116236 16711746
-1.2389681 -0.1024386 2.5767956 16711746
0.0231134 -0.7002273 1.9679831 16711746
-1.4639536 -0.4716778 2.1598477 16711746
-0.5658264 -0.0586127 2.1256275 16711746
-0.2786029 -0.9256164 1.9291424 16711746
-0.7451049 1.1471165 1.4772714 16711746
-0.6998488 1.2713417 1.3374480 16711746
-0.7030663 1.2697836 1.3521501 16711746
-1.2931821 -0.5355263 2.0182014 16711746
-0.2023480 -0.7747848 1.6724993 16711746
-0.6249380 1.4205588 1.1901211 16711746
-0.7105101 -0.7668563 1.9906521 16711746
-0.6879719 -0.7890656 1.9660499 16711746
-0.3542069 -0.5528773 2.1684330 16711746
-1.2697042 -0.2697573 2.2569711 16711746
-1.2898574 -0.2790325 2.2546632 16711746
-0.7090645 1.2620622 1.3291488 16711746
-0.8165323 -0.7894821 1.7581699 16711746
-1.2767525 -0.6986368 1.9855299 16711746
-1.2998844 -0.7066445 1.9783210 16711746
-0.5392982 -0.6434205 2.0963287 16711746
-0.3816675 -0.8088306 1.8886684 16711746
-0.5785043 1.4477254 1.1519091 16711746
-0.5734949 1.3872602 1.2008938 16711746
-0.6085128 1.3634241 1.2550670 16711746
-0.3887288 -0.8724265 2.0108654 16711746
-0.7235494 -0.8660744 1.8877922 16711746
-0.4195545 -0.1723751 2.0974298 16711746
-0.0725631 2.0115545 0.6774990 16711746
-0.0752506 -0.8368275 1.7352457 16711746
-0.1217508 -0.8537700 1.7380303 16711746
-0.5221412 -0.8329208 1.6943599 16711746
-0.5860879 -0.9061028 2.0407343 16711746
-0.4028584 -0.8559300 1.8425530 16711746
0.1091683 -0.1452791 2.4149830 16711746
0.2997595 -0.0983549 2.4515185 16711746
-0.1475888 -0.1126390 2.4344814 16711746
-0.0307180 -0.1430232 2.4178901 16711746
0.0241749 -0.2145535 2.2434897 16711746
0.6361901 -0.1437111 2.2652602 16711746
-1.9585254 1.8050269 0.7394706 16711746
-1.6094650 1.5867941 0.8890654 16711746
-2.3259082 1.7635974 0.5499579 16711746
-1.2061616 1.4192379 1.1926756 16711746
-1.2683721 1.4657001 1.0370244 16711746
0.1405616 -0.0858852 2.4847934 16711746
-1.3110343 -0.2208898 2.6113939 16711746
-1.2048056 -0.2440384 2.3998897 16711746
-1.0526992 -0.2826497 2.4142249 16711746
-1.1628183 -0.2256468 2.3705735 16711746
-1.2920538 -0.1595786 2.5222950 16711746
-1.3274479 -0.2333860 2.4934077 16711746
-0.5412052 0.1876094 2.1977873 16711746
-0.8295801 0.3446636 2.2139802 16711746
-0.8310976 0.3119498 2.2119243 16711746
-0.9002131 0.2411571 2.2669559 16711746
-0.6031675 0.1097261 2.1348836 16711746
-0.6713638 1.2989600 1.3088577 16711746
-0.5034739 1.4404457 0.9689223 16711746
-0.6539643 1.3076303 1.2172948 16711746
-0.4952716 1.8316426 0.9363433 16711746
-1.0130780 1.2927130 1.3311503 16711746
-0.8552171 1.1124473 1.4870765 16711746
-1.0365174 1.3856922 1.1668905 16711746
-0.7692408 1.2283766 1.3860945 16711746
-0.8138741 1.0735736 1.5220160 16711746
-0.7517446 1.1460512 1.5386279 16711746
-0.7183687 1.2599659 1.3890253 16711746
-0.8255603 1.2455975 1.4108129 16711746
-0.8262474 1.2521521 1.4441632 16711746
-1.3311387 -0.2878987 2.2734613 16711746
-1.1846000 -0.2557678 2.2292800 16711746
-1.2439744 -0.2395142 2.3444664 16711746
-1.0343753 -0.3219996 2.3264079 16711746
-1.2521935 -0.5180215 2.1510558 16711746
-1.2852191 -0.4593035 2.2042046 16711746
-0.9075471 -0.3943752 2.3532155 16711746
-0.8626052 -0.4112879 2.3469543 16711746
-0.9153547 -0.4610654 2.1422966 16711746
-0.7538680 -0.4955169 2.1299796 16711746
-0.8544561 -0.1261765 2.0550103 16711746
29.4979610 -171.5564270 84.0395584 16711746
1283.4428711 -3589.9206543 -333.7422180 16711746
692.4566040 -2139.9641113 -118.8886719 16711746
911.6110229 -3861.1770020 1999.5184326 16711746
949.6201782 -4027.1403809 2084.8520508 16711746
-1255.4189453 -2525.9982910 1997.0947266 16711746
-2051.8669434 -3326.4621582 3281.3085938 16711746
30.2152271 -167.8825073 74.7867432 16711746
515.6621704 -3852.9863281 1776.2274170 16711746
