# .PCD v.7 - Point Cloud Data file format
VERSION .7
FIELDS x y z rgb
SIZE 4 4 4 4
TYPE F F F F
COUNT 1 1 1 1
WIDTH 53
HEIGHT 1
VIEWPOINT 0 0 0 1 0 0 0
POINTS 53
DATA ascii

0.8530236 -1.0242069 -1.3302121 16711746
0.9610935 -0.9375103 -1.3037492 16711746
0.8601899 -1.1092561 -1.3846656 16711746
0.7667769 -0.8369473 -1.3196565 16711746
0.8836685 -0.8253892 -1.1099932 16711746
1.0098977 -0.7645447 -0.9944963 16711746
0.9226382 -1.0980406 -1.4112597 16711746
-0.6154850 0.6873836 -2.1951675 16711746
0.8860525 -0.6975791 -1.0022604 16711746
1.1193784 -1.2776741 -1.4285865 16711746
-0.5113217 1.3109369 -1.8133550 16711746
0.9180437 -0.7842011 -1.0181856 16711746
1.1048101 -0.6516033 -1.0960718 16711746
0.9575968 -0.7912527 -1.2266319 16711746
1.0548337 -0.7760085 -1.2318065 16711746
0.3900764 -0.7754947 -1.5588442 16711746
0.8402948 -0.9281685 -1.3160077 16711746
0.9992617 -0.9529055 -1.3112068 16711746
-0.7192472 0.0926531 -1.9896444 16711746
896.6725464 -3066.9562988 1472.7937012 16711746
-140.1245117 -4031.5424805 1863.5273438 16711746
870.2977295 -2947.4150391 3094.6230469 16711746
900.6976929 -1442.5003662 2656.6513672 16711746
1370.1203613 -493.5561523 2005.3707275 16711746
1153.8221436 -1503.3679199 2940.7626953 16711746
593.8890381 -3247.0998535 3331.8173828 16711746
1010.1950684 -3399.7634277 2938.6508789 16711746
1164.7646484 -4006.2570801 1962.7092285 16711746
806.5814819 -3506.1215820 2907.8366699 16711746
1555.2698975 -4276.0517578 1799.6765137 16711746
755.8634033 -2150.4118652 1891.0299072 16711746
1165.6400146 -2911.9162598 1164.0494385 16711746
-226.8100739 -4185.5957031 2564.7924805 16711746
580.5670166 -222.6347961 409.3976440 16711746
1034.4351807 -4267.2895508 2245.7167969 16711746
522.5783081 -1834.8321533 1311.7498779 16711746
680.5640869 -5462.9965820 3893.3090820 16711746
501.2011414 -1492.0678711 1724.0285645 16711746
1039.3930664 -716.4370117 2132.4997559 16711746
645.0580444 -1141.8900146 2039.9235840 16711746
1154.3151855 -3863.3085938 1976.0238037 16711746
815.3805542 -2474.8725586 2262.5917969 16711746
1948.4471436 -5057.5903320 2545.4831543 16711746
1261.2094727 -4054.0200195 1937.4221191 16711746
1721.9786377 -4375.3520508 -906.6333008 16711746
2903.1645508 -5643.5400391 756.6134033 16711746
3536.8315430 -5299.7373047 3253.7231445 16711746
1452.3039551 -3699.6137695 1607.3172607 16711746
143.1537628 -3618.0063477 1749.7297363 16711746
1689.3754883 -1915.3270264 2992.8515625 16711746
931.8997803 -5406.3647461 3433.4235840 16711746
796.0356445 -1453.9560547 2833.9064941 16711746
686.3568115 -1956.3110352 2506.9389648 16711746
