# .PCD v.7 - Point Cloud Data file format
VERSION .7
FIELDS x y z rgb
SIZE 4 4 4 4
TYPE F F F F
COUNT 1 1 1 1
WIDTH 268
HEIGHT 1
VIEWPOINT 0 0 0 1 0 0 0
POINTS 268
DATA ascii

 0.0000000 0.0000000 0.0000000 16777215
 0.0334273 -0.0181433 0.0720221 16777215
 0.0357300 -0.0191459 0.0791924 16777215
 0.0394105 -0.0229096 0.0885506 16777215
 0.0398179 -0.0176991 0.0936286 16777215
 0.0347476 -0.0154619 0.1025567 16777215
 0.0348611 -0.0154988 0.1054227 16777215
 0.0356880 -0.0154196 0.1143827 16777215
 0.0348509 -0.0171666 0.1189554 16777215
 0.0302451 -0.0247359 0.1284699 16777215
 0.0384295 -0.0184496 0.1319505 16777215
 0.0472658 -0.0214294 0.1459986 16777215
 0.0520626 -0.0235814 0.1555787 16777215
 0.0558178 -0.0257442 0.1633071 16777215
 0.0639760 -0.0247054 0.1753802 16777215
 0.0643416 -0.0271509 0.1844433 16777215
 0.0627773 -0.0279173 0.1974945 16777215
 0.0636901 -0.0265469 0.2128302 16777215
 0.0597110 -0.0239850 0.2329351 16777215
 0.0578671 -0.0202866 0.2469657 16777215
 0.0620731 -0.0207098 0.2605230 16777215
 0.0680106 -0.0232878 0.2727906 16777215
 0.0854087 -0.0259438 0.2847503 16777215
 0.1015077 -0.0292132 0.2964908 16777215
 0.1112945 -0.0339190 0.3101945 16777215
 0.1143495 -0.0348513 0.3201013 16777215
 0.1134009 -0.0350303 0.3319276 16777215
 0.1176604 -0.0370201 0.3464645 16777215
 0.1140692 -0.0356908 0.3576496 16777215
 0.0953150 -0.0293241 0.3642284 16777215
 0.0991823 -0.0378140 0.3832064 16777215
 0.1174192 -0.0398629 0.4027508 16777215
 0.1203765 -0.0396271 0.4184780 16777215
 0.1291711 -0.0412214 0.4347143 16777215
 0.1368205 -0.0435110 0.4503311 16777215
 0.1390454 -0.0448167 0.4652962 16777215
 0.1430501 -0.0473552 0.4882035 16777215
 0.1424142 -0.0476109 0.5069038 16777215
 0.1400260 -0.0503283 0.5224607 16777215
 0.1457778 -0.0504416 0.5393345 16777215
 0.1553770 -0.0502208 0.5533773 16777215
 0.1703179 -0.0518589 0.5715799 16777215
 0.1853378 -0.0587559 0.5917256 16777215
 0.1907036 -0.0589998 0.6083566 16777215
 0.1918962 -0.0619078 0.6437634 16777215
 0.1944887 -0.0633525 0.6662755 16777215
 0.1936723 -0.0652142 0.6851710 16777215
 0.2071925 -0.0663989 0.7070597 16777215
 0.2177224 -0.0730158 0.7318878 16777215
 0.2338204 -0.0730628 0.7465782 16777215
 0.2226531 -0.0763268 0.7706245 16777215
 0.2232166 -0.0743351 0.7948788 16777215
 0.2154669 -0.0792013 0.8260651 16777215
 0.2211335 -0.0795602 0.8434638 16777215
 0.2242658 -0.0789534 0.8607574 16777215
 0.2356606 -0.0842833 0.8799834 16777215
 0.2529809 -0.0892908 0.8989375 16777215
 0.2634768 -0.0911801 0.9166960 16777215
 0.2633364 -0.0927859 0.9412360 16777215
 0.2594377 -0.0905329 0.9681850 16777215
 0.2576664 -0.0948425 0.9951605 16777215
 0.2652621 -0.0939453 1.0125778 16777215
 0.2768608 -0.1001341 1.0358095 16777215
 0.2832961 -0.1043687 1.0520833 16777215
 0.2882938 -0.1040866 1.0710977 16777215
 0.2844615 -0.1060990 1.0978922 16777215
 0.2869985 -0.1061096 1.1170849 16777215
 0.2940856 -0.1089851 1.1381836 16777215
 0.3064867 -0.1124927 1.1631891 16777215
 0.3142247 -0.1166605 1.1851927 16777215
 0.3127913 -0.1155957 1.2032223 16777215
 0.3038810 -0.1196423 1.2201124 16777215
 0.3057924 -0.1182533 1.2336386 16777215
 0.3135231 -0.1208290 1.2495201 16777215
 0.3236942 -0.1253576 1.2677007 16777215
 0.3325072 -0.1271453 1.2795118 16777215
 0.3334782 -0.1269576 1.2946627 16777215
 0.3351360 -0.1285999 1.3148208 16777215
 0.3367575 -0.1303133 1.3365470 16777215
 0.3489807 -0.1319233 1.3527550 16777215
 0.3555104 -0.1368073 1.3643874 16777215
 0.3609743 -0.1370749 1.3772572 16777215
 0.3601380 -0.1378745 1.3978589 16777215
 0.3569282 -0.1412333 1.4104017 16777215
 0.3639887 -0.1390014 1.4294926 16777215
 0.3703687 -0.1432253 1.4418477 16777215
 0.3783849 -0.1476293 1.4530734 16777215
 0.3847734 -0.1451391 1.4690037 16777215
 0.3883020 -0.1471214 1.4898447 16777215
 0.3896663 -0.1467914 1.5081954 16777215
 0.3981170 -0.1475266 1.5259403 16777215
 0.4079487 -0.1499558 1.5440909 16777215
 0.4151897 -0.1505699 1.5627213 16777215
 0.4173038 -0.1518897 1.5758010 16777215
 0.4182620 -0.1502562 1.5913315 16777215
 0.4229385 -0.1533055 1.6066291 16777215
 0.4317125 -0.1543375 1.6209182 16777215
 0.4334511 -0.1558283 1.6348566 16777215
 0.4380960 -0.1596588 1.6480467 16777215
 0.4389563 -0.1604757 1.6639078 16777215
 0.4419009 -0.1614089 1.6793584 16777215
 0.4468570 -0.1622832 1.6909519 16777215
 0.4559263 -0.1640871 1.7077726 16777215
 0.4634765 -0.1665987 1.7197896 16777215
 0.4660154 -0.1691366 1.7360799 16777215
 0.4654374 -0.1697532 1.7457430 16777215
 0.4717105 -0.1700781 1.7600212 16777215
 0.4838739 -0.1726186 1.7739899 16777215
 0.4917214 -0.1759813 1.7803786 16777215
 0.4932480 -0.1765876 1.7900987 16777215
 0.4929962 -0.1777512 1.7997738 16777215
 0.4912740 -0.1768557 1.8113360 16777215
 0.4944859 -0.1786922 1.8246199 16777215
 0.4987726 -0.1811682 1.8370352 16777215
 0.5026331 -0.1820285 1.8441986 16777215
 0.5057545 -0.1822812 1.8559462 16777215
 0.5051962 -0.1831869 1.8721322 16777215
 0.5060029 -0.1845800 1.8844734 16777215
 0.5065896 -0.1849348 1.8942804 16777215
 0.5097253 -0.1868347 1.9031339 16777215
 0.5148742 -0.1879674 1.9138057 16777215
 0.5161707 -0.1897514 1.9252824 16777215
 0.5152449 -0.1904861 1.9396549 16777215
 0.5149482 -0.1904313 1.9469994 16777215
 0.5188620 -0.1918018 1.9568808 16777215
 0.5250962 -0.1921628 1.9664081 16777215
 0.5297927 -0.1949058 1.9769561 16777215
 0.5317469 -0.1961375 1.9876027 16777215
 0.5328346 -0.1975316 1.9985981 16777215
 0.5333301 -0.1977977 2.0071850 16777215
 0.5362202 -0.1992787 2.0193892 16777215
 0.5407563 -0.2007867 2.0254331 16777215
 0.5430782 -0.2019792 2.0343940 16777215
 0.5431404 -0.2027163 2.0453274 16777215
 0.5437229 -0.2026779 2.0550635 16777215
 0.5442499 -0.2034438 2.0672593 16777215
 0.5484977 -0.2050322 2.0753603 16777215
 0.5523196 -0.2060574 2.0834188 16777215
 0.5532647 -0.2067739 2.0940692 16777215
 0.5533260 -0.2061391 2.1044862 16777215
 0.5537657 -0.2076711 2.1136131 16777215
 0.5586094 -0.2090081 2.1241295 16777215
 0.5634912 -0.2117442 2.1323955 16777215
 0.5653152 -0.2107741 2.1404724 16777215
 0.5653521 -0.2110726 2.1504982 16777215
 0.5642091 -0.2121175 2.1608715 16777215
 0.5677714 -0.2114755 2.1712067 16777215
 0.5711776 -0.2130244 2.1795340 16777215
 0.5736710 -0.2144277 2.1871765 16777215
 0.5740902 -0.2135540 2.1944101 16777215
 0.5746148 -0.2128220 2.2024789 16777215
 0.5750298 -0.2134728 2.2131376 16777215
 0.5785884 -0.2146630 2.2240717 16777215
 0.5821002 -0.2156330 2.2326109 16777215
 0.5838695 -0.2165260 2.2398665 16777215
 0.5828713 -0.2170570 2.2479012 16777215
 0.5829886 -0.2179077 2.2531302 16777215
 0.5865872 -0.2185126 2.2608037 16777215
 0.5913345 -0.2192985 2.2673469 16777215
 0.5938494 -0.2197615 2.2729912 16777215
 0.5914572 -0.2203849 2.2825544 16777215
 0.5919314 -0.2206111 2.2895708 16777215
 0.5939444 -0.2212701 2.2967064 16777215
 0.5977370 -0.2219673 2.3032353 16777215
 0.5997157 -0.2230833 2.3102868 16777215
 0.5997854 -0.2240297 2.3162777 16777215
 0.5993744 -0.2244487 2.3220465 16777215
 0.6011921 -0.2254063 2.3287356 16777215
 0.6040542 -0.2266028 2.3355756 16777215
 0.6068733 -0.2272216 2.3405211 16777215
 0.6081812 -0.2281972 2.3486075 16777215
 0.6085212 -0.2285580 2.3564937 16777215
 0.6105433 -0.2293779 2.3646903 16777215
 0.6129621 -0.2297590 2.3699920 16777215
 0.6148601 -0.2311087 2.3753431 16777215
 0.6153715 -0.2317840 2.3820870 16777215
 0.6135733 -0.2323104 2.3889091 16777215
 0.6157562 -0.2327137 2.3947334 16777215
 0.6185236 -0.2337697 2.4019284 16777215
 0.6217880 -0.2348576 2.4063690 16777215
 0.6227013 -0.2356432 2.4116807 16777215
 0.6219698 -0.2357733 2.4168901 16777215
 0.6228479 -0.2363335 2.4236209 16777215
 0.6254386 -0.2367418 2.4289539 16777215
 0.6267866 -0.2377291 2.4332395 16777215
 0.6283175 -0.2383837 2.4388809 16777215
 0.6277241 -0.2383380 2.4439170 16777215
 0.6290324 -0.2389095 2.4480772 16777215
 0.6305954 -0.2390344 2.4529712 16777215
 0.6339364 -0.2399705 2.4570115 16777215
 0.6351323 -0.2402850 2.4611273 16777215
 0.6349226 -0.2406006 2.4678385 16777215
 0.6356351 -0.2411482 2.4732292 16777215
 0.6371796 -0.2414562 2.4767878 16777215
 0.6407045 -0.2419878 2.4810255 16777215
 0.6417291 -0.2424613 2.4849811 16777215
 0.6413272 -0.2428813 2.4895182 16777215
 0.6410608 -0.2429162 2.4934235 16777215
 0.6419724 -0.2431770 2.4971895 16777215
 0.6439727 -0.2438881 2.5015094 16777215
 0.6457925 -0.2450790 2.5048976 16777215
 0.6463708 -0.2453911 2.5087762 16777215
 0.6452484 -0.2457035 2.5129681 16777215
 0.6453357 -0.2461902 2.5166390 16777215
 0.6467535 -0.2466764 2.5201020 16777215
 0.6495084 -0.2473821 2.5246770 16777215
 0.6502955 -0.2481264 2.5279839 16777215
 0.6499596 -0.2487393 2.5334303 16777215
 0.6501606 -0.2494444 2.5369837 16777215
 0.6527210 -0.2499053 2.5417173 16777215
 0.6545951 -0.2502530 2.5450423 16777215
 0.6554043 -0.2508468 2.5491083 16777215
 0.6545264 -0.2511095 2.5531259 16777215
 0.6563012 -0.2518080 2.5567703 16777215
 0.6575738 -0.2527733 2.5600352 16777215
 0.6600195 -0.2530631 2.5630600 16777215
 0.6602467 -0.2536205 2.5680749 16777215
 0.6595476 -0.2542796 2.5720778 16777215
 0.6605351 -0.2545440 2.5765364 16777215
 0.6623548 -0.2547010 2.5800631 16777215
 0.6632429 -0.2549547 2.5828316 16777215
 0.6635804 -0.2555680 2.5867753 16777215
 0.6631670 -0.2561026 2.5898852 16777215
 0.6644294 -0.2571335 2.5914574 16777215
 0.6646966 -0.2566394 2.5945349 16777215
 0.6658546 -0.2572311 2.5967479 16777215
 0.6658823 -0.2571483 2.6007314 16777215
 0.6654571 -0.2572136 2.6037965 16777215
 0.6663492 -0.2573394 2.6065490 16777215
 0.6678665 -0.2577407 2.6087408 16777215
 0.6682132 -0.2579363 2.6108310 16777215
 0.6683022 -0.2583050 2.6137822 16777215
 0.6683361 -0.2581466 2.6157784 16777215
 0.6688864 -0.2583371 2.6184671 16777215
 0.6702089 -0.2587591 2.6206794 16777215
 0.6707648 -0.2588490 2.6236498 16777215
 0.6703720 -0.2590860 2.6264143 16777215
 0.6709438 -0.2595043 2.6283951 16777215
 0.6724190 -0.2599897 2.6305823 16777215
 0.6729220 -0.2600393 2.6331906 16777215
 0.6726226 -0.2599753 2.6354074 16777215
 0.6734630 -0.2604676 2.6389318 16777215
 0.6743827 -0.2605577 2.6416638 16777215
 0.6750246 -0.2614719 2.6440041 16777215
 0.6744816 -0.2616595 2.6462541 16777215
 0.6748142 -0.2618205 2.6476247 16777215
 0.6756673 -0.2621100 2.6490898 16777215
 0.6764004 -0.2623105 2.6505382 16777215
 0.6767580 -0.2625862 2.6526973 16777215
 0.6770570 -0.2623841 2.6544437 16777215
 0.6780106 -0.2624952 2.6563783 16777215
 0.6787105 -0.2627185 2.6578224 16777215
 0.6787995 -0.2629214 2.6599233 16777215
 0.6789748 -0.2629761 2.6616499 16777215
 0.6798895 -0.2631465 2.6628654 16777215
 0.6803358 -0.2634913 2.6642721 16777215
 0.6801056 -0.2633559 2.6654336 16777215
 0.6802638 -0.2634662 2.6663601 16777215
 0.6807726 -0.2635092 2.6673400 16777215
 0.6815063 -0.2636254 2.6682279 16777215
 0.6820348 -0.2637774 2.6690950 16777215
 0.6819203 -0.2638967 2.6705060 16777215
 0.6821702 -0.2640595 2.6714754 16777215
 0.6822146 -0.2641945 2.6723990 16777215
 0.6827771 -0.2644263 2.6730070 16777215
 0.6829492 -0.2644596 2.6737285 16777215
 0.6834168 -0.2643908 2.6746552 16777215
 0.6834202 -0.2644726 2.6754224 16777215
