# .PCD v.7 - Point Cloud Data file format
VERSION .7
FIELDS x y z rgb
SIZE 4 4 4 4
TYPE F F F F
COUNT 1 1 1 1
WIDTH 252
HEIGHT 1
VIEWPOINT 0 0 0 1 0 0 0
POINTS 252
DATA ascii

 0.0363247 -0.0746304 0.0049761 16777215
 0.0365027 -0.0743298 0.0047989 16777215
 0.0367717 -0.0743485 0.0048073 16777215
 0.0366824 -0.0743937 0.0048064 16777215
 0.0366619 -0.0742787 0.0046727 16777215
 0.0366769 -0.0742177 0.0045451 16777215
 0.0368219 -0.0741022 0.0043326 16777215
 0.0369362 -0.0739866 0.0042500 16777215
 0.0369366 -0.0736251 0.0036111 16777215
 0.0369469 -0.0735730 0.0035988 16777215
 0.0368056 -0.0735685 0.0035771 16777215
 0.0369129 -0.0734141 0.0034248 16777215
 0.0365541 -0.0738963 0.0035286 16777215
 0.0362061 -0.0739469 0.0036164 16777215
 0.0359091 -0.0737525 0.0035397 16777215
 0.0350944 -0.0734390 0.0030307 16777215
 0.0342889 -0.0729965 0.0029876 16777215
 0.0346959 -0.0729162 0.0036203 16777215
 0.0354605 -0.0731282 0.0052978 16777215
 0.0367566 -0.0745076 0.0077549 16777215
 0.0392606 -0.0731577 0.0155814 16777215
 0.0403827 -0.0737317 0.0235117 16777215
 0.0397592 -0.0726247 0.0295171 16777215
 0.0421412 -0.0722646 0.0354399 16777215
 0.0451929 -0.0721418 0.0420277 16777215
 0.0469203 -0.0720189 0.0475052 16777215
 0.0497319 -0.0681239 0.0593691 16777215
 0.0555241 -0.0655019 0.0713672 16777215
 0.0642860 -0.0633879 0.0805529 16777215
 0.0695188 -0.0672846 0.0909241 16777215
 0.0725382 -0.0681150 0.0984596 16777215
 0.0751854 -0.0659806 0.1106713 16777215
 0.0739928 -0.0698090 0.1192699 16777215
 0.0783734 -0.0672463 0.1325184 16777215
 0.0834899 -0.0682322 0.1475867 16777215
 0.0913747 -0.0643349 0.1597766 16777215
 0.0922940 -0.0560092 0.1774987 16777215
 0.0966248 -0.0549056 0.1858057 16777215
 0.1083910 -0.0533035 0.1938510 16777215
 0.1104988 -0.0529749 0.2040657 16777215
 0.1132569 -0.0524313 0.2142066 16777215
 0.1176905 -0.0494427 0.2235879 16777215
 0.1295333 -0.0460047 0.2416561 16777215
 0.1395629 -0.0514172 0.2578171 16777215
 0.1470138 -0.0463704 0.2664969 16777215
 0.1397203 -0.0501125 0.2826547 16777215
 0.1410447 -0.0476809 0.2891749 16777215
 0.1515189 -0.0368855 0.3026281 16777215
 0.1626472 -0.0381432 0.3179816 16777215
 0.1649682 -0.0404299 0.3328254 16777215
 0.1646700 -0.0410721 0.3487837 16777215
 0.1692079 -0.0393550 0.3565515 16777215
 0.1796269 -0.0333487 0.3752441 16777215
 0.1841012 -0.0356754 0.3835209 16777215
 0.1816061 -0.0370037 0.3980719 16777215
 0.1817214 -0.0406824 0.4077169 16777215
 0.1856626 -0.0394719 0.4219874 16777215
 0.1940850 -0.0339094 0.4385532 16777215
 0.2016309 -0.0338069 0.4511540 16777215
 0.2018001 -0.0360085 0.4599003 16777215
 0.2102961 -0.0324796 0.4734201 16777215
 0.2175355 -0.0304151 0.4813520 16777215
 0.2171868 -0.0355997 0.4904422 16777215
 0.2265945 -0.0309961 0.5041738 16777215
 0.2285227 -0.0289993 0.5167108 16777215
 0.2324839 -0.0282978 0.5247492 16777215
 0.2393217 -0.0256007 0.5403202 16777215
 0.2492756 -0.0210613 0.5546771 16777215
 0.2500570 -0.0242955 0.5697628 16777215
 0.2544332 -0.0239095 0.5781336 16777215
 0.2597790 -0.0250810 0.5893594 16777215
 0.2677678 -0.0261987 0.6040549 16777215
 0.2712635 -0.0263390 0.6165445 16777215
 0.2682160 -0.0201438 0.6188476 16777215
 0.2805945 -0.0265000 0.6301335 16777215
 0.2859518 -0.0276684 0.6398711 16777215
 0.2873625 -0.0296916 0.6399130 16777215
 0.2826474 -0.0274650 0.6347628 16777215
 0.2889535 -0.0310827 0.6403495 16777215
 0.2842251 -0.0445653 0.6355960 16777215
 0.2888008 -0.0462835 0.6431113 16777215
 0.2810040 -0.0455835 0.6419213 16777215
 0.2849575 -0.0458975 0.6445425 16777215
 0.2888759 -0.0458518 0.6473629 16777215
 0.2894717 -0.0479403 0.6515636 16777215
 0.2902890 -0.0470153 0.6547383 16777215
 0.2910208 -0.0475246 0.6568365 16777215
 0.2950683 -0.0444149 0.6582148 16777215
 0.2929497 -0.0431683 0.6615809 16777215
 0.2937472 -0.0406948 0.6626599 16777215
 0.2923371 -0.0349605 0.6636327 16777215
 0.2869236 -0.0241981 0.6648616 16777215
 0.2857734 -0.0237066 0.6699287 16777215
 0.2889747 -0.0220188 0.6744457 16777215
 0.2880422 -0.0201935 0.6782725 16777215
 0.2934985 -0.0205858 0.6824149 16777215
 0.2930618 -0.0206373 0.6856813 16777215
 0.2954828 -0.0183765 0.6892849 16777215
 0.2951683 -0.0173615 0.6938822 16777215
 0.3002348 -0.0152383 0.6976818 16777215
 0.2993679 -0.0137703 0.7044160 16777215
 0.2979760 -0.0123336 0.7094496 16777215
 0.2985676 -0.0116841 0.7135065 16777215
 0.3011593 -0.0095665 0.7208757 16777215
 0.3029934 -0.0083922 0.7259618 16777215
 0.3046749 -0.0076580 0.7300047 16777215
 0.3047738 -0.0073910 0.7356051 16777215
 0.3080142 -0.0060964 0.7392788 16777215
 0.3092185 -0.0066947 0.7447789 16777215
 0.3118794 -0.0053123 0.7500064 16777215
 0.3116320 -0.0032476 0.7550019 16777215
 0.3112211 -0.0035679 0.7587529 16777215
 0.3144147 -0.0016164 0.7631346 16777215
 0.3137316 -0.0003244 0.7663696 16777215
 0.3158277 0.0012396 0.7691585 16777215
 0.3154555 0.0026486 0.7747848 16777215
 0.3152544 0.0019789 0.7780256 16777215
 0.3154304 0.0027523 0.7812551 16777215
 0.3056227 0.0073274 0.7860426 16777215
 0.3079126 0.0062279 0.7892666 16777215
 0.3082929 0.0075980 0.7944441 16777215
 0.3083296 0.0132002 0.7968391 16777215
 0.3103654 0.0159868 0.8008792 16777215
 0.3098665 0.0176912 0.8025689 16777215
 0.3099878 0.0198076 0.7994151 16777215
 0.3033795 0.0246256 0.7987030 16777215
 0.2969159 0.0262480 0.7942550 16777215
 0.2999329 0.0248837 0.7988143 16777215
 0.2946415 0.0245302 0.7950095 16777215
 0.2914723 0.0323178 0.7970607 16777215
 0.2881123 0.0394583 0.7974092 16777215
 0.2894632 0.0299571 0.8010088 16777215
 0.2897562 0.0329663 0.8046354 16777215
 0.2894551 0.0329012 0.8063924 16777215
 0.2909552 0.0314776 0.8105351 16777215
 0.2907494 0.0313784 0.8134823 16777215
 0.2915615 0.0305091 0.8147871 16777215
 0.2876212 0.0296367 0.8124248 16777215
 0.2908346 0.0313630 0.8147570 16777215
 0.2914742 0.0314154 0.8194137 16777215
 0.2926880 0.0309368 0.8202065 16777215
 0.2932432 0.0306404 0.8208701 16777215
 0.2939385 0.0304240 0.8232068 16777215
 0.2942803 0.0304994 0.8252434 16777215
 0.2947305 0.0290398 0.8271315 16777215
 0.2946579 0.0312400 0.8281634 16777215
 0.2963418 0.0313106 0.8265340 16777215
 0.2899067 0.0248968 0.8306158 16777215
 0.2892888 0.0254118 0.8333087 16777215
 0.2897018 0.0242564 0.8339236 16777215
 0.2895823 0.0256550 0.8331456 16777215
 0.2899820 0.0266817 0.8349397 16777215
 0.2907510 0.0254741 0.8347785 16777215
 0.2918166 0.0275948 0.8347074 16777215
 0.2916149 0.0268440 0.8346801 16777215
 0.2926545 0.0278149 0.8361380 16777215
 0.2926645 0.0274511 0.8368131 16777215
 0.2933910 0.0282419 0.8377501 16777215
 0.2937202 0.0280864 0.8383794 16777215
 0.2938500 0.0282446 0.8386846 16777215
 0.2938454 0.0284519 0.8379904 16777215
 0.2936427 0.0283164 0.8383464 16777215
 0.2938704 0.0286422 0.8384298 16777215
 0.2941147 0.0282346 0.8389683 16777215
 0.2941120 0.0284938 0.8390628 16777215
 0.2942880 0.0286799 0.8391522 16777215
 0.2948330 0.0289610 0.8392375 16777215
 0.2949537 0.0287482 0.8400974 16777215
 0.2950963 0.0287110 0.8406005 16777215
 0.2951367 0.0285645 0.8409219 16777215
 0.2954229 0.0289297 0.8413321 16777215
 0.2959392 0.0289794 0.8425627 16777215
 0.2956066 0.0289066 0.8419310 16777215
 0.2957492 0.0289240 0.8420538 16777215
 0.2960578 0.0289888 0.8423749 16777215
 0.2961703 0.0288647 0.8429103 16777215
 0.2964689 0.0288509 0.8430277 16777215
 0.2961191 0.0294347 0.8429747 16777215
 0.2964284 0.0293063 0.8432430 16777215
 0.2965293 0.0291221 0.8434933 16777215
 0.2965290 0.0292324 0.8436316 16777215
 0.2966199 0.0297259 0.8436782 16777215
 0.2968066 0.0294671 0.8441265 16777215
 0.2975199 0.0298665 0.8458273 16777215
 0.2968920 0.0296280 0.8442105 16777215
 0.2971630 0.0309301 0.8418345 16777215
 0.2970479 0.0297631 0.8447078 16777215
 0.2971857 0.0296709 0.8452430 16777215
 0.2973505 0.0305063 0.8443093 16777215
 0.2973747 0.0309364 0.8433905 16777215
 0.2966369 0.0307778 0.8434736 16777215
 0.2972668 0.0301195 0.8456218 16777215
 0.2975333 0.0299805 0.8454988 16777215
 0.2974738 0.0300794 0.8456721 16777215
 0.2972077 0.0302343 0.8467048 16777215
 0.2971992 0.0299242 0.8467070 16777215
 0.2965731 0.0299793 0.8447651 16777215
 0.2971839 0.0302100 0.8451959 16777215
 0.2970100 0.0303974 0.8452377 16777215
 0.2965824 0.0303079 0.8446199 16777215
 0.2967574 0.0304549 0.8434879 16777215
 0.2972163 0.0315081 0.8432466 16777215
 0.2972908 0.0309541 0.8425319 16777215
 0.2967448 0.0308084 0.8448665 16777215
 0.2965738 0.0299272 0.8444443 16777215
 0.2974956 0.0304148 0.8452092 16777215
 0.2971275 0.0302764 0.8454087 16777215
 0.2970342 0.0305462 0.8455403 16777215
 0.2973682 0.0305648 0.8462029 16777215
 0.2975321 0.0307643 0.8462350 16777215
 0.2973652 0.0307729 0.8459389 16777215
 0.2976223 0.0311509 0.8470989 16777215
 0.2973084 0.0307653 0.8442981 16777215
 0.2974431 0.0310336 0.8443125 16777215
 0.2965971 0.0305428 0.8455287 16777215
 0.2967808 0.0304925 0.8457410 16777215
 0.2978774 0.0311492 0.8444664 16777215
 0.2976990 0.0314180 0.8436565 16777215
 0.2971329 0.0308732 0.8440435 16777215
 0.2967235 0.0305562 0.8460882 16777215
 0.2986560 0.0312605 0.8450095 16777215
 0.2988357 0.0321141 0.8436961 16777215
 0.2973684 0.0310895 0.8454198 16777215
 0.2971932 0.0307208 0.8460150 16777215
 0.2972728 0.0314600 0.8429637 16777215
 0.2969917 0.0306800 0.8425254 16777215
 0.2956916 0.0300664 0.8431826 16777215
 0.2950367 0.0295961 0.8416206 16777215
 0.2965989 0.0308617 0.8402015 16777215
 0.2960021 0.0300801 0.8414701 16777215
 0.2960497 0.0300829 0.8420625 16777215
 0.2959814 0.0301737 0.8417337 16777215
 0.2963705 0.0302914 0.8418710 16777215
 0.2958457 0.0300077 0.8421897 16777215
 0.2953584 0.0300964 0.8439972 16777215
 0.2956987 0.0296903 0.8415695 16777215
 0.2959062 0.0298072 0.8415533 16777215
 0.2962579 0.0299736 0.8432603 16777215
 0.2963701 0.0302681 0.8454161 16777215
 0.2968394 0.0301694 0.8452429 16777215
 0.2973501 0.0302255 0.8455143 16777215
 0.2966136 0.0302963 0.8464228 16777215
 0.2972649 0.0304298 0.8473238 16777215
 0.2971320 0.0302767 0.8467742 16777215
 0.2975374 0.0303949 0.8465198 16777215
 0.2976236 0.0305385 0.8468094 16777215
 0.2972088 0.0304073 0.8469274 16777215
 0.2969092 0.0307776 0.8450726 16777215
 0.2992565 0.0323474 0.8444200 16777215
 0.2991261 0.0316794 0.8423399 16777215
 0.2981907 0.0317130 0.8417393 16777215
 0.2959547 0.0308177 0.8391469 16777215
