# .PCD v.7 - Point Cloud Data file format
VERSION .7
FIELDS x y z rgb
SIZE 4 4 4 4
TYPE F F F F
COUNT 1 1 1 1
WIDTH 543
HEIGHT 1
VIEWPOINT 0 0 0 1 0 0 0
POINTS 543
DATA ascii

-0.7406370 -0.4556658 0.9325965 16711746
-0.4775794 -0.3070801 1.0809277 16711746
-0.4365445 -0.2788140 0.8978814 16711746
-0.6982040 -0.3161048 1.1597120 16711746
1.0175653 -0.7144173 1.1655664 16711746
0.8818550 -1.6841520 1.3569466 16711746
1.0015740 -1.2701691 1.6896828 16711746
0.8879128 -1.2879622 1.6955056 16711746
0.7446638 -0.5891513 2.0220382 16711746
1.3458347 -0.6341843 1.4564810 16711746
-0.3850896 -0.9160469 1.0142946 16711746
-0.5606508 -0.2820376 0.9089533 16711746
0.0234230 -0.7731467 1.5510546 16711746
0.7952596 -0.9383213 1.6796887 16711746
1.2501823 -0.9130472 1.6193955 16711746
1.1920071 -0.8761615 1.5363585 16711746
0.8658205 -1.0373490 1.6831337 16711746
0.6023682 -0.8468016 1.6613414 16711746
0.2371449 -1.0053997 1.5833557 16711746
0.0997889 -0.9600867 1.6009712 16711746
0.6658103 -0.8162330 1.2763070 16711746
-0.0358183 -1.1033307 1.4132748 16711746
1.1084967 -0.8605574 1.6002432 16711746
0.9565224 -0.9697490 1.6766207 16711746
1.1602768 -0.9841289 1.6784927 16711746
0.9959478 -1.0445567 1.6766138 16711746
1.1803453 -0.7391382 1.3923602 16711746
1.3870474 -0.8626223 1.5666280 16711746
1.3712634 -0.7295659 1.5580876 16711746
1.2348483 -0.7056524 1.5433369 16711746
1.6851717 -0.7983298 1.3592840 16711746
1.2403456 -1.1593802 1.6238170 16711746
1.0636591 -1.2329838 1.6809601 16711746
1.4807097 -1.1277990 1.5603640 16711746
1.3284588 -1.1695492 1.5029330 16711746
1.1750300 -1.1167252 1.6290507 16711746
1.0373545 -1.0971035 1.5737463 16711746
1.4730190 -1.0173367 1.5491507 16711746
0.7351152 -0.4176853 1.6886489 16711746
0.6356392 -0.4801890 2.1438890 16711746
0.0729891 -0.6277171 1.8723592 16711746
-0.0436687 -0.3767937 1.1588895 16711746
0.2691278 -0.6405749 1.9955083 16711746
0.2362374 -0.5674139 1.5690330 16711746
0.0407889 -0.4782263 1.8622549 16711746
0.0679045 -0.5532982 1.8737168 16711746
0.2675089 -0.5001003 2.0020678 16711746
0.6977941 -0.6018599 1.3618491 16711746
-0.0151566 -0.7835231 1.7482970 16711746
1.2267699 -1.2567757 1.6551077 16711746
0.5863178 -0.5036977 1.9177500 16711746
1.2118536 -0.8758190 1.6272392 16711746
1.0558397 -1.2270228 1.6685050 16711746
0.9967376 -1.0503206 1.6768306 16711746
1.5430549 -0.9213904 1.4827635 16711746
0.1052658 -0.0549650 0.2193399 16711746
0.8702441 -0.6457017 1.9353861 16711746
0.7556548 -0.6457989 2.0033302 16711746
0.0267576 -0.7623345 1.7576567 16711746
0.2712117 -0.7212517 1.8480029 16711746
1.4074590 -0.2113726 1.6938146 16711746
1.3323419 0.0205872 1.3910052 16711746
1.3568791 -0.4048563 1.8520319 16711746
1.0735227 -0.3456588 1.8928307 16711746
1.1927577 -0.1634680 1.7146811 16711746
1.2008103 -0.3147181 1.8675010 16711746
1.0991639 -0.7712649 2.0319180 16711746
1.2390579 -0.6119428 2.0086145 16711746
1.1836863 -0.3940172 1.5295500 16711746
1.3676939 -0.4538848 1.8613921 16711746
-0.2761024 -0.1852236 0.2309160 16711746
-0.5882170 -0.2181236 0.8475013 16711746
-0.4591005 -0.3166969 0.6085223 16711746
-0.4858963 -0.2542646 0.6765191 16711746
-0.3641526 -0.5202047 1.5144575 16711746
-0.2234240 -0.4663310 1.5621479 16711746
-0.4587043 -0.3893754 1.0883621 16711746
-0.3829985 -0.4448899 1.1800961 16711746
-0.2410324 -0.5872487 1.5017838 16711746
0.8111745 -1.1296828 1.2216196 16711746
0.5542737 -0.7238784 2.0295367 16711746
0.7704840 -1.4328748 1.3455462 16711746
1.1189457 -0.6108921 2.1066928 16711746
-0.0140187 -0.6540868 1.4518273 16711746
1.3819602 -0.7912344 1.5189817 16711746
0.5316419 -1.3261269 1.6729680 16711746
0.3766972 -0.9512567 1.2027762 16711746
1.2991197 -0.9207207 1.1675888 16711746
1.5614469 -1.1469635 1.4128247 16711746
0.6375311 -0.3691779 0.8831756 16711746
1.2924759 -0.8256341 1.5572643 16711746
1.2890925 -0.9434295 1.6672888 16711746
0.8879128 -1.2879622 1.6955056 16711746
0.4202079 -1.0103394 1.3856559 16711746
0.2637932 -1.1203507 1.2878015 16711746
0.0443282 -1.1154027 1.4663224 16711746
1.1624231 -0.4460762 1.2256002 16711746
1.1421068 -0.9695714 1.6504003 16711746
1.3349835 -0.8583622 1.6886637 16711746
1.3036960 -0.7302145 1.7266525 16711746
1.6978198 -0.8894466 1.3855405 16711746
1.1032764 -1.1580185 1.6702133 16711746
1.3667667 -1.0644360 1.5966051 16711746
0.4199697 -0.6786130 1.9817843 16711746
0.7075440 -0.3994484 1.6033325 16711746
0.8913869 -0.6622190 2.2117550 16711746
1.7147212 -0.8217154 1.3748492 16711746
1.4305770 -0.9826386 1.5120203 16711746
0.9339688 -1.0448526 0.8157278 16711746
0.3008986 -0.9731640 1.5728275 16711746
0.2613810 -1.5038629 1.2041771 16711746
-0.2984809 -0.7980616 1.0187739 16711746
-0.2938431 -0.4287649 1.2245495 16711746
0.3225979 -0.5732046 1.6043011 16711746
-0.0685875 -0.5055716 1.4991199 16711746
0.8870922 -1.1652664 1.6885282 16711746
1.2898172 -0.5988156 1.5782315 16711746
-0.3666821 -0.3954841 1.0598549 16711746
1.3747195 -0.8629047 1.5716486 16711746
0.5870429 -1.2188659 1.6645966 16711746
-0.4366388 -0.6529204 0.7265978 16711746
-0.4310375 -0.5549349 0.6285405 16711746
0.6983649 -0.9242351 1.6734327 16711746
1.0576391 -1.7007130 1.1879020 16711746
0.0647818 -0.5974120 1.5788746 16711746
-0.0789171 -0.5853602 1.4588611 16711746
0.5985747 -0.6795044 1.6656052 16711746
0.6912107 -0.7117211 1.6746341 16711746
-0.4103888 -0.3503006 0.8875091 16711746
1.2376542 -1.1760648 1.2128124 16711746
-0.2922711 -0.3849824 0.2432769 16711746
0.4284448 -0.3328150 1.1995418 16711746
0.6491968 -0.5077101 1.6806316 16711746
0.5492563 -0.5219778 1.6682889 16711746
0.8466702 -1.3960208 0.7460743 16711746
-0.1446972 -1.3809837 1.3213483 16711746
0.5642043 -0.9896776 0.7187970 16711746
-0.3802317 -0.2409370 0.4989507 16711746
1.6673325 -0.6071389 1.3594528 16711746
1.4304546 -0.6645941 1.5222673 16711746
-0.4206376 -0.5184067 0.7324077 16711746
-0.0854096 -0.5778975 1.3411229 16711746
1.2638552 -0.8939165 1.6136817 16711746
1.2082921 -0.8787291 1.6284121 16711746
1.1456071 -0.9742014 1.6499901 16711746
0.7226365 -0.9390389 1.5879916 16711746
0.8536634 -1.0590098 1.6839890 16711746
0.6161718 -0.3437525 1.1750520 16711746
-0.4629566 -0.7751841 0.7160381 16711746
1.3229728 -1.5317044 0.9784296 16711746
-0.1792919 -0.4298337 1.2729003 16711746
-0.1658474 -0.1054164 0.0917868 16711746
-0.2938737 -0.2247252 0.2764421 16711746
0.8934537 -1.1078022 1.6856314 16711746
1.6668590 -1.0468882 1.4531729 16711746
0.9464405 -1.0434703 1.6804817 16711746
1.5680608 -0.5350950 1.4172269 16711746
0.3888155 -0.9984294 1.8017755 16711746
0.5248544 -1.0265268 1.5422976 16711746
-0.3940426 -0.6682376 0.9345713 16711746
-0.4028671 -0.6746847 0.9090773 16711746
-0.3714006 -0.4802431 0.7813348 16711746
0.1206406 -0.9260657 1.4790798 16711746
-0.4250070 -0.4719057 0.6872982 16711746
-0.4085146 -0.4163444 0.8671928 16711746
-0.3591504 -0.3124388 0.4506716 16711746
-0.3954159 -0.3464758 0.4772898 16711746
-0.3836814 -0.3949990 0.3865677 16711746
-0.0421325 -0.8478511 0.4986720 16711746
0.3658921 -0.7222259 1.6065619 16711746
-0.2894630 -0.5483557 1.1952434 16711746
1.0116417 -0.4352665 1.6552577 16711746
0.9498586 -1.0537533 1.6807396 16711746
0.8661596 -1.0679933 1.6843029 16711746
0.1045275 -0.9892905 1.4690820 16711746
1.0098726 -0.6175317 1.6592417 16711746
-0.4200035 -0.4039898 0.7371892 16711746
1.3677709 -0.8244102 1.5701746 16711746
1.3842047 -0.8620220 1.5677267 16711746
-0.4507765 -0.3848380 0.9795978 16711746
0.9767960 -1.1323680 0.7182387 16711746
0.5188527 -0.9478557 0.9245889 16711746
0.3238258 -0.5831195 1.6036226 16711746
-0.3712982 -0.3954800 0.8497695 16711746
0.0049327 -0.7078016 1.4059887 16711746
-0.3276828 -0.8679768 1.1075128 16711746
0.6268873 -0.4923689 1.6799469 16711746
0.3661295 -0.5168718 1.9663008 16711746
0.7178721 -0.4943544 2.0711520 16711746
-0.0820746 -0.4497027 1.4464943 16711746
0.0754902 -0.6090372 1.7967806 16711746
0.1537932 -0.5334044 1.6570340 16711746
0.0476969 -0.4749694 1.7687550 16711746
0.2558163 -0.4549394 1.9215605 16711746
0.7781466 -0.6737260 2.0827498 16711746
0.1056147 -0.8775718 1.7871125 16711746
0.0440581 -0.6937645 1.8630861 16711746
0.2325141 -0.5588160 1.5415715 16711746
0.2430787 -0.6489846 1.6529013 16711746
1.7319769 -0.2122501 1.8174633 16711746
1.5186568 -0.2262076 1.8309890 16711746
0.8745850 -0.4169429 1.6789597 16711746
1.1623826 -0.5270094 2.0983627 16711746
1.3252660 -0.3388755 1.9058297 16711746
1.0770227 -0.3236180 1.4659753 16711746
1.4455638 -0.4120539 1.3898613 16711746
1.1557393 -0.5913159 1.6240934 16711746
1.4101130 -0.4731817 1.9239684 16711746
-0.2301875 -0.7423980 1.1983192 16711746
-0.3895022 -0.2261117 0.4987340 16711746
-0.4413640 -0.2358335 0.4880533 16711746
-0.1897932 -0.4597276 1.5732462 16711746
-0.2174654 -0.4479045 1.5010318 16711746
-0.1577887 -0.6513221 1.6813520 16711746
-0.2653986 -0.6456370 1.4403257 16711746
-0.5072652 -0.3722820 0.9257039 16711746
1.0484247 -1.3738579 1.6195872 16711746
0.3758750 -1.5337877 1.2782670 16711746
-0.4139441 -0.5372744 0.8229562 16711746
-0.3585994 -0.7423902 0.9693090 16711746
1.0436723 -0.6029167 1.6524358 16711746
1.5604244 -1.1627778 1.5295063 16711746
0.9529345 -0.9845206 1.6540583 16711746
1.3521905 -0.6946472 1.5262764 16711746
0.8403199 -0.8553933 1.9595563 16711746
1.0033152 -0.4503163 1.9510132 16711746
1.2130314 -0.3032047 1.7295253 16711746
0.3965668 -1.1127021 1.2901021 16711746
1.1855270 -0.1632462 1.6969167 16711746
1.2056866 -0.2183074 1.8018141 16711746
1.3238997 -0.1404695 1.1721996 16711746
1.2274626 -0.7058572 1.9453299 16711746
1.1938957 -0.7158912 1.7923926 16711746
1.3375593 -0.4385165 1.8111597 16711746
-0.4753523 -0.3342741 1.4309866 16711746
-0.3404888 -0.3866538 1.3421525 16711746
-0.4997135 -0.3357705 1.3585594 16711746
-0.1291484 -0.6656510 1.5586804 16711746
-0.2013520 -0.5072580 1.2170461 16711746
-0.4738261 -0.3236044 0.8714681 16711746
0.8997843 -0.8821867 1.6421747 16711746
0.6728722 -0.9962817 1.6714791 16711746
1.0947902 -0.6567622 1.6433555 16711746
0.5194304 -0.6329030 1.8698503 16711746
1.3759760 -0.6736238 1.5051632 16711746
0.8253748 -1.6636267 1.4004328 16711746
-0.1223654 -0.7948202 1.6214850 16711746
1.2865131 -0.8160518 1.5995120 16711746
1.0925617 -0.8396780 1.3298489 16711746
0.7315844 -0.7228317 2.0004854 16711746
1.1338897 -0.7022433 2.0255847 16711746
1.0944397 -0.7193550 2.0282366 16711746
0.5223354 -1.0910165 1.6464074 16711746
0.8022299 -1.4972836 1.3571594 16711746
0.9192600 -1.0513963 1.6573646 16711746
0.4271850 -0.8151369 1.3534729 16711746
0.8738769 -1.0369680 1.6830254 16711746
0.6906632 -0.7911791 1.6311047 16711746
0.5100663 -1.2730492 1.6055251 16711746
1.0416927 -1.3391132 1.6321014 16711746
1.2447177 -0.4763193 1.3079921 16711746
1.4340996 -1.0033269 1.5639727 16711746
1.2718071 -1.0761435 1.6274807 16711746
0.0638508 -1.0853662 1.5042188 16711746
0.9711133 -1.1288729 1.6831404 16711746
1.0915234 -1.1673927 1.6726273 16711746
0.4629863 -0.5886556 1.6455023 16711746
1.1456071 -0.9742014 1.6499901 16711746
0.9416412 -1.0413651 1.6806762 16711746
1.5750074 -0.5201128 1.4089795 16711746
0.1172471 -0.5455732 1.3860964 16711746
-0.3516246 -0.2472514 0.3742464 16711746
0.9046370 -0.8616759 1.6766411 16711746
0.8686929 -0.9379513 1.6799517 16711746
1.2306863 -0.5731704 1.3071042 16711746
1.6364546 -1.1870439 1.4949764 16711746
-0.3235328 -0.2153349 0.3129239 16711746
-0.3196763 -0.2250056 0.3020623 16711746
0.7183427 -1.1748666 1.6817088 16711746
0.5780469 -1.3212898 1.6823490 16711746
0.4707569 -0.9832181 1.1701570 16711746
0.1792235 -0.8421518 1.5158315 16711746
-0.3781523 -0.8606689 0.9836764 16711746
-0.5458673 -0.3458503 1.1841594 16711746
-0.1470856 -0.0873567 0.0762792 16711746
0.6160287 -0.4950733 1.6787643 16711746
0.6757609 -1.5781418 1.1291082 16711746
0.6063837 -1.1902863 1.6811203 16711746
1.2433732 -0.8017412 1.6123235 16711746
-0.3933159 -0.7179726 0.9063287 16711746
-0.4138015 -0.6795733 0.8217222 16711746
0.6831573 -0.8938027 1.6717645 16711746
0.6033214 -0.7053077 1.3021891 16711746
0.7354017 -0.9674285 1.7290514 16711746
-0.3499433 -0.9016877 1.0483991 16711746
1.4108828 -0.8154986 1.5509429 16711746
-0.3303765 -0.2543950 0.3187204 16711746
-0.0854143 -0.5807251 1.4387076 16711746
1.1829481 -1.7096219 0.9656026 16711746
-0.2816713 -0.9352529 0.8478594 16711746
-0.2219099 -0.9581034 1.2420527 16711746
-0.5167093 -0.4308200 1.2501615 16711746
-0.3921046 -0.6605426 0.8961146 16711746
-0.3821167 -0.4211145 0.6918948 16711746
1.0021673 -1.6155860 1.1222298 16711746
-0.4126403 -0.4221235 0.6238816 16711746
-0.3960844 -0.2504884 0.5209572 16711746
-0.3799916 -0.2180941 0.4842349 16711746
-0.3305984 -0.4360829 0.9856896 16711746
1.1674273 -0.8474441 1.5634670 16711746
0.7327616 -0.9448050 1.6053922 16711746
0.6130258 -0.9908726 1.6628921 16711746
0.7214091 -1.0411043 1.6774960 16711746
-0.3480112 -0.2328521 0.3663854 16711746
0.4651215 -0.4918057 1.6555022 16711746
1.4611343 -1.1528155 1.5716385 16711746
1.6745391 -0.7048930 1.3776752 16711746
-0.3447771 -0.3023186 0.6715680 16711746
0.3289379 -0.6519188 1.4415406 16711746
1.2753096 -0.6015946 1.3442810 16711746
1.3912312 -0.6957787 1.4426316 16711746
-0.3493933 -0.2420673 0.3715512 16711746
0.1156222 -0.8014247 1.5917493 16711746
0.1094393 -0.7581268 1.4783155 16711746
-0.3954175 -0.8737142 0.9681753 16711746
-0.3843486 -0.9318628 1.0081424 16711746
0.6024850 -0.9938164 1.6611477 16711746
-0.2562987 -0.4186583 0.3727019 16711746
-0.3781152 -0.1980254 0.4584776 16711746
0.9483947 -0.7825341 1.7674631 16711746
1.0624435 -0.6255234 1.5284209 16711746
-0.1372979 -1.0781751 1.2767882 16711746
0.0109336 -1.0609351 1.0923142 16711746
1.3122529 -1.0092961 1.6091281 16711746
0.6332051 -0.8774582 1.9257749 16711746
-0.0891829 -0.7478414 1.5917916 16711746
0.8921279 -1.2819347 1.6951039 16711746
-0.4328289 -0.8143068 0.8752840 16711746
1.5365375 -1.6341046 1.4472260 16711746
1.0055225 -0.5089322 1.6578164 16711746
0.3066418 -1.2418290 0.9203546 16711746
-0.4305786 -0.5074176 0.6213127 16711746
0.3226969 -1.0634322 1.5826668 16711746
-0.2137794 -0.9149016 1.1692433 16711746
-0.2339107 -0.9977245 1.1528372 16711746
-0.3393316 -0.9388451 0.9670408 16711746
0.4952911 -0.7725394 1.6419178 16711746
0.3733262 -0.7707654 1.6063365 16711746
0.3587898 -0.9207944 1.6726099 16711746
0.7068565 -0.9212780 1.5641022 16711746
0.6156932 -1.0871495 1.6651008 16711746
-0.1362670 -0.0629890 0.0711186 16711746
-0.0760620 -1.1837101 1.3468822 16711746
1.2766052 -0.8886434 1.6092513 16711746
1.3350246 -0.9556399 1.5962372 16711746
1.1615514 -0.9765167 1.6467688 16711746
0.9084753 -0.7387148 1.6741481 16711746
1.0022761 -0.7725949 1.6647074 16711746
1.3308482 -0.6681812 1.5684755 16711746
-0.2067289 -0.6814770 1.1767656 16711746
0.1329262 -0.7948157 1.5868911 16711746
1.4832023 -0.7606924 1.5088267 16711746
0.1049307 -1.0356283 1.7927287 16711746
-0.0051431 -0.8801269 1.3886590 16711746
0.8784738 -1.8130522 1.1858777 16711746
0.6559349 -0.2951485 0.6405514 16711746
1.3875655 -0.6916465 1.4230371 16711746
1.3597703 -0.8058279 1.5713576 16711746
-0.3650616 -0.3465809 0.4818018 16711746
-0.2355190 -0.8831778 0.6235304 16711746
-0.4098915 -0.4836773 0.4123372 16711746
-0.3571431 -0.3839479 0.9294257 16711746
-0.4131126 -0.3109890 0.6090864 16711746
-0.3566056 -0.2510704 0.3801567 16711746
1.1367124 -0.6703417 1.6337744 16711746
0.8154716 -0.4760647 1.6828411 16711746
0.1561604 -0.6294162 1.5194901 16711746
1.7197902 -0.8904580 1.3867611 16711746
1.4807720 -1.0056844 1.5441604 16711746
1.2611285 -0.8505652 1.6108260 16711746
0.4785275 -1.2076620 1.6392061 16711746
0.5773532 -1.1251701 1.6990787 16711746
0.0559768 -0.0292226 0.0153043 16711746
0.0076397 -0.0141946 0.0175511 16711746
-0.2225877 -1.0014696 0.9567402 16711746
-0.0050773 -0.6959177 1.4902154 16711746
0.6687762 -0.6379604 2.0123503 16711746
-0.2178224 -0.1087540 0.1444131 16711746
-0.4694583 -0.2870738 0.5715620 16711746
0.8413443 -1.0896562 1.2825379 16711746
-0.2461968 -1.0111985 0.4592158 16711746
0.7287971 -1.5948346 1.0745323 16711746
-0.3665324 -1.0008068 1.0317998 16711746
0.5250006 -0.7657032 0.7570354 16711746
-0.2246872 -0.5428900 1.1930941 16711746
0.4663323 -1.0012676 1.4393725 16711746
0.3447548 -0.8896171 1.7396841 16711746
0.8019043 -1.4518360 1.4162241 16711746
0.2568910 -1.3704628 1.0025682 16711746
1.0287480 -0.8969440 0.8012139 16711746
0.0308624 -0.0434689 0.1156845 16711746
0.5270452 -1.3643458 1.3229251 16711746
1.3231519 -0.8101981 0.7408626 16711746
-0.2019667 -0.5776231 0.5792126 16711746
-0.5791904 -0.1310554 0.5560058 16711746
1.1848754 -1.2203078 0.6646551 16711746
0.2418281 -0.7369023 1.0828403 16711746
-0.0928436 -0.0509582 0.0310385 16711746
-0.3491798 -0.7832584 0.8972307 16711746
0.2930853 -1.6271051 1.3155067 16711746
0.6374407 -1.2522289 1.4612304 16711746
0.2059640 -1.2168150 1.2757902 16711746
1.0672866 -2.1422286 1.2194536 16711746
-0.2739775 -0.6277783 1.3740261 16711746
-0.3739659 -0.3997493 0.3457926 16711746
1.5014458 -0.7045928 1.8246369 16711746
1.0673001 -1.2367175 1.6807972 16711746
1.0556136 -0.3350613 1.8508974 16711746
0.9808292 -0.2936910 1.8541617 16711746
0.5215263 -0.6708304 1.8948480 16711746
0.7226211 -0.5632876 1.9399253 16711746
0.4786990 -0.5921748 1.8847997 16711746
0.0424868 -0.5942413 1.6638781 16711746
1.2121552 -0.5990468 1.8693105 16711746
0.4551354 -0.8662052 1.4442965 16711746
0.6526824 -0.9208348 1.6395983 16711746
0.9665889 -0.8859396 1.6440809 16711746
1.3760288 -0.8302406 1.5410331 16711746
0.2302534 -0.6086727 1.5609539 16711746
0.1511414 -0.6223152 1.5120275 16711746
1.3696587 -0.5210698 1.4513575 16711746
1.4877584 -0.3089273 1.2631562 16711746
1.5043687 -0.2844390 1.1952759 16711746
1.2548455 -0.3312833 1.4545901 16711746
1.4333624 -0.2997936 1.3185660 16711746
0.9889018 -0.6833767 1.6641601 16711746
1.2542812 -0.5730595 1.5107478 16711746
-0.3266119 -0.1762154 0.2636191 16711746
-0.3940613 -0.3028689 0.5311670 16711746
-0.2852246 -0.1744028 0.2100247 16711746
-0.4060445 -0.3974316 0.5037384 16711746
-0.1810043 -0.8595009 1.2692031 16711746
-0.3056461 -0.8193246 1.0883894 16711746
-0.1322880 -1.0361860 1.3264952 16711746
-0.5461705 -0.2832089 0.8044068 16711746
-0.5357744 -0.2829232 0.7513146 16711746
-0.3063856 -0.3838076 1.1774607 16711746
-0.2525113 -0.5034318 1.5593189 16711746
-0.3610340 -0.4040514 1.4127254 16711746
-0.1321625 -0.5022261 1.6249663 16711746
-0.5664244 -0.2786270 1.0753908 16711746
-0.5411480 -0.3088374 1.2005101 16711746
-0.2946896 -0.7861348 1.4848822 16711746
-0.5355724 -0.3923335 0.9800976 16711746
-0.5311705 -0.4226154 0.9777192 16711746
0.9339865 -1.7541806 1.1932160 16711746
1.4633186 -1.6292843 0.6000875 16711746
1.4077334 -0.8909733 1.0168321 16711746
1.4125793 -1.3757896 1.4569308 16711746
1.3713945 -1.1496574 1.0846800 16711746
-0.4079196 -0.7297458 0.7436740 16711746
-0.3701790 -0.2669636 0.4303194 16711746
1.2338456 -0.7111211 1.5321673 16711746
1.4980006 -0.7989897 1.6999960 16711746
0.1140274 -0.5298138 1.3414390 16711746
0.5582892 -1.1005442 1.6614448 16711746
-0.3660681 -0.1837999 0.4258123 16711746
0.6200813 -1.4649694 0.9036704 16711746
1.0211307 -0.4549638 1.0535381 16711746
1.5016843 -0.6513618 1.4816724 16711746
1.0193602 -0.5290260 1.6554399 16711746
1.1788791 -0.3612106 1.6016581 16711746
0.1149738 -0.3808858 1.2037162 16711746
1.1003956 -1.1622821 1.6709545 16711746
0.9379179 -0.8856946 1.7286130 16711746
1.3637265 -1.1162105 1.5806018 16711746
0.8373002 -1.4152331 1.5945374 16711746
1.0243987 -0.8166678 1.8025811 16711746
-0.1019798 -0.0608801 0.0367926 16711746
1.0324912 -1.3306834 1.6192538 16711746
1.6296921 -0.3383141 1.3878579 16711746
-0.5148143 -0.3450891 1.3907635 16711746
0.8752679 -1.1225495 1.6261358 16711746
1.2127130 -0.6395501 1.4913026 16711746
0.6713077 -0.8990709 1.9350252 16711746
1.5649559 -1.1655257 1.5277406 16711746
1.5484543 -0.9177876 1.4642825 16711746
-0.2325992 -0.5169296 1.6844964 16711746
1.6303282 -1.0538819 1.4647437 16711746
0.3797272 -1.1104209 1.6404204 16711746
0.2165473 -1.0818474 1.5755265 16711746
1.3767614 -0.9635110 1.5819714 16711746
1.3373411 -0.9541597 1.5952808 16711746
1.0007646 -1.2848846 1.6907635 16711746
0.9094916 -1.1742692 1.6885693 16711746
0.5592852 -0.7610276 1.6559236 16711746
-0.4970838 -0.3132347 1.0742018 16711746
0.5615106 -0.5415055 1.6685585 16711746
1.2115366 -0.5253087 1.4995164 16711746
1.2465825 -0.5681223 1.4971524 16711746
0.7793023 -0.9100469 1.6787003 16711746
1.0569586 -0.8206621 1.5258704 16711746
1.1518112 -0.9722099 1.6485621 16711746
1.6474140 -1.1794083 1.4877713 16711746
1.2329025 -0.8719165 1.0326458 16711746
1.5004295 -0.7853648 1.5034344 16711746
1.2211409 -0.8835237 1.6252792 16711746
1.4912250 -0.8634475 1.6377617 16711746
0.9321551 -0.6608771 1.1652884 16711746
0.7655581 -0.7385790 1.6779402 16711746
0.6151247 -1.0439867 1.7019032 16711746
-0.4530516 -0.6059881 0.6354156 16711746
1.0121896 -0.4480846 1.6553582 16711746
0.2232818 -0.5777950 1.4643332 16711746
-0.4078800 -0.4155023 0.6143534 16711746
0.0079593 -1.1484452 1.1901090 16711746
0.8041214 -0.9409567 1.6799686 16711746
0.8738181 -1.0630484 1.6840349 16711746
1.0565517 -0.6022283 1.6497185 16711746
-0.4136106 -0.4837970 0.5544314 16711746
0.8019053 -1.1799152 1.3886479 16711746
-0.4129932 -0.5034509 0.7493422 16711746
-0.0783580 -1.1808549 1.3445587 16711746
0.1698049 -1.0258304 0.7738265 16711746
-0.3659704 -0.1820207 0.4247429 16711746
1.3724868 -0.8672132 1.5730083 16711746
1.3382562 -0.8835763 1.5877613 16711746
1.3265060 -0.9535322 1.5989563 16711746
-0.0136990 -0.6381252 1.3636009 16711746
-0.0710732 -0.6875196 1.4695493 16711746
0.9774604 -1.0264720 1.0905726 16711746
0.6175016 -1.0882856 1.6654329 16711746
1.5089942 -0.3544803 1.2136239 16711746
1.2425568 -1.1148509 1.2668450 16711746
1.2277850 -0.5618520 1.4837757 16711746
-0.0053988 -0.9068782 1.4544337 16711746
-0.5707016 -0.1797376 0.6661075 16711746
-0.0653768 -0.5003765 1.4867493 16711746
0.1335472 -0.4394338 1.4026496 16711746
1.4507016 -0.9869171 1.5154274 16711746
1.3086253 -1.0108238 1.6104263 16711746
0.0993055 -0.8708558 1.6948087 16711746
1.0082282 -1.2424864 1.6872609 16711746
