# .PCD v.7 - Point Cloud Data file format
VERSION .7
FIELDS x y z rgb
SIZE 4 4 4 4
TYPE F F F F
COUNT 1 1 1 1
WIDTH 1196
HEIGHT 1
VIEWPOINT 0 0 0 1 0 0 0
POINTS 1196
DATA ascii
0.3326310 -0.2001016 0.9032663 16711746
0.0672474 -0.3003343 0.8860368 16711746
0.2956074 -0.1924032 0.9371247 16711746
0.3481047 -0.1781726 0.8749175 16711746
0.3035838 -0.2015904 0.9351467 16711746
0.4759343 -0.1965445 0.8023083 16711746
0.3855907 -0.1722944 0.7993273 16711746
0.3171671 -0.0729017 0.9316129 16711746
0.4779551 -0.2586841 0.8466852 16711746
0.1046855 -0.1965123 0.8790432 16711746
0.0715189 -0.3840947 0.9007341 16711746
0.3992395 -0.1726136 0.9139295 16711746
0.2242110 -0.2109960 0.8339062 16711746
0.3754624 -0.2085285 1.0051829 16711746
0.4184605 -0.1315840 1.0696315 16711746
0.5613994 -0.1603859 1.0649339 16711746
0.3928024 -0.1108868 1.0326316 16711746
0.5402058 -0.2109275 1.1345278 16711746
0.3518176 -0.1718005 0.8807122 16711746
0.3999591 -0.2574485 0.8943338 16711746
0.4400948 -0.1745986 0.9827358 16711746
0.4961511 -0.1521693 1.0024164 16711746
0.3839855 -0.2667514 0.8636642 16711746
0.3408923 -0.1724421 0.8927026 16711746
0.4384528 -0.1855132 1.0901917 16711746
0.3297271 -0.2252034 0.8890793 16711746
0.2683257 -0.1952217 1.0447375 16711746
0.4813596 -0.2594410 0.8465673 16711746
0.5208715 -0.0954449 0.9832817 16711746
0.4699601 -0.2574120 0.8565003 16711746
0.5172204 -0.2208617 0.8286568 16711746
-0.0074499 -0.2607915 0.9079890 16711746
0.3432495 -0.2395745 0.8438019 16711746
0.2660597 -0.2113203 1.1498479 16711746
0.4561304 -0.2126630 1.1479015 16711746
0.2755221 -0.1654291 0.9544617 16711746
0.2910405 -0.1578512 0.9196751 16711746
0.5321614 -0.2332812 0.8581053 16711746
0.4997490 -0.0690652 0.8749533 16711746
0.4181077 -0.0882748 0.8555539 16711746
0.4187834 -0.2319882 0.8980421 16711746
0.2610085 -0.1541559 0.9215109 16711746
0.4322572 -0.1548121 0.9691473 16711746
0.4107936 -0.1776135 0.9370077 16711746
0.3971342 -0.1879608 1.0157974 16711746
0.3473776 -0.1793175 0.9783307 16711746
0.3950376 -0.1765521 0.9128396 16711746
0.4416999 -0.1870751 0.8982805 16711746
0.3114212 -0.1671231 0.9231890 16711746
0.4084377 -0.1721843 1.0475427 16711746
0.3567923 -0.1908582 1.2271242 16711746
0.3600210 -0.2154455 1.2293328 16711746
0.3366669 -0.2279496 1.3584489 16711746
0.5000989 -0.1615843 0.9958012 16711746
0.3705466 -0.1956652 0.8792744 16711746
-0.3067124 -0.2423548 1.2124838 16711746
0.3471906 -0.2154449 1.2039505 16711746
0.2818491 -0.1695319 0.9293243 16711746
0.4119431 -0.1998789 0.9935293 16711746
0.3971238 -0.1455249 0.9324007 16711746
0.2997657 -0.2036594 0.9686271 16711746
0.3578658 -0.2587664 0.9265217 16711746
0.4611177 -0.2775606 0.8556235 16711746
0.4643209 -0.1985082 0.8915090 16711746
0.3841407 -0.1854194 0.8861262 16711746
0.3359717 -0.2535066 0.8453999 16711746
0.3524891 -0.2330715 0.8439988 16711746
0.3606794 -0.1819744 0.8947483 16711746
0.5389552 -0.1225172 0.9411723 16711746
0.3145664 -0.2260845 0.8828351 16711746
0.4528981 -0.1847018 0.8957977 16711746
0.5553653 -0.2753493 0.8230033 16711746
0.3615256 -0.1997400 0.8554223 16711746
0.4052484 -0.1320428 1.1187280 16711746
0.3713809 -0.1971284 1.0006915 16711746
0.4386897 -0.2210370 0.8476884 16711746
0.3411872 -0.2004953 0.8924747 16711746
0.3487294 -0.1763765 0.8862193 16711746
0.6667247 -0.2874372 0.8640680 16711746
0.3405986 -0.2748248 0.9384601 16711746
0.2079653 -0.1873458 0.8261231 16711746
0.3198460 -0.2219809 0.8816872 16711746
0.3268460 -0.1972680 1.0944445 16711746
0.3038066 -0.1939338 0.8781483 16711746
0.2943561 -0.1555077 0.9353861 16711746
0.4680692 -0.0985916 1.0486014 16711746
0.5797301 -0.1438082 0.9358764 16711746
0.2059288 -0.2079543 0.8355678 16711746
0.4037708 -0.1364983 1.0585023 16711746
0.6265931 -0.2366103 0.8648984 16711746
0.4214146 -0.2164698 0.8425146 16711746
0.5096987 -0.2401841 0.8513948 16711746
0.3661082 -0.2577039 1.0891341 16711746
0.3924797 -0.1831596 1.0178763 16711746
0.3758619 -0.2916190 1.1484140 16711746
0.4575914 -0.2132777 1.1384333 16711746
0.3782355 -0.2512031 0.8556234 16711746
0.4559337 -0.1523163 0.9323893 16711746
0.3470259 -0.1721722 0.8687476 16711746
0.1534805 -0.2025407 0.9647091 16711746
0.7280451 -0.1988051 0.9878955 16711746
0.1644356 -0.1868398 0.9468687 16711746
0.3433750 -0.1924620 0.8727615 16711746
0.3645615 -0.1903017 0.8370509 16711746
0.3755023 -0.1742015 0.9006409 16711746
0.3277204 -0.2152450 0.9946131 16711746
0.3355519 -0.1698222 0.8582954 16711746
0.4132468 -0.3373725 0.8988494 16711746
0.4243764 -0.1658207 0.9406681 16711746
0.4616580 -0.1794695 1.1232138 16711746
0.4714145 -0.1607920 1.0411605 16711746
0.4376787 -0.1555139 0.9770589 16711746
0.4096439 -0.2751004 0.8966281 16711746
0.4540449 -0.1896292 0.9141234 16711746
0.4014828 -0.2690224 0.8746809 16711746
0.6020834 -0.1627097 1.0695477 16711746
0.4176521 -0.2112996 1.0059105 16711746
0.5039649 -0.1996614 1.0660301 16711746
0.5171049 -0.1208820 0.9372891 16711746
0.3927567 -0.1873269 0.9343598 16711746
0.2778817 -0.2454629 0.9470533 16711746
0.5011809 -0.1882774 0.8925247 16711746
0.4972864 -0.1300028 0.9890723 16711746
0.7027659 -0.1879551 0.9728129 16711746
0.5165207 -0.2949267 0.8631524 16711746
0.3434311 -0.2144728 0.8820162 16711746
0.3015335 -0.2157997 0.9327518 16711746
0.5042462 -0.1938262 0.8970674 16711746
0.4529456 -0.2395420 0.8950078 16711746
0.4463682 -0.2554766 0.8448431 16711746
0.3922833 -0.1718436 0.9328131 16711746
0.2856396 -0.1685542 0.9081575 16711746
0.4236303 -0.2060948 0.9099318 16711746
0.3454073 -0.1904856 0.8523127 16711746
0.4129581 -0.2849445 0.8755576 16711746
0.0904125 -0.2885373 1.0411966 16711746
0.3163860 -0.2414403 0.9186258 16711746
0.4832758 -0.2181018 0.9764346 16711746
0.5456561 -0.1639928 0.8510391 16711746
0.4171733 -0.2572223 0.8725693 16711746
0.4869730 -0.1952793 0.9154916 16711746
0.5574476 -0.2355260 0.9181962 16711746
0.4420158 -0.1737934 1.0190187 16711746
0.5048948 -0.1759423 1.1295906 16711746
0.3055174 -0.1936470 1.1423546 16711746
0.3171259 -0.1933616 1.1133547 16711746
0.4275969 -0.1432638 0.9304972 16711746
0.4472598 -0.1441002 0.9698387 16711746
0.3887994 -0.2171085 0.9604460 16711746
0.5704587 -0.1484374 1.0875621 16711746
0.3072404 -0.2424523 0.9275051 16711746
0.5016730 -0.2327555 0.8816288 16711746
0.5032334 -0.2485328 0.9312704 16711746
0.4014234 -0.2676376 0.8739081 16711746
0.4056787 -0.2322177 0.8587888 16711746
0.4402032 -0.3120920 0.8891342 16711746
0.2547216 -0.2839310 1.0067995 16711746
0.3472699 -0.1845072 0.8952070 16711746
0.5500848 -0.1407454 1.0912603 16711746
0.5372341 -0.2094404 1.1281776 16711746
0.4030949 -0.1446480 0.9588060 16711746
0.4331257 -0.2471744 0.8487313 16711746
0.4663672 -0.2001339 0.8709904 16711746
0.6218075 -0.1928411 1.3221323 16711746
0.4457250 -0.1911867 1.0594844 16711746
0.4299285 -0.1802285 0.9626275 16711746
0.4995878 -0.1447861 1.0847683 16711746
0.5883501 -0.2170917 1.2088581 16711746
0.4822039 -0.1682871 1.1114308 16711746
0.5380907 -0.1533477 1.0732635 16711746
0.5130761 -0.1570712 1.0669234 16711746
0.4780240 -0.1586100 1.0513623 16711746
0.5562388 -0.2258826 1.1606678 16711746
0.4078160 -0.3140125 0.8837402 16711746
0.4440336 -0.1632906 0.9591874 16711746
0.4954266 -0.2236907 0.8590848 16711746
0.2736003 -0.1451518 0.9194253 16711746
0.5160557 -0.1335910 0.9670829 16711746
0.2534449 -0.2421831 1.0762944 16711746
0.4526816 -0.1546051 1.0214553 16711746
0.4041685 -0.1432726 1.0575143 16711746
0.4390651 -0.1896536 0.8857543 16711746
0.5231501 -0.1369626 0.9728128 16711746
0.3700141 -0.1725460 0.9092458 16711746
0.3446470 -0.2180770 0.8586624 16711746
0.2674052 -0.1718867 0.9267665 16711746
0.4493361 -0.1232315 0.9115881 16711746
0.4072543 -0.2083702 1.0328285 16711746
0.5394265 -0.1666847 1.1050341 16711746
0.3568328 -0.1475124 0.8839778 16711746
0.4506202 -0.1277451 0.8904490 16711746
0.4449261 -0.1889301 0.8163428 16711746
0.5217330 -0.2781053 0.8401165 16711746
0.4647881 -0.1976655 0.8561872 16711746
0.4814632 -0.1660419 0.8826868 16711746
0.5178730 -0.1830762 0.8869619 16711746
0.4539759 -0.2895413 0.8967221 16711746
0.4254923 -0.3493641 0.9327909 16711746
0.5712876 -0.1102937 1.0988148 16711746
0.5704318 -0.0742522 1.0177107 16711746
0.4987811 -0.1198744 1.0999296 16711746
0.4083735 -0.0750715 0.8253295 16711746
0.2913005 -0.2171151 0.9085697 16711746
0.2441947 -0.2461686 0.9510920 16711746
0.5000030 -0.1904415 0.8676605 16711746
0.2718220 -0.1850112 1.0728005 16711746
0.3443970 -0.2427892 0.8522365 16711746
0.3077144 -0.2387129 0.8542662 16711746
0.5451017 -0.2326103 0.8959955 16711746
0.4088259 -0.3455142 1.2562481 16711746
0.4284352 -0.1399435 0.8912207 16711746
0.4547015 -0.2156317 0.8866421 16711746
0.4429214 -0.1582722 0.9109301 16711746
0.2773258 -0.2135199 0.9368255 16711746
0.5018814 -0.1495255 0.9279537 16711746
0.2481888 -0.2087255 1.0581585 16711746
0.4524356 -0.1495976 0.9296766 16711746
0.4437618 -0.1474497 0.9116191 16711746
0.4472312 -0.1532084 0.9773721 16711746
0.3424343 -0.1466473 0.9661678 16711746
0.4505045 -0.1760070 0.8990379 16711746
0.4384915 -0.3120487 0.8892934 16711746
0.1065984 -0.3054764 1.0239886 16711746
0.0448985 -0.2860551 1.0817682 16711746
0.1033799 -0.2343117 0.9755729 16711746
0.4684906 -0.1961065 0.9169372 16711746
0.4206083 -0.2647761 0.8532759 16711746
0.1510870 -0.2615357 1.0359136 16711746
0.4260136 -0.1583508 1.0533242 16711746
-0.0204925 -0.3360479 1.1083705 16711746
0.1076875 -0.3025966 1.0727150 16711746
0.4279780 -0.1616396 0.8986245 16711746
0.5098310 -0.1630918 0.8175503 16711746
0.3585722 -0.1732423 0.8858272 16711746
0.4648752 -0.2184451 0.8696524 16711746
0.3212799 -0.2398906 0.9044775 16711746
0.3009468 -0.2543418 0.9104894 16711746
0.3031690 -0.2157325 0.8957116 16711746
0.3895777 -0.0933219 0.8031814 16711746
0.1136155 -0.2283606 1.0982914 16711746
0.3888042 -0.1898573 0.9423595 16711746
0.2429449 -0.1748098 1.0811009 16711746
0.2461608 -0.1734947 1.1583747 16711746
0.0241992 -0.2296571 1.1092325 16711746
0.0781538 -0.2009904 1.0356593 16711746
0.1029807 -0.2318305 1.1049223 16711746
0.5225257 -0.1027575 1.0875862 16711746
0.4063662 -0.0865811 0.8315052 16711746
0.4121794 -0.2470979 0.8665798 16711746
0.2618272 -0.1917287 1.0302472 16711746
0.4905359 -0.2931005 0.8706068 16711746
0.4589215 -0.2845798 0.8787937 16711746
0.2777009 -0.2101333 0.9326934 16711746
0.1490387 -0.1844285 1.0166550 16711746
0.3560380 -0.1901957 0.9669663 16711746
0.1913154 -0.2046295 0.8553293 16711746
0.5404285 -0.0995135 0.9972752 16711746
0.4011357 -0.2041641 0.9967487 16711746
0.2580418 -0.2081817 1.0553961 16711746
0.3708807 -0.1878251 1.0615479 16711746
0.3777886 -0.1793209 0.9231160 16711746
0.2000550 -0.2222301 0.8841499 16711746
0.1489720 -0.2406239 0.9032578 16711746
0.1890045 -0.2090279 0.8831467 16711746
0.1995366 -0.1997100 1.1270772 16711746
0.3944245 -0.1766709 0.9241758 16711746
0.0024282 -0.2383597 1.0053760 16711746
0.4337394 -0.1965594 0.8316350 16711746
0.4336969 -0.1765875 0.8981432 16711746
0.3411925 -0.2311329 1.1610979 16711746
0.0297150 -0.3759872 1.3892549 16711746
0.4342327 -0.1599334 0.9250809 16711746
0.3694569 -0.1706335 0.9793931 16711746
0.4219249 -0.1613143 0.9591318 16711746
0.4212207 -0.1625926 0.9251185 16711746
0.2924673 -0.1618959 0.9250386 16711746
0.4840545 -0.1923542 0.8752864 16711746
0.4367530 -0.1808371 0.9501149 16711746
0.4131772 -0.1496535 0.9437573 16711746
0.3033167 -0.2108641 1.0857266 16711746
0.3866611 -0.1705775 0.9958913 16711746
0.3913319 -0.1905199 0.9912356 16711746
0.2926994 -0.1600832 0.9225733 16711746
0.3293459 -0.1759493 0.8866658 16711746
0.5199893 -0.2884097 0.8771874 16711746
0.1149171 -0.1913025 1.0142224 16711746
0.2818626 -0.1738636 0.9111626 16711746
0.4970862 -0.2995814 0.8595690 16711746
0.4640620 -0.1884416 0.8568732 16711746
0.3728178 -0.1811221 0.8857040 16711746
0.4057500 -0.2809872 0.8505252 16711746
0.4078336 -0.2361649 0.8602129 16711746
0.5112712 -0.2097333 0.8982786 16711746
0.5238031 -0.2333311 0.9034869 16711746
0.1547260 -0.1804549 0.8968877 16711746
0.4492272 -0.1798145 0.8678032 16711746
0.4436310 -0.2201818 0.9291533 16711746
0.5211496 -0.2750422 0.8654035 16711746
0.4072357 -0.1608515 0.8374388 16711746
0.3059717 -0.1994090 1.1543871 16711746
0.3281563 -0.1108324 1.0064690 16711746
0.3280398 -0.1709415 0.9934909 16711746
0.4157873 -0.1535247 0.9517020 16711746
0.4402400 -0.2169443 0.8824229 16711746
0.2594073 -0.1980260 0.9557565 16711746
0.3154629 -0.1878602 0.9204527 16711746
0.1254314 -0.1609306 0.9161929 16711746
0.3175823 -0.0863758 0.9810429 16711746
0.4090351 -0.1812110 0.9877574 16711746
0.4561410 -0.1978828 0.8986738 16711746
0.3286391 -0.2063888 0.9613430 16711746
0.5404438 -0.2814995 0.8483099 16711746
-0.0151216 -0.1967405 1.0664406 16711746
0.3357003 -0.1632447 1.0879036 16711746
0.3455153 -0.2211329 0.8612482 16711746
0.5967811 -0.2552390 0.8677709 16711746
0.1716027 -0.2420062 0.9992195 16711746
0.3030592 -0.1686448 1.0973552 16711746
0.4176260 -0.1764857 0.9161215 16711746
0.1543445 -0.3118531 1.2659553 16711746
0.3860500 -0.2006521 0.9986387 16711746
0.3052513 -0.1786058 1.1087005 16711746
0.3241449 -0.0958221 0.9471147 16711746
0.2142041 -0.2324923 1.1792500 16711746
0.3693714 -0.1748096 0.8717709 16711746
0.4375041 -0.2901036 0.8807340 16711746
0.1058128 -0.2457595 1.0753287 16711746
0.2736105 -0.1987321 1.1284900 16711746
0.0376704 -0.2029921 1.0160182 16711746
0.3992999 -0.1750813 1.0092641 16711746
0.4081936 -0.2392077 0.8624409 16711746
0.4201272 -0.2153172 1.1372299 16711746
0.1043949 -0.2182591 1.0320888 16711746
0.2537902 -0.2229315 0.9304644 16711746
0.3053668 -0.1500823 0.9554355 16711746
0.2698399 -0.1531954 1.0076300 16711746
0.4243984 -0.2053778 0.9088966 16711746
0.4586318 -0.2365035 0.8251669 16711746
0.4994459 -0.2378563 0.8787925 16711746
0.3169867 -0.1692164 1.0670911 16711746
0.3793269 -0.1985613 0.8992931 16711746
0.0964784 -0.2455348 1.1251519 16711746
0.4348944 -0.1684254 1.1153508 16711746
0.4017955 -0.1647142 0.9289808 16711746
0.3455972 -0.1946903 1.1080157 16711746
0.5397935 -0.1825939 0.8778580 16711746
0.4185079 -0.1445427 0.8607910 16711746
0.3803706 -0.1028305 1.0116997 16711746
0.3803695 -0.1704971 0.9635019 16711746
0.2636984 -0.2044436 0.9331004 16711746
0.4032383 -0.1409249 0.9082534 16711746
0.4751087 -0.2660831 0.8919730 16711746
0.3417310 -0.1993649 0.8600646 16711746
0.4387610 -0.1485140 0.9797226 16711746
0.4451317 -0.2054382 0.8699800 16711746
0.4641201 -0.1701630 0.8704685 16711746
0.4880447 -0.0961232 0.9110564 16711746
0.0674023 -0.1835068 0.9905921 16711746
0.4867240 -0.1145171 0.9418754 16711746
0.2705071 -0.1845471 0.9530880 16711746
0.4067455 -0.1133526 1.0138111 16711746
0.4602757 -0.2242050 0.8823002 16711746
0.4827614 -0.1690932 0.8832339 16711746
0.4421158 -0.1130783 1.0761757 16711746
0.3498987 -0.2141052 0.8563303 16711746
0.3603153 -0.2012406 0.8702609 16711746
0.4541313 -0.2857483 0.8798072 16711746
0.4038724 -0.1581701 0.9530103 16711746
0.3529017 -0.1676761 0.8925129 16711746
0.5657604 -0.2015843 0.9844109 16711746
0.4751998 -0.1064174 1.0531797 16711746
0.3987705 -0.1005225 1.0185798 16711746
0.4213032 -0.1479256 1.0374449 16711746
0.4481634 -0.1857929 0.9760790 16711746
0.4115727 -0.1276350 1.0614269 16711746
0.2957144 -0.2166086 0.9094858 16711746
0.2807314 -0.2183982 0.9416450 16711746
0.3876514 -0.2277432 0.9869472 16711746
0.4089853 -0.1818698 0.9885222 16711746
0.3903267 -0.2153200 1.0942215 16711746
0.0662115 -0.2268800 1.0207266 16711746
0.3885374 -0.1532315 0.9790989 16711746
0.3245085 -0.1761315 0.8775890 16711746
0.4664806 -0.2094268 0.8805242 16711746
0.3456900 -0.2359107 0.8697791 16711746
0.2711505 -0.2045012 0.9530470 16711746
0.2525221 -0.1835051 0.9541333 16711746
0.5650917 -0.2828687 0.8573637 16711746
0.6061913 -0.2673374 0.8328477 16711746
0.0856129 -0.2657885 1.0571225 16711746
0.5678457 -0.1778668 0.8773661 16711746
0.5447075 -0.1814586 0.8379648 16711746
0.4554577 -0.1775149 0.9790613 16711746
0.3671234 -0.2242754 1.0079643 16711746
0.5037872 -0.1105814 0.9147311 16711746
0.5034674 -0.1607313 0.9795588 16711746
0.0357309 -0.1997613 0.9293625 16711746
0.1314384 -0.1793281 0.9390339 16711746
0.2683406 -0.1821770 1.0250576 16711746
0.3516824 -0.2110025 0.8935128 16711746
0.2151628 -0.1905836 1.0685920 16711746
0.4418606 -0.1746647 0.9911843 16711746
0.3535893 -0.1682145 0.9180322 16711746
0.3875002 -0.1553890 0.9330167 16711746
0.4653266 -0.1820084 1.1353118 16711746
0.0704767 -0.2255361 0.8514749 16711746
0.1337659 -0.2292213 1.2821196 16711746
-1.3538212 -1.5368890 1.3818338 16711746
0.3462662 -0.2039682 0.9868779 16711746
0.3922957 -0.1440885 0.9907363 16711746
0.4656694 -0.2463381 0.8926695 16711746
0.3533443 -0.1829616 0.9134584 16711746
0.3925522 -0.2436913 0.9302254 16711746
0.3619891 -0.1878769 1.0261835 16711746
0.2981084 -0.2579737 0.9269086 16711746
0.3909491 -0.2066215 0.9428981 16711746
0.3777230 -0.2714847 0.9030093 16711746
0.4484616 -0.1868746 0.9768678 16711746
0.3795937 -0.1305179 0.9407607 16711746
0.5640636 -0.2327878 0.8772871 16711746
0.4225738 -0.1967289 0.8861908 16711746
0.3805500 -0.2110036 0.8932696 16711746
0.4235694 -0.1836029 0.9603269 16711746
0.4567690 -0.1865785 0.8781494 16711746
0.5161960 -0.1455575 0.9171677 16711746
0.4335522 -0.2196108 0.9005081 16711746
0.4889433 -0.2164781 0.9161010 16711746
0.4354025 -0.1524362 0.9180723 16711746
0.4745340 -0.2906479 0.9097418 16711746
0.4217738 -0.2431022 0.8716577 16711746
0.4318378 -0.2155725 0.8976020 16711746
0.3875572 -0.1661430 0.8613461 16711746
0.3380034 -0.1643388 0.9595708 16711746
0.3290899 -0.1743092 1.0089734 16711746
0.3793335 -0.2287617 1.0410284 16711746
0.5086596 -0.1305160 1.0807211 16711746
0.4209567 -0.1530105 0.9362770 16711746
0.4042246 -0.1564722 0.9600866 16711746
0.3969173 -0.1551895 1.0114520 16711746
0.4025765 -0.1891537 0.9707058 16711746
0.4154786 -0.1246778 0.8957077 16711746
0.3934189 -0.1680514 0.9472741 16711746
0.4639784 -0.2380006 0.8924522 16711746
0.4941523 -0.0940863 0.8910173 16711746
0.3762156 -0.1721168 0.9656023 16711746
0.4335707 -0.2177251 0.8747099 16711746
0.4165243 -0.1170208 0.8882201 16711746
0.5124549 -0.0946506 0.9093537 16711746
0.3890444 -0.1788309 0.9268835 16711746
0.5001090 -0.0887660 0.9006744 16711746
0.5385999 -0.1169080 1.0263125 16711746
0.3931358 -0.1845592 0.9834591 16711746
0.2146794 -0.2276449 1.1699076 16711746
0.5780273 -0.2591729 0.8519921 16711746
0.4238514 -0.0637487 0.9136214 16711746
0.3312987 -0.1092476 0.8381519 16711746
0.4893988 -0.1044579 1.0034107 16711746
0.3981226 -0.1046144 0.8595952 16711746
0.4568809 -0.0830645 1.0355574 16711746
0.4301559 -0.1555543 0.9271574 16711746
0.4037938 -0.1318969 0.9405192 16711746
0.5209060 -0.1549312 0.8462816 16711746
0.4125287 -0.1447251 0.9575637 16711746
0.5482151 -0.1287691 1.0912942 16711746
0.5001948 -0.1163343 1.0361174 16711746
0.3784927 -0.1814065 0.9475991 16711746
0.3143722 -0.2097887 0.8941122 16711746
0.3999351 -0.2047532 1.0221196 16711746
0.5372952 -0.1566131 0.8469856 16711746
0.4227372 -0.1784241 0.8554268 16711746
0.4551950 -0.0803483 0.8481907 16711746
0.4780869 -0.1266095 0.9049290 16711746
0.3606259 -0.1483133 0.9531999 16711746
0.4131379 -0.1411185 0.9570306 16711746
0.3921250 -0.1611137 0.9484755 16711746
0.4506091 -0.1525313 1.0146046 16711746
0.5413546 -0.1549283 0.9840745 16711746
0.4058014 -0.1534542 0.9054965 16711746
0.4241220 -0.1543549 0.9759166 16711746
0.2603137 -0.2259494 0.9476290 16711746
0.3509845 -0.1637609 0.8882421 16711746
0.3847739 -0.1554270 0.9136337 16711746
0.3650149 -0.1826185 0.9833549 16711746
0.4231883 -0.1350666 0.9058242 16711746
0.5928771 -0.1634099 0.8711964 16711746
0.4253132 -0.1341001 0.9576694 16711746
0.4424510 -0.1566658 0.8757556 16711746
0.3717128 -0.2115798 0.9550130 16711746
0.4774020 -0.1533228 0.8374674 16711746
0.3764814 -0.2022869 0.8883637 16711746
0.5455744 -0.1181297 1.0334069 16711746
0.4618301 -0.1166697 1.1192268 16711746
0.5171120 -0.1639943 0.9827847 16711746
0.3959976 -0.0583475 0.8569704 16711746
0.3703168 -0.1591826 0.9512088 16711746
0.5466272 -0.1193473 1.0365125 16711746
0.5460224 -0.0931422 0.9724946 16711746
0.3457839 -0.1475471 0.8644459 16711746
0.3507877 -0.1625538 0.9179684 16711746
0.3721943 -0.1429655 0.8919219 16711746
0.2534365 -0.1766412 1.0743505 16711746
0.5088629 -0.1518668 1.0565969 16711746
0.4377820 -0.1926006 0.8730662 16711746
0.3739677 -0.1291863 0.9043502 16711746
0.4448479 -0.0897567 1.0110513 16711746
0.5268144 -0.1529498 0.9252806 16711746
0.4875434 -0.1061273 0.9383177 16711746
0.3875494 -0.1326260 0.8578492 16711746
0.5270779 -0.1445443 0.8418474 16711746
0.4745691 -0.2324909 0.9105956 16711746
0.3528757 -0.1170340 0.8421894 16711746
0.3599767 -0.1561822 0.9203672 16711746
0.5162436 -0.1424718 0.9941018 16711746
0.5032302 -0.1274631 1.0721190 16711746
0.3025147 -0.0977186 0.8256390 16711746
0.3017221 -0.1025069 0.8281488 16711746
0.2826681 -0.0810634 0.8711350 16711746
0.2979192 -0.0703731 0.8286471 16711746
-0.0568693 -0.2926413 1.2103082 16711746
-0.1277878 -0.2881353 1.1221973 16711746
0.4464759 -0.1505677 0.9191303 16711746
0.2716219 -0.1624919 0.9156023 16711746
0.5538948 -0.1947720 0.7842934 16711746
0.3902488 -0.0921294 0.8358642 16711746
0.3672206 -0.1433301 0.9314047 16711746
0.3838851 -0.0913102 1.0397011 16711746
0.3567584 -0.1679167 0.9269947 16711746
0.4857265 -0.1181744 0.9077443 16711746
0.4676886 -0.1519932 0.9296178 16711746
0.4105329 -0.1311966 0.8916588 16711746
0.5018830 -0.1307562 0.9220060 16711746
0.2302207 -0.1377896 0.9662745 16711746
0.3469429 -0.1669840 0.9377023 16711746
0.3557070 -0.1648113 0.9234346 16711746
0.3761981 -0.1520504 0.8976966 16711746
0.2706361 -0.1790257 0.9088790 16711746
0.4448690 -0.1711342 0.8926464 16711746
0.2351401 -0.2061244 0.9340748 16711746
0.4352355 -0.1650796 0.9120315 16711746
0.4450675 -0.1421388 0.9605692 16711746
0.3581025 -0.2120421 0.9465182 16711746
0.4198828 -0.1094537 1.0795450 16711746
0.1522598 -0.1953847 1.1445575 16711746
0.3808718 -0.1617084 1.0164161 16711746
0.2032018 -0.1783061 0.9351163 16711746
0.4110920 -0.1310145 0.8911308 16711746
0.3789060 -0.1549865 0.9506074 16711746
0.2923316 -0.1903470 0.8903905 16711746
0.2522163 -0.1230828 0.9291056 16711746
0.4530460 -0.1711828 0.8844631 16711746
0.5839719 -0.1905740 0.8521413 16711746
0.5033561 -0.1896298 0.9670823 16711746
0.3301517 -0.1357747 0.9131528 16711746
0.4685737 -0.1535977 1.0370325 16711746
0.3005092 -0.1916792 0.9432658 16711746
0.3280120 -0.1820472 0.8753072 16711746
0.4883253 -0.1526284 1.0463475 16711746
0.2663856 -0.1283419 0.8970114 16711746
0.3472238 -0.1683458 0.9382397 16711746
0.3794622 -0.1259599 0.8934816 16711746
0.4579853 -0.1913100 0.8982099 16711746
0.4518865 -0.1823246 0.8734528 16711746
0.4337671 -0.1743772 0.8632361 16711746
0.4509682 -0.1683711 0.8825741 16711746
0.2424219 -0.0627786 0.9055812 16711746
0.3288019 -0.0967599 0.8812476 16711746
0.2069864 -0.1725181 0.9296656 16711746
0.4484382 -0.2076165 0.8895609 16711746
0.4110793 -0.1690461 0.9234807 16711746
0.4125608 -0.1265848 0.8641155 16711746
0.2633068 -0.1371599 0.9055133 16711746
0.3096433 -0.2817979 0.9044593 16711746
0.2733716 -0.1727164 0.8959914 16711746
0.4901390 -0.1496530 0.8975706 16711746
0.4488708 -0.1804048 0.8729764 16711746
0.4353312 -0.2581098 0.8855689 16711746
0.2393237 -0.2232281 1.0267887 16711746
0.3114980 -0.1976475 0.8656015 16711746
0.3007472 -0.1103275 0.9121293 16711746
0.3094236 -0.1582265 0.9937509 16711746
0.4247468 -0.1683073 0.9044986 16711746
0.2672129 -0.0611506 0.9451956 16711746
0.2518975 -0.0523518 0.8882185 16711746
0.4291727 -0.1001647 1.0422763 16711746
0.5062248 -0.0742507 1.0234892 16711746
0.2232218 -0.1379724 0.9010949 16711746
0.5175347 -0.1187491 0.9820459 16711746
0.4591533 -0.1957111 0.8812982 16711746
0.5447475 -0.1617501 0.9560041 16711746
0.2082648 -0.2186626 1.0155597 16711746
-0.0316246 -0.2418683 1.1533645 16711746
0.2253576 -0.1200811 1.0891912 16711746
0.2751116 -0.1543549 1.0028138 16711746
0.5014901 -0.1070070 0.9064190 16711746
0.3938743 -0.0995634 0.9951503 16711746
0.4180332 -0.1219451 1.1374960 16711746
0.2672882 -0.1515240 0.9092678 16711746
0.4288748 -0.1769244 0.8741145 16711746
0.3494109 -0.1310480 0.8770333 16711746
0.4356296 -0.1338248 0.9640251 16711746
0.3957774 -0.1066311 1.0792631 16711746
0.5253606 -0.1215817 0.9039558 16711746
0.4930589 -0.1499053 1.0908079 16711746
0.4607382 -0.0868970 1.0502207 16711746
0.3413336 -0.1852625 1.0003432 16711746
0.0241379 -0.2884167 1.1393286 16711746
0.0753434 -0.2714772 1.0798585 16711746
0.1754930 -0.2152095 1.1773120 16711746
0.2305064 -0.1555296 1.0814083 16711746
0.0332925 -0.2393878 0.8738527 16711746
0.4747524 -0.6459549 1.0304157 16711746
0.4433427 -0.1043854 1.0117532 16711746
0.2159411 -0.2261576 0.9676661 16711746
0.5404255 -0.1886697 0.9364600 16711746
0.3912406 -0.1347031 0.9061381 16711746
0.3872827 -0.1530188 0.8928542 16711746
0.2839495 -0.2362491 0.9184296 16711746
0.5179589 -0.1050809 0.8965378 16711746
0.5244374 -0.1624907 0.8476296 16711746
0.3922383 -0.1529493 0.9008392 16711746
0.4410302 -0.1816435 0.9078968 16711746
0.2296814 -0.2128535 0.9244025 16711746
0.3091672 -0.1362756 0.9659567 16711746
0.3430960 -0.2867719 0.9211481 16711746
0.3134723 -0.1233863 0.8743864 16711746
0.4539890 -0.1662031 0.9023046 16711746
0.3104967 -0.1822828 0.9739849 16711746
0.5322957 -0.1564007 0.8354542 16711746
0.5460088 -0.1775459 0.9464940 16711746
0.4396809 -0.1062637 1.0110664 16711746
0.3333990 -0.1582720 0.9428136 16711746
0.2999923 -0.1779970 1.0641757 16711746
0.5117707 -0.0780902 0.9379567 16711746
0.4602426 -0.2100542 0.9846767 16711746
0.3416387 -0.1889284 1.0063655 16711746
0.0001436 -0.2739696 1.1529670 16711746
0.5152867 -0.1805412 0.8850044 16711746
0.4126613 -0.1322838 0.9733992 16711746
0.5395218 -0.1909111 0.9281763 16711746
0.5528357 -0.1864178 0.8599975 16711746
0.2980752 -0.1675592 0.8695530 16711746
0.3744384 -0.1381289 0.8747112 16711746
0.3393254 -0.1288706 0.8685576 16711746
0.4533654 -0.1919600 0.8498453 16711746
0.2480847 -0.1139138 0.8549661 16711746
0.5670114 -0.1712438 0.8550408 16711746
0.1890353 -0.1588364 1.0313106 16711746
0.2398615 -0.2281777 1.0335292 16711746
0.2675580 -0.1653782 1.0064204 16711746
0.3773008 -0.1612652 0.9806113 16711746
0.4059360 -0.1523242 1.0163502 16711746
0.3973844 -0.1277271 1.0011424 16711746
0.2580395 -0.1945237 1.0114145 16711746
0.4026663 -0.1445672 0.9907345 16711746
0.4999064 -0.1135947 1.0439297 16711746
0.2837231 -0.2909449 1.1235881 16711746
0.4275406 -0.1460885 0.9617512 16711746
0.4389977 -0.1145013 0.9234720 16711746
0.4615810 -0.0972651 0.9487814 16711746
0.4135671 -0.0879514 1.0104470 16711746
0.4983859 -0.1095202 0.9942406 16711746
0.4100581 -0.1620948 0.9649530 16711746
0.3633249 -0.2243310 1.0154493 16711746
0.4459365 -0.0901693 1.0133871 16711746
0.3998265 -0.1989224 1.0750692 16711746
-0.1432940 -0.2500168 1.1707467 16711746
0.4731095 -0.1712556 1.0065387 16711746
0.5035258 -0.0951531 0.9024417 16711746
0.4124467 -0.2466699 1.1025234 16711746
0.4182661 -0.1520306 1.1003349 16711746
0.5233569 -0.1626254 0.8531113 16711746
0.4994348 -0.1503953 0.8808932 16711746
0.4818137 -0.1188921 0.8930840 16711746
0.4581696 -0.1269308 1.1088362 16711746
0.4169086 -0.2155386 1.1041155 16711746
0.4178309 -0.1353483 0.9293741 16711746
0.3993959 -0.1510504 1.0682700 16711746
0.4124532 -0.1203579 1.0977306 16711746
0.4816414 -0.1057521 0.9261721 16711746
0.3686422 -0.1412673 1.0307758 16711746
0.4000038 -0.1729681 1.1463715 16711746
0.5016010 -0.1435123 1.0260214 16711746
0.5356478 -0.1620248 0.9480721 16711746
0.4818967 -0.0943501 0.9076051 16711746
0.4490710 -0.1983333 0.9033828 16711746
0.1215812 -0.2032168 1.0011095 16711746
0.2726558 -0.0840171 0.8622141 16711746
0.2746526 -0.1389804 0.8978634 16711746
0.2821095 -0.1485871 0.8911895 16711746
0.2258470 -0.0843369 0.8728534 16711746
0.3048955 -0.0907970 0.8655953 16711746
0.5504661 -0.1700527 1.0534452 16711746
0.4992933 -0.1256376 0.9226056 16711746
0.5171480 -0.1695440 0.9210186 16711746
0.4528490 -0.2031663 1.0784552 16711746
0.4951701 -0.1236097 0.9195892 16711746
0.4735990 -0.1356248 0.8887953 16711746
0.4400007 -0.0707224 0.9995969 16711746
0.4647565 -0.2188761 1.1007494 16711746
0.3073334 -0.1501726 0.8612974 16711746
0.3271146 -0.1231156 0.8578415 16711746
0.2524949 -0.2081559 1.0842416 16711746
0.6436185 -0.3205487 0.9989823 16711746
0.2314033 -0.1737742 0.9906696 16711746
0.0531971 -0.1674587 1.0685469 16711746
0.4381886 -0.1393656 0.9712972 16711746
0.2155906 -0.2359193 1.2113304 16711746
0.2186597 -0.1881587 0.9324221 16711746
0.1347969 -0.1580454 1.0994505 16711746
0.2430047 -0.2204601 0.9420950 16711746
0.1688133 -0.2276214 1.0200888 16711746
0.4063607 -0.1226227 0.9186539 16711746
0.5119241 -0.1437051 0.9160599 16711746
0.4303520 -0.1595591 0.8710797 16711746
0.3898197 -0.1093860 0.9131867 16711746
0.3495041 -0.1726282 0.9298326 16711746
0.4519076 -0.1767527 0.8856267 16711746
0.3638828 -0.0538552 0.9685318 16711746
0.3958992 -0.1180320 0.8757641 16711746
0.5162273 -0.1488272 0.8577399 16711746
0.3660250 -0.0504620 0.9398771 16711746
0.4109159 -0.1286786 0.9250200 16711746
0.2386676 -0.2093460 0.9964162 16711746
0.4212035 -0.1176706 0.9697758 16711746
0.3617058 -0.1513404 0.8871672 16711746
0.3932664 -0.1152578 0.8738269 16711746
0.3419243 -0.1452555 0.8737817 16711746
0.2128927 -0.2395524 0.9529344 16711746
0.1997843 -0.1288395 1.0318244 16711746
0.2586712 -0.1462563 0.9054295 16711746
0.2183318 -0.1949458 0.9760610 16711746
0.0502715 -0.2124912 1.0419631 16711746
0.3027343 -0.1679919 0.8781555 16711746
0.2848394 -0.1613843 0.8820817 16711746
0.3624343 -0.1531643 0.9103239 16711746
0.4159391 -0.1755260 0.8656989 16711746
0.4705722 -0.1132109 0.8544508 16711746
0.4743346 -0.0557134 0.9564599 16711746
0.4830591 -0.1085813 0.9719902 16711746
0.3995941 -0.1376536 0.8703580 16711746
0.3303645 -0.0960968 0.8642734 16711746
0.3449730 -0.1430724 0.8853111 16711746
0.4678576 -0.1302184 0.8905995 16711746
0.4441194 -0.1398380 0.8476456 16711746
0.3273555 -0.0620551 0.9145430 16711746
0.2023370 -0.1120931 0.9771370 16711746
0.0756304 -0.2298218 1.0279053 16711746
0.4482817 -0.0747222 0.8842409 16711746
0.0419546 -0.1878762 1.0781645 16711746
-0.0115609 -0.1876158 1.0192096 16711746
0.4973474 -0.1181907 1.0100116 16711746
0.4786110 -0.1441225 1.0170444 16711746
0.4654233 -0.0874920 1.0458565 16711746
0.4375186 -0.3013364 1.2010648 16711746
0.5522449 -0.1947629 0.8603276 16711746
0.3691953 -0.1101478 0.9448022 16711746
0.3312512 -0.1353077 0.8715310 16711746
0.4408490 -0.0678511 0.9443768 16711746
0.4490551 -0.1117208 0.9855599 16711746
0.3733215 -0.1573929 0.8978450 16711746
0.3584976 -0.1063865 0.9170828 16711746
0.4346693 -0.1610402 0.8858352 16711746
0.3229313 -0.1056227 0.9078171 16711746
0.4128820 -0.1041420 0.9466792 16711746
0.4283221 -0.1461028 0.8693359 16711746
0.4234547 -0.1608264 0.8766323 16711746
0.3904507 -0.1090140 0.8774571 16711746
0.3759285 -0.1357045 0.9353198 16711746
0.3499759 -0.1791655 0.9337692 16711746
0.3456159 -0.1252648 0.8642961 16711746
0.2729647 -0.1584588 0.9458966 16711746
0.3454711 -0.1470347 0.9455683 16711746
0.3697939 -0.1323536 0.9203607 16711746
0.2487579 -0.1981547 0.9359519 16711746
0.3943807 -0.0654164 0.9305981 16711746
0.3046104 -0.0884454 0.8553998 16711746
0.3708782 -0.1346667 0.9224199 16711746
0.4265276 -0.1307218 0.9482964 16711746
0.4785939 -0.1534032 0.9483752 16711746
0.2860313 -0.1390818 0.8695643 16711746
0.4214273 -0.0849737 0.9042076 16711746
0.3314641 -0.1308397 0.8560515 16711746
0.4429654 -0.1603203 0.8841599 16711746
-0.2077839 -0.2305623 1.1591371 16711746
0.4351744 -0.1289644 0.8647287 16711746
0.4524338 -0.1152916 0.9924521 16711746
0.4393023 -0.1009358 0.9939993 16711746
0.4042155 -0.1135146 0.9257580 16711746
0.4657330 -0.0966072 1.0113465 16711746
0.3740752 -0.0705339 0.9745885 16711746
0.4160342 -0.1092726 0.9703227 16711746
0.4325801 -0.0762222 0.9132408 16711746
0.3866421 -0.0955994 0.8453104 16711746
0.4333300 -0.1026313 0.9926048 16711746
0.4268221 -0.1459706 0.8688625 16711746
0.1336196 -0.1868043 1.0463539 16711746
0.4959655 -0.0919664 1.1339573 16711746
0.4413577 -0.0896453 0.8694459 16711746
0.5039963 -0.0872718 0.9809048 16711746
0.3728210 -0.1174813 0.9495312 16711746
0.4311805 -0.0390506 0.9304883 16711746
0.4811852 -0.1460981 0.8523052 16711746
0.3986083 -0.0962489 0.9256284 16711746
0.5599577 -0.1972111 1.0255049 16711746
0.6043539 -0.2118609 1.0568471 16711746
0.3384992 -0.1421488 0.8682137 16711746
0.4868190 -0.1010081 1.0849645 16711746
0.4096380 -0.1075452 0.9192790 16711746
0.4192107 -0.1310839 1.0111015 16711746
0.3695933 -0.0673845 0.9684281 16711746
0.3533554 -0.1925042 0.9304613 16711746
0.3536690 -0.1474670 0.8857706 16711746
0.1092704 -0.1307948 1.0110049 16711746
0.4491753 -0.0800728 0.9784725 16711746
0.3391502 -0.1708903 0.9537675 16711746
0.3270417 -0.0811478 0.9230085 16711746
0.4113269 -0.1326114 0.9661863 16711746
0.3568747 -0.1095339 0.9193157 16711746
0.4654821 -0.0297311 0.9656782 16711746
0.2502590 -0.0831824 0.8488583 16711746
0.4194192 -0.1333762 0.8475058 16711746
0.5066471 -0.1625640 0.8835555 16711746
0.1603825 -0.1814989 1.0350695 16711746
0.4540316 -0.1250955 0.9686227 16711746
0.3100872 -0.0997251 0.8993478 16711746
0.3077826 -0.1549086 0.9341244 16711746
0.3020019 -0.1331147 0.9390730 16711746
0.1997820 -0.2010472 0.8894416 16711746
0.2284731 -0.1754292 0.9115486 16711746
0.3572775 -0.1364245 0.9518543 16711746
0.3829989 -0.1338774 0.8906963 16711746
0.3230394 -0.0601498 0.9595689 16711746
0.4036125 -0.0832483 0.9975264 16711746
0.4483337 -0.0877737 0.9306884 16711746
0.3323626 -0.0829217 0.9077815 16711746
0.3050846 -0.1299624 0.9272709 16711746
0.3111876 -0.0674458 0.9016067 16711746
0.3848251 -0.0704297 1.0151755 16711746
0.4780142 -0.0929870 0.9711721 16711746
0.4997084 -0.1237291 1.0083592 16711746
0.4499268 -0.1089766 0.9356226 16711746
0.4235806 -0.1442331 0.8680760 16711746
0.6141108 -0.2951479 0.9920993 16711746
0.4283119 -0.1585339 0.8705248 16711746
0.3424811 -0.1508006 0.9053540 16711746
0.3203954 -0.1403371 0.9178184 16711746
0.4631345 -0.0936969 0.8801798 16711746
0.5710905 -0.4294835 1.3072871 16711746
0.4842242 -0.1124264 0.9762613 16711746
0.5179761 -0.0918420 0.9931147 16711746
0.4396301 -0.1090494 0.9516660 16711746
0.4205865 -0.0831979 0.9242510 16711746
0.5036407 -0.1563493 1.0621576 16711746
0.4752599 -0.1073222 0.9471692 16711746
0.4407765 -0.1283000 0.8953797 16711746
0.3910418 -0.0578997 0.9381356 16711746
0.2994723 -0.0000075 0.8093752 16711746
0.5541814 -0.1299681 1.0107645 16711746
0.3587233 -0.1107950 1.0466365 16711746
0.4369979 -0.0648042 0.9287524 16711746
0.5042547 -0.1396811 1.0091652 16711746
0.4121650 -0.3589500 1.2558193 16711746
0.3583980 -0.0306646 0.8320539 16711746
0.5098281 -0.1523306 0.9651836 16711746
0.5045813 -0.1494070 0.9607423 16711746
0.3753802 -0.0557222 0.8210614 16711746
0.4519751 -0.1214035 0.9508460 16711746
0.3309387 -0.1849489 0.8995799 16711746
0.3937973 -0.0796813 0.8704869 16711746
0.4078544 -0.1091239 1.0113757 16711746
0.3765967 -0.0728444 0.9271244 16711746
0.4671398 -0.0422700 1.0015765 16711746
0.4778097 -0.1512448 0.9470058 16711746
0.4101416 -0.0327377 1.0237495 16711746
0.1905853 -0.1836302 0.9014244 16711746
0.1617450 -0.0723869 0.9562362 16711746
0.3714587 -0.0717393 0.9173266 16711746
0.4055567 -0.0592763 0.9759679 16711746
0.4363330 -0.0432395 0.9280994 16711746
0.3511824 -0.0217339 0.8947012 16711746
0.3519484 -0.0242598 0.9243486 16711746
0.3947535 -0.0066090 0.8965120 16711746
0.3763985 -0.0346445 0.8861092 16711746
0.3494487 -0.0212177 0.8933249 16711746
0.3042282 -0.1084843 0.8662361 16711746
0.4045709 -0.0213161 0.8890585 16711746
0.4624763 -0.1079058 1.0752506 16711746
0.2055114 -0.1213499 0.9029610 16711746
0.1980235 -0.1343594 0.8822923 16711746
0.2346846 -0.0988860 0.8557644 16711746
0.1759742 -0.1220156 0.8815286 16711746
0.4219171 -0.0814959 0.9234871 16711746
0.1369275 -0.1047098 0.9032850 16711746
0.2118869 -0.1199530 0.8746347 16711746
0.2064241 -0.1388258 0.8749716 16711746
0.4423420 -0.1000166 0.9122336 16711746
0.3441920 -0.0754975 0.8763960 16711746
0.2254225 -0.1184077 0.8910152 16711746
0.1901737 -0.0802852 0.8555452 16711746
0.2084138 -0.1282044 0.8896016 16711746
0.2990610 -0.1044120 0.8628715 16711746
0.2055082 -0.1093505 0.8716105 16711746
0.1224375 -0.1364744 0.8581297 16711746
0.3523549 -0.1103723 0.8678063 16711746
0.3250130 -0.0790708 0.8488064 16711746
0.2210359 -0.1165679 0.8751000 16711746
0.3710237 -0.0657745 0.8337239 16711746
0.3125828 -0.0936283 0.8655828 16711746
0.3147347 -0.1183883 0.8663130 16711746
0.2917145 -0.0400581 0.8475623 16711746
0.3643406 -0.0963882 0.8786367 16711746
0.1751431 -0.1248001 0.8819582 16711746
0.3301604 -0.0915505 0.8624677 16711746
0.3307023 -0.0643867 0.8566753 16711746
0.3300263 -0.0879570 0.8681547 16711746
0.3477871 -0.0764884 0.8589858 16711746
0.4717984 -0.0724954 0.9130754 16711746
0.3630327 -0.0967380 0.8575714 16711746
0.3816599 -0.0512432 0.9540895 16711746
0.3093604 -0.1393363 0.8977271 16711746
0.3018638 -0.0965162 0.8653685 16711746
0.1461907 -0.1282363 0.8850285 16711746
0.3523901 -0.0707822 0.8997468 16711746
0.1218149 -0.1151374 0.8812729 16711746
0.3797226 -0.0432311 0.8413236 16711746
0.2193316 -0.0749760 0.8565081 16711746
0.2205106 -0.1271492 0.8758880 16711746
0.2134519 -0.1141939 0.8897629 16711746
0.3437021 -0.0920943 0.8726516 16711746
0.2982494 -0.0305817 0.8540226 16711746
0.1969141 -0.1233624 0.9268626 16711746
0.3331767 -0.0673117 0.8581084 16711746
0.3338483 -0.0833456 0.8643178 16711746
0.3367271 -0.0941786 0.8542571 16711746
0.3167753 -0.0987893 0.8733309 16711746
0.2480155 -0.0353479 0.8370699 16711746
0.6943602 -0.5654047 1.2139540 16711746
0.3426002 -0.0616561 0.8691236 16711746
0.2981942 -0.0981162 0.8702512 16711746
0.4325065 -0.0832908 0.9081953 16711746
0.3203451 -0.0731288 0.8570942 16711746
0.3301882 -0.0674224 0.8627074 16711746
0.2057079 -0.0983293 0.8907005 16711746
0.3352813 -0.0796247 0.8507555 16711746
0.3471497 -0.0692668 0.8463486 16711746
0.3481732 -0.0664503 0.8619391 16711746
0.3245540 -0.0559354 0.8565292 16711746
0.1728545 -0.1079943 0.8709127 16711746
0.3474307 -0.0376206 0.8754958 16711746
0.3533376 -0.0576056 0.8667154 16711746
0.3107465 -0.1185263 0.8723848 16711746
0.3091745 -0.0850299 0.8716528 16711746
0.3234753 -0.0806027 0.8602864 16711746
0.2317231 -0.1102229 0.8724721 16711746
-0.2804476 -1.2591021 1.9452242 16711746
0.2077577 -0.1180398 0.8585995 16711746
0.2096433 -0.1148125 0.8573375 16711746
0.3399610 -0.0379343 0.8534724 16711746
0.1997291 -0.1170926 0.8618583 16711746
0.3378273 -0.0467276 0.8640426 16711746
0.1832355 -0.0946163 0.8541533 16711746
0.3308221 -0.0645147 0.8561198 16711746
0.3186535 -0.0045937 0.8459141 16711746
0.3306005 -0.0401918 0.8547089 16711746
0.3534647 -0.0006379 0.8592441 16711746
0.3421160 -0.0098606 0.8563015 16711746
0.3293007 -0.0326485 0.8597839 16711746
0.3423120 -0.0458681 0.8543479 16711746
0.3495151 0.0151455 0.8654550 16711746
0.3470223 -0.0665043 0.8605525 16711746
0.3855381 -0.0439745 0.9563616 16711746
0.3756421 -0.0341018 0.9441707 16711746
0.3392032 -0.0492662 0.8651406 16711746
0.3837066 -0.0207649 0.9612057 16711746
0.3256930 0.0111223 0.8681836 16711746
0.3486348 -0.0163364 0.8985621 16711746
0.3466254 -0.0185959 0.8940866 16711746
0.3905182 -0.0488989 0.8778318 16711746
0.3422400 -0.0553469 0.8518421 16711746
0.2973262 0.0101126 0.8448665 16711746
0.2894180 -0.0763415 0.8615404 16711746
0.3286504 -0.0476497 0.8519334 16711746
0.2972369 0.0228064 0.8204464 16711746
0.3149966 0.0055799 0.8230076 16711746
0.3238517 0.0013829 0.8623090 16711746
0.3127777 -0.0072199 0.8312822 16711746
0.3177340 -0.0410167 0.8458825 16711746
0.3740858 -0.0142336 0.9513545 16711746
0.3147779 -0.0114913 0.8334005 16711746
0.3804451 -0.0467494 0.8700169 16711746
0.3563130 -0.0460246 0.8596188 16711746
0.3734098 -0.0392416 0.8424643 16711746
0.3387714 0.0004253 0.8803760 16711746
0.3151280 -0.0152469 0.8550004 16711746
0.3371361 -0.0108985 0.8328185 16711746
0.3476044 -0.0245035 0.8380936 16711746
0.3214369 -0.0084046 0.8506273 16711746
0.3280334 -0.0094216 0.8480521 16711746
0.2953986 0.0055534 0.8550634 16711746
0.3001456 -0.0050884 0.8974714 16711746
0.3441150 -0.0031260 0.8945413 16711746
0.2939732 -0.0453213 0.8664131 16711746
0.4262336 -0.0827455 0.8678739 16711746
0.3316271 -0.0672316 0.8985034 16711746
0.2958142 -0.0312789 0.9205564 16711746
0.3298658 -0.0921246 0.8698441 16711746
0.2850482 -0.0588647 0.9424453 16711746
0.3559783 -0.0755526 0.8596175 16711746
0.3677175 -0.0892103 0.8725864 16711746
0.2665754 -0.0231393 0.9374030 16711746
0.3021736 -0.0148231 0.9332813 16711746
0.3235826 -0.0914006 0.8741964 16711746
0.2848086 -0.0622489 0.9473134 16711746
0.3662104 -0.0923766 0.8669639 16711746
0.3631153 -0.0822300 0.8690842 16711746
0.2173518 -0.0318934 0.9391451 16711746
0.2162065 -0.0647811 0.9775406 16711746
0.3849379 -0.0089118 0.8657367 16711746
0.2975641 -0.0230536 0.9029682 16711746
0.3635427 -0.0600462 0.8746466 16711746
0.2833526 -0.0915872 0.9258020 16711746
0.2983813 -0.0289985 0.8643940 16711746
0.2976058 -0.1026658 0.9638754 16711746
0.3553625 -0.1049725 0.8608221 16711746
0.2924155 -0.0905920 0.9308354 16711746
0.3367985 -0.0768741 0.8508864 16711746
0.3569246 -0.0779392 0.8608037 16711746
0.3360213 -0.1096686 0.8706471 16711746
-0.4180916 -0.7628951 1.3403212 16711746
0.2434277 -0.0308707 0.9529827 16711746
0.3527860 -0.0301874 0.8696045 16711746
0.3835106 -0.0632205 0.9351658 16711746
0.2953412 -0.0736913 0.8797717 16711746
0.3088011 -0.0296791 0.8785157 16711746
0.2625158 -0.1122596 0.9428241 16711746
0.2577298 -0.0494629 0.9791535 16711746
0.2970876 -0.0266592 0.8476549 16711746
0.2963696 -0.0219877 0.8860021 16711746
0.3095725 -0.0529950 0.8759897 16711746
0.3037298 -0.0355529 0.8738209 16711746
0.3668060 -0.0378328 0.8448989 16711746
-0.5167046 -0.7972512 1.8401952 16711746
0.3514685 -0.0209902 0.8407158 16711746
0.3234598 0.0123380 0.8631291 16711746
0.2925535 -0.0932070 0.9338336 16711746
0.4452620 -0.1125819 0.8694273 16711746
0.3980082 -0.0544160 0.8489747 16711746
0.2921031 0.0040642 0.8827935 16711746
0.3700657 -0.0675939 0.8690704 16711746
0.2946441 -0.0390955 0.8612909 16711746
0.4025955 -0.0653497 0.8541701 16711746
0.3534463 -0.0025330 0.8527366 16711746
0.3075075 0.0061085 0.8603900 16711746
0.2830531 -0.0434880 0.8590459 16711746
0.4241697 -0.0527183 0.9910431 16711746
0.3096605 -0.0225879 0.9100285 16711746
0.3640272 0.0016820 0.8939366 16711746
0.3829635 -0.0471432 0.8539204 16711746
0.3222314 -0.0088050 0.8441782 16711746
0.2188351 -0.0648532 0.9984261 16711746
0.3494004 -0.0012656 0.8551491 16711746
0.3238416 -0.0072508 0.8443264 16711746
0.2945619 -0.0003543 0.8605216 16711746
0.2940316 0.0020792 0.8739489 16711746
0.3020087 0.0091694 0.8520112 16711746
0.3228724 -0.0180347 0.8457983 16711746
0.3609124 -0.0057177 0.9423313 16711746
0.2004072 -0.0571528 0.9363546 16711746
0.3602978 -0.0351798 0.8359740 16711746
0.3895148 -0.0504533 0.9472271 16711746
0.3107334 -0.0025678 0.8350804 16711746
0.3505128 -0.0266480 0.8974467 16711746
0.2394242 -0.0374286 0.9464397 16711746
0.2918236 -0.0395754 0.8817049 16711746
0.1982238 -0.0435924 0.9274311 16711746
0.4529977 -0.1095951 0.8811769 16711746
0.2967736 -0.0191462 0.8670841 16711746
0.2811452 -0.0272270 0.8637660 16711746
0.2959170 -0.0148256 0.8634183 16711746
0.3124041 -0.0226347 0.8665813 16711746
0.3323761 -0.0213805 0.8588687 16711746
0.2970591 -0.0019744 0.8445105 16711746
0.2955475 0.0112058 0.8510580 16711746
0.2989305 0.0116240 0.8450907 16711746
0.2989189 -0.0013122 0.8428106 16711746
0.3074230 0.0049436 0.8676049 16711746
0.2968254 0.0026914 0.8688548 16711746
0.3048680 0.0110368 0.8336869 16711746
0.2992876 0.0026521 0.8378120 16711746
0.2354009 -0.0292337 0.9096195 16711746
0.3918324 -0.0340577 0.9500131 16711746
0.3627629 -0.0188531 0.9241449 16711746
0.2921858 0.0051147 0.8455113 16711746
0.2996503 -0.0238332 0.8499691 16711746
0.2816916 -0.0241045 0.8830868 16711746
0.2860230 -0.0360528 0.8861175 16711746
0.3976059 -0.0318808 0.8836042 16711746
0.3758884 -0.0605425 0.9343807 16711746
0.2826726 -0.0278785 0.8607784 16711746
0.3007584 -0.0048168 0.8709601 16711746
0.2966382 -0.0023548 0.8759043 16711746
0.3508958 -0.0319336 0.8999451 16711746
0.3563330 -0.0137975 0.9146034 16711746
0.3610731 -0.0419828 0.9050010 16711746
0.3916105 -0.0297778 0.9692716 16711746
0.3956983 -0.0328368 0.9505566 16711746
0.2948208 0.0040246 0.8453158 16711746
0.2974052 0.0101423 0.8404566 16711746
0.2766439 -0.0234875 0.8701072 16711746
0.2970791 0.0040973 0.8446446 16711746
0.3003439 -0.0032188 0.8431399 16711746
0.2947302 0.0059491 0.8450276 16711746
0.3051438 0.0030811 0.8521436 16711746
0.2770153 -0.0463326 0.8919438 16711746
0.3035647 0.0004449 0.8463798 16711746
0.3064179 0.0122741 0.8501250 16711746
0.2716005 -0.0178785 0.8613543 16711746
0.2680740 -0.0381345 0.9124776 16711746
0.2924487 -0.0119860 0.8878830 16711746
0.2795975 -0.0140974 0.8984733 16711746
0.2758301 -0.0288166 0.9224240 16711746
0.2846169 -0.0378027 0.8796140 16711746
0.2808357 -0.0379785 0.8669547 16711746
0.3413080 -0.0061780 0.8529183 16711746
0.2943976 0.0142547 0.8464897 16711746
0.2804379 -0.0270918 0.8704973 16711746
0.3268765 0.0016786 0.9011726 16711746
0.5486118 -0.1440843 1.0720979 16711746
0.4863171 -0.2356610 1.0691906 16711746
0.5271091 -0.1553050 0.9792718 16711746
0.5686628 -0.2610539 1.0248314 16711746
0.5120197 -0.2608712 1.0875018 16711746
0.2715294 -0.0342069 0.8939077 16711746
0.2479548 -0.0315933 0.9009652 16711746
0.2630625 -0.0688898 0.8777722 16711746
0.2734532 -0.0278018 0.8870040 16711746
0.2608905 -0.0576720 0.8838931 16711746
0.2659674 -0.0567355 0.8811211 16711746
0.2421622 -0.0239461 0.8914704 16711746
0.2485546 -0.0354820 0.8794538 16711746
0.2659749 -0.0525751 0.8899570 16711746
0.2515224 -0.0382371 0.8785606 16711746
0.2647257 -0.0299168 0.8875850 16711746
0.2644150 -0.0019369 0.8962311 16711746
0.2628396 -0.0405333 0.8830769 16711746
0.2437831 -0.0442818 0.9062433 16711746
0.2387544 -0.0233123 0.8850089 16711746
0.2802109 -0.0137845 0.8619376 16711746
0.2639691 -0.0529951 0.8723730 16711746
0.2656538 -0.0474745 0.8800759 16711746
0.2574371 -0.0265440 0.8727283 16711746
0.2914776 0.0062879 0.8464324 16711746
0.3302254 0.0014175 0.9005287 16711746
0.2540631 -0.0041198 0.8765490 16711746
0.2508406 -0.0254814 0.8993717 16711746
0.2666623 -0.0445139 0.8789148 16711746
0.5124649 -0.1084361 1.1354898 16711746
0.2671579 -0.0322805 0.8637001 16711746
0.2870766 0.0210111 0.8380022 16711746
0.2611071 -0.0305702 0.8633752 16711746
0.2244514 -0.0392858 0.8989614 16711746
0.2683552 -0.0273774 0.8729090 16711746
0.2607744 -0.0698359 0.8900225 16711746
0.3556305 -0.0022676 0.8990052 16711746
0.2789237 -0.1158603 0.9580210 16711746
0.0513092 -0.1721295 1.0656064 16711746
0.2557426 -0.0552988 0.8847972 16711746
0.2378971 -0.0176573 0.8529304 16711746
0.2607867 0.0010748 0.8970237 16711746
0.2527073 -0.0295644 0.9017783 16711746
0.2702467 -0.0203906 0.8860959 16711746
0.2669537 -0.0216591 0.8827484 16711746
0.2673035 -0.0344179 0.8778587 16711746
0.2601759 0.0005418 0.8983256 16711746
0.2427460 -0.0264526 0.8581225 16711746
0.2694580 -0.0222886 0.8880869 16711746
0.2645959 -0.0275912 0.8889390 16711746
0.2496034 -0.0268956 0.8842926 16711746
0.2493624 -0.0201003 0.8736877 16711746
0.2588021 -0.0167396 0.8838380 16711746
0.2632704 -0.0224703 0.8804985 16711746
0.2634338 -0.0366877 0.8729997 16711746
0.2576471 -0.0011948 0.9042312 16711746
0.2617106 -0.0296658 0.8814620 16711746
0.2467626 -0.0206165 0.8848064 16711746
0.2458303 -0.0318360 0.8626325 16711746
0.2607915 -0.0091993 0.8817470 16711746
0.2447318 -0.0253184 0.8781760 16711746
0.2517557 -0.0246086 0.8977571 16711746
0.2500432 -0.0264469 0.8960609 16711746
0.2535483 -0.0170927 0.8871558 16711746
0.2428172 -0.0200447 0.8804978 16711746
0.2519017 -0.0130624 0.8729079 16711746
0.2614877 -0.0262025 0.8797149 16711746
0.2584948 -0.0217807 0.8863064 16711746
0.2619991 -0.0252649 0.8801222 16711746
