# .PCD v.7 - Point Cloud Data file format
VERSION .7
FIELDS x y z rgb
SIZE 4 4 4 4
TYPE F F F F
COUNT 1 1 1 1
WIDTH 261
HEIGHT 1
VIEWPOINT 0 0 0 1 0 0 0
POINTS 261
DATA ascii

 0.0000000 0.0000000 0.0000000 16777215
 0.0210288 0.0011072 0.0488520 16777215
 0.0191492 0.0012053 0.0526147 16777215
 0.0207103 -0.0003167 0.0584900 16777215
 0.0207309 -0.0003369 0.0585117 16777215
 0.0205262 0.0023916 0.0602081 16777215
 0.0221343 0.0028797 0.0734229 16777215
 0.0221037 0.0016028 0.0789251 16777215
 0.0261319 0.0027091 0.0870363 16777215
 0.0299824 0.0040527 0.0957439 16777215
 0.0322165 0.0044119 0.1002384 16777215
 0.0387175 0.0072560 0.1184858 16777215
 0.0437313 0.0065197 0.1227703 16777215
 0.0525751 0.0047615 0.1320890 16777215
 0.0589035 0.0071916 0.1393313 16777215
 0.0622016 0.0014734 0.1500270 16777215
 0.0703139 0.0014785 0.1612155 16777215
 0.0718360 0.0041020 0.1691853 16777215
 0.0809791 0.0031632 0.1922801 16777215
 0.0805599 0.0046981 0.2041175 16777215
 0.0900772 0.0010977 0.2220067 16777215
 0.0931272 0.0002971 0.2367608 16777215
 0.0960779 0.0013809 0.2449015 16777215
 0.1046934 0.0020697 0.2642400 16777215
 0.1085001 0.0021183 0.2760021 16777215
 0.1161051 0.0037630 0.2906878 16777215
 0.1305701 -0.0001568 0.3128918 16777215
 0.1390748 0.0017680 0.3251943 16777215
 0.1475885 0.0015017 0.3431087 16777215
 0.1557269 0.0040270 0.3692754 16777215
 0.1604639 0.0023848 0.3878545 16777215
 0.1637854 0.0007596 0.4078236 16777215
 0.1701382 0.0014823 0.4208162 16777215
 0.1843870 -0.0023141 0.4478001 16777215
 0.1942188 -0.0000346 0.4579444 16777215
 0.2108496 -0.0030189 0.4764310 16777215
 0.2222798 -0.0004790 0.4925310 16777215
 0.2311944 0.0038184 0.5108051 16777215
 0.2359496 0.0048951 0.5339617 16777215
 0.2385224 0.0046928 0.5446452 16777215
 0.2436843 0.0027747 0.5584365 16777215
 0.2528021 0.0045062 0.5741054 16777215
 0.2588688 0.0062323 0.5903495 16777215
 0.2684241 0.0072895 0.6014496 16777215
 0.2877775 0.0124725 0.6170703 16777215
 0.2941716 0.0124213 0.6256958 16777215
 0.3029550 0.0117567 0.6379303 16777215
 0.3092767 0.0124497 0.6485351 16777215
 0.3154901 0.0122862 0.6646758 16777215
 0.3188410 0.0095172 0.6858870 16777215
 0.3243113 0.0086700 0.6945989 16777215
 0.3322894 0.0116489 0.7143240 16777215
 0.3420217 0.0120606 0.7320073 16777215
 0.3485390 0.0142030 0.7461650 16777215
 0.3594887 0.0099501 0.7593467 16777215
 0.3706619 0.0082780 0.7699429 16777215
 0.3793553 0.0006754 0.7851092 16777215
 0.3844944 0.0021181 0.7907100 16777215
 0.3865813 0.0114416 0.8113758 16777215
 0.3916118 0.0110768 0.8284627 16777215
 0.3931453 0.0075972 0.8468804 16777215
 0.3949250 0.0066160 0.8667260 16777215
 0.3982339 0.0069306 0.8776495 16777215
 0.4020755 0.0093763 0.9008882 16777215
 0.4093376 0.0109089 0.9221894 16777215
 0.4257331 0.0104334 0.9444073 16777215
 0.4265584 0.0080177 0.9594839 16777215
 0.4343162 0.0069039 0.9798268 16777215
 0.4329107 0.0066040 0.9892190 16777215
 0.4321786 0.0066616 1.0091925 16777215
 0.4315375 0.0053984 1.0295039 16777215
 0.4321571 0.0042365 1.0489333 16777215
 0.4379681 0.0047935 1.0666388 16777215
 0.4395512 0.0056363 1.0826679 16777215
 0.4496906 0.0059885 1.1001852 16777215
 0.4613197 0.0012559 1.1165780 16777215
 0.4680930 0.0004440 1.1282076 16777215
 0.4715741 0.0024384 1.1409447 16777215
 0.4756929 0.0022683 1.1627634 16777215
 0.4760624 0.0024985 1.1844721 16777215
 0.4845904 0.0000823 1.2040823 16777215
 0.4876950 0.0018684 1.2177064 16777215
 0.4937959 0.0036266 1.2363160 16777215
 0.4978793 0.0041752 1.2464111 16777215
 0.5066504 0.0048732 1.2667850 16777215
 0.5191481 0.0019933 1.2844924 16777215
 0.5253351 0.0023869 1.3022408 16777215
 0.5354846 0.0011878 1.3198408 16777215
 0.5383242 0.0027152 1.3360177 16777215
 0.5419788 0.0008639 1.3621577 16777215
 0.5441388 -0.0013088 1.3728534 16777215
 0.5528412 -0.0001052 1.3891184 16777215
 0.5571050 0.0007873 1.4089068 16777215
 0.5690312 0.0007729 1.4283215 16777215
 0.5800797 0.0002756 1.4466205 16777215
 0.5859746 0.0001848 1.4588997 16777215
 0.5950799 0.0013776 1.4767858 16777215
 0.5995263 0.0012093 1.4969947 16777215
 0.6034151 -0.0005221 1.5109545 16777215
 0.6079198 -0.0032144 1.5283186 16777215
 0.6125221 -0.0054609 1.5489181 16777215
 0.6189771 -0.0035688 1.5652292 16777215
 0.6246406 -0.0025851 1.5830343 16777215
 0.6350400 -0.0016076 1.5973730 16777215
 0.6426076 -0.0040074 1.6092441 16777215
 0.6501690 -0.0040605 1.6216422 16777215
 0.6576461 -0.0030658 1.6350808 16777215
 0.6624675 -0.0028186 1.6497195 16777215
 0.6677783 -0.0004104 1.6631900 16777215
 0.6728966 0.0004645 1.6721395 16777215
 0.6808996 -0.0009262 1.6864238 16777215
 0.6890703 0.0001539 1.7029402 16777215
 0.6996879 0.0001385 1.7183405 16777215
 0.7103203 -0.0024260 1.7319864 16777215
 0.7158368 -0.0053142 1.7478937 16777215
 0.7135311 -0.0008076 1.7678286 16777215
 0.7125945 -0.0042913 1.7922399 16777215
 0.7161431 -0.0062540 1.8092673 16777215
 0.7162641 -0.0063960 1.8215362 16777215
 0.7238230 -0.0033256 1.8463255 16777215
 0.7391508 -0.0052230 1.8702658 16777215
 0.7418169 -0.0077272 1.8938413 16777215
 0.7462215 -0.0091963 1.9104478 16777215
 0.7443564 -0.0088727 1.9324338 16777215
 0.7467920 -0.0072465 1.9510691 16777215
 0.7524737 -0.0100669 1.9757560 16777215
 0.7591817 -0.0081593 1.9934355 16777215
 0.7671076 -0.0076229 2.0071073 16777215
 0.7833397 -0.0101690 2.0277569 16777215
 0.7931093 -0.0106580 2.0402222 16777215
 0.8011239 -0.0110375 2.0597308 16777215
 0.8045356 -0.0110909 2.0807467 16777215
 0.8112304 -0.0115487 2.0969951 16777215
 0.8156946 -0.0118470 2.1202919 16777215
 0.8248439 -0.0111033 2.1431091 16777215
 0.8330945 -0.0100048 2.1639030 16777215
 0.8436318 -0.0108048 2.1791983 16777215
 0.8560522 -0.0100408 2.1905460 16777215
 0.8649215 -0.0119894 2.2074010 16777215
 0.8728755 -0.0104903 2.2258456 16777215
 0.8765696 -0.0091571 2.2415545 16777215
 0.8796976 -0.0071795 2.2630351 16777215
 0.8864214 -0.0094146 2.2900927 16777215
 0.8919330 -0.0090834 2.3099260 16777215
 0.9020742 -0.0052273 2.3344705 16777215
 0.9135363 -0.0056369 2.3569105 16777215
 0.9209535 -0.0067778 2.3704019 16777215
 0.9300893 -0.0056057 2.3917024 16777215
 0.9367641 -0.0040349 2.4172864 16777215
 0.9395194 -0.0032780 2.4432418 16777215
 0.9441276 -0.0040781 2.4632375 16777215
 0.9497234 -0.0031656 2.4835067 16777215
 0.9559131 -0.0008271 2.4985645 16777215
 0.9654368 0.0008635 2.5247040 16777215
 0.9754317 -0.0013272 2.5480380 16777215
 0.9802098 -0.0027875 2.5677583 16777215
 0.9849483 -0.0011479 2.5883732 16777215
 0.9922297 -0.0026085 2.6141582 16777215
 0.9972214 -0.0003002 2.6318502 16777215
 1.0064481 -0.0004497 2.6569841 16777215
 1.0166525 -0.0009046 2.6805415 16777215
 1.0289155 0.0007590 2.7018695 16777215
 1.0353224 0.0007911 2.7199564 16777215
 1.0423110 0.0025058 2.7459934 16777215
 1.0453985 0.0038261 2.7705784 16777215
 1.0499253 0.0004439 2.7857537 16777215
 1.0575535 0.0035245 2.8068914 16777215
 1.0691922 0.0006483 2.8351569 16777215
 1.0774832 0.0023163 2.8517683 16777215
 1.0870749 -0.0000177 2.8728776 16777215
 1.0949814 0.0021022 2.8965878 16777215
 1.0975072 0.0048273 2.9211962 16777215
 1.0990361 0.0028942 2.9318783 16777215
 1.1061293 0.0027478 2.9487104 16777215
 1.1126097 0.0025928 2.9731748 16777215
 1.1215421 0.0014732 2.9942830 16777215
 1.1333019 -0.0001360 3.0139430 16777215
 1.1404239 0.0005840 3.0350511 16777215
 1.1439639 0.0016543 3.0661991 16777215
 1.1484445 0.0040761 3.0877254 16777215
 1.1571625 0.0007699 3.1072054 16777215
 1.1640134 0.0048759 3.1294293 16777215
 1.1821179 0.0041240 3.1500583 16777215
 1.1899375 0.0014316 3.1630609 16777215
 1.1931068 0.0013475 3.1813564 16777215
 1.1931933 0.0055657 3.2058582 16777215
 1.2022799 0.0015881 3.2293293 16777215
 1.2066523 0.0025412 3.2464712 16777215
 1.2103925 0.0062098 3.2693193 16777215
 1.2219520 0.0054917 3.2914581 16777215
 1.2355725 0.0008624 3.3067868 16777215
 1.2399243 0.0039059 3.3279293 16777215
 1.2423573 0.0059479 3.3533571 16777215
 1.2487001 0.0057212 3.3756726 16777215
 1.2543776 0.0058184 3.3979650 16777215
 1.2647929 0.0085341 3.4224739 16777215
 1.2761406 0.0106328 3.4447141 16777215
 1.2839211 0.0049701 3.4625306 16777215
 1.2914176 0.0090122 3.4830961 16777215
 1.3023990 0.0084415 3.5080848 16777215
 1.3061504 0.0080462 3.5298600 16777215
 1.3123106 0.0078975 3.5502224 16777215
 1.3222811 0.0108278 3.5721660 16777215
 1.3340182 0.0080643 3.5928245 16777215
 1.3411320 0.0085800 3.6085629 16777215
 1.3422521 0.0113089 3.6292329 16777215
 1.3463049 0.0110410 3.6545992 16777215
 1.3499930 0.0117975 3.6712639 16777215
 1.3578357 0.0112941 3.6933265 16777215
 1.3621833 0.0137263 3.7159381 16777215
 1.3744869 0.0096341 3.7376325 16777215
 1.3771816 0.0069553 3.7513542 16777215
 1.3792453 0.0048071 3.7711453 16777215
 1.3895324 -0.0035144 3.7973046 16777215
 1.3768235 0.0027356 3.8139393 16777215
 1.3870735 0.0021975 3.8332741 16777215
 1.3936280 -0.0006512 3.8554754 16777215
 1.4046810 -0.0031183 3.8690481 16777215
 1.4068553 -0.0068045 3.8858588 16777215
 1.4203558 -0.0020729 3.9041610 16777215
 1.4217474 0.0001816 3.9261560 16777215
 1.4307899 -0.0007432 3.9481196 16777215
 1.4366701 0.0011005 3.9682891 16777215
 1.4458700 0.0047899 3.9895782 16777215
 1.4567130 0.0000762 4.0083842 16777215
 1.4670063 -0.0015521 4.0253124 16777215
 1.4763861 -0.0002809 4.0418568 16777215
 1.4783769 -0.0013863 4.0638747 16777215
 1.4889350 0.0026832 4.0811901 16777215
 1.4989049 0.0023901 4.0997586 16777215
 1.5135120 0.0034143 4.1151876 16777215
 1.5186425 0.0004163 4.1278729 16777215
 1.5258530 -0.0003056 4.1390357 16777215
 1.5288682 0.0052793 4.1501670 16777215
 1.5319991 -0.0003384 4.1689372 16777215
 1.5290211 -0.0013599 4.1819172 16777215
 1.5347581 0.0015792 4.1911263 16777215
 1.5389838 0.0004474 4.2067790 16777215
 1.5475824 -0.0002016 4.2231989 16777215
 1.5442436 0.0013487 4.2390480 16777215
 1.5541700 0.0018956 4.2533269 16777215
 1.5583532 0.0040159 4.2667189 16777215
 1.5564756 0.0053283 4.2857728 16777215
 1.5586724 0.0061185 4.3041258 16777215
 1.5575794 0.0078293 4.3185534 16777215
 1.5645974 0.0077452 4.3360152 16777215
 1.5704104 0.0054794 4.3478971 16777215
 1.5750103 0.0084337 4.3577867 16777215
 1.5758806 0.0082916 4.3677149 16777215
 1.5771019 0.0092399 4.3737636 16777215
 1.5789582 0.0103363 4.3754988 16777215
 1.5832380 0.0114927 4.3777828 16777215
 1.5839416 0.0134454 4.3780074 16777215
 1.5831089 0.0150926 4.3775167 16777215
 1.5878426 0.0186055 4.3761296 16777215
 1.5882849 0.0193855 4.3763819 16777215
 1.5872841 0.0198868 4.3764415 16777215
 1.5872760 0.0191592 4.3772383 16777215
 1.5861223 0.0180131 4.3781452 16777215
 1.5862831 0.0191771 4.3776803 16777215
 1.5860240 0.0177290 4.3782463 16777215
