# .PCD v0.7 - Point Cloud Data file format
VERSION 0.7
FIELDS x y z rgb
SIZE 4 4 4 4
TYPE F F F F
COUNT 1 1 1 1
WIDTH 1205
HEIGHT 1
VIEWPOINT 0 0 0 1 0 0 0
POINTS 1205
DATA ascii
20.349098 -9.5719414 29.914722 16711746
12.140712 -12.523976 34.362045 16711746
14.923209 -6.4886751 31.472614 16711746
22.290125 -17.995007 43.796555 16711746
17.394506 -10.132495 34.39003 16711746
16.267918 -23.010897 45.484535 16711746
9.9576712 -5.2415199 29.919281 16711746
-104.96532 -84.328033 108.95174 16711746
13.398445 -10.077773 28.9681 16711746
16.996511 -10.908925 32.829498 16711746
18.997223 -9.426837 30.933353 16711746
20.228651 -10.079707 31.002665 16711746
16.210381 -11.087558 32.21859 16711746
16.868822 -11.301214 33.861862 16711746
18.782101 -9.5654325 30.59778 16711746
16.084124 -10.87995 32.133652 16711746
19.224611 -12.163147 33.212147 16711746
18.308399 -7.7706609 28.948919 16711746
18.322552 -7.8223348 28.948879 16711746
6.7908211 -12.715084 28.766787 16711746
19.420406 -12.528518 33.855545 16711746
14.600392 -11.953811 31.22077 16711746
16.077524 -9.0338573 29.581385 16711746
19.329462 -8.8518867 31.996887 16711746
18.967115 -10.165822 29.868216 16711746
17.032135 -9.6115818 29.32308 16711746
23.938755 -20.26593 44.211536 16711746
18.841902 -13.192212 35.841427 16711746
18.467726 -14.604225 37.217068 16711746
16.166166 -10.650848 32.03978 16711746
17.23008 -9.0774431 29.621569 16711746
19.902285 -11.415726 31.749174 16711746
16.787001 -9.3731251 34.785419 16711746
18.131659 -9.4131489 29.030443 16711746
20.253519 -15.689907 37.451805 16711746
47.474865 -60.741257 68.884331 16711746
4.8462458 -25.859089 35.976704 16711746
7.0750003 -47.631813 44.646446 16711746
20.701056 -15.392994 41.388565 16711746
13.906191 -16.002262 38.802128 16711746
18.735853 -8.3446999 31.788717 16711746
15.062422 -14.75328 38.259739 16711746
17.395233 -19.67893 44.886082 16711746
21.57513 -10.573982 31.250467 16711746
19.26302 -15.234403 38.530834 16711746
8.8078947 -18.28606 37.705097 16711746
17.600756 -9.068716 31.359829 16711746
18.729403 -14.435885 38.244839 16711746
25.890434 -11.55348 33.653198 16711746
18.370659 -12.079963 32.25642 16711746
24.146923 -13.88945 39.886936 16711746
20.742172 -12.747622 37.30114 16711746
6.52776 -20.968716 39.216156 16711746
20.393311 -15.091274 35.951588 16711746
23.612717 -9.7883234 31.287909 16711746
27.78886 -11.398878 38.302124 16711746
17.464405 -8.7625122 31.703787 16711746
19.377039 -6.8288422 30.363951 16711746
25.089186 -20.822578 48.850784 16711746
21.706713 -17.568459 41.439529 16711746
21.229065 -10.36854 30.001047 16711746
18.747353 -8.9072447 30.672789 16711746
18.754253 -13.694003 37.929718 16711746
16.763794 -10.511121 32.395016 16711746
22.16905 -11.014298 31.508514 16711746
19.725555 -13.869208 34.91618 16711746
13.688235 -15.513448 38.617535 16711746
17.680536 -9.3299103 31.136944 16711746
16.830753 -12.836232 34.841614 16711746
20.538927 -14.179151 37.834812 16711746
16.35614 -12.017086 34.428486 16711746
18.270315 -13.633937 35.527599 16711746
19.692419 -12.973904 33.195366 16711746
16.441708 -28.667774 55.008358 16711746
39.413055 -26.758944 50.517662 16711746
25.112585 -18.699989 48.322563 16711746
31.029005 -26.771431 57.059601 16711746
21.293966 -17.178062 39.605286 16711746
13.589975 -17.375648 36.342342 16711746
12.366161 -11.216367 34.076797 16711746
12.635156 -11.364087 35.053425 16711746
18.191519 -8.3989477 30.865282 16711746
13.553685 -10.02599 36.306999 16711746
15.373566 -14.744563 40.161541 16711746
7.8766437 -11.637654 35.069065 16711746
12.278887 -7.7710404 32.287426 16711746
19.024302 -10.057339 31.325792 16711746
19.670803 -8.5980568 32.010136 16711746
8.4990063 -13.498313 35.259846 16711746
16.447245 -8.5007324 29.148178 16711746
16.034285 -10.204222 32.746666 16711746
16.392979 -9.6766176 31.348511 16711746
10.245914 -11.519048 33.747028 16711746
13.716234 -10.757467 36.02602 16711746
18.83939 -10.430075 32.82663 16711746
16.55092 -8.8289776 34.620979 16711746
16.266052 -12.374451 32.950813 16711746
8.9786777 -10.685742 34.886379 16711746
18.812105 -11.669659 32.72023 16711746
17.865114 -7.5883384 32.190201 16711746
20.967518 -9.8292332 32.522991 16711746
11.985272 -12.710978 35.486988 16711746
7.5006185 -11.446346 35.861057 16711746
3.0639513 -10.340433 33.617775 16711746
18.905752 -10.376698 33.275368 16711746
16.515568 -11.679724 32.697887 16711746
16.720596 -9.7584047 32.389549 16711746
17.92577 -9.4674826 31.437361 16711746
16.359583 -11.536507 32.365009 16711746
16.119415 -11.667178 35.349136 16711746
15.230368 -13.444878 36.544312 16711746
18.195177 -15.207421 38.084053 16711746
14.127532 -16.348705 37.752083 16711746
10.650706 -9.9759617 30.157707 16711746
13.373367 -11.600428 34.687767 16711746
8.0743465 -10.383681 35.14257 16711746
6.7651577 -10.662374 32.728279 16711746
19.39539 -9.6947203 30.866367 16711746
17.521187 -10.099187 30.950867 16711746
5.7917299 -9.8806419 36.550453 16711746
9.6826029 -7.613492 32.344963 16711746
6.095757 -11.087279 35.728451 16711746
10.858283 -8.9701014 30.001143 16711746
15.952313 -15.569802 38.6819 16711746
17.660347 -16.115646 45.23262 16711746
23.077919 -25.132502 57.430119 16711746
18.37059 -14.048891 39.000843 16711746
26.347813 -19.418236 47.075226 16711746
15.972316 -15.615096 38.634903 16711746
21.29287 -14.677432 40.619755 16711746
17.581209 -15.01477 38.439838 16711746
19.586056 -14.353545 38.741417 16711746
15.988395 -8.8942204 31.868975 16711746
-5.3675246 -27.206654 48.036999 16711746
19.589117 -8.8423948 29.861334 16711746
24.512186 -20.011375 49.971909 16711746
8.5732059 -10.722394 33.971161 16711746
23.507841 -9.8324833 31.231691 16711746
22.521906 -23.69479 55.626324 16711746
14.773096 -68.315544 60.949081 16711746
18.904022 -9.1092978 30.780298 16711746
15.659453 -6.2947001 32.42894 16711746
6.9533606 -12.689144 36.029015 16711746
5.870111 -12.519471 33.965313 16711746
7.5066996 -11.556003 35.273499 16711746
16.429813 -11.644522 31.810757 16711746
20.750675 -14.172528 38.399162 16711746
17.00964 -8.7925158 31.746025 16711746
9.6026382 -14.624879 35.082588 16711746
14.494323 -12.413139 35.504589 16711746
21.884985 -15.459149 41.416809 16711746
19.037052 -12.625365 36.528618 16711746
25.801731 -9.7505655 30.804087 16711746
7.7753162 -11.88588 35.583889 16711746
15.268413 -13.292436 37.079952 16711746
16.028362 -10.813686 32.455399 16711746
23.250383 -13.066957 39.183727 16711746
30.719461 -26.184824 54.263878 16711746
14.736351 -12.446752 31.811737 16711746
16.219503 -9.948864 32.968155 16711746
3.9482036 -15.826283 29.461407 16711746
-48.65707 -92.735748 29.844748 16711746
10.392683 -10.816207 31.195591 16711746
17.24087 -11.998807 33.73024 16711746
18.910515 -8.534524 29.886011 16711746
18.895281 -9.7429771 30.17206 16711746
18.72378 -8.3085947 29.863419 16711746
8.8735094 -12.228557 30.888958 16711746
23.568975 -13.060246 34.894035 16711746
21.028378 -17.38772 42.83717 16711746
17.887341 -10.29426 30.110872 16711746
14.965232 -15.167675 37.162708 16711746
18.535746 -12.240416 37.62368 16711746
16.951401 -8.9305344 30.794508 16711746
25.304134 -19.238087 48.991261 16711746
22.454338 -15.244781 44.586128 16711746
7.9249582 -13.888214 35.321636 16711746
18.385332 -9.066206 38.87035 16711746
22.96755 -14.748736 46.885235 16711746
14.892928 -12.074303 30.84914 16711746
16.267988 -16.195971 35.895584 16711746
12.612777 -34.484085 51.916222 16711746
43.832188 -38.462738 83.899063 16711746
9.0479679 -12.886756 30.320328 16711746
19.136566 -13.182707 38.327507 16711746
17.424896 -12.989493 36.288681 16711746
14.417007 -12.059304 35.536098 16711746
17.559731 -13.032058 36.200222 16711746
25.774109 -18.273285 46.051579 16711746
21.567972 -18.20261 43.35379 16711746
21.433662 -15.181465 38.815044 16711746
18.92152 -13.783145 37.684994 16711746
13.834355 -4.4840431 31.241589 16711746
19.039412 -14.410404 38.449444 16711746
20.297398 -44.116337 61.977985 16711746
9.6546526 -43.204033 64.674965 16711746
16.80759 -7.6993699 31.320925 16711746
10.729372 -10.595433 31.465809 16711746
6.2876048 -10.75376 30.774492 16711746
16.851913 -8.9094057 29.9998 16711746
15.287144 -13.166318 35.740089 16711746
21.041237 -16.903645 42.067486 16711746
18.487226 -15.018337 39.547943 16711746
16.792553 -9.6792946 30.926207 16711746
17.79928 -14.105999 37.273762 16711746
16.964109 -10.907556 34.867065 16711746
16.572496 -9.4976397 33.176399 16711746
11.587536 -17.320028 43.163883 16711746
15.746963 -13.389647 35.026886 16711746
18.25631 -13.048386 36.92939 16711746
21.552441 -13.119733 42.322262 16711746
23.397099 -16.237087 41.992737 16711746
10.687582 -9.4513016 30.244123 16711746
17.488564 -8.0267277 30.969528 16711746
16.702597 -8.4972639 30.741896 16711746
15.998328 -14.677501 35.484379 16711746
19.941193 -10.929249 33.250824 16711746
16.9998 -6.1223192 30.44759 16711746
14.532632 -14.07358 35.831284 16711746
14.947976 -11.4982 34.945385 16711746
17.469517 -13.527153 35.693855 16711746
16.822151 -10.016208 33.377563 16711746
20.285606 -12.519459 38.498306 16711746
18.232407 -11.523328 37.151371 16711746
16.061285 -13.639968 37.084618 16711746
14.791677 -12.131557 35.894333 16711746
14.880871 -13.567467 35.607525 16711746
11.25835 -16.262943 41.857372 16711746
10.890964 -14.797573 39.737095 16711746
16.806351 -10.746788 32.3839 16711746
9.8976955 -9.3487091 30.92606 16711746
10.156165 -7.8921046 30.690956 16711746
19.097832 -13.092587 35.867519 16711746
11.22571 -9.4195261 31.796202 16711746
9.5865164 -12.039911 32.672207 16711746
18.250814 -7.6475935 32.639885 16711746
17.633211 -12.305427 32.652752 16711746
16.045454 -14.691634 35.445068 16711746
16.154869 -9.2816772 33.212921 16711746
11.178604 -15.975025 41.719761 16711746
10.956226 -15.138794 39.914825 16711746
10.743842 -20.654766 41.702553 16711746
15.937771 -8.6927242 31.99119 16711746
17.003077 -7.973022 31.392378 16711746
22.446791 -9.1385593 31.119526 16711746
12.769358 -12.037325 35.634769 16711746
20.331356 -8.2463989 34.468128 16711746
26.906565 -18.402611 44.90382 16711746
11.101841 -17.134205 41.190838 16711746
18.445433 -9.6459465 32.484066 16711746
20.54821 -7.2695599 30.879576 16711746
17.153601 -9.6584997 31.701839 16711746
12.665732 -15.983766 37.746086 16711746
20.304832 -11.894304 36.013458 16711746
22.714611 -8.9996748 35.377686 16711746
8.1191263 -8.1737909 30.700811 16711746
25.21558 -13.595886 38.904106 16711746
21.389578 -10.539728 42.50285 16711746
17.505041 -17.590969 44.6796 16711746
19.060232 -9.7935162 40.10305 16711746
24.11994 -17.293566 42.731083 16711746
18.534662 -13.485008 37.16626 16711746
8.2314777 -12.073705 34.177078 16711746
14.48173 -15.162416 38.412197 16711746
7.2247882 -9.2048559 30.728954 16711746
16.286619 -15.993625 34.339527 16711746
17.121588 -8.6776085 31.419533 16711746
20.197592 -6.6217299 35.893173 16711746
19.841148 -6.3188868 35.588951 16711746
19.885828 -10.518169 34.801975 16711746
19.372873 -7.0196815 35.694225 16711746
18.277153 -13.671478 37.074158 16711746
18.197721 -14.168291 36.499485 16711746
21.972616 -15.263324 42.435379 16711746
18.089369 -13.194274 32.772034 16711746
22.535378 -13.769736 42.971695 16711746
25.386562 -17.921593 43.084236 16711746
18.662674 -18.756989 40.380566 16711746
18.095022 -19.409941 44.117233 16711746
18.87541 -9.7993021 32.867168 16711746
19.283337 -11.463631 35.74086 16711746
18.772875 -21.433884 45.658436 16711746
16.726564 -6.8444548 32.124901 16711746
21.823334 -13.848697 45.798649 16711746
15.534883 -6.5140162 33.432568 16711746
27.699068 -16.823694 44.625767 16711746
13.878621 -3.9967799 31.384832 16711746
16.824379 -20.236221 39.074692 16711746
16.721813 -19.648476 38.728622 16711746
24.887316 -18.267464 46.12252 16711746
18.327208 -8.6831656 30.528906 16711746
19.51639 -13.201996 35.16901 16711746
19.124535 -13.102661 36.837269 16711746
19.619101 -12.617982 36.906155 16711746
21.935961 -14.373833 38.301434 16711746
17.719736 -6.007062 33.357498 16711746
16.224421 -6.1884212 31.403381 16711746
19.983068 -13.51754 38.663807 16711746
22.367876 -15.861347 42.930214 16711746
17.807013 -12.214769 38.762779 16711746
23.393019 -19.406612 46.009087 16711746
17.365902 -8.9245434 30.292456 16711746
15.413992 -6.581367 34.479847 16711746
22.742998 -14.715855 46.51836 16711746
10.212557 -5.5399284 33.041965 16711746
25.105719 -18.618706 45.486233 16711746
18.410751 -4.786994 33.547047 16711746
16.516748 -8.8182688 31.401094 16711746
20.674164 -13.79115 36.833618 16711746
23.797785 -16.013578 43.544758 16711746
22.647638 -17.987015 45.096775 16711746
9.0666113 -12.520866 33.271755 16711746
17.532373 -12.841547 37.442089 16711746
17.662296 -10.796072 35.208466 16711746
19.157661 -12.620026 38.624355 16711746
19.270071 -9.4970675 41.641369 16711746
17.348831 -10.663258 36.020962 16711746
14.884903 -11.240636 35.076145 16711746
17.563631 -11.99719 37.582909 16711746
19.911327 -14.159712 40.479401 16711746
15.384351 -11.559464 34.813679 16711746
15.471224 -10.761284 34.861076 16711746
14.437367 -9.8259239 33.758373 16711746
15.367199 -11.140935 35.023945 16711746
17.143055 -14.240479 38.118687 16711746
17.738026 -11.847177 36.461491 16711746
25.196709 -13.01869 39.930008 16711746
24.874302 -11.833716 41.647461 16711746
18.22459 -11.76155 37.684361 16711746
23.068983 -13.653628 38.148594 16711746
24.65451 -22.473356 53.066841 16711746
21.349688 -32.832691 51.659035 16711746
68.155823 -104.80511 106.60075 16711746
26.67812 -22.510502 48.165668 16711746
16.931557 -14.078885 38.021732 16711746
18.829704 -11.607724 39.684742 16711746
22.904753 -15.111879 43.053841 16711746
40.693516 -35.574715 74.538155 16711746
8.3689842 -20.031157 43.715557 16711746
18.62616 -20.192631 49.697716 16711746
28.356979 -20.778965 57.561085 16711746
43.054546 -37.68137 83.163063 16711746
17.102749 -11.833619 36.914993 16711746
20.296795 -13.2728 37.503967 16711746
22.657825 -15.020051 41.148151 16711746
16.718067 -11.593284 36.245316 16711746
16.428371 -9.3091774 34.834095 16711746
17.869884 -12.003477 36.922989 16711746
16.277847 -11.237171 35.353672 16711746
17.553343 -4.8599386 35.804798 16711746
14.717079 -11.325786 34.126392 16711746
14.933064 -11.36115 35.171196 16711746
20.69272 -14.297465 39.151539 16711746
15.585022 -3.8538487 32.875229 16711746
16.742327 -12.530928 35.851101 16711746
20.723131 -8.0832481 38.188595 16711746
19.160503 -5.4226861 35.616161 16711746
14.86905 -7.674819 33.537601 16711746
19.354799 -7.3952217 36.50246 16711746
17.511187 -10.849345 36.148384 16711746
20.510923 -13.455785 38.962402 16711746
26.488295 -18.663641 45.369629 16711746
22.987413 -16.900684 43.734795 16711746
18.787609 -9.6304169 34.500076 16711746
25.200949 -22.995468 51.706802 16711746
17.923527 -11.368402 36.867165 16711746
15.429606 -11.769619 34.86084 16711746
19.474485 -13.350899 36.96703 16711746
19.622026 -11.390593 36.413502 16711746
15.419601 -11.468805 34.79266 16711746
14.920987 -18.16465 32.032051 16711746
22.635025 -11.482398 40.908611 16711746
18.709826 -30.377485 63.815887 16711746
19.280886 -19.537714 48.878967 16711746
19.967503 -13.218364 35.687069 16711746
13.497365 -5.1439338 34.174335 16711746
20.030645 -15.62342 35.653507 16711746
13.985382 -6.3073516 35.28577 16711746
9.9518967 -8.5771112 36.923569 16711746
17.281357 -5.4273973 32.717392 16711746
22.983803 -15.530482 41.39053 16711746
18.504747 -13.432954 39.134449 16711746
17.174248 -14.476981 40.006645 16711746
11.717617 -3.3368504 32.687691 16711746
10.092165 -18.925177 41.47665 16711746
29.078753 -22.415434 51.145058 16711746
14.44908 -12.359957 32.088482 16711746
14.396398 -12.137162 32.006451 16711746
11.284819 -7.4943666 35.10355 16711746
19.029703 -14.451507 38.075779 16711746
8.0787516 -12.686384 40.84626 16711746
13.263051 -5.2524943 33.966072 16711746
12.360922 -8.766552 33.986923 16711746
6.2144961 -21.578564 51.10984 16711746
15.347404 -11.376683 36.253609 16711746
18.185005 -13.127015 37.067619 16711746
23.501234 -15.649115 45.62299 16711746
11.269555 -10.789241 38.301407 16711746
20.547911 -14.571073 42.665005 16711746
19.313742 -22.6161 46.767044 16711746
15.260668 -7.8634219 32.931747 16711746
20.065838 -14.31278 40.89222 16711746
16.17997 -13.591758 40.177185 16711746
14.43434 -15.088283 39.893166 16711746
13.591362 -10.036886 36.276073 16711746
9.3467188 -11.898437 37.942451 16711746
10.585852 -12.655405 37.093903 16711746
20.091908 -11.55899 35.425663 16711746
18.898165 -9.3733463 34.458767 16711746
13.02564 -9.7280569 34.773155 16711746
14.028213 -17.553709 40.663887 16711746
21.362576 -12.740118 39.894901 16711746
17.21756 -9.3385859 35.401379 16711746
16.514303 -11.851334 36.427685 16711746
18.570765 -12.353528 39.412724 16711746
22.551905 -12.423769 39.758163 16711746
18.204319 -11.677773 38.951633 16711746
17.971783 -10.263236 37.125587 16711746
23.340494 -15.913976 45.439789 16711746
16.471312 -14.404753 40.686001 16711746
17.5212 -8.575922 34.497913 16711746
13.44277 -8.2079306 35.401775 16711746
11.153217 -8.8068104 34.269611 16711746
13.048335 -6.9911728 35.181114 16711746
12.380516 -9.8545084 33.306835 16711746
9.2774687 -12.217603 38.027847 16711746
15.238747 -8.8612242 37.828106 16711746
16.769407 -8.7481165 40.490936 16711746
9.2392673 -11.9274 37.559761 16711746
14.162231 -17.884638 48.734867 16711746
8.2841558 -11.016176 37.716896 16711746
19.401939 -9.4810886 39.252533 16711746
19.194298 -6.9365382 35.976078 16711746
20.832024 -16.094051 42.569489 16711746
25.69454 -17.009573 42.983936 16711746
23.769287 -12.646312 41.769245 16711746
25.065855 -22.544426 51.262184 16711746
18.35973 -11.863333 37.160458 16711746
10.320776 -13.999723 38.49876 16711746
17.784554 -14.886567 40.36681 16711746
23.95302 -16.670788 42.446815 16711746
19.138102 -12.739425 40.295506 16711746
26.050011 -17.306742 43.348324 16711746
18.966742 -11.689266 35.225853 16711746
13.565763 -10.340232 36.359169 16711746
22.246014 -11.356018 42.237976 16711746
23.450092 -10.252069 40.463619 16711746
15.74146 -15.703087 36.647385 16711746
16.423313 -12.142797 35.343811 16711746
20.919928 -12.191662 42.133095 16711746
13.598035 -9.8780289 36.48888 16711746
9.0699606 -8.2145157 34.774399 16711746
27.730742 -20.002928 56.56432 16711746
5.6508918 -19.433826 38.525719 16711746
15.463455 -8.0174675 32.01759 16711746
15.440456 -7.9861078 32.00882 16711746
50.133614 -164.45667 85.130753 16711746
6.4376669 -34.747715 44.294651 16711746
10.679598 -7.2124815 33.890457 16711746
10.935043 -6.0395536 33.401676 16711746
8.0148554 -10.107026 35.66872 16711746
17.547888 -11.624718 38.331131 16711746
10.32576 -12.297844 34.750038 16711746
8.0679483 -15.194166 39.116989 16711746
16.086075 -12.286405 36.298473 16711746
7.4154496 -13.941017 39.955982 16711746
8.5025425 -17.294762 47.277054 16711746
24.890503 -17.380653 43.634968 16711746
17.18803 -8.7384396 34.022221 16711746
18.676647 -6.0209813 34.820988 16711746
20.044363 -17.72118 38.37693 16711746
13.705079 -10.012633 36.740479 16711746
21.557991 -12.801602 37.733719 16711746
17.742445 -14.353965 37.388783 16711746
7.4002175 -14.706947 38.198605 16711746
23.607517 -15.063066 39.011463 16711746
15.769473 -13.693464 39.969391 16711746
15.982497 -14.795372 36.825687 16711746
16.501148 -15.185288 39.635727 16711746
15.057884 -11.131673 38.993671 16711746
13.297218 -14.225919 39.385979 16711746
25.485893 -10.745696 42.688408 16711746
14.93819 -13.676098 38.058205 16711746
10.910096 -13.086146 36.030041 16711746
18.432615 -12.189033 37.137661 16711746
9.4753618 -13.449373 35.494652 16711746
10.618173 -14.208653 36.390072 16711746
8.2810049 -12.456244 37.327431 16711746
-2.5190423 -14.143469 42.426571 16711746
15.721725 -13.026474 39.260212 16711746
9.9030523 -13.941705 35.04353 16711746
8.1164408 -10.815827 36.75029 16711746
16.026524 -12.856877 36.900455 16711746
11.313334 -22.375605 54.778145 16711746
12.477489 -11.216779 40.487385 16711746
32.343864 -18.650572 54.26844 16711746
9.8527107 -9.9051828 35.920864 16711746
13.23067 -21.44643 42.970512 16711746
4.8153996 -13.939919 37.339169 16711746
11.672197 -14.867231 39.820694 16711746
5.266458 -11.78913 39.459919 16711746
20.662613 -23.632292 55.171291 16711746
15.429397 -17.430872 49.889175 16711746
23.035933 -15.462818 48.491173 16711746
22.060158 -12.918732 42.729557 16711746
19.559269 -14.133051 46.029755 16711746
9.8676977 -18.100674 47.144817 16711746
24.18491 -17.56818 46.571392 16711746
16.460621 -12.017029 35.178749 16711746
14.101814 -15.216274 37.598576 16711746
17.257093 -13.916986 39.626568 16711746
22.004807 -14.80531 44.222481 16711746
7.1590581 -11.516026 36.055939 16711746
12.988905 -11.967288 33.701046 16711746
26.771231 -14.655233 38.182121 16711746
9.4882231 -11.500624 34.306137 16711746
26.047173 -17.830557 50.237984 16711746
22.922729 -17.317614 38.916092 16711746
17.5637 -14.136759 39.338657 16711746
25.475502 -16.491852 42.812252 16711746
16.016973 -9.2882557 34.903557 16711746
9.1370754 -12.483484 41.890842 16711746
8.479022 -17.23233 47.255543 16711746
15.459479 -13.632657 39.938118 16711746
6.9151535 -17.238497 47.994411 16711746
18.318529 -14.11312 39.048168 16711746
7.40732 -15.979226 46.765293 16711746
24.835037 -22.158119 50.910912 16711746
20.11356 -13.233702 35.613003 16711746
34.407299 -29.238945 62.620525 16711746
86.688347 -84.259346 158.36975 16711746
-7.0036898 -67.561905 53.581425 16711746
-2.7713313 -58.472919 79.98687 16711746
12.044219 -9.8978338 37.245014 16711746
24.293959 -15.224886 49.855137 16711746
17.333773 -12.541452 37.193386 16711746
14.091973 -5.9402461 35.727688 16711746
20.75211 -16.029924 48.718029 16711746
16.726402 -12.08789 39.326748 16711746
18.965746 -18.486126 50.125099 16711746
26.431232 -12.122381 37.711769 16711746
19.716539 -11.071902 34.034065 16711746
15.700463 -10.451131 34.898895 16711746
6.5844283 -9.6049318 34.240643 16711746
7.2625017 -11.367641 33.79641 16711746
10.086158 -8.9925756 34.817337 16711746
8.7627535 -8.1527872 34.462257 16711746
14.288894 -9.7443323 35.372089 16711746
19.525097 -12.44424 40.226028 16711746
21.878559 -15.309379 35.005165 16711746
13.11339 -18.019499 41.253189 16711746
28.177197 -15.126646 41.771896 16711746
27.351723 -14.215843 41.099327 16711746
16.774973 -12.415125 38.112576 16711746
20.702263 -14.506918 42.637413 16711746
13.062377 -17.2467 44.432125 16711746
15.484049 -18.108639 50.642609 16711746
17.932571 -14.765751 46.295013 16711746
18.539061 -12.587039 38.092361 16711746
24.696432 -17.836895 44.889336 16711746
19.627115 -13.522577 38.893944 16711746
27.255171 -18.137852 44.697056 16711746
17.446749 -12.058626 37.646271 16711746
8.3810511 -16.828463 46.979328 16711746
18.591063 -10.655244 34.635406 16711746
17.097824 -12.131203 37.822018 16711746
20.773235 -13.092105 39.792259 16711746
18.795227 -12.384866 36.819874 16711746
20.722101 -11.806875 37.882847 16711746
17.160387 -13.044822 39.049747 16711746
17.836708 -14.807596 42.624672 16711746
16.861225 -11.343729 36.754387 16711746
21.773943 -16.35622 44.117413 16711746
23.668188 -21.43775 51.945286 16711746
17.502132 -12.964895 37.343254 16711746
11.789918 -11.690289 38.222324 16711746
9.9631338 -17.522064 44.124355 16711746
20.428629 -20.852007 48.742924 16711746
21.05286 -13.644464 38.899406 16711746
24.332104 -21.729023 51.297798 16711746
24.290718 -23.034847 53.30426 16711746
17.538464 -13.164246 38.220772 16711746
25.664883 -14.766857 40.008778 16711746
21.400141 -14.931783 39.75869 16711746
17.981976 -15.328648 42.954517 16711746
19.727886 -12.905996 37.091362 16711746
15.542548 -19.258446 50.830311 16711746
21.019056 -15.738617 43.47496 16711746
18.609558 -17.351156 41.791451 16711746
14.70202 -21.128906 54.865887 16711746
10.723118 -11.858617 37.792568 16711746
15.4863 -13.344442 40.486916 16711746
15.083974 -17.325117 47.543098 16711746
17.363983 -13.129943 38.213776 16711746
10.219674 -13.675021 39.935192 16711746
15.661856 -18.064735 44.158642 16711746
19.547682 -18.45693 46.620056 16711746
15.662621 -14.914159 41.421234 16711746
17.224148 -12.903587 38.413734 16711746
17.114117 -12.210063 37.85714 16711746
9.4868298 -13.094911 40.049225 16711746
14.886087 -12.78584 40.722153 16711746
16.415308 -11.939091 35.18985 16711746
17.091709 -15.436926 36.762455 16711746
15.830646 -13.08453 39.912373 16711746
17.715649 -14.953641 40.453392 16711746
7.9029298 -14.698891 46.035576 16711746
9.4574127 -11.487266 42.215488 16711746
14.77695 -22.60326 56.572182 16711746
8.3370552 -15.054125 43.756454 16711746
11.175858 -12.669293 38.414337 16711746
20.041098 -12.465656 39.307793 16711746
17.701677 -14.572845 40.242527 16711746
17.694376 -10.886658 37.74511 16711746
18.492544 -10.405571 35.762493 16711746
10.308831 -15.358845 44.933846 16711746
10.844203 -12.100981 38.721111 16711746
20.720228 -15.019816 35.997238 16711746
17.404633 -9.3056669 34.784065 16711746
9.9166451 -15.687933 42.221077 16711746
12.356847 -11.452289 36.937141 16711746
25.016977 -18.609972 40.729294 16711746
19.099836 -10.965607 36.527088 16711746
12.724454 -8.5340023 35.380489 16711746
4.3607888 -14.82364 36.568024 16711746
11.590525 -12.526645 39.659672 16711746
10.750382 -12.038754 38.935616 16711746
13.551163 -10.046723 37.431843 16711746
27.85791 -14.822128 42.780525 16711746
11.653555 -8.2727489 36.220352 16711746
19.979824 -12.612044 37.805454 16711746
22.480629 -9.459342 37.28484 16711746
11.202783 -15.873445 42.433262 16711746
14.818775 -14.364508 41.820251 16711746
11.889044 -6.3941474 35.175327 16711746
9.2605762 -11.937374 38.647465 16711746
36.713417 -30.645205 67.495628 16711746
20.738468 -14.823647 42.155453 16711746
16.836218 -7.6247277 36.709393 16711746
14.160358 -7.3108063 36.54303 16711746
16.384516 -10.478223 38.505661 16711746
22.258432 -11.096432 38.353462 16711746
12.565941 -6.7973127 36.23365 16711746
14.536539 -11.897317 38.693905 16711746
15.341537 -9.1718397 35.492519 16711746
15.199424 -11.792507 37.134396 16711746
17.929186 -15.35555 43.043041 16711746
21.002253 -10.998141 36.213318 16711746
19.855354 -11.491373 36.605778 16711746
14.728847 -8.7553883 36.063454 16711746
11.693452 -6.2523189 36.284443 16711746
11.55931 -8.3838844 36.397449 16711746
25.503593 -12.383983 41.266926 16711746
17.228497 -13.831167 41.105495 16711746
17.379957 -12.741353 42.963448 16711746
9.6184711 -7.7772465 37.661362 16711746
17.562948 -13.424467 39.78994 16711746
12.406594 -7.0238638 35.729015 16711746
12.653548 -7.2096944 36.380592 16711746
18.297001 -9.8266897 35.636311 16711746
21.937967 -10.963104 38.570465 16711746
21.341867 -9.5686884 36.711098 16711746
12.355403 -4.0892305 35.129993 16711746
14.628883 -7.2847047 36.072109 16711746
15.332494 -8.1554861 35.203442 16711746
10.471392 -7.9352994 38.000107 16711746
11.41187 -7.2002854 36.883713 16711746
19.772949 -17.958933 38.594742 16711746
12.195274 -4.9132314 34.804489 16711746
11.657178 -5.9143705 35.919704 16711746
13.708885 -9.5254545 37.925964 16711746
20.3769 -14.055266 36.842884 16711746
11.935142 -7.6742616 38.96751 16711746
10.67933 -6.4781799 36.670097 16711746
17.039286 -14.166583 44.738327 16711746
17.748442 -11.54092 38.56897 16711746
20.830944 -13.178126 37.133526 16711746
15.793549 -10.714388 35.526184 16711746
23.424263 -14.214922 38.885689 16711746
16.189423 -11.505915 36.418442 16711746
22.755985 -13.199362 38.366062 16711746
20.192471 -13.670247 52.582767 16711746
23.694973 -16.650703 44.055367 16711746
27.459227 -16.146643 41.671631 16711746
22.074932 -11.999969 37.289474 16711746
22.037064 -22.620169 56.908398 16711746
26.909266 -19.250271 41.057598 16711746
17.529879 -16.128189 42.801807 16711746
20.306973 -10.205665 35.986988 16711746
14.631908 -13.932811 37.178638 16711746
21.533735 -14.269615 40.419395 16711746
24.406164 -14.77804 39.146355 16711746
11.322101 -26.495113 52.722603 16711746
18.283745 -12.422783 39.227821 16711746
45.461342 -39.62534 86.191757 16711746
51.347462 -48.258438 96.677582 16711746
19.340298 -11.357699 37.229881 16711746
17.528244 -8.0570621 36.646671 16711746
20.330835 -9.2514791 37.249897 16711746
24.395517 -7.1148357 37.544434 16711746
12.647398 -6.0765719 34.621822 16711746
21.51383 -10.200667 36.692547 16711746
23.274 -9.3479519 36.458992 16711746
18.273846 -9.6003618 36.93655 16711746
22.118835 -9.8786831 37.015884 16711746
19.600592 -11.026225 36.492268 16711746
17.251596 -10.476825 35.463875 16711746
13.731608 -12.650802 34.834553 16711746
20.808392 -7.0409617 35.674461 16711746
20.412718 -12.236829 37.621532 16711746
14.686251 -7.8341513 36.316902 16711746
20.509275 -9.00875 36.27668 16711746
19.01313 -11.421588 35.58419 16711746
16.975323 -9.5329142 35.033817 16711746
21.186613 -9.7627525 37.095142 16711746
19.718311 -12.841263 36.528912 16711746
17.119892 -13.62139 39.261322 16711746
13.702478 -12.919294 34.837643 16711746
23.23049 -6.8020225 36.012535 16711746
14.425216 -9.9599123 37.077518 16711746
18.93796 -10.786474 37.111038 16711746
24.30088 -11.024432 40.617382 16711746
21.93885 -6.9242058 35.901947 16711746
24.119852 -10.173305 36.531845 16711746
22.744947 -8.7938805 36.736145 16711746
23.725492 -14.321613 38.031792 16711746
29.900869 -15.631015 38.079437 16711746
19.831831 -6.6623387 34.826199 16711746
24.745916 -9.024044 39.389252 16711746
24.771168 -11.196349 39.526798 16711746
21.983437 -10.944708 38.570564 16711746
19.633999 -12.298134 41.112263 16711746
21.458715 -7.7242079 35.897175 16711746
12.574983 -6.8309293 34.828053 16711746
15.312906 -7.6988163 35.327469 16711746
12.219374 -6.8740463 37.431702 16711746
13.63554 -9.2890549 34.417656 16711746
9.2297745 -12.219193 37.125729 16711746
11.039148 -12.129066 40.277905 16711746
10.702559 -11.738953 37.707539 16711746
19.816189 -19.430244 47.399895 16711746
11.793482 -10.499439 37.027527 16711746
21.604174 -16.009722 43.867641 16711746
16.111368 -12.291561 36.324261 16711746
15.896709 -12.197025 38.970348 16711746
-4.2782197 -20.281681 51.306217 16711746
12.079247 -5.4565125 34.166378 16711746
21.426592 -12.57484 38.399837 16711746
22.79652 -18.227364 45.074593 16711746
21.294626 -12.402434 38.297073 16711746
21.855299 -8.6782799 38.11866 16711746
11.395205 -8.5955877 35.861927 16711746
22.886639 -6.3818922 35.821861 16711746
23.38339 -11.766953 36.211079 16711746
17.311365 -7.8596869 35.827122 16711746
20.165869 -9.0490723 37.16827 16711746
18.114717 -10.462158 37.19865 16711746
19.952194 -8.8568325 37.081383 16711746
18.319613 -7.3915401 39.021336 16711746
17.521681 -15.20897 40.3083 16711746
15.831264 -21.478731 54.018265 16711746
23.21339 -79.363564 82.995987 16711746
27.688738 -219.63817 138.69937 16711746
20.155504 -6.8289504 36.396339 16711746
19.243393 -6.6719093 34.434921 16711746
17.826218 -5.151124 34.220619 16711746
18.351158 -14.717604 44.351776 16711746
17.787598 -10.010884 37.016682 16711746
18.582153 -7.5451436 34.780197 16711746
17.249994 -9.1382837 35.018959 16711746
14.236858 -11.013861 44.081085 16711746
7.8325024 -16.841162 38.273167 16711746
21.71147 -5.7007847 34.858463 16711746
21.015764 -11.372193 36.476868 16711746
9.923851 -17.543785 35.565586 16711746
31.63966 -27.71096 62.599613 16711746
20.255026 -13.3894 37.113106 16711746
18.819214 -8.8585043 40.545021 16711746
18.16678 -8.0057507 34.816116 16711746
20.323606 -10.257167 42.102734 16711746
19.630518 -11.272908 39.088791 16711746
22.12331 -6.6815853 35.209694 16711746
21.525692 -5.4694219 34.820526 16711746
27.147381 -32.053787 60.492523 16711746
28.476412 -31.241531 62.088604 16711746
17.367931 -10.037164 38.798569 16711746
19.42478 -8.044302 36.810707 16711746
18.08478 -7.8731046 34.798382 16711746
21.063116 -8.6296558 36.164845 16711746
19.606504 -6.8379188 36.886314 16711746
18.30838 -4.7944613 34.651054 16711746
20.268251 -5.276751 34.439186 16711746
29.663954 -21.316906 58.249599 16711746
27.967293 -29.36937 60.408718 16711746
17.98428 -7.5544782 40.291588 16711746
20.282961 -9.8171387 34.097538 16711746
18.208443 -7.0735307 38.912472 16711746
14.329081 -19.594381 50.276089 16711746
20.488001 -7.1659756 35.146397 16711746
18.71611 -7.6026039 35.774414 16711746
19.381409 -9.017993 35.790722 16711746
19.502483 -8.6959066 34.149437 16711746
20.623407 -11.392374 38.011372 16711746
19.236895 -7.6646152 34.603783 16711746
20.824188 -10.022185 39.043854 16711746
17.6565 -8.1910229 35.148281 16711746
20.587154 -10.970163 43.31583 16711746
20.50824 -12.687815 36.803738 16711746
32.967014 -26.780842 62.113533 16711746
19.838612 -7.6174855 34.695526 16711746
16.605045 -7.8712382 34.35445 16711746
16.643101 -8.6896887 35.839634 16711746
19.315628 -4.9127412 35.748535 16711746
17.812424 -7.0330296 35.531883 16711746
16.986853 -7.7752585 36.17572 16711746
15.277329 -9.5201664 37.13147 16711746
18.406433 -8.9765482 34.411724 16711746
19.033737 -8.6971693 36.55566 16711746
16.26277 -7.6218858 35.594788 16711746
14.289749 -8.4205284 39.254093 16711746
13.14847 -10.843614 35.34444 16711746
18.950495 -5.2661762 33.770466 16711746
14.980031 -8.5429077 41.086586 16711746
19.011894 -6.5268965 34.824696 16711746
17.805212 -7.7877216 34.31102 16711746
19.121046 -6.6708941 34.83849 16711746
28.277401 -24.861876 56.830528 16711746
11.647591 -6.2895279 37.691902 16711746
46.046898 -32.974247 75.334053 16711746
12.400088 -3.2243149 34.450031 16711746
33.591129 -27.201069 65.99588 16711746
19.275749 -11.284912 36.675747 16711746
13.51125 -5.8525128 36.829239 16711746
9.8088017 -8.2658262 36.880264 16711746
22.271551 -5.8792934 35.427166 16711746
19.972309 -12.386694 43.922421 16711746
18.127235 -6.7563772 34.187122 16711746
18.820793 -8.8438654 37.113384 16711746
15.038404 -6.8285184 34.723152 16711746
17.742533 -13.19438 43.530624 16711746
15.412795 -6.8930335 34.657951 16711746
19.102375 -8.4547396 39.929214 16711746
15.746291 -6.7705097 37.54969 16711746
16.428427 -11.683938 41.232395 16711746
17.018259 -9.4613504 38.534672 16711746
16.794771 -8.053916 33.982021 16711746
17.055365 -9.1488523 35.436493 16711746
20.618828 -9.1863594 38.506618 16711746
17.961325 -5.5127945 35.286598 16711746
21.083664 -9.1726856 38.071018 16711746
25.997948 -16.290188 53.051422 16711746
16.963329 -5.629518 38.402374 16711746
22.2682 -8.0605221 34.76001 16711746
18.034986 -7.9079409 33.991177 16711746
15.674109 -13.928548 44.330742 16711746
16.550507 -9.5154495 36.557037 16711746
17.741455 -9.8784351 34.65461 16711746
12.622425 -12.738917 43.466961 16711746
14.589694 -7.7089405 37.566635 16711746
18.795906 -7.6223326 38.360134 16711746
20.047907 -15.01556 44.975712 16711746
12.849775 -2.7267666 34.891109 16711746
22.859173 -13.059531 47.278877 16711746
15.211791 -6.4544158 36.473896 16711746
13.121641 -4.9143338 36.356709 16711746
12.930225 -2.1889644 34.702629 16711746
14.34732 -5.7591524 35.961617 16711746
13.055049 -2.4908764 35.207207 16711746
14.325444 -3.8803637 34.463863 16711746
13.875967 -6.0401311 36.661201 16711746
14.763065 -5.88481 36.172081 16711746
13.215538 -3.8787127 35.363792 16711746
13.439043 -4.2662048 35.313129 16711746
13.405906 -5.2438335 37.083641 16711746
14.744632 -8.1081238 39.664062 16711746
18.224091 -8.0666199 40.663136 16711746
12.821544 -1.9290956 34.773014 16711746
14.161875 -6.007669 36.267693 16711746
20.393166 -7.0471468 36.78997 16711746
12.557388 -1.6672714 34.442459 16711746
13.613739 -4.3448997 34.322575 16711746
13.092835 -8.012023 39.326603 16711746
14.622406 -5.8640456 35.925789 16711746
13.897161 -4.0280461 35.392521 16711746
18.188013 -5.0239239 36.31953 16711746
13.534442 -7.1091361 38.175739 16711746
13.586453 -7.8257236 38.217911 16711746
11.387833 -5.2957745 37.760719 16711746
14.978277 -8.9019127 38.718548 16711746
17.395798 -5.8227091 38.434475 16711746
16.241207 -6.9615488 36.41428 16711746
14.382676 -6.0583825 35.467285 16711746
11.890634 -4.6095934 37.587769 16711746
17.820122 -6.8796887 39.929302 16711746
19.259649 -8.649909 41.668865 16711746
11.014837 -14.067091 37.825649 16711746
20.010712 -9.9147673 42.755741 16711746
89.037277 -79.534668 64.862991 16711746
19.447012 -11.602903 36.595364 16711746
8.8263588 -9.6646051 39.353775 16711746
11.191309 -6.0295367 36.070602 16711746
5.0570922 -36.539925 41.011208 16711746
108.05765 -199.29472 142.92061 16711746
8.5860271 -15.444995 36.154976 16711746
12.670022 -18.564854 35.425419 16711746
14.756324 -7.4428802 36.515003 16711746
14.446626 -4.192884 34.477379 16711746
14.459781 -6.4082208 36.905327 16711746
17.041769 -7.0600786 37.237148 16711746
17.151867 -7.8425779 37.293785 16711746
16.135975 -4.4342761 33.869259 16711746
14.959814 -4.840251 34.526348 16711746
17.012249 -6.8818297 35.753864 16711746
13.690829 -7.8802819 38.461826 16711746
15.532908 -5.9782453 37.166592 16711746
15.511304 -3.7580814 34.222279 16711746
15.867532 -6.8131809 36.476879 16711746
14.091085 -4.4587374 35.126995 16711746
17.896902 -6.5096498 35.856937 16711746
17.864407 -6.6497436 35.691814 16711746
14.506585 -6.867538 36.963848 16711746
20.593386 -6.9783893 35.704781 16711746
19.938728 -4.0616994 33.178539 16711746
13.561927 -6.5492492 36.88422 16711746
18.052448 -6.9639239 35.784199 16711746
15.556169 -5.273057 36.174335 16711746
13.479959 -4.8221107 34.597591 16711746
18.906082 -4.4126196 34.864597 16711746
16.944452 -5.2393084 37.563686 16711746
12.588636 -1.8600072 34.631359 16711746
18.920328 -10.084021 37.194248 16711746
16.94562 -4.609797 34.153046 16711746
13.390202 -5.0119023 36.974113 16711746
16.064392 -6.1536517 38.059372 16711746
13.835288 -5.3122478 35.255249 16711746
16.503185 -7.4366775 37.174557 16711746
17.039301 -6.1997705 35.478912 16711746
14.842031 -4.1269069 34.089474 16711746
14.50557 -3.7911775 34.334038 16711746
15.524521 -6.604363 36.579502 16711746
16.812016 -6.8971686 36.647568 16711746
15.381524 -4.6049209 34.75251 16711746
18.890491 -8.1974134 35.125374 16711746
14.551945 -4.7829003 35.017231 16711746
17.408459 -7.9194221 35.751648 16711746
16.772955 -5.5607557 37.842453 16711746
12.004106 -10.466608 41.720848 16711746
17.665663 -8.0008316 36.126411 16711746
17.626131 -8.2101469 37.761707 16711746
18.718561 -5.5537672 35.083523 16711746
18.150043 -9.1111307 42.031059 16711746
11.649825 -12.596482 43.018124 16711746
16.760283 -5.3921404 34.162743 16711746
18.111897 -7.6757236 40.180408 16711746
32.8354 -22.719023 65.88089 16711746
30.250069 -24.569735 59.994675 16711746
9.4059315 -12.069306 37.456059 16711746
8.9851856 -14.054102 34.370064 16711746
70.2939 -68.769119 127.76662 16711746
14.63706 -6.4685984 35.911949 16711746
20.409502 -6.5906949 35.903347 16711746
12.868639 -6.946238 39.67963 16711746
13.55027 -5.4094496 36.115505 16711746
15.793566 -5.4094033 34.76759 16711746
20.624975 -13.767849 46.116688 16711746
20.122368 -12.647411 43.283897 16711746
20.492722 -15.066344 45.019547 16711746
17.380795 -6.2886662 34.409191 16711746
19.801912 -8.2839403 37.261585 16711746
16.484955 -10.599261 42.061188 16711746
21.168264 -18.631187 46.520325 16711746
17.049295 -13.537888 40.801994 16711746
13.580191 -6.6250906 36.685081 16711746
15.701552 -7.9538269 37.646343 16711746
18.209574 -7.202095 36.18367 16711746
13.688317 -7.2919331 38.171879 16711746
30.560503 -23.330563 61.034637 16711746
15.194335 -24.105957 58.577789 16711746
-0.09342844 -41.297871 40.775867 16711746
-0.74245495 -73.38884 59.374935 16711746
12.931197 -7.1600266 37.705097 16711746
18.101295 -7.0150504 38.916756 16711746
15.533565 -5.0944505 34.63319 16711746
20.597 -6.4693513 35.546928 16711746
16.016466 -6.6765771 36.784019 16711746
15.639356 -10.063215 38.611988 16711746
14.054956 -5.4491816 36.073967 16711746
16.285635 -6.5662093 36.700188 16711746
16.917738 -7.8360567 38.683495 16711746
16.933125 -7.1129317 36.720135 16711746
15.111966 -9.0218458 38.073063 16711746
16.462055 -4.5439906 33.988388 16711746
14.363879 -5.3356681 35.607643 16711746
18.214586 -7.445478 35.34259 16711746
13.901256 -4.8000717 35.445221 16711746
14.990933 -7.2793021 36.572823 16711746
11.741901 -5.1269765 37.201454 16711746
13.865569 -8.6690874 37.279053 16711746
12.297917 -2.7031844 34.483353 16711746
11.947984 -8.5733461 39.325481 16711746
12.201789 -1.9471109 35.035553 16711746
16.984301 -3.7174225 35.249119 16711746
10.310106 -7.0285182 39.664593 16711746
18.690613 -13.325349 44.822575 16711746
17.554501 -9.5630274 35.187458 16711746
18.863472 -14.029571 48.075779 16711746
19.581661 -15.034456 46.320312 16711746
18.024641 -11.884353 40.474262 16711746
16.899017 -6.9356303 39.176464 16711746
19.244753 -13.501325 43.907513 16711746
14.845819 -6.6456652 39.813686 16711746
15.711053 -8.6861801 41.602726 16711746
10.701504 -10.649282 43.184776 16711746
13.06815 -12.004666 41.942959 16711746
21.100187 -11.631516 44.219509 16711746
15.713631 -2.5097456 34.455708 16711746
10.115558 -6.9561977 37.06633 16711746
10.825055 -8.0910034 36.955051 16711746
14.497453 -44.561516 37.569328 16711746
15.524705 -29.476753 64.639702 16711746
24.585869 -16.023933 50.846912 16711746
10.862488 -7.0261302 35.638493 16711746
11.941216 -7.1967826 39.201389 16711746
10.49888 -6.1389227 35.956398 16711746
11.718325 -7.7587228 36.099026 16711746
13.205119 -5.8888268 35.487476 16711746
11.370513 -4.9650679 35.080963 16711746
11.176504 -5.9950032 35.458523 16711746
10.691348 -6.6654873 37.058163 16711746
10.855446 -5.2669144 35.357265 16711746
13.246791 -6.3174767 39.470387 16711746
9.0888186 -6.4277453 34.368607 16711746
13.664177 -6.2722812 36.111015 16711746
11.904999 -6.4599061 35.4706 16711746
11.64787 -6.3785291 35.670078 16711746
8.0495481 -5.4403682 36.641026 16711746
11.262789 -3.9411798 35.744934 16711746
9.1691551 -4.0187569 37.352657 16711746
8.7833347 -6.782701 36.241154 16711746
9.4399681 -7.966383 36.66637 16711746
8.5966864 -4.8316507 36.360687 16711746
12.097578 -7.5468068 35.72031 16711746
10.589962 -6.767591 35.0252 16711746
10.139163 -8.1088524 35.601658 16711746
12.442122 -5.67097 35.299355 16711746
9.2417984 -6.6287799 35.397247 16711746
10.313265 -3.2192178 37.202183 16711746
8.5642281 -5.5523114 38.027779 16711746
9.6950741 -7.671752 34.231483 16711746
11.898915 -8.3904896 35.100506 16711746
11.33729 -8.234848 34.934307 16711746
9.7378826 -7.0189071 35.501972 16711746
10.705407 -7.4580488 34.173153 16711746
8.2294416 -6.414978 34.37661 16711746
11.184113 -4.8552938 36.060638 16711746
9.3227921 -7.2430267 37.638233 16711746
10.664151 -5.714303 36.560783 16711746
10.700063 -7.0658827 36.606888 16711746
10.079052 -6.9668055 37.793995 16711746
8.7812614 -6.7013083 38.36018 16711746
10.160978 -6.5693212 35.513851 16711746
11.789488 -7.8400249 35.343929 16711746
13.12649 -7.2027979 39.312496 16711746
11.574265 -4.9072981 34.236671 16711746
10.523792 -6.0930009 35.915943 16711746
12.849618 -6.5398607 38.440388 16711746
9.5681982 -6.1101317 34.538013 16711746
11.504576 -6.6050339 34.694336 16711746
8.3126621 -6.8692737 34.991779 16711746
9.8019753 -7.0163951 36.30888 16711746
10.432775 -5.6350641 35.25164 16711746
11.936366 -4.961587 35.793629 16711746
11.08853 -6.1947737 37.559811 16711746
15.024891 -7.4458513 34.855255 16711746
16.636648 -5.8175373 35.430946 16711746
10.299648 -6.4973917 36.040813 16711746
17.038794 -4.8714886 36.325317 16711746
10.817944 -6.7678599 35.332348 16711746
12.06113 -7.4900775 35.063656 16711746
10.088468 -6.7144995 36.736897 16711746
10.915375 -7.5384274 36.81395 16711746
14.828436 -7.3306389 35.013309 16711746
12.602463 -7.0492592 36.757858 16711746
10.744956 -7.2747655 38.882763 16711746
11.142309 -4.5814962 36.069263 16711746
11.368229 -1.9535964 36.03532 16711746
8.6388674 -6.0188427 36.558983 16711746
8.3582687 -8.2696114 35.678547 16711746
9.9683943 -7.7468314 35.905228 16711746
11.154778 -6.1383462 39.169319 16711746
13.030427 -7.0109134 39.626019 16711746
13.144917 -6.9702082 39.105606 16711746
11.128413 -6.554882 35.969299 16711746
11.075403 -7.4608479 36.314823 16711746
12.402719 -5.9213986 36.203915 16711746
10.790501 -6.4840136 38.163353 16711746
12.073713 -6.6218038 37.783905 16711746
10.954497 -6.5055871 37.737537 16711746
9.3967772 -6.8049135 38.439552 16711746
9.4013691 -6.550518 37.680435 16711746
12.474056 -5.4720716 36.055199 16711746
10.446448 -6.1657357 35.491688 16711746
12.45682 -6.15312 38.696587 16711746
8.3481903 -6.2977877 38.287525 16711746
9.9651194 -10.078606 42.420006 16711746
11.139808 -9.8820524 40.114552 16711746
9.6178751 -10.192507 40.799858 16711746
11.134275 -9.9671049 42.118462 16711746
10.268667 -8.8631268 41.463127 16711746
10.51178 -10.361135 41.861599 16711746
11.12235 -9.6001396 39.942356 16711746
16.124668 -9.1270332 38.149494 16711746
12.363816 -10.019228 40.846157 16711746
17.59675 -6.2774253 34.708611 16711746
10.437291 -10.906755 41.633621 16711746
10.953636 -9.8342381 39.840652 16711746
11.874875 -10.496753 41.845436 16711746
10.938503 -10.422322 40.454002 16711746
11.348107 -7.6138783 40.653179 16711746
12.985161 -6.9904652 37.148132 16711746
10.358944 -10.568025 43.947269 16711746
12.896818 -10.442915 40.708668 16711746
12.011144 -8.8784704 40.390408 16711746
15.813642 -8.4859304 37.257004 16711746
15.696205 -7.3206816 36.249763 16711746
15.882876 -7.2274899 37.0662 16711746
10.249679 -8.1676168 40.566193 16711746
10.315001 -8.1419106 39.179317 16711746
11.21498 -8.3262777 41.321812 16711746
11.358362 -7.7918568 39.169506 16711746
10.253455 -8.0306835 40.501007 16711746
13.895225 -7.3735394 39.919659 16711746
11.890825 -4.5434489 36.734089 16711746
12.540087 -8.5591726 36.60894 16711746
9.7259054 -7.9010153 39.910835 16711746
12.146516 -8.0469532 40.057323 16711746
9.9357042 -4.2880449 36.881088 16711746
16.716099 -4.691824 35.606049 16711746
10.417373 -9.1897211 38.954926 16711746
18.078808 -7.8588862 34.806892 16711746
13.052536 -16.123075 44.478779 16711746
15.2301 -9.7139397 34.922565 16711746
19.856911 -14.781097 44.796246 16711746
8.9582939 -12.062099 38.052456 16711746
13.275227 -10.074875 38.859264 16711746
22.316967 -18.861401 48.59956 16711746
18.055719 -5.7036576 34.292263 16711746
25.120699 -17.172388 50.215717 16711746
12.567552 -1.2083478 34.417633 16711746
22.693373 -6.3994641 35.005154 16711746
20.756704 -10.358477 45.339703 16711746
24.204903 -22.320812 52.413071 16711746
10.554849 -9.6082191 35.508034 16711746
10.312418 -4.2696104 36.878155 16711746
11.689432 -4.3440437 35.60268 16711746
12.866088 -7.0874701 35.997108 16711746
10.834789 -7.334023 36.412361 16711746
12.382304 -2.7469871 35.0895 16711746
10.717002 -4.3420115 36.930992 16711746
13.724885 -6.9793663 37.390804 16711746
10.552513 -7.6292472 39.816933 16711746
11.205012 -6.1174865 38.51292 16711746
10.922174 -8.0101357 39.172237 16711746
11.794981 -7.9989758 38.67181 16711746
7.64819 -7.3857722 37.102291 16711746
9.9538612 -7.3994107 39.542343 16711746
11.640584 -7.1062098 39.329136 16711746
10.891523 -7.4120851 39.087063 16711746
12.965862 -7.1614785 36.19717 16711746
9.8249207 -6.7105641 37.916641 16711746
11.41648 -3.4741397 36.094166 16711746
8.9368973 -7.2090211 34.580292 16711746
10.815254 -6.3902683 36.970634 16711746
10.124224 -7.2262087 39.55497 16711746
9.3839321 -5.0447054 36.083019 16711746
11.693862 -7.7841568 35.75045 16711746
12.089309 -6.5709653 37.750618 16711746
10.829086 -6.4081693 39.172813 16711746
10.410826 -7.5634842 37.44643 16711746
8.5949068 -5.8945341 35.127811 16711746
10.178358 -5.3526134 37.51236 16711746
11.900897 -7.8557811 35.033634 16711746
13.295957 -7.4360209 36.794926 16711746
11.522592 -8.7740631 35.69223 16711746
14.512381 -7.1300406 37.068317 16711746
11.799419 -8.2980165 37.563129 16711746
10.832539 -5.1198092 35.926949 16711746
10.47268 -5.7740645 37.513191 16711746
15.750744 -5.9909816 35.935829 16711746
12.504575 -8.1500244 36.414898 16711746
9.26404 -6.7184081 34.334225 16711746
7.585948 -7.137794 37.878857 16711746
10.40647 -7.4419346 37.377995 16711746
8.7660322 -7.3830991 35.090549 16711746
11.341253 -5.4539781 37.917023 16711746
10.977217 -7.5487494 36.764126 16711746
11.937214 -5.1893029 35.770493 16711746
10.76844 -7.943387 36.588619 16711746
10.83447 -8.3419867 35.163578 16711746
12.353045 -7.6858788 36.906822 16711746
8.9564095 -8.5778379 35.401768 16711746
11.243005 -8.4645538 36.894608 16711746
7.8757577 -6.0659757 35.274933 16711746
8.4082966 -7.9086595 36.600536 16711746
10.21965 -7.7497873 35.669502 16711746
