# .PCD v.7 - Point Cloud Data file format
VERSION .7
FIELDS x y z rgb
SIZE 4 4 4 4
TYPE F F F F
COUNT 1 1 1 1
WIDTH 1206
HEIGHT 1
VIEWPOINT 0 0 0 1 0 0 0
POINTS 1206
DATA ascii
-0.3331044 0.1350367 0.3128829 16711746
-0.1521904 -0.1263257 0.5026810 16711746
-0.4522496 0.2688130 0.9368821 16711746
-0.6426086 0.1716706 0.4986181 16711746
0.2841083 -0.0573532 0.3979294 16711746
-0.0126070 0.3477204 0.7955872 16711746
0.5825667 0.1398326 0.6127895 16711746
-0.8181155 0.1831824 1.0345544 16711746
0.2447685 0.1513999 0.5738928 16711746
-0.9931655 0.0388062 0.9618735 16711746
0.5856645 0.0923776 0.6740445 16711746
0.2078754 -0.0771109 0.3839792 16711746
-0.9093797 0.2456647 1.3271903 16711746
0.3834493 0.1634989 0.5583987 16711746
-0.3026080 0.3501414 0.6540670 16711746
-0.2786740 0.3238897 0.6096634 16711746
0.4053844 0.3051949 0.5604972 16711746
0.5263163 0.1192480 0.4555935 16711746
-0.4022538 0.3036191 0.6760167 16711746
-0.2038450 -0.2259312 0.5398318 16711746
0.5353257 0.1218001 0.4620417 16711746
-0.2669257 0.2802819 0.6051601 16711746
-0.1535620 -0.0938013 0.5352958 16711746
0.0667382 0.2984164 0.7114636 16711746
-0.4808005 0.2532385 0.9424073 16711746
-0.7812392 0.2536775 1.1403579 16711746
-0.1514455 0.1288874 1.4053137 16711746
0.0574659 0.1928212 0.8305050 16711746
-0.1668158 0.2219297 1.3864450 16711746
-0.0493432 0.2961241 0.6920406 16711746
-0.5188282 0.3176095 0.5039142 16711746
-0.8719385 0.2920392 1.1595590 16711746
0.0410924 0.2100812 1.4230734 16711746
0.0706903 0.1966537 1.5867195 16711746
-0.1030489 0.1880520 1.4470379 16711746
-0.7240768 0.1860599 0.5725142 16711746
0.3128096 0.1466445 0.5429034 16711746
-0.0675034 0.1993170 1.5110277 16711746
0.1372539 0.2584562 1.1690062 16711746
-0.0008795 0.2355688 1.3976505 16711746
0.0179598 0.2803658 0.7796709 16711746
0.1741091 0.2539796 0.9854994 16711746
0.3414375 -0.0695478 0.4676281 16711746
0.6199017 0.2449461 1.0545802 16711746
-0.4701371 0.2754027 0.8625368 16711746
0.1124131 0.2102887 1.2529446 16711746
0.1001788 0.2834897 0.8400558 16711746
-0.0336227 0.1962120 1.8216112 16711746
-0.6203507 0.2218167 0.4928195 16711746
0.5786421 0.2094668 1.5081172 16711746
0.0313879 -0.6231307 1.5789081 16711746
-0.4095536 0.2942334 0.6925877 16711746
-2.8857062 -0.0084556 3.0398004 16711746
-0.6831071 0.1572907 1.1654698 16711746
-0.0038956 -0.0198909 0.6670554 16711746
0.3641160 0.2684626 0.6186380 16711746
0.6112024 0.3373573 0.6364773 16711746
-0.1662937 -0.1432728 1.3705286 16711746
-0.3621654 0.2489776 1.0382957 16711746
0.0949837 0.2070697 1.4446466 16711746
-0.6152275 0.2369084 1.1637398 16711746
0.0809921 0.2697082 0.8972923 16711746
0.6261612 0.2512386 1.0693505 16711746
0.2854475 0.3244321 0.6595801 16711746
0.4856208 0.3177452 0.5585753 16711746
0.5171255 0.3019807 0.5568815 16711746
-0.2437819 0.3079271 0.6725847 16711746
-0.2388008 0.2943236 0.7464852 16711746
-0.5288078 0.2252635 1.1583726 16711746
-0.0733532 0.2997539 0.9554453 16711746
0.2796469 -0.2880024 0.7977549 16711746
-0.3555248 0.2950709 0.7069668 16711746
-0.4810352 0.2718813 0.7732776 16711746
-0.6568512 0.2647433 0.9229390 16711746
-1.2735189 0.1076817 2.5794132 16711746
-0.0891073 0.2820365 0.8000988 16711746
-0.7819745 0.2417174 1.1858690 16711746
-0.5428614 0.2743451 0.8436787 16711746
0.3096178 0.2774259 0.7091038 16711746
-0.6686506 0.2635985 0.6256083 16711746
-0.4359031 0.2522221 1.0539936 16711746
-0.5918365 0.0594882 0.4924283 16711746
0.2234003 0.2575310 0.7349390 16711746
0.1333286 -0.4332567 1.2559279 16711746
-0.2340298 0.2260320 0.7124866 16711746
-0.5323965 0.2079094 0.4683954 16711746
-0.2043522 0.1888801 0.9655185 16711746
-0.5016020 0.2975756 0.4715141 16711746
-0.6065600 0.2484375 0.7149028 16711746
-0.3948949 0.1838773 0.3677350 16711746
-0.8805484 0.2571207 0.9381444 16711746
-0.5586047 0.1212856 0.4692357 16711746
-0.2753935 0.1141256 0.2550184 16711746
-0.1313058 -0.1859765 0.6165839 16711746
-0.1483954 0.2281931 1.1511568 16711746
-0.5233985 0.2698857 0.9525990 16711746
0.1078064 0.2756552 0.8607752 16711746
0.3204854 0.2079877 0.9292291 16711746
-0.3408128 -0.1295552 0.9409926 16711746
0.2297503 0.3216105 0.6810496 16711746
-0.4528512 0.3471026 0.5998000 16711746
-1.1668833 0.2421675 1.2217765 16711746
-0.1258103 0.2587371 0.9281002 16711746
-0.2872455 0.3005480 0.5978126 16711746
0.0968660 0.2606642 0.8894253 16711746
-0.0896614 0.3035269 0.6797029 16711746
-0.3808858 0.2843211 0.8075343 16711746
-0.6125885 0.2578826 1.0506145 16711746
-0.2925043 0.3005731 0.7640424 16711746
0.4185675 -0.0103980 0.5674664 16711746
0.4326681 0.2487096 0.9706285 16711746
0.4019524 0.2366839 0.6998373 16711746
-0.2444761 0.2184917 0.8880755 16711746
-0.1704830 0.0278883 0.5800398 16711746
0.2488661 0.2912254 0.6759884 16711746
-0.4289691 0.3027510 0.7713059 16711746
-0.4873096 0.2857410 0.4664471 16711746
0.0519172 -0.0286159 0.6100000 16711746
0.3185511 -0.1283092 0.5224726 16711746
-0.4395636 0.2730026 0.8648260 16711746
0.1008439 0.2506850 1.0352275 16711746
-1.3195400 0.2224717 1.6234394 16711746
-0.2715836 0.2964014 0.6985456 16711746
0.3855250 0.2529655 0.8452182 16711746
-0.1329070 -0.0075494 0.5239115 16711746
-0.0796657 0.2617037 0.9552882 16711746
0.1500829 0.2341930 1.4067963 16711746
0.0585156 0.2739720 0.7057948 16711746
-0.2183429 0.2561911 0.7115895 16711746
0.6852517 -0.7849053 1.6391815 16711746
-0.0787087 0.2814975 0.8242843 16711746
-0.0238012 0.2697881 1.0234284 16711746
0.5962655 0.0521483 1.4608210 16711746
-0.2126211 0.2914872 0.7203917 16711746
0.2293808 0.2592083 1.1897594 16711746
-0.4609036 0.3080842 0.4702177 16711746
-0.5863293 0.2602484 0.9172960 16711746
0.4082235 0.1996877 1.2410431 16711746
-0.1319024 -0.1995601 0.7037578 16711746
-0.2100061 0.2899203 0.6679265 16711746
0.2874015 0.2715357 1.4683377 16711746
0.8193218 -0.2985480 0.9148360 16711746
-0.5153551 0.2867012 0.9230899 16711746
-0.0292873 0.2732758 0.7177852 16711746
-0.0551102 0.0879060 1.1393944 16711746
0.4603771 0.2530964 0.6123326 16711746
0.3616927 0.2793388 0.6644779 16711746
0.5119664 0.2836602 0.5861865 16711746
0.3874387 0.3060955 0.5543466 16711746
0.0965130 0.2968087 0.7314656 16711746
-0.1939850 0.1873226 1.4049106 16711746
0.0526265 0.2298939 1.0957727 16711746
0.0782006 0.2092403 1.4011159 16711746
-0.1797277 0.2552201 0.6579633 16711746
0.3267313 0.0099217 0.9143136 16711746
-0.5158549 0.1593390 0.4354244 16711746
0.0943363 0.3039721 0.7270257 16711746
-0.0845254 0.1565495 1.7445641 16711746
-0.0642193 0.2655819 0.9654090 16711746
-0.4512313 0.2673151 0.9330784 16711746
-0.5155675 0.3091941 0.5419594 16711746
0.3483248 0.2685684 0.6872326 16711746
0.1719076 0.3070683 0.7004416 16711746
0.1980085 0.2648177 0.7168078 16711746
-0.3026835 0.3181903 0.6716087 16711746
0.4920081 0.2720252 0.5666817 16711746
-0.4057634 0.2911619 0.6267680 16711746
0.5435833 0.2979076 0.5737888 16711746
-0.4002402 0.2129695 0.4194561 16711746
0.5494314 0.1557428 0.5504751 16711746
-0.2980628 0.2781304 0.6495764 16711746
0.5622185 0.1571007 0.5564589 16711746
-0.0753494 -0.0646770 0.3275564 16711746
-0.5309076 0.2491638 1.0437396 16711746
-0.1286084 -0.1154089 1.0245337 16711746
-0.4049863 0.2935683 0.7601003 16711746
-0.4036955 0.2881623 0.7541351 16711746
-0.3250718 0.2610901 0.9333994 16711746
0.9406440 0.0978524 1.7554586 16711746
-0.1349616 -0.1254541 0.4883049 16711746
0.2717550 0.0006959 0.9342268 16711746
-0.7586159 0.2611066 1.0186610 16711746
-0.5630537 0.0451764 0.9678552 16711746
0.3243789 0.2846549 0.6402012 16711746
-0.2405335 0.2847877 0.7879156 16711746
0.6583942 -0.2869077 1.2765306 16711746
-0.1077782 0.0386250 0.4584258 16711746
0.4510131 0.2218201 1.2647675 16711746
0.2149039 0.2699131 1.0295262 16711746
0.1660928 0.2873207 0.7790117 16711746
0.4257922 0.1246685 1.2141857 16711746
-0.1148787 0.1500866 0.6235703 16711746
-0.1358146 0.0714132 0.5722623 16711746
-0.4387318 0.3043973 0.7357340 16711746
-0.1292594 0.1460933 0.7327220 16711746
-0.1470707 -0.0158314 0.5310406 16711746
0.3923214 -0.0225516 0.5475610 16711746
0.3868082 -0.0791610 0.5304980 16711746
1.1583811 0.1981343 2.4094317 16711746
-0.1588791 0.2489270 0.6799970 16711746
-0.1674374 0.2990821 0.7124490 16711746
0.1557300 0.2514788 0.9131984 16711746
0.2546617 0.1980689 1.0111617 16711746
-0.9682592 0.2781470 1.1090580 16711746
0.3876122 0.0213385 0.5543603 16711746
0.4175060 0.2272278 1.0140258 16711746
0.3418586 0.2569744 0.8375101 16711746
-0.7060652 0.2757198 0.8246886 16711746
0.4349113 0.2245408 1.1866995 16711746
0.0973805 0.2642968 0.8896295 16711746
-0.4704876 0.1476333 0.4259332 16711746
-0.3382907 0.2642051 0.8251613 16711746
-0.0257546 -0.1393137 0.5348104 16711746
-0.0316501 -0.0767362 0.3365842 16711746
0.4414819 0.2249668 0.7493460 16711746
0.6082685 0.2605971 1.1588527 16711746
0.2268058 0.2788438 0.7266484 16711746
-0.6366414 0.3270017 0.8352394 16711746
0.4168274 -0.1354313 1.1657571 16711746
0.3303410 0.2217092 1.2170924 16711746
0.3835263 0.2547749 0.9922046 16711746
-0.0598524 -0.1164250 0.5097439 16711746
-0.5466039 0.2679398 0.7801822 16711746
-0.4077666 0.0511500 0.3685799 16711746
-0.1515819 0.2588115 0.6692080 16711746
-0.1627807 0.0750342 0.6196274 16711746
0.2478475 0.3087316 0.6655054 16711746
-0.0774370 0.2786564 0.8437852 16711746
-0.0986140 -0.2155585 0.9729355 16711746
1.0567862 0.1096052 1.9686165 16711746
-0.1515519 -0.8152753 1.9644804 16711746
0.0195161 0.2516410 1.0786972 16711746
0.3986974 0.2561101 0.7003601 16711746
0.0632383 0.2411116 1.0335010 16711746
0.3039301 0.2368655 1.4519099 16711746
0.0527350 0.2982768 0.7867360 16711746
-0.5176368 0.3106088 0.5415676 16711746
0.0331913 0.2998208 0.7024661 16711746
0.1992003 0.2652642 0.7176360 16711746
-0.4654572 0.3367015 0.7008160 16711746
0.0088177 -0.0099026 0.2920092 16711746
0.4177237 0.2500509 0.7182797 16711746
0.0153447 0.3019010 0.7656514 16711746
0.3692128 0.2671484 0.6866419 16711746
0.2269178 0.2762884 0.6916797 16711746
0.2996273 0.2492360 0.7125170 16711746
0.3882706 0.2735207 0.6845869 16711746
0.3085933 0.1858956 0.8227764 16711746
-0.1126645 0.0115986 0.4468698 16711746
0.0131222 0.2738861 0.7098234 16711746
0.4907959 0.2619616 0.5659412 16711746
-0.1220374 0.0647030 0.5079045 16711746
0.2215727 0.2536947 0.7283102 16711746
-0.1590328 0.2686807 0.6943249 16711746
-0.0984735 -0.0094512 0.4067641 16711746
0.4147337 0.1258483 0.6031683 16711746
0.3829114 0.3223892 0.6169318 16711746
-0.0349586 0.2732277 0.6899425 16711746
0.4240232 0.3030898 0.6290486 16711746
0.4185342 0.3246212 0.6351969 16711746
-0.1691245 0.2823144 0.7277880 16711746
0.3583609 0.2322539 0.9092031 16711746
0.1157106 0.2202148 1.0263991 16711746
0.5929501 0.1496090 0.7422136 16711746
0.3618937 0.2172453 0.5653330 16711746
-0.1135088 -0.0092984 0.4452006 16711746
-0.8917864 0.0292914 0.8791568 16711746
-0.3473941 0.2010926 0.8681509 16711746
0.1874716 0.2679985 0.8549561 16711746
-0.6516013 0.2651171 0.9193219 16711746
-0.3531303 0.3065258 0.7446837 16711746
0.4646817 -0.0583347 1.2618119 16711746
-0.5386122 0.3274190 0.7465158 16711746
0.3438760 0.2357662 0.7437614 16711746
0.2887436 0.2499065 0.5805532 16711746
-0.6678541 0.2044828 0.9258516 16711746
0.2385193 0.2815351 0.7052012 16711746
0.0659541 0.2724420 1.1411964 16711746
-0.4639694 0.2899737 0.7376694 16711746
0.0584816 0.1943249 0.7478163 16711746
1.0062494 0.1519205 1.9123874 16711746
0.1395037 0.2483682 1.1249567 16711746
-0.5325321 0.2849695 0.7781234 16711746
0.0748762 0.3012390 0.7361895 16711746
-0.0692496 -0.1117098 0.8029354 16711746
0.0193113 0.2526621 0.9295251 16711746
-0.2413892 0.1879119 1.3898218 16711746
0.2901956 0.3027237 0.6613692 16711746
-0.7421252 0.2682127 1.0057018 16711746
0.2009350 0.2495850 1.5142267 16711746
0.5699205 0.2530972 1.3921533 16711746
0.3532793 0.2730687 0.6947402 16711746
0.0288394 0.1574354 1.5960524 16711746
-0.1203896 0.2205064 1.0689119 16711746
-0.3229547 0.2874739 0.7991697 16711746
-0.3258262 0.2899633 0.8082809 16711746
0.2874186 0.2828256 0.6989120 16711746
-0.8336635 0.2404076 1.1324241 16711746
0.4006081 0.0153383 1.0672662 16711746
0.4561251 0.2793723 0.6725513 16711746
-0.3406969 0.1019022 0.2882895 16711746
0.0959626 0.2436297 1.0183191 16711746
-0.2126827 0.2913519 0.6717994 16711746
-0.1755861 0.2038374 0.9431189 16711746
-0.1333402 0.2448688 0.9596466 16711746
-0.6741624 0.2755818 0.7763128 16711746
0.1088152 0.2357762 1.2722597 16711746
-0.6476260 0.2599148 0.9096665 16711746
-0.4666947 0.3066837 0.6947979 16711746
-0.1285996 -0.0096257 0.5070614 16711746
-1.0635368 0.2462808 1.2249829 16711746
-0.1648358 0.2128102 1.1351566 16711746
0.1719212 0.2247704 1.7331460 16711746
0.0784842 0.1847948 1.7793436 16711746
-0.1275882 0.0758608 0.5675382 16711746
0.7598201 0.0547384 1.8693222 16711746
-0.3755807 0.1920390 0.3488128 16711746
0.2010210 0.2605032 1.1164842 16711746
0.5912343 0.2538789 1.1804019 16711746
0.2759971 0.2704712 0.7006546 16711746
-0.1303434 -0.0674810 0.4782237 16711746
1.0295736 -0.5882776 2.2949336 16711746
0.2171269 0.2343010 1.1355214 16711746
-0.6886902 0.2303915 0.7363292 16711746
-0.7990345 0.2659423 0.9358093 16711746
0.1141144 0.2420031 0.7479336 16711746
0.5788186 0.2404314 0.6145066 16711746
-0.6435283 0.2134535 0.6976434 16711746
0.1308082 0.2879189 0.7258201 16711746
-0.1722141 0.2621572 0.7133889 16711746
0.3382674 0.2405488 0.8362940 16711746
-0.1953572 0.1936604 0.7286413 16711746
-0.3348977 0.2692959 0.7105953 16711746
-0.1893252 0.2823186 0.7503852 16711746
0.4947068 0.2367214 0.6690693 16711746
0.2005165 0.2580471 0.7422087 16711746
-0.4714204 0.2316895 0.5719318 16711746
0.3435831 0.2344732 0.8627097 16711746
0.4876792 0.2975464 0.6361132 16711746
-0.2330831 0.2860993 0.7642712 16711746
0.1111035 0.2972602 0.7836964 16711746
-0.4817986 0.3433093 0.6505857 16711746
0.2697274 0.2589177 0.6926855 16711746
-0.5655453 0.2781975 0.8018977 16711746
-0.5858891 0.2551069 0.7467613 16711746
-0.3769825 0.3267364 0.7032882 16711746
0.4627667 0.2588060 0.6686195 16711746
-0.1263514 0.0052290 0.4914334 16711746
-0.1247201 0.0000452 0.4827696 16711746
0.4763454 0.2991825 0.5699797 16711746
-0.5002091 0.1643023 0.5903123 16711746
0.2910245 0.2560183 0.7704873 16711746
0.4905018 0.3082703 0.5832664 16711746
-0.6468878 0.2138438 1.1460534 16711746
-0.3281927 0.2614199 0.8104819 16711746
-0.1221546 0.2731881 0.7342962 16711746
0.5718173 0.2655061 1.0141302 16711746
0.1534663 0.2455824 0.9001762 16711746
0.4602199 0.2815585 0.6172665 16711746
-0.3782500 0.2547932 0.9712672 16711746
-0.0143833 0.2757272 0.8243139 16711746
-0.0482302 0.3049642 0.9809639 16711746
-0.0322515 0.2400336 0.9220197 16711746
0.3002593 0.2956350 0.9382207 16711746
-0.3111872 0.2466581 0.9111879 16711746
-0.7946310 -0.0273394 1.0695140 16711746
-0.0996605 -0.1913850 0.7915366 16711746
-0.1644305 0.2160373 1.1633815 16711746
0.0754297 0.1694971 1.6461577 16711746
-0.4903497 0.3091229 0.7354020 16711746
-0.0002324 -0.6863621 2.3035784 16711746
0.3194232 0.1901638 1.2317594 16711746
0.4125036 0.1933174 1.6884295 16711746
-0.1534506 0.1771323 0.6415488 16711746
0.3142192 0.2106048 1.8229864 16711746
0.4219441 0.2024504 0.6165794 16711746
-0.1160579 0.2591868 0.7111195 16711746
-0.4596708 0.2721339 0.9545450 16711746
-0.2043941 0.1916078 1.1852869 16711746
-0.0720253 0.2061835 1.1798433 16711746
0.5282019 0.1622054 2.1551452 16711746
-0.4390362 0.2721215 0.8638071 16711746
0.0900068 0.2920137 0.7713668 16711746
0.4417925 0.1970761 0.6334304 16711746
-0.1902787 0.2187620 1.0717818 16711746
-0.0773542 0.2614679 0.9546024 16711746
0.2192619 0.2765058 0.9205317 16711746
-0.4071738 0.2916752 0.7619284 16711746
-0.6938704 0.2613168 0.7676018 16711746
0.2023084 0.2544072 1.3611380 16711746
-0.0895784 -0.1900103 0.9284909 16711746
-0.1063580 0.1810597 1.2893064 16711746
0.1606521 0.1890477 1.5503564 16711746
0.2283570 0.2660138 0.9283636 16711746
-0.1307133 0.2648683 0.6923702 16711746
0.2022184 0.2429471 1.9832910 16711746
-0.1480662 -0.8328816 2.0108328 16711746
-0.1213116 0.0979141 2.1646483 16711746
0.0135591 -1.1896831 2.9583917 16711746
-0.6052318 0.2561367 0.7181320 16711746
-0.3876686 0.2784781 0.7654030 16711746
0.4487269 0.2796384 0.6660156 16711746
-0.4449717 0.2641070 0.9265065 16711746
0.3460974 0.2829097 0.7043526 16711746
-0.3189830 0.2497052 0.7915030 16711746
0.2463852 0.2727214 0.8200960 16711746
0.3334472 0.2048783 0.7758874 16711746
0.2797214 0.2670049 0.7102293 16711746
0.2957165 0.2358178 0.8328535 16711746
0.4721611 0.2519357 0.6649578 16711746
-0.7577630 0.2750192 0.8976278 16711746
-0.5127031 0.2662006 0.9354439 16711746
-0.2790556 0.2700133 0.8283377 16711746
-0.2110659 0.2900576 0.7191005 16711746
-0.1174182 -0.0089209 0.4862182 16711746
-0.7105647 0.2782300 0.8306458 16711746
-0.0887622 -0.1166196 0.7430457 16711746
-1.1083225 0.2224713 1.1014308 16711746
0.3374253 0.2262608 1.2332720 16711746
-0.2247626 0.2772251 0.7515948 16711746
0.4553564 0.2239559 0.8263890 16711746
0.4256139 0.2240445 0.6196496 16711746
-0.1405581 -0.0237081 0.5231414 16711746
-0.2853180 0.2734350 0.8402663 16711746
0.2098863 0.2558646 0.9350860 16711746
-0.4015865 0.2892713 0.7868196 16711746
-0.4873715 0.3166077 0.7096759 16711746
-0.1240690 -0.2087200 0.9199020 16711746
0.4220457 0.2745547 0.6367602 16711746
-0.1234236 0.0742357 0.5578084 16711746
-0.6394447 0.2105301 1.2122921 16711746
-0.1591072 0.2714168 0.8739368 16711746
-0.5698285 0.3083117 0.8243503 16711746
-0.2021044 0.2072877 1.1218580 16711746
0.3521416 0.2123150 0.9184050 16711746
0.4581578 0.2324444 0.8960329 16711746
0.1747196 0.2828205 0.7221434 16711746
0.3493055 0.2186429 0.9619980 16711746
-1.4549954 0.1485571 1.5554506 16711746
-0.7987540 0.2139990 1.1665109 16711746
0.4124334 0.0217908 0.5795267 16711746
0.4966671 0.2236792 1.0138201 16711746
-1.1526107 -0.0322156 1.4988894 16711746
0.4489169 0.2815483 0.6684794 16711746
-1.7397043 0.1462491 1.8689711 16711746
-0.0321137 0.2614665 0.7914601 16711746
0.3861013 0.2073271 0.9525222 16711746
0.3977114 0.2014087 1.2459742 16711746
-0.0761517 0.2840511 0.7804998 16711746
0.0400090 0.2299370 1.2122082 16711746
-0.1484066 0.2502665 0.9164782 16711746
-0.1450477 0.1725880 1.1928746 16711746
0.0032105 0.2540662 0.9162507 16711746
-0.1293517 0.2323224 1.0052627 16711746
0.8818177 0.1828359 1.5303673 16711746
-0.2080606 0.1597296 1.2685513 16711746
0.6380516 0.2049577 2.1398942 16711746
0.0783136 0.2528080 0.7955959 16711746
-0.6342137 0.2666889 0.8644320 16711746
0.0821538 0.2398604 1.9255942 16711746
0.5046000 0.2799528 0.5723029 16711746
-0.0478336 0.2267036 1.0984468 16711746
-0.1444688 0.1632224 0.6186789 16711746
-0.2254712 0.1957226 1.2957783 16711746
0.3722875 -0.1392639 1.0949951 16711746
0.1271078 0.3011144 1.9332025 16711746
-0.1399570 0.0484751 0.5444604 16711746
-0.5549477 0.2446029 1.0496831 16711746
-0.1634909 -0.0708259 0.4649470 16711746
-0.0678271 0.2365851 1.1072088 16711746
0.5190556 0.1583428 2.1098948 16711746
-0.1392656 -0.0565373 0.4685937 16711746
0.5222349 -0.3410305 1.9070655 16711746
0.2753775 0.2486962 2.2197998 16711746
-0.1480895 -0.0098101 0.5249429 16711746
0.1231688 0.2484089 1.0102954 16711746
-0.1461604 0.0076251 0.5321480 16711746
-0.4408385 0.2647354 0.6972985 16711746
0.0650928 0.2203722 0.8552099 16711746
-0.4629044 0.2895751 0.7423779 16711746
-0.4408461 0.2637046 0.7002515 16711746
-0.1233875 -0.0315228 0.5030614 16711746
-0.8187411 0.1811383 1.0728922 16711746
0.2537312 0.2527405 0.8368678 16711746
0.4291295 0.2185222 0.7360414 16711746
-0.5530696 0.2431820 1.0413833 16711746
0.0919493 0.2355126 0.8187804 16711746
-0.4619225 0.2740818 0.7169152 16711746
-0.0766810 0.2617730 0.8013822 16711746
-0.0415826 0.2650287 0.8489021 16711746
0.6186936 0.2299282 1.0198326 16711746
-0.9041953 0.2404465 1.0584733 16711746
0.1847562 0.2578805 0.8846157 16711746
0.3317503 0.2564102 0.7364139 16711746
0.4443577 0.2229219 0.6565347 16711746
-0.1455333 0.0019040 0.5296045 16711746
-0.6652598 0.2085959 1.1742264 16711746
-0.6663125 0.2063052 1.3527166 16711746
0.4903817 0.1856872 1.1761215 16711746
-0.8487185 0.2278723 1.2365083 16711746
0.3931132 0.2098547 0.9623433 16711746
0.3247832 0.2144063 0.9753120 16711746
0.2954788 0.1735248 1.1370872 16711746
0.3581093 0.2243913 0.9784034 16711746
0.3320450 0.2543450 0.7901388 16711746
-0.0936778 0.2056832 1.1303624 16711746
0.0214125 0.2357637 1.0281942 16711746
0.0712940 0.2628262 0.9635825 16711746
0.1901626 0.2383397 1.0950897 16711746
0.0115212 0.2173723 1.0545118 16711746
0.3468425 0.2306682 0.8577136 16711746
0.2589901 0.2005114 1.0330319 16711746
0.3441803 -0.2430073 1.0272002 16711746
0.2934594 -0.2242139 0.8794788 16711746
-0.1339539 -0.0086000 0.5241417 16711746
-0.0563118 0.2081930 1.0954794 16711746
-0.1373517 -0.0081206 0.5302144 16711746
-0.1296103 0.1083124 1.1904105 16711746
0.6581040 0.2151171 1.1077434 16711746
0.2295307 0.2196191 1.1713039 16711746
0.0513446 0.2219825 1.0801275 16711746
0.6568500 0.2286493 1.1947058 16711746
0.6144359 0.2421709 1.0455968 16711746
-0.1111623 0.2552671 0.8356158 16711746
0.0016364 -0.5194703 1.3711994 16711746
-0.3124071 0.2880009 0.7817680 16711746
0.0069431 0.2541856 0.9947631 16711746
-0.1103060 -0.1095913 0.9302475 16711746
0.3667259 0.2383138 2.3335412 16711746
0.0092367 0.2321791 1.1920738 16711746
0.1208454 0.2227993 1.9308592 16711746
-0.0071958 -0.9889877 3.3306360 16711746
0.2949474 0.2469247 0.9137193 16711746
0.4040897 0.2048253 2.3982036 16711746
0.3886108 0.1698131 1.1064614 16711746
0.0956733 0.2149571 2.0506563 16711746
0.3386870 0.2597123 0.7014251 16711746
0.4527876 0.2743353 0.6994441 16711746
0.3174486 0.2382205 0.9069767 16711746
0.2118747 0.2152288 1.2635227 16711746
0.2362888 0.2634329 0.8434553 16711746
-0.7662033 0.2630983 1.0314116 16711746
-0.4431311 0.2693374 0.8929518 16711746
0.2456575 0.2121931 1.5570241 16711746
0.2996016 0.2016179 1.0668421 16711746
-0.1700345 0.2190969 1.0828247 16711746
0.2300768 0.2379793 0.9116518 16711746
0.0507621 0.2301772 1.0969505 16711746
-0.0575941 -0.1160826 0.8168498 16711746
-3.8686540 -0.0936046 4.2952013 16711746
0.3461884 -0.1011650 1.0736974 16711746
0.1898874 -0.2537939 1.3545697 16711746
0.9891791 -0.4545521 2.0803788 16711746
1.5591772 -0.7285203 2.6286230 16711746
0.4708901 0.2372734 2.7695215 16711746
-0.1260958 0.1782759 0.6261523 16711746
0.0005289 -0.1683302 1.1852287 16711746
0.4099890 0.2539047 0.7197288 16711746
0.1941132 0.2142331 1.0305250 16711746
0.4220982 0.2096621 0.6630175 16711746
0.0017985 0.2692556 0.8465340 16711746
0.2409949 0.2723987 0.8257768 16711746
0.7452534 0.1811600 1.1087765 16711746
-0.0475806 0.2240105 1.0893189 16711746
-0.5747297 0.2708855 0.8882099 16711746
-0.3940336 0.2685641 0.8503981 16711746
-0.1295812 -0.0327465 0.5221760 16711746
0.2256719 0.2534818 0.7931809 16711746
-0.6812667 0.2476555 1.0155232 16711746
0.3398789 0.2755215 0.8343440 16711746
0.4742364 0.2216284 0.9264385 16711746
0.6204525 0.2303533 1.0193089 16711746
-0.4950126 0.2661786 0.7422536 16711746
0.3989576 0.2449726 0.7067165 16711746
0.1202899 0.2157349 0.9074218 16711746
-0.5795931 0.2860423 0.9587309 16711746
0.0625427 0.2256673 0.9912404 16711746
0.0434763 0.2731572 0.8936753 16711746
-0.1286547 -0.1704743 1.0190336 16711746
-0.0842927 0.1908910 1.0633609 16711746
0.2600171 0.2342992 0.8845297 16711746
0.3140387 0.2179903 1.0061499 16711746
-0.1392896 0.2141983 1.0997610 16711746
0.4718899 0.2389492 0.9072628 16711746
0.5217649 0.2050045 1.1074589 16711746
0.1241342 0.2349154 0.9782537 16711746
-0.7185670 0.2244874 0.9991538 16711746
-0.3024006 0.2573273 0.7865088 16711746
0.0380393 0.2057364 1.1218914 16711746
-0.1257659 0.1585177 1.0982625 16711746
-0.2726701 0.2328985 1.2511041 16711746
-0.3010192 0.1909388 1.2852648 16711746
0.1091457 0.2428194 0.9194590 16711746
-0.1983386 0.1860911 1.1658660 16711746
-0.5792667 0.1656703 0.7128941 16711746
0.0621690 0.2478595 0.8764650 16711746
0.2871827 0.2441553 0.9060181 16711746
0.3060840 0.2433731 0.8525107 16711746
-0.8189583 0.2553100 1.0934108 16711746
-0.1391747 0.2318773 1.0083668 16711746
0.3962203 0.1997279 0.7061877 16711746
-0.3051104 0.2867969 0.7755979 16711746
-0.4058518 0.1872532 1.5209926 16711746
-0.1192099 0.2324450 0.9968432 16711746
-0.5896997 0.2775629 0.9017617 16711746
-0.1480863 0.0068462 0.5286905 16711746
0.1100651 0.2462714 0.9327882 16711746
0.0887984 0.1890257 1.3579721 16711746
0.0671050 0.2465196 0.9237683 16711746
-0.3753303 0.1821593 1.6530881 16711746
0.3284880 0.2305715 0.8833243 16711746
-0.3719060 0.1773960 1.6326401 16711746
0.5380307 -0.2192825 1.1324478 16711746
0.9371181 -0.5196136 1.5100447 16711746
0.0773693 0.2098834 1.0411545 16711746
0.0157738 0.2345634 1.0217245 16711746
-0.1739785 0.1982439 1.3248740 16711746
0.3055342 0.2282269 0.8872461 16711746
0.8278523 0.1304155 1.7355059 16711746
0.1633711 -0.1479004 0.8503022 16711746
0.2453928 0.1538090 1.4420590 16711746
0.3260013 0.2313590 0.8153396 16711746
-0.4516852 0.2315923 0.6490720 16711746
0.1531414 0.1847688 1.4049907 16711746
0.3352318 0.2107682 0.9406549 16711746
0.4461477 -0.4844114 1.4472023 16711746
1.2838984 -0.7139015 1.9772209 16711746
1.4261507 -0.7077429 1.9754317 16711746
-0.0156408 0.2193489 1.0916351 16711746
0.1968960 0.1925056 1.4084797 16711746
0.3900591 -0.1067862 1.3998268 16711746
-0.1335160 0.0053173 0.5072430 16711746
0.1101117 0.2063791 0.9794152 16711746
0.2369871 -1.1381267 2.8364022 16711746
-0.1903962 -0.3661447 1.3303765 16711746
-0.1378735 0.0054717 0.5143601 16711746
0.1891248 0.2663046 0.9019762 16711746
0.1899675 0.2384076 1.0998005 16711746
-0.0052939 -1.0297577 2.9526129 16711746
0.0835104 0.1498149 2.8621666 16711746
0.4051846 0.0742411 2.7621038 16711746
-0.0009091 -0.8686042 2.9440718 16711746
0.1979773 0.2075368 2.5146480 16711746
0.2679208 0.1777745 1.5586121 16711746
0.0654430 0.2410355 1.0312738 16711746
0.1640560 0.1935434 1.5986942 16711746
-0.1643075 0.2062152 1.1166546 16711746
-0.3599768 0.1811798 1.6222520 16711746
0.0994334 0.2085235 1.1565514 16711746
-0.3475955 0.2935289 0.7733679 16711746
0.0360408 0.2138400 1.5445143 16711746
-0.1426184 0.1671080 1.1753848 16711746
0.3030369 0.2014298 1.6273568 16711746
-2.8500781 -0.3953193 2.6625426 16711746
0.3540093 -0.2470260 1.0336183 16711746
-0.0961989 0.1370887 1.7128419 16711746
0.3797719 -0.0960265 1.4452094 16711746
-0.1186936 -0.1622742 0.9754546 16711746
-0.0623406 0.1799147 1.5200158 16711746
0.1202389 0.2304855 1.0470780 16711746
-0.1581791 0.2671641 0.8611321 16711746
0.3270523 0.2627894 0.8074011 16711746
0.0148942 0.2620069 0.8832719 16711746
0.4782267 0.2179855 1.0134284 16711746
0.3347533 0.2006465 0.8934301 16711746
0.3540455 0.2504357 0.8499748 16711746
-0.5130609 0.2763892 0.8436940 16711746
0.5452945 0.2247569 0.9160615 16711746
0.6260547 0.2469874 1.0596676 16711746
0.2594255 0.2109627 0.9491073 16711746
-0.1500189 0.2669159 0.8658548 16711746
-0.0426998 0.2695324 0.8888471 16711746
0.0916607 0.2450545 0.8378261 16711746
0.3356257 0.2124467 0.7541068 16711746
0.2503112 0.2395758 0.8448755 16711746
0.6511285 0.1927637 1.0376414 16711746
0.3403378 0.2114497 0.7953984 16711746
-0.1724651 0.2505344 0.9511949 16711746
-0.1626813 0.2728995 0.8744330 16711746
-0.5470962 0.2286098 0.9718808 16711746
-0.2418085 0.2205054 1.0436219 16711746
0.2024972 0.2242529 1.0271515 16711746
0.4671424 0.2271170 0.7804332 16711746
-0.4977568 0.2251437 0.7537177 16711746
0.4752010 0.2825879 1.0768054 16711746
0.6134257 0.1973352 1.0564557 16711746
-0.0329574 0.2105847 1.3976735 16711746
0.2369051 0.2483152 0.8741863 16711746
-0.3617595 0.2319915 1.4628015 16711746
-0.5127581 0.1443797 1.7385298 16711746
-1.4832767 0.1780285 1.4835334 16711746
0.0030885 0.1942592 1.2000206 16711746
0.3732398 0.1715631 1.1220179 16711746
0.3380948 0.2228637 0.8932988 16711746
0.2046045 0.2476015 0.9164100 16711746
0.0256443 0.2197253 1.0655349 16711746
-0.1653335 0.1499155 1.2380520 16711746
-0.3104544 0.2618885 0.7955374 16711746
0.7518461 0.0973134 1.4921087 16711746
0.1070509 0.2345463 0.9029813 16711746
-0.2097778 0.2101671 1.0358685 16711746
-0.4936715 0.2832922 0.8383384 16711746
-0.4742408 0.1615454 1.6693131 16711746
0.6194613 0.2173508 1.0281091 16711746
0.5305743 0.2200234 1.0667785 16711746
0.0143099 0.2088308 1.0322727 16711746
0.4925379 0.2004799 1.0119365 16711746
0.2573981 0.2467212 0.8575485 16711746
0.1544676 0.1901789 1.1631485 16711746
0.3415512 -0.2035376 0.9379329 16711746
-1.5988959 0.1593990 1.7292601 16711746
-0.3324741 0.1553116 1.5245075 16711746
-0.1437595 0.1269736 1.6643896 16711746
-0.5898842 0.2354470 0.7695674 16711746
-0.9687225 0.2372144 1.2215135 16711746
1.5338181 -0.7919269 2.0652366 16711746
-0.3847328 0.2606518 0.8358328 16711746
0.2570561 0.2488926 0.8608471 16711746
-0.0156323 0.2179599 1.0957341 16711746
-0.2595017 -0.4423821 1.6309004 16711746
0.2199406 0.2257345 0.9234873 16711746
-0.2049034 0.1926665 1.1879832 16711746
0.8593866 -0.3962650 1.5649742 16711746
0.2671291 0.1729069 1.4460672 16711746
1.0087812 -0.7567684 2.0765679 16711746
-0.1836197 0.2192454 1.1082108 16711746
0.3795159 -0.0134872 1.0586872 16711746
0.1245563 -1.6795603 3.8095918 16711746
1.9808023 -1.4914639 3.5551062 16711746
1.4759697 -0.7923515 3.1273904 16711746
0.3579510 -1.2132534 3.2497377 16711746
0.0551664 -1.0020045 2.6078720 16711746
-0.0725839 0.1876252 2.7843356 16711746
0.0926796 -0.3753074 1.9282327 16711746
0.0919891 -0.2805198 1.6689135 16711746
0.6001954 0.2355895 1.0244654 16711746
0.2972786 0.1996525 1.7111617 16711746
-1.6638339 0.1660828 1.8129905 16711746
-0.1512188 0.0070464 0.5401540 16711746
0.0512889 0.2254134 1.0896605 16711746
0.1350879 0.2591411 0.8882723 16711746
0.4707996 0.1753007 1.1432068 16711746
0.4815709 0.1449787 1.1018398 16711746
0.3120747 0.2511326 0.8598348 16711746
0.2589800 0.2337305 0.8822185 16711746
0.4509454 0.1937068 1.0810736 16711746
0.7330152 0.1703560 1.2241474 16711746
0.2704716 0.2471363 0.9113794 16711746
0.3315853 0.1983471 0.8864581 16711746
0.3351205 0.1848577 0.7930738 16711746
0.4505187 0.1833386 0.9072111 16711746
0.6468848 0.2083478 1.0925215 16711746
0.4629454 0.1991700 1.1535274 16711746
-0.1097101 -0.0250849 0.4797250 16711746
0.3420420 0.2058387 0.9027607 16711746
0.8840459 0.0739610 1.6521115 16711746
1.0619826 0.1707955 1.3848298 16711746
0.0391499 0.2532458 0.8875061 16711746
-0.0062049 0.2262063 1.0432914 16711746
0.5551996 0.2279343 0.8382503 16711746
0.3263769 0.2597392 0.8010648 16711746
0.6300878 0.2022277 1.0738733 16711746
0.3058628 0.2207832 0.9002948 16711746
0.5026605 0.1529457 1.1312904 16711746
0.3831135 0.2302062 0.9163634 16711746
-0.0056734 0.2237376 0.8696498 16711746
0.1471817 0.2210391 1.0083352 16711746
-0.5040849 0.2945703 0.8668798 16711746
0.8285832 0.1230927 1.5130724 16711746
0.9628806 0.1519545 1.2882565 16711746
0.5469969 0.1620609 1.2461468 16711746
-0.0469336 0.2086868 1.1459930 16711746
-0.0977213 -0.2335863 0.9886091 16711746
0.8207672 0.0676003 1.5663691 16711746
-0.1255639 0.2587779 0.9231640 16711746
-0.2024667 0.1892183 1.1803615 16711746
-0.1301754 0.0036354 0.5030540 16711746
0.1960909 0.2137098 1.0286293 16711746
-0.3434132 0.2154155 1.2799100 16711746
0.1762991 0.2182191 0.9328684 16711746
0.4451767 0.1789527 1.0313308 16711746
-0.2692300 0.2997878 1.2044269 16711746
-0.2066015 0.2335080 1.0502036 16711746
-0.1291252 0.0032583 0.5034475 16711746
0.2338653 0.1663062 1.2966902 16711746
-0.1204338 -0.0372878 0.4793634 16711746
0.5732955 -0.4222887 1.4334109 16711746
0.7651401 0.1935240 1.1454955 16711746
0.7303880 0.1802588 1.1010476 16711746
0.6995523 0.0620103 1.3803911 16711746
-0.1108708 0.1274890 1.1442324 16711746
0.1825227 0.2231766 1.0472430 16711746
0.2600218 0.2503181 0.8656402 16711746
0.1617163 0.1923300 1.2293426 16711746
-0.0270965 0.1774482 1.2582582 16711746
-0.3297832 0.1665775 1.6007123 16711746
0.2464164 -0.0520702 1.2340748 16711746
-0.2578405 0.2501010 1.7073855 16711746
1.1249924 -0.4972107 1.6618680 16711746
1.2911084 -0.5699286 1.9089684 16711746
0.3241542 -0.0058387 1.4348222 16711746
0.3563214 0.0989576 1.6083339 16711746
0.8306029 -0.3241800 1.6238128 16711746
-0.2024495 0.2085546 1.1194725 16711746
0.2819972 -0.0245790 1.4923087 16711746
-0.2474475 0.1764530 1.4243199 16711746
0.4922414 0.2097698 1.1132833 16711746
-0.1232390 -0.0305199 0.4967620 16711746
-0.1273284 -0.0308057 0.5026819 16711746
-0.0430006 -1.5033480 3.3552468 16711746
0.3660641 -0.1556503 0.7737337 16711746
0.4469969 0.1913769 1.1503202 16711746
0.2118686 -0.0590553 1.1644425 16711746
-0.1325617 -0.2336229 1.0090305 16711746
0.1338740 0.1823209 2.8763809 16711746
0.5014930 0.2119030 0.9765683 16711746
0.3804736 -0.0125757 1.0639664 16711746
1.0572820 0.1737196 1.3078563 16711746
0.5523047 0.2288915 0.9272020 16711746
0.6084741 0.2273043 1.0429139 16711746
-0.1350496 0.2537904 0.9986902 16711746
0.3916047 0.1996547 0.7039323 16711746
0.1537301 0.2556737 0.9545493 16711746
-0.1380278 0.1748967 1.1410024 16711746
-0.2945570 0.1851726 1.1639301 16711746
-0.0161374 0.2110979 0.9398471 16711746
-0.0615140 0.2304143 1.0103905 16711746
-0.3109998 0.2471217 1.0663496 16711746
0.0273934 0.2286966 0.9811816 16711746
0.2203853 0.2235590 0.9202957 16711746
0.7313397 0.1359563 1.2333570 16711746
0.0286241 0.2540688 1.0411859 16711746
-0.3210976 0.2543492 1.0886375 16711746
0.3286685 0.2080175 0.7706018 16711746
-0.2275118 0.2082656 1.0182507 16711746
-0.1154359 0.2307113 0.9913395 16711746
0.2043554 0.2016933 1.1069565 16711746
0.7347181 0.1700922 1.2214788 16711746
-0.1985738 0.2643485 0.9236572 16711746
0.2572381 0.1455902 1.0707891 16711746
0.0646548 0.2259248 1.0297686 16711746
-0.2550548 0.2382391 1.0190562 16711746
-0.5663782 0.1823519 1.3792286 16711746
-0.0299522 0.2426086 0.9337809 16711746
0.4520905 0.2324992 0.8692200 16711746
0.1307715 0.2366945 0.9534393 16711746
0.1053661 0.1947704 0.9453732 16711746
-0.0890294 0.2178001 1.0343691 16711746
0.2630959 0.1990028 1.0973485 16711746
0.7716160 0.1873994 1.0567471 16711746
0.0796696 0.2070953 1.0361962 16711746
-0.0163271 0.2111069 0.9432895 16711746
0.6638050 0.0512081 1.3335305 16711746
0.3733562 0.2053757 0.9404961 16711746
0.1565347 0.1873095 0.9494984 16711746
0.4205877 0.2343559 1.0066582 16711746
0.1659408 0.2007865 1.1214101 16711746
-0.4001637 0.1784507 1.5682874 16711746
0.4706109 0.2055869 1.0839134 16711746
0.3356763 0.2031061 0.9407043 16711746
0.6095595 0.2257561 1.0089942 16711746
0.3170505 0.1642870 1.2006811 16711746
0.2478130 0.1730123 1.3314571 16711746
0.1987263 0.1602000 1.2784853 16711746
-0.0799063 0.1784999 1.1556023 16711746
-0.3159530 0.2208613 1.1854416 16711746
-0.3021711 0.1889017 1.3614025 16711746
0.2526770 0.1603908 1.1493142 16711746
0.3222540 0.1720075 1.1200231 16711746
-0.0451059 0.2009607 1.1248920 16711746
1.1371257 0.0335914 1.9491546 16711746
0.4885231 0.1448212 1.6500059 16711746
-0.4097159 0.2686323 1.4602736 16711746
-0.4245082 0.2200800 1.3537115 16711746
-0.0984542 -0.1040832 0.9001636 16711746
-0.1553575 0.1526932 1.2030542 16711746
0.2575868 0.1425391 1.0774434 16711746
-0.4119240 -0.4688000 1.4067880 16711746
0.0558768 0.2162331 1.0810031 16711746
-0.3844644 0.1988470 1.3174256 16711746
-0.3437870 -0.2424328 1.2519425 16711746
0.3416457 0.2149154 0.9498864 16711746
-0.7170408 0.0968185 2.1907148 16711746
0.4026361 -0.0200553 1.0953941 16711746
0.4614285 0.1346401 1.5815065 16711746
0.4377206 0.1754604 1.1676078 16711746
0.1462106 0.1583116 1.4042140 16711746
-0.4868250 0.1574155 1.5109484 16711746
0.3501614 0.1166861 1.5619951 16711746
-0.2487175 0.1698038 1.4634010 16711746
-0.2911927 0.2258142 1.1205148 16711746
0.0590056 0.1781312 1.3914381 16711746
0.1518830 0.2476502 0.9389210 16711746
-0.2415520 0.2248010 1.0512822 16711746
-0.1156201 0.0944815 1.1177000 16711746
0.7132852 0.1740767 1.0745627 16711746
0.0339423 0.2054457 1.1133457 16711746
0.2584379 0.1468967 1.4530100 16711746
-0.0212302 0.1602421 1.2045311 16711746
-0.1069716 -0.2745583 1.1418383 16711746
0.3200147 0.1620730 1.3614731 16711746
-0.0600619 0.1734488 1.4727710 16711746
1.0890191 -0.5133082 2.1090908 16711746
0.1051262 0.2387844 0.9583790 16711746
0.4995167 0.1883422 1.1680865 16711746
-0.6418926 0.1979568 1.3216176 16711746
-0.4749647 0.1590570 1.6739876 16711746
0.3524308 0.1706119 1.1174430 16711746
0.0321664 0.1810468 1.3727562 16711746
-0.9333438 0.1875796 1.7824539 16711746
0.2968500 0.1592212 2.0602648 16711746
-0.3664025 0.2430827 1.0180606 16711746
0.1662754 -0.0161407 1.2753094 16711746
0.0030982 -1.0755670 2.7802165 16711746
0.0261436 0.1896866 1.1983954 16711746
-0.2163703 -0.0129169 1.2660158 16711746
-0.0596031 0.2246529 0.9952056 16711746
0.2054917 0.2126683 1.0720650 16711746
-0.2020180 0.2320919 1.0482699 16711746
-0.1070167 -0.0808907 1.0597129 16711746
0.1648230 0.2045594 1.0946528 16711746
-0.5996081 0.0077466 1.4954107 16711746
-0.2283984 0.2449765 0.9651079 16711746
-0.2048059 0.2346168 0.9952265 16711746
-0.1114999 -0.0814616 1.0791682 16711746
0.4555991 0.2347475 0.8302284 16711746
-0.2307019 0.2318751 1.1139973 16711746
-0.1379015 -0.1291739 1.0776671 16711746
-0.1107192 -0.1809943 1.3443676 16711746
-0.3436796 -0.4627981 1.5142244 16711746
1.5797249 -0.6221332 1.9763480 16711746
-0.0918287 0.1604849 1.1360098 16711746
-0.6759289 0.1114140 1.7240798 16711746
1.0665870 0.1648345 1.1854358 16711746
0.1259427 0.2361422 0.9790761 16711746
0.2032447 0.2255731 1.0280331 16711746
0.4192007 0.1137823 1.1248137 16711746
0.6756555 0.2044674 1.0173969 16711746
-0.1145212 0.1903291 1.0908536 16711746
-1.0478511 0.1833970 2.2307885 16711746
-0.0723776 0.2400367 0.9501020 16711746
0.1765276 0.2135646 1.0210588 16711746
-0.0034097 0.1755971 1.3140885 16711746
0.9336941 0.0183107 1.6612540 16711746
0.6236221 0.1455553 1.1821902 16711746
-0.2281612 0.2481315 0.9680018 16711746
-0.0578265 0.2166024 1.0386688 16711746
-0.1332013 0.2052393 1.0736355 16711746
-0.4315684 0.2481854 1.1274846 16711746
-0.2814760 0.2472345 0.9881796 16711746
-0.6049415 0.1788937 1.3860298 16711746
-0.0016234 0.2232885 1.0082877 16711746
-0.4383932 0.2068821 1.3081107 16711746
-0.4886537 0.2119316 1.2314292 16711746
-0.1371778 0.1820439 1.0964046 16711746
0.5100201 0.2360714 0.9182812 16711746
-0.2524490 0.2512853 0.9765813 16711746
-0.2567157 0.2388636 1.0214783 16711746
0.0637412 0.2279356 0.9980567 16711746
0.0158765 0.2119433 1.0350041 16711746
-0.1267580 0.2397816 0.9649439 16711746
-0.1113194 0.1833748 1.0740819 16711746
-0.0179971 0.2304820 0.9870247 16711746
-0.1599478 0.2172601 0.9928848 16711746
0.3923822 0.1017747 1.1120095 16711746
0.5074930 0.2162039 0.9858934 16711746
0.2427471 0.1968836 1.0780593 16711746
-0.4357820 0.1636289 1.3385326 16711746
0.3229208 0.1350948 1.5721447 16711746
0.7217933 0.1913250 1.1195706 16711746
0.6471446 0.1944028 0.9905720 16711746
0.4870437 0.2234138 1.0195405 16711746
-0.4294155 0.2572497 1.2419063 16711746
0.5624423 0.1869489 1.1778367 16711746
-0.5395129 0.2092270 1.2763081 16711746
-0.3413362 0.1929403 1.0976150 16711746
0.4505763 0.1227761 1.0986967 16711746
-0.1152442 0.2094929 0.9542821 16711746
0.4050392 0.1827858 0.9479623 16711746
-0.2141062 0.2432462 1.0729480 16711746
-0.0108297 0.2195707 1.0926269 16711746
0.0566793 0.1914850 0.9110196 16711746
-0.4476938 0.2158342 1.2641128 16711746
0.1618186 0.1991381 1.0979276 16711746
-0.2638380 0.2410456 1.1020796 16711746
0.3575028 0.1685625 1.1673415 16711746
-0.4663243 0.1573424 1.6564935 16711746
-0.6317861 0.2291103 1.1227996 16711746
0.4086781 -0.0038679 1.7077309 16711746
0.3663193 0.1554689 1.2201289 16711746
0.0557086 0.2091661 1.0744159 16711746
-0.4487759 0.1944907 1.4322178 16711746
0.5557430 0.0899711 1.9370658 16711746
0.4926057 0.1872588 1.1583775 16711746
-0.3839195 0.2083563 1.2506949 16711746
0.3963186 -0.0934283 1.5577652 16711746
-0.1096764 0.0047332 1.0916061 16711746
0.4421403 0.2234077 0.8875357 16711746
3.6667109 -1.8871390 4.2921510 16711746
-0.6363270 0.2050418 1.2080621 16711746
0.0198463 -1.2653739 3.1305952 16711746
0.4724670 0.0743117 2.6400282 16711746
-0.0200340 -0.7723740 3.2031476 16711746
0.1164541 -0.4742525 2.4170310 16711746
0.1116980 0.2007670 1.7660902 16711746
-0.0943688 0.1633483 1.3859156 16711746
-0.2258919 0.2064482 1.1414970 16711746
0.4296599 -0.2338077 1.7613857 16711746
-0.1669873 0.2167871 1.0874859 16711746
-0.7574958 -0.0051049 2.2963707 16711746
0.3219416 -0.0119385 1.0601562 16711746
0.3164368 -0.0128527 1.0496879 16711746
3.2625113 -2.0932429 4.0765529 16711746
-0.1382919 0.1765699 1.1517096 16711746
-0.6770275 0.0919861 2.2889507 16711746
0.4308247 0.1727487 1.1607643 16711746
0.2127358 0.1649611 1.4039313 16711746
-0.2950179 0.1895043 1.4717503 16711746
-0.3388692 0.2077595 1.2383372 16711746
0.3499013 0.1902311 1.0958829 16711746
0.1140115 0.1977197 1.0441499 16711746
-0.2795762 0.2285556 1.0138197 16711746
0.0257899 0.2137841 1.1132240 16711746
0.4799893 0.2193630 0.9792314 16711746
0.2920566 0.1893353 1.0870446 16711746
-0.2993478 0.2489375 0.9863036 16711746
-0.3855313 0.2616772 0.9825669 16711746
0.5648482 0.2283648 0.9713431 16711746
0.2889409 0.1908691 0.8699600 16711746
0.2101382 0.1850128 1.0787389 16711746
-0.4173177 0.2843118 1.0261941 16711746
-0.4044674 0.2560667 1.0454130 16711746
0.0546955 0.2227726 1.0198469 16711746
-0.3382525 0.2121605 1.0752480 16711746
-0.3043222 0.2694739 1.0403209 16711746
0.5372415 0.1801681 1.2159649 16711746
-0.2963322 0.2317138 0.9861675 16711746
-0.6706211 0.0676747 1.1242580 16711746
-0.6577842 0.1814713 1.2159225 16711746
-0.1571385 0.2239378 0.9515114 16711746
0.5478715 0.1815233 1.1606902 16711746
0.3562235 0.2310886 0.9375176 16711746
0.6298705 0.1358239 1.2566935 16711746
0.0102032 0.2145489 1.0150807 16711746
-0.5852855 0.2260160 1.1604146 16711746
0.4068973 0.2210218 0.9793259 16711746
-0.0100504 0.2102968 1.0602740 16711746
-0.0418768 0.2033666 1.0346478 16711746
-0.7136081 0.2024258 1.1981519 16711746
-0.0179219 0.2399724 1.0065974 16711746
-0.1081447 -0.0819990 1.0687146 16711746
-0.6606675 0.1775746 1.5411369 16711746
0.0241586 0.2328196 1.0061656 16711746
-0.2963377 0.1860102 1.4668227 16711746
-0.6305610 0.1164619 1.1073543 16711746
0.5221283 0.2145456 0.9719434 16711746
-0.6493714 0.2076609 1.2177284 16711746
-0.1921363 0.2400716 1.1422333 16711746
-0.4898429 0.2131662 1.2340758 16711746
-0.3410379 0.2348451 1.0813664 16711746
0.0504681 0.2129578 1.0561984 16711746
1.7494940 0.0415226 2.1235681 16711746
-0.5180320 0.1913897 1.3597327 16711746
0.2283233 0.2007085 1.1335847 16711746
0.3026251 0.1491125 1.2958732 16711746
0.1405020 0.1930368 1.0882473 16711746
-0.2214586 0.2232847 1.0704244 16711746
0.3480929 0.2250290 0.9286473 16711746
0.0013461 0.2052802 1.1153203 16711746
0.0725181 0.1804020 1.2771199 16711746
-0.2027050 0.2258834 0.9965302 16711746
0.0494650 0.1973885 1.1281471 16711746
-0.5237373 0.2212542 1.1498202 16711746
-0.4768619 0.2055399 1.2173076 16711746
-0.5627842 0.1804980 1.3721780 16711746
0.6553357 0.1788256 1.1525555 16711746
0.1387175 0.1912575 1.0824786 16711746
-0.2112229 0.2104757 1.0433336 16711746
-0.1409870 0.2302346 1.0117022 16711746
-0.6168309 0.1172715 1.6140072 16711746
0.2911744 0.1397951 1.2529836 16711746
-0.2468519 0.1514997 1.4960806 16711746
0.2452366 0.1956192 1.2787151 16711746
0.3996856 0.2302432 0.8849397 16711746
-0.2368516 0.1766937 1.4193916 16711746
-0.1691120 -0.2834842 1.1171575 16711746
-1.0242186 0.1382540 2.1683772 16711746
0.1010544 0.2075059 1.1555300 16711746
-0.5044119 0.2287736 1.1809493 16711746
-0.0994718 0.1240844 1.2325683 16711746
-0.6764884 0.1976814 1.4874684 16711746
0.5083717 0.1417752 1.1733195 16711746
0.5088938 0.2154400 0.9857639 16711746
-0.0880545 0.1925786 1.1011330 16711746
-0.0819838 0.1721949 1.0856128 16711746
0.0941558 0.1933918 1.1135207 16711746
0.6069365 0.2192983 0.9613810 16711746
-0.3899923 0.2441422 1.1236455 16711746
-0.2051296 -0.1335019 1.0265692 16711746
-0.2990876 0.1347474 1.4369019 16711746
-0.6500418 0.2355205 1.1413888 16711746
0.0946209 0.1032960 1.9646686 16711746
-0.5456958 0.2329782 1.0980306 16711746
-0.5498173 0.2379899 1.0882481 16711746
0.0384899 0.1607638 2.5776360 16711746
0.3904170 -0.0067674 2.2126720 16711746
0.2672568 0.1822567 3.4531286 16711746
-0.6297827 0.1476122 1.6531218 16711746
0.2536599 0.1575578 1.3721142 16711746
0.3819135 -0.1637654 1.6092153 16711746
-0.0470130 0.1993062 1.1178349 16711746
0.2071936 0.2006768 1.1434360 16711746
2.7911739 -1.0031793 2.9331546 16711746
-0.5939331 -0.3212440 2.0405021 16711746
-0.1655777 0.1400995 1.6096090 16711746
-0.2324005 0.2505598 0.9730824 16711746
-0.1967543 0.2403079 0.9979794 16711746
0.2487647 0.1399372 1.5573673 16711746
0.1802128 0.1439949 1.5134956 16711746
0.0287498 0.1488515 1.5516672 16711746
0.3228935 0.1385016 1.5534836 16711746
0.1945174 0.1292461 1.8005452 16711746
0.1998014 0.2091529 1.1064998 16711746
0.2840053 0.1287062 1.7099572 16711746
-0.0414787 0.1751647 1.3756841 16711746
-0.1323657 -0.1757498 1.0201459 16711746
0.2002115 0.1246749 1.7939506 16711746
0.7525207 0.1443587 1.3810674 16711746
-0.7684576 0.2487783 1.1282307 16711746
-0.0668665 0.1710048 1.2577807 16711746
-0.6246981 0.2408868 1.1681124 16711746
-0.4119388 0.2415627 1.0927889 16711746
-0.3799214 0.1834123 1.4162278 16711746
-0.6249490 0.2204349 1.0247002 16711746
-0.0111440 0.2125665 1.0679914 16711746
-0.0553170 0.2007614 1.0666265 16711746
-0.1154992 0.2138716 1.0557507 16711746
-0.9904242 0.2110070 1.3930413 16711746
0.4550031 0.2370950 0.8775553 16711746
-0.7773181 0.2053834 1.1780479 16711746
-0.9862869 0.2199206 1.3336606 16711746
-0.0066974 0.1999664 1.0857277 16711746
0.2355722 0.2126423 1.0513651 16711746
-0.4207044 0.2487665 0.9119645 16711746
0.1538708 0.1737759 1.1322562 16711746
-0.7129710 0.2259939 1.1319108 16711746
-0.0442160 0.2071697 1.0417025 16711746
-0.2603766 0.2322120 1.0501307 16711746
0.0825624 0.1845116 1.2476110 16711746
-0.4948606 0.2443215 1.1177381 16711746
-0.4377451 0.2320216 1.1469194 16711746
-0.1842706 0.2114125 1.0542969 16711746
-0.4645306 0.2443219 1.0133941 16711746
-0.6588789 0.0546417 1.1108050 16711746
-0.2716732 0.2101571 1.1635433 16711746
-0.1432332 0.1818601 1.1609112 16711746
-0.1184080 0.1561659 1.4664452 16711746
-0.5451292 0.2384717 1.0425696 16711746
0.2025368 0.1985176 1.1353306 16711746
0.8821976 0.1396113 1.1534952 16711746
-0.6460292 0.1976186 1.3249002 16711746
-0.6384659 0.2342159 1.1316594 16711746
-0.4765321 0.2517605 1.0267347 16711746
0.3056738 0.1496128 1.2965374 16711746
-0.2862093 0.2253962 1.1120025 16711746
-0.0579451 0.1657150 1.3374355 16711746
-0.0507323 0.1976964 1.1177552 16711746
-0.6556586 0.2284745 1.2455209 16711746
-0.6246613 0.2009105 1.1960629 16711746
-0.3617389 0.1882320 1.2696807 16711746
-0.0133400 0.2033499 1.0499544 16711746
0.1042093 0.2103346 1.0295744 16711746
-0.4245477 0.2117820 1.1036896 16711746
-0.4964221 0.1440434 1.6603067 16711746
0.3685707 0.1478386 1.1687667 16711746
-0.3728760 0.2373170 1.1023905 16711746
0.1051523 0.1859769 1.1591403 16711746
-0.4113921 0.2157794 1.3797559 16711746
-0.4825079 0.2069360 1.2260499 16711746
-0.2682668 0.2376691 1.0660161 16711746
-0.0930369 0.1581959 1.3709711 16711746
-0.0149579 0.2085696 1.0640969 16711746
0.3982141 0.0129208 1.0187473 16711746
0.0044321 0.1504349 1.0574945 16711746
-0.4722013 0.2394836 1.1679342 16711746
0.3370561 0.1655514 1.2086272 16711746
-0.5823326 0.2616818 1.0797169 16711746
-0.7264909 -0.2837276 1.5254171 16711746
0.5667967 0.0378662 1.2598023 16711746
-0.4721177 0.2052440 0.9154755 16711746
-0.3010639 0.2511922 0.9908832 16711746
-0.4978612 0.2517102 0.9820951 16711746
-0.3668587 0.2059551 1.1265591 16711746
-0.2263118 0.1888873 1.2411076 16711746
-0.4820737 0.2276400 1.1765482 16711746
0.7223751 0.1723513 1.0159702 16711746
-0.4765888 0.1815421 1.4105130 16711746
0.3839923 0.1803500 1.0971004 16711746
0.0992005 0.2020342 1.1411303 16711746
0.1507721 0.1786156 1.2483487 16711746
0.3172073 0.1667304 1.1126930 16711746
0.0030086 0.1511181 1.5175157 16711746
-0.6093736 0.1296205 1.9363803 16711746
0.3195009 0.1460335 1.3686579 16711746
0.7393656 0.1433590 1.2500520 16711746
0.2731263 0.1626908 1.2563405 16711746
