# .PCD v.7 - Point Cloud Data file format
VERSION .7
FIELDS x y z rgb
SIZE 4 4 4 4
TYPE F F F F
COUNT 1 1 1 1
WIDTH 226
HEIGHT 1
VIEWPOINT 0 0 0 1 0 0 0
POINTS 226
DATA ascii

 0.0000000 0.0000000 0.0000000 16777215
 -0.0043978 0.0013336 0.0339290 16777215
 -0.0059593 0.0017808 0.0420308 16777215
 -0.0069807 0.0041353 0.0559296 16777215
 -0.0103831 0.0067956 0.0806447 16777215
 -0.0087600 0.0094367 0.0880166 16777215
 -0.0063322 0.0096784 0.1040699 16777215
 -0.0062166 0.0089594 0.1238937 16777215
 -0.0055862 0.0061982 0.1430489 16777215
 -0.0057970 0.0058939 0.1568177 16777215
 -0.0103785 0.0120093 0.1845824 16777215
 -0.0125992 0.0155774 0.2009005 16777215
 -0.0175573 0.0207724 0.2356625 16777215
 -0.0218738 0.0230531 0.2654874 16777215
 -0.0257053 0.0204519 0.2954120 16777215
 -0.0279444 0.0241136 0.3175647 16777215
 -0.0298823 0.0279386 0.3491779 16777215
 -0.0322589 0.0291476 0.3791039 16777215
 -0.0344660 0.0304488 0.4157305 16777215
 -0.0347460 0.0322445 0.4462773 16777215
 -0.0433593 0.0342201 0.4825214 16777215
 -0.0475041 0.0410230 0.5179740 16777215
 -0.0477479 0.0426120 0.5537128 16777215
 -0.0552179 0.0468090 0.5872213 16777215
 -0.0571992 0.0453126 0.6243511 16777215
 -0.0545307 0.0473236 0.6555170 16777215
 -0.0605143 0.0535059 0.6852948 16777215
 -0.0691170 0.0605206 0.7304001 16777215
 -0.0764083 0.0632024 0.7694145 16777215
 -0.0813597 0.0680613 0.8101798 16777215
 -0.0850845 0.0755711 0.8420405 16777215
 -0.0818758 0.0763455 0.8785194 16777215
 -0.0813598 0.0766527 0.9157359 16777215
 -0.0907865 0.0823670 0.9554638 16777215
 -0.0950930 0.0862524 0.9926584 16777215
 -0.0993285 0.0840009 1.0277590 16777215
 -0.1093641 0.0876949 1.0661900 16777215
 -0.1074471 0.0900979 1.0917568 16777215
 -0.1114762 0.0879920 1.1225877 16777215
 -0.1155195 0.0911480 1.1546261 16777215
 -0.1178005 0.0947839 1.1780969 16777215
 -0.1246949 0.0987104 1.2161269 16777215
 -0.1320874 0.0967936 1.2525271 16777215
 -0.1338293 0.1015101 1.2856957 16777215
 -0.1380698 0.1085839 1.3142009 16777215
 -0.1452768 0.1069635 1.3441198 16777215
 -0.1448920 0.1113999 1.3753818 16777215
 -0.1463417 0.1141625 1.4007419 16777215
 -0.1533493 0.1202543 1.4363070 16777215
 -0.1573861 0.1237483 1.4709892 16777215
 -0.1550400 0.1197601 1.4939646 16777215
 -0.1609822 0.1253178 1.5277199 16777215
 -0.1625118 0.1283612 1.5658776 16777215
 -0.1648780 0.1371877 1.5981418 16777215
 -0.1652722 0.1323631 1.6245242 16777215
 -0.1750975 0.1328558 1.6524037 16777215
 -0.1813254 0.1349210 1.6873262 16777215
 -0.1858791 0.1349573 1.7136236 16777215
 -0.1855561 0.1341698 1.7343024 16777215
 -0.1919046 0.1383681 1.7706213 16777215
 -0.1936416 0.1395211 1.8003547 16777215
 -0.1926029 0.1444543 1.8182915 16777215
 -0.1934336 0.1440364 1.8439349 16777215
 -0.1981784 0.1446786 1.8750919 16777215
 -0.2025791 0.1455676 1.9118067 16777215
 -0.2106746 0.1469626 1.9473993 16777215
 -0.2123306 0.1524198 1.9790254 16777215
 -0.2127105 0.1550156 2.0201035 16777215
 -0.2092630 0.1552556 2.0526776 16777215
 -0.2084051 0.1579514 2.0809455 16777215
 -0.2144547 0.1623472 2.1214392 16777215
 -0.2210166 0.1650648 2.1648972 16777215
 -0.2268837 0.1677478 2.2027285 16777215
 -0.2302149 0.1737393 2.2404175 16777215
 -0.2308196 0.1740700 2.2695618 16777215
 -0.2309845 0.1742496 2.3018701 16777215
 -0.2354420 0.1785232 2.3390067 16777215
 -0.2390571 0.1785072 2.3776422 16777215
 -0.2498172 0.1803864 2.4061320 16777215
 -0.2535267 0.1850514 2.4409380 16777215
 -0.2486395 0.1922432 2.4688363 16777215
 -0.2464455 0.1932902 2.5029926 16777215
 -0.2526174 0.1952402 2.5324638 16777215
 -0.2585118 0.1995329 2.5663843 16777215
 -0.2649792 0.2006515 2.5918872 16777215
 -0.2639290 0.2058713 2.6215899 16777215
 -0.2684456 0.2095335 2.6497512 16777215
 -0.2682019 0.2147717 2.6699219 16777215
 -0.2610476 0.2138969 2.6987457 16777215
 -0.2635413 0.2168493 2.7239733 16777215
 -0.2657079 0.2204729 2.7529540 16777215
 -0.2709325 0.2260431 2.7825854 16777215
 -0.2717583 0.2285208 2.8118615 16777215
 -0.2761480 0.2318832 2.8417952 16777215
 -0.2787647 0.2307121 2.8619080 16777215
 -0.2838504 0.2366561 2.8945036 16777215
 -0.2825901 0.2379193 2.9191737 16777215
 -0.2851168 0.2377136 2.9371507 16777215
 -0.2853681 0.2390526 2.9638104 16777215
 -0.2914183 0.2393713 2.9917922 16777215
 -0.2973295 0.2412507 3.0186176 16777215
 -0.2984776 0.2399931 3.0420010 16777215
 -0.3021480 0.2417889 3.0665393 16777215
 -0.3041225 0.2421948 3.0885484 16777215
 -0.3045017 0.2467005 3.1254730 16777215
 -0.3016557 0.2479564 3.1452355 16777215
 -0.3003742 0.2501776 3.1823568 16777215
 -0.3082093 0.2545714 3.2189939 16777215
 -0.3161060 0.2591208 3.2575879 16777215
 -0.3157804 0.2605045 3.2817099 16777215
 -0.3165714 0.2626934 3.3082998 16777215
 -0.3218654 0.2671213 3.3283169 16777215
 -0.3257018 0.2689649 3.3537664 16777215
 -0.3307527 0.2703206 3.3831728 16777215
 -0.3378690 0.2721293 3.4161420 16777215
 -0.3450426 0.2733619 3.4376025 16777215
 -0.3495129 0.2746387 3.4740357 16777215
 -0.3550384 0.2769179 3.5080178 16777215
 -0.3543675 0.2793886 3.5334756 16777215
 -0.3546041 0.2771428 3.5526361 16777215
 -0.3562427 0.2803879 3.5830095 16777215
 -0.3578616 0.2837949 3.6288974 16777215
 -0.3620859 0.2859761 3.6591313 16777215
 -0.3623529 0.2866521 3.6763866 16777215
 -0.3682530 0.2874014 3.6971490 16777215
 -0.3738152 0.2936539 3.7225766 16777215
 -0.3702925 0.2921801 3.7485881 16777215
 -0.3744489 0.2927463 3.7700953 16777215
 -0.3748741 0.2942465 3.7927091 16777215
 -0.3815000 0.2988497 3.8182702 16777215
 -0.3837581 0.3025925 3.8501146 16777215
 -0.3873253 0.3048158 3.8788774 16777215
 -0.3917650 0.3079338 3.9015493 16777215
 -0.3963037 0.3144180 3.9196236 16777215
 -0.3990881 0.3139588 3.9443223 16777215
 -0.3996889 0.3193295 3.9702535 16777215
 -0.4077505 0.3205521 3.9991798 16777215
 -0.4096979 0.3225361 4.0257626 16777215
 -0.4156209 0.3239198 4.0544729 16777215
 -0.4212045 0.3224064 4.0841360 16777215
 -0.4258114 0.3223146 4.1030817 16777215
 -0.4273543 0.3231297 4.1269660 16777215
 -0.4298483 0.3237957 4.1599293 16777215
 -0.4318680 0.3231665 4.1773195 16777215
 -0.4334407 0.3291857 4.2010269 16777215
 -0.4359688 0.3299644 4.2323771 16777215
 -0.4398167 0.3345002 4.2533932 16777215
 -0.4417293 0.3354855 4.2764506 16777215
 -0.4455274 0.3392953 4.3068657 16777215
 -0.4459184 0.3400725 4.3245940 16777215
 -0.4443611 0.3400265 4.3414788 16777215
 -0.4466766 0.3431515 4.3697467 16777215
 -0.4534609 0.3500944 4.4006643 16777215
 -0.4590587 0.3515400 4.4296341 16777215
 -0.4593816 0.3503492 4.4467597 16777215
 -0.4622119 0.3566986 4.4796395 16777215
 -0.4639719 0.3571497 4.5067492 16777215
 -0.4652907 0.3569142 4.5340457 16777215
 -0.4674664 0.3622707 4.5640473 16777215
 -0.4726530 0.3622568 4.5810895 16777215
 -0.4750414 0.3654360 4.6185937 16777215
 -0.4744642 0.3668532 4.6422825 16777215
 -0.4722023 0.3675288 4.6704407 16777215
 -0.4721500 0.3678041 4.6956253 16777215
 -0.4766672 0.3720184 4.7227445 16777215
 -0.4874633 0.3771411 4.7560425 16777215
 -0.4874885 0.3753370 4.7843170 16777215
 -0.4895150 0.3766950 4.8008089 16777215
 -0.4926860 0.3802003 4.8306379 16777215
 -0.4900220 0.3786378 4.8631210 16777215
 -0.4935094 0.3818200 4.8961101 16777215
 -0.5058686 0.3880351 4.9305787 16777215
 -0.5033386 0.3855386 4.9581203 16777215
 -0.5010545 0.3894364 4.9857945 16777215
 -0.5020227 0.3873326 5.0115004 16777215
 -0.5090668 0.3907554 5.0347452 16777215
 -0.5138806 0.3887014 5.0541711 16777215
 -0.5280176 0.3926125 5.0771713 16777215
 -0.5227311 0.3916149 5.0956054 16777215
 -0.5198401 0.3920721 5.1203256 16777215
 -0.5189615 0.3942821 5.1484132 16777215
 -0.5209136 0.3977607 5.1777215 16777215
 -0.5227679 0.3994962 5.2127767 16777215
 -0.5245495 0.4025241 5.2249665 16777215
 -0.5361536 0.4044783 5.2543912 16777215
 -0.5320523 0.4090156 5.2803574 16777215
 -0.5365216 0.4118117 5.3104258 16777215
 -0.5332412 0.4163751 5.3400578 16777215
 -0.5380424 0.4206409 5.3699365 16777215
 -0.5412382 0.4260540 5.4021530 16777215
 -0.5485241 0.4314723 5.4324169 16777215
 -0.5476292 0.4306746 5.4627099 16777215
 -0.5499527 0.4337621 5.4841900 16777215
 -0.5530831 0.4369216 5.5110321 16777215
 -0.5554978 0.4388878 5.5338197 16777215
 -0.5585051 0.4405130 5.5569925 16777215
 -0.5636697 0.4437492 5.5828462 16777215
 -0.5657792 0.4433688 5.6076016 16777215
 -0.5671294 0.4436303 5.6266532 16777215
 -0.5741569 0.4488264 5.6506896 16777215
 -0.5719473 0.4515261 5.6760674 16777215
 -0.5773251 0.4516897 5.7000775 16777215
 -0.5784239 0.4531824 5.7235618 16777215
 -0.5797399 0.4594603 5.7464762 16777215
 -0.5893792 0.4565836 5.7717981 16777215
 -0.5921360 0.4589804 5.7897682 16777215
 -0.5946928 0.4608486 5.8156972 16777215
 -0.5957718 0.4607005 5.8347254 16777215
 -0.5943582 0.4599277 5.8568497 16777215
 -0.5981295 0.4622999 5.8796024 16777215
 -0.6046802 0.4650469 5.9055400 16777215
 -0.6095867 0.4678355 5.9272733 16777215
 -0.6124471 0.4704515 5.9509597 16777215
 -0.6129814 0.4758053 5.9765439 16777215
 -0.6141441 0.4790776 5.9898958 16777215
 -0.6166562 0.4777515 6.0123577 16777215
 -0.6211420 0.4795791 6.0361061 16777215
 -0.6249426 0.4849207 6.0586452 16777215
 -0.6286957 0.4828207 6.0803704 16777215
 -0.6318580 0.4849839 6.0952115 16777215
 -0.6323069 0.4872375 6.1149220 16777215
 -0.6348823 0.4874530 6.1295710 16777215
 -0.6338646 0.4869277 6.1459546 16777215
 -0.6412410 0.4853228 6.1618919 16777215
 -0.6488169 0.4862812 6.1749039 16777215
 -0.6527011 0.4805170 6.1851163 16777215
