# .PCD v.7 - Point Cloud Data file format
VERSION .7
FIELDS x y z rgb
SIZE 4 4 4 4
TYPE F F F F
COUNT 1 1 1 1
WIDTH 1195
HEIGHT 1
VIEWPOINT 0 0 0 1 0 0 0
POINTS 1195
DATA ascii
-0.4087880 0.4059686 8.3821068 16711746
-0.5241603 0.4224643 8.4302816 16711746
-0.6305850 0.4030726 8.4547462 16711746
-0.1309388 0.4226538 8.3822393 16711746
-0.4490555 0.4279638 8.4004650 16711746
-0.5957040 0.3939285 8.4123077 16711746
-0.0444761 0.4232855 8.5627127 16711746
-0.0597550 0.4178458 8.6696987 16711746
-0.0338166 0.4255116 8.4572382 16711746
-0.4718646 0.4167014 8.4336452 16711746
-0.4214715 0.4164968 8.3836384 16711746
-0.0764931 0.4200723 8.6002378 16711746
-0.0874600 0.4267446 8.5005484 16711746
-0.4134746 0.4213974 8.3227139 16711746
-0.4158357 0.4240468 8.3556671 16711746
-0.4850647 0.4226795 8.3618488 16711746
-0.1237553 0.4279032 8.3637142 16711746
-0.3749306 0.4255981 8.3399887 16711746
-0.0693058 0.4238019 8.3713503 16711746
-0.1116873 0.4231793 8.5245552 16711746
-0.3119310 0.4232972 8.3623791 16711746
-0.6377496 0.4168003 8.4843521 16711746
-0.0560129 0.4245564 8.5157385 16711746
-0.2412011 0.4213622 8.4068279 16711746
-0.2513482 0.4215950 8.4156504 16711746
-0.5680749 0.4076573 8.4338179 16711746
-0.5033755 0.4049428 8.5883474 16711746
-0.5395581 0.4142303 8.4418993 16711746
-0.5529707 0.4080755 8.4896603 16711746
-0.2746705 0.4239272 8.4547634 16711746
-0.2862118 0.4239715 8.4603748 16711746
-0.2394904 0.4212035 8.3537235 16711746
-0.1944647 0.4293709 8.3219748 16711746
-0.3919179 0.4194978 8.4243565 16711746
-0.4103980 0.4222552 8.3630915 16711746
-0.1219954 0.4287755 8.3932571 16711746
-0.2694595 0.4193736 8.4659176 16711746
-0.4069538 0.4148265 8.4743757 16711746
-0.4915452 0.4182250 8.5117998 16711746
-0.3381798 0.4181333 8.4123955 16711746
-0.4476061 0.4206674 8.3775730 16711746
-0.5823269 0.4087430 8.5967493 16711746
-0.2422653 0.3776049 8.4973021 16711746
-0.4002549 0.4262962 8.3484287 16711746
-0.1119310 0.4271118 8.4252491 16711746
-0.1363674 0.4304556 8.3493414 16711746
-0.5063235 0.4230714 8.3837366 16711746
-0.3971376 0.4134375 8.4388943 16711746
-0.0310005 0.4080852 8.5361404 16711746
-0.6102004 0.4037318 8.5798664 16711746
0.1895533 0.1778932 8.8813734 16711746
-0.5469507 0.4131895 8.5016108 16711746
-0.5818238 0.3857742 8.6560116 16711746
-0.7927867 0.4015662 9.0055056 16711746
-0.2362083 0.4156018 8.5037956 16711746
-0.6325672 0.4008089 8.7461309 16711746
-0.3357659 0.4268502 8.4122839 16711746
-0.2586159 0.4175020 8.7329206 16711746
-0.4195257 0.4122273 8.3699980 16711746
-0.6867650 0.3844841 8.8461409 16711746
-0.3696854 0.4183904 8.5294828 16711746
-0.3827467 0.4085421 8.5193100 16711746
-0.6187181 0.3968825 8.7289715 16711746
-0.4720787 0.4163151 8.4321184 16711746
-0.2472354 -0.1883340 9.5322361 16711746
-0.4932315 0.4164640 8.4172726 16711746
-0.3081315 0.4319831 8.5103168 16711746
-0.3350174 0.4189794 8.5663500 16711746
-0.2907752 0.4081739 8.8730040 16711746
-0.1432040 -1.1815250 11.7237473 16711746
-0.5598114 0.4110277 8.4989023 16711746
-0.5691879 0.4111245 8.5521822 16711746
-0.0442557 0.4224879 8.3929110 16711746
-0.4013083 0.4206547 8.3779364 16711746
-0.1438425 0.4256485 8.3725748 16711746
-0.4279701 0.4086071 8.3761177 16711746
-0.0866491 0.4297316 8.3882742 16711746
-0.6502149 0.4086507 8.5688210 16711746
-0.4902645 0.4201501 8.3854256 16711746
-0.5595781 0.4096648 8.5363216 16711746
-0.6016375 0.4018562 8.5643826 16711746
-0.1691057 0.4188797 8.4408674 16711746
-0.3761079 0.4144246 8.4235306 16711746
-0.2036100 0.4174713 8.3915529 16711746
-0.2580952 0.4212732 8.4307165 16711746
-0.4767768 0.4174367 8.4323540 16711746
-0.0583855 0.4233138 8.4443512 16711746
-0.3260747 0.4189416 8.4098644 16711746
0.3448538 0.0286902 9.0861578 16711746
-0.4477565 0.4168886 8.4497013 16711746
-0.6959797 0.4058312 8.6417103 16711746
-0.0590458 0.4229400 8.4405336 16711746
-0.3053503 0.4236433 8.3812742 16711746
-0.3275990 0.4264460 8.3806143 16711746
-0.0150754 0.4195355 8.5463104 16711746
-0.0676643 0.4271462 8.4179115 16711746
-0.2237080 0.4200405 8.4342136 16711746
-0.0427142 0.4271168 8.5142183 16711746
-0.3563686 0.4214289 8.4295454 16711746
-0.5896858 0.4069231 8.4893808 16711746
-0.2483114 0.4196692 8.4683304 16711746
-0.2688776 0.4198979 8.4663115 16711746
-0.3143893 0.4195622 8.3997841 16711746
-0.1383437 0.4287929 8.3792686 16711746
-0.2736557 0.4204770 8.4902601 16711746
-0.1744048 0.4309528 8.3292809 16711746
-0.0587370 0.4194541 8.5434141 16711746
-0.3098399 0.4204559 8.4695282 16711746
-0.2039210 0.4137060 8.4190502 16711746
-0.1685560 0.4186212 8.4818945 16711746
-0.4772899 0.4282781 8.3642397 16711746
-0.4669262 0.4220834 8.3621664 16711746
-0.3720101 0.4166090 8.4374895 16711746
-0.2766445 0.4256725 8.4066801 16711746
-0.0676702 0.4264320 8.4715223 16711746
-0.2950192 0.4159148 8.5127659 16711746
-0.2738972 0.4204462 8.4904032 16711746
-0.1505927 0.4285744 8.3367014 16711746
-0.2213757 0.4256617 8.3870564 16711746
-0.1271712 0.4266808 8.4441662 16711746
-0.1715927 0.4261111 8.3063726 16711746
-0.1505837 0.4253948 8.3117599 16711746
-0.1465737 0.4210990 8.3037624 16711746
-0.4532149 0.4134256 8.4095335 16711746
-0.1386743 0.4287070 8.3779058 16711746
-0.1206614 0.4298964 8.3947783 16711746
-0.1848508 0.4250730 8.3711090 16711746
-0.2017013 0.4272830 8.3637638 16711746
-0.4285724 0.4141624 8.4073124 16711746
-0.2225328 0.4189743 8.4082613 16711746
-0.6353365 0.4228188 8.4563990 16711746
-0.0893117 0.4298316 8.4172478 16711746
-0.2550602 0.4135860 8.4476976 16711746
-0.2224020 0.4250182 8.3347006 16711746
-0.4529366 0.4130767 8.4072828 16711746
-0.1343802 0.4267613 8.3148003 16711746
0.1044959 0.4265103 8.6073036 16711746
-0.2252977 0.4224378 8.3784189 16711746
-0.4463912 0.4124732 8.6272688 16711746
-0.1468917 0.4208551 8.3057346 16711746
-0.1532245 0.4304988 8.3291368 16711746
-0.1083934 0.4305103 8.3453693 16711746
-0.1798692 0.4239295 8.4194775 16711746
-0.2304884 0.4165559 8.4412031 16711746
-0.0677629 0.4247231 8.3734179 16711746
-0.3151239 0.4162327 8.3914642 16711746
-0.3452255 0.4156878 8.5133677 16711746
-0.6078411 0.4133049 8.4268808 16711746
-0.3645662 0.4115660 8.4087315 16711746
-0.3138928 0.4178585 8.3962545 16711746
0.0042607 0.3963029 8.6307344 16711746
0.0966184 0.4240965 8.5981855 16711746
-0.1971788 0.3811345 8.5069113 16711746
-0.5351443 0.4262536 8.4451599 16711746
-0.4089690 0.4210173 8.3598518 16711746
-0.5233930 0.4168624 8.5436497 16711746
-0.3392420 0.4212426 8.4194374 16711746
-0.6418337 0.3675275 8.8111944 16711746
-0.3838206 0.4148280 8.5033598 16711746
-0.4116359 0.4118093 8.5677795 16711746
-0.3604103 0.4185000 8.4649000 16711746
-0.4499035 -0.4445440 9.7040968 16711746
-0.0778586 0.4285033 8.4467592 16711746
-0.3970115 0.4139554 8.5258312 16711746
-0.4209197 0.4126180 8.5850639 16711746
-0.3692444 0.4304258 8.5430546 16711746
0.1712530 -0.3843469 10.1941719 16711746
-0.3601408 0.4154166 8.7987213 16711746
-0.5987955 0.3953877 8.4170723 16711746
-0.2116682 0.0140769 9.1115484 16711746
-0.0445804 0.4280216 8.4622831 16711746
-0.3441372 0.4264243 8.3809252 16711746
-0.5813841 0.4165757 8.4107456 16711746
-0.1905005 0.4218566 8.3945704 16711746
-0.5377426 0.4116110 8.3949575 16711746
-0.4944495 0.4323488 8.4016838 16711746
-0.0525649 0.4263368 8.5190220 16711746
-0.2291001 0.4141440 8.3943253 16711746
-0.2507473 0.4228577 8.4194927 16711746
-0.4600418 0.4203341 8.3830748 16711746
-0.6002564 0.4097749 8.4136362 16711746
-0.5252135 0.4124406 8.3899174 16711746
-0.2025118 0.4261733 8.3615055 16711746
-0.6082142 0.4086388 8.4492750 16711746
-0.2923720 0.4255083 8.3951530 16711746
-0.2964322 0.4211382 8.4017992 16711746
-0.5854410 0.4151787 8.3893080 16711746
-0.2015599 0.4154924 8.4215250 16711746
-0.5619481 0.4081039 8.6012983 16711746
-0.2990234 0.4151511 8.6360111 16711746
-0.1591192 0.4180297 8.4662218 16711746
-0.1665431 0.4231000 8.4068689 16711746
-0.8366534 0.3915890 8.7078495 16711746
-0.6660044 0.4135770 8.5860538 16711746
-0.5641754 0.4094433 8.4478235 16711746
-0.4197530 0.4185968 8.3676472 16711746
-0.3917952 0.4222336 8.3909826 16711746
-0.2434022 0.4171872 8.4970026 16711746
-0.3833101 0.4129657 8.4824343 16711746
-0.3835368 0.4152004 8.5048151 16711746
-0.2798878 0.4217347 8.4239922 16711746
-0.5434712 0.4110762 8.4196138 16711746
-0.5656772 0.4097353 8.4497738 16711746
-0.3657274 0.4220623 8.4152298 16711746
-0.2956589 0.4167491 8.5139265 16711746
-0.0998625 0.4223749 8.4844790 16711746
-0.1760266 0.4242032 8.3485937 16711746
-0.1915876 0.4206327 8.3917694 16711746
-0.4393810 0.4111854 8.4288635 16711746
-0.3917604 0.4183783 8.4212999 16711746
-0.8565733 0.1998036 8.7297745 16711746
-0.0922428 0.4260709 8.4945564 16711746
-0.2808311 0.4169451 8.5864305 16711746
-0.4991250 0.4040532 8.3027411 16711746
-0.1620232 0.4328680 8.4210787 16711746
-0.8510892 0.1743463 8.8581982 16711746
-0.6027333 0.1688758 8.6137609 16711746
-0.3484762 0.4146640 8.5600147 16711746
-0.2911385 0.4164068 8.4675293 16711746
-0.1554270 0.4216211 8.3531933 16711746
-0.5490979 0.2099133 8.5150213 16711746
-0.5795472 0.4078499 8.5879917 16711746
-0.3137724 0.4163990 8.5463314 16711746
-0.3597977 0.4166950 8.4554176 16711746
-0.3369115 0.4183292 8.5099592 16711746
-0.2332616 0.4201484 8.3941965 16711746
-0.1407570 0.4289640 8.3460121 16711746
-0.8141201 0.1123711 9.1436043 16711746
-0.2181522 0.4180673 8.4600019 16711746
-0.7841477 -0.0307361 9.0068817 16711746
-0.7295196 0.1339144 8.8885374 16711746
-0.5951498 0.3673515 8.7644653 16711746
-0.7669581 0.4335670 9.4968948 16711746
-0.5342498 0.4071820 9.2652006 16711746
-0.3967760 0.4108145 8.6007452 16711746
-0.2414887 0.3535544 8.8216047 16711746
-0.4944373 -0.2487388 9.2373047 16711746
-0.2254636 0.4178920 8.3958998 16711746
-0.4395167 0.4078918 8.7409468 16711746
-0.5573600 0.4099236 8.5001431 16711746
-1.9308872 0.1476308 10.3110609 16711746
-0.1118523 0.4125163 8.7039881 16711746
-0.5802630 0.4024571 8.4736395 16711746
-0.2676072 0.4243414 8.5544538 16711746
-0.5618997 0.4059024 8.3684702 16711746
-0.1219135 0.4081632 8.6849089 16711746
-0.2155547 0.1404786 8.6151667 16711746
0.1589756 -0.0216549 8.8640165 16711746
-0.3410098 0.4185959 8.4977407 16711746
-0.3965800 0.4123845 8.4448242 16711746
-0.4716654 0.4170040 8.4233389 16711746
-0.2771290 0.4071580 8.5200329 16711746
-0.4777073 0.4202274 8.3742628 16711746
-0.5491937 0.4129808 8.4714775 16711746
-0.2584364 0.4186845 8.4953842 16711746
0.1158095 0.4286298 8.6160412 16711746
-0.4209755 0.4165811 8.3849554 16711746
-0.3459578 0.4194034 8.4674978 16711746
-0.7056638 0.4088887 8.5166035 16711746
-0.1832959 0.4125569 8.6099348 16711746
-0.4088866 0.4121536 8.4078283 16711746
-0.2986474 0.4156403 8.5099630 16711746
-0.3464016 0.4185214 8.4659233 16711746
-0.3507108 0.4171161 8.4405794 16711746
-0.3367620 0.4158162 8.5900078 16711746
-0.4240240 0.4125618 8.4956789 16711746
-0.4299374 0.4114187 8.5384369 16711746
-0.4872762 0.4188494 8.4787846 16711746
-0.2008862 0.4207803 8.3954897 16711746
-0.4364685 0.4104237 8.5551214 16711746
-0.3661007 0.4142151 8.4996691 16711746
-0.1123491 0.4131553 8.7020779 16711746
-0.2090365 0.4191287 8.3684263 16711746
-0.2324244 0.4155770 8.4384174 16711746
-0.4237708 0.4115232 8.4927950 16711746
-0.3267817 0.4211271 8.5085468 16711746
-1.0467600 0.0647939 9.0019550 16711746
-0.2490186 0.4209433 8.4921513 16711746
-0.4087399 0.1446746 8.7706327 16711746
-0.9481460 0.3754482 8.8935814 16711746
-0.2823988 0.4152512 8.5685749 16711746
-0.2220490 0.3781179 8.5680466 16711746
-0.7181661 0.3898797 8.9263010 16711746
-0.6774352 0.2871603 8.6488543 16711746
-0.2153898 0.4115062 8.4978037 16711746
-0.2414266 0.3550627 8.8633327 16711746
-0.5871059 0.4092294 8.4328842 16711746
-0.3591045 0.4090353 8.7591267 16711746
-0.2882839 0.4101991 8.7448635 16711746
-0.2351459 0.4082061 8.8981600 16711746
-0.3893664 0.4118806 8.5197735 16711746
-0.3829151 0.4117324 8.5966425 16711746
-0.3948254 0.4161509 8.4526949 16711746
-0.5050636 -0.0561167 8.9915104 16711746
-0.2454342 0.4156041 8.4894276 16711746
-0.3526574 -0.0776361 9.0596857 16711746
-0.6475074 0.4075958 8.5004873 16711746
-0.2894477 0.4039805 8.8538370 16711746
0.5136001 0.2286243 9.1208858 16711746
-0.6686460 0.3104116 9.7258425 16711746
-0.5946350 0.3928179 8.9711294 16711746
-1.3688090 -0.7463056 10.5493078 16711746
-0.1938126 0.3943177 8.9524183 16711746
-0.4188500 0.4236475 8.6730299 16711746
-0.3152057 0.4171297 8.5441637 16711746
-0.5950181 0.4103477 8.4147444 16711746
-0.7784268 0.3996482 9.0407858 16711746
-0.6162252 0.3983657 8.4401817 16711746
-0.2918680 0.4088787 8.8686285 16711746
-0.4394554 0.4077599 8.7384129 16711746
-0.9614797 0.1945549 9.3040953 16711746
-0.2700205 0.4151349 8.5561886 16711746
-0.3634470 0.4109514 8.7738876 16711746
-0.4245566 0.4121661 8.4954338 16711746
-0.3663847 0.4134670 8.5129299 16711746
0.0489176 0.4301124 8.5610170 16711746
-0.5392782 0.4077561 8.4293604 16711746
-0.2612016 0.4145660 8.4666405 16711746
-0.2289434 0.4140524 8.4847250 16711746
-0.5414838 0.4099196 8.4625473 16711746
-0.6737919 0.4054871 8.5602274 16711746
-0.5197796 0.4180245 8.3905258 16711746
-0.3991752 0.4143633 8.4541178 16711746
-0.6189264 0.4118618 8.4613829 16711746
-0.4962271 0.4171464 8.3689451 16711746
-0.7482142 0.3980953 8.5268879 16711746
-0.5887867 0.4029582 8.4312553 16711746
-0.2210966 0.4043239 8.5551405 16711746
-0.6655641 0.2441162 8.8410196 16711746
-0.1988114 0.4153674 8.4911499 16711746
-0.3825312 0.4119260 8.5802927 16711746
-0.3094552 0.4123881 8.6341887 16711746
-0.6347913 0.4016885 8.4843798 16711746
-0.6476089 0.4066780 8.7189598 16711746
-0.4087555 0.4116306 8.4081392 16711746
-0.5593204 0.4075345 8.4433784 16711746
-0.3228697 0.4280356 8.4964142 16711746
-0.2112082 0.4204943 8.4582558 16711746
-0.5062814 0.4152294 8.4130039 16711746
-0.2672664 0.4219322 8.4711437 16711746
-0.2795279 0.4214989 8.4942684 16711746
-0.4724821 0.4171249 8.4040632 16711746
-0.3288480 0.4156648 8.5721807 16711746
-0.4134589 0.4013236 8.5450554 16711746
-0.5315465 0.4010436 8.7318878 16711746
-0.2045981 0.4111531 8.4803448 16711746
-0.4061081 0.4114527 8.5060577 16711746
-0.3882518 0.4095546 8.6314650 16711746
-0.2848651 0.4248027 8.4810448 16711746
-0.4024152 0.4080384 8.5829334 16711746
-0.1753056 0.4164751 8.4274807 16711746
-0.2098685 0.4137185 8.5248613 16711746
-0.1978541 0.3998840 8.7208414 16711746
-0.2122146 0.4114147 8.5535545 16711746
-0.3236710 0.4186729 8.4913559 16711746
-0.2255878 0.4153798 8.4926853 16711746
-0.3580552 0.4062968 8.7467709 16711746
-1.2296507 0.1600470 9.0246363 16711746
-0.4439170 0.4130191 8.7640533 16711746
-0.1177305 0.4136155 8.7279320 16711746
-0.2696981 0.4169554 8.5090761 16711746
-0.5603651 0.4065780 8.3669357 16711746
-1.7923547 0.1984743 9.6843567 16711746
-0.2756194 0.4206246 8.4847279 16711746
-0.3889017 0.4132069 8.4754419 16711746
-0.2110492 0.4127027 8.5230293 16711746
-1.1807096 0.1415720 9.2570677 16711746
-0.3481222 0.4089401 8.6201248 16711746
-0.3455152 0.4135810 8.6347294 16711746
-0.3243663 0.4185502 8.4704504 16711746
-0.2489402 0.3999799 8.8399553 16711746
-1.2464526 0.1295854 9.7465315 16711746
0.6585973 -0.6376525 10.0969162 16711746
-0.2888079 0.4060737 8.8603878 16711746
-1.0498807 0.0911470 8.8573122 16711746
-0.6580285 -0.3728180 10.1048584 16711746
-1.0761106 0.1357364 8.9298153 16711746
-0.6179733 0.4001628 8.9843159 16711746
-0.2874582 0.3849739 9.5436859 16711746
-0.3046208 0.4206170 8.4971561 16711746
-0.5064179 0.4144784 8.4310741 16711746
-0.6173511 0.3985768 8.6704693 16711746
-0.2525880 0.4211747 8.4498358 16711746
-0.5016226 0.4132003 8.4078951 16711746
-0.3237468 0.4209147 8.4972897 16711746
-0.3090888 0.4117504 8.5024118 16711746
-0.2572541 0.4195480 8.4980879 16711746
-0.4993212 0.4103746 8.4226446 16711746
-0.2094587 0.4200602 8.5556545 16711746
-0.2944663 0.4172706 8.5154686 16711746
-0.3837508 0.4147134 8.5017548 16711746
-0.2328883 0.4076476 8.5661249 16711746
-0.4262027 0.4162744 8.5030184 16711746
-0.5626692 0.4037097 8.5659885 16711746
-0.2389127 0.4034922 8.5453520 16711746
-0.6741311 0.4056516 8.5635595 16711746
-0.4110835 0.4080980 8.6492643 16711746
-0.5925609 0.4061111 8.4780798 16711746
-0.5470271 0.4111933 8.4387493 16711746
-0.4074365 0.4093956 8.5303183 16711746
-0.2306642 0.4204089 8.5156345 16711746
-0.3990492 0.4142805 8.4897833 16711746
-0.2795211 0.4156886 8.5727940 16711746
-0.3897191 0.4125666 8.5200310 16711746
-0.2417918 0.4056627 8.5702162 16711746
-0.5737821 0.4039796 8.5842714 16711746
-0.2029039 0.4155146 8.4891710 16711746
-0.1973572 0.4131738 8.5144348 16711746
-0.5759836 0.4100013 8.4862442 16711746
-0.2563191 0.4198504 8.4798393 16711746
-0.3242765 0.4215923 8.4976816 16711746
-0.4397684 0.4097747 8.5189924 16711746
-0.1991934 0.4171989 8.4875031 16711746
-0.2423138 0.4119268 8.5370035 16711746
-0.4039562 0.4108972 8.4636116 16711746
-0.2539525 0.4094323 8.6403427 16711746
-0.6120691 0.4039346 8.4606514 16711746
-0.3036735 0.4151653 8.5408411 16711746
-0.3372413 0.4172353 8.5074596 16711746
-0.4071733 0.4056064 8.6479321 16711746
-1.1599923 0.2475695 8.9773540 16711746
-0.4008765 0.4099569 8.7474566 16711746
-0.3295983 0.4167072 8.5494728 16711746
-0.3130843 0.4180571 8.4980879 16711746
-0.5201006 0.4150182 8.5052242 16711746
-0.2751850 0.4184078 8.4841890 16711746
-0.3774686 0.4136851 8.5119295 16711746
-0.4208506 0.4104152 8.5849895 16711746
-0.6478541 0.3894001 8.9619274 16711746
-0.1999176 0.1697222 8.8470736 16711746
-0.4494631 0.4135031 8.6387377 16711746
-0.2278169 0.1527877 9.1043806 16711746
-0.9907950 0.1888341 9.3117123 16711746
0.9762532 0.0916448 9.7551336 16711746
-0.2648639 0.4047642 8.8751707 16711746
-0.3275648 0.4129799 8.6786642 16711746
-0.3517493 0.4079276 9.0003424 16711746
-1.3356109 0.1386553 9.4494228 16711746
-0.2861960 0.2500226 9.0211620 16711746
-0.2698577 0.3810874 9.3287907 16711746
-0.4396710 0.4047178 8.7974720 16711746
-0.3545707 0.4184547 9.1026287 16711746
-0.6287887 0.3873703 8.9504738 16711746
-0.5877201 -0.4931845 10.5814018 16711746
-2.0203888 -0.2075391 9.8047886 16711746
-0.4237736 0.4112137 8.4923401 16711746
-0.5039663 0.4201095 8.4471779 16711746
-0.5280027 0.4116707 8.5051384 16711746
-0.3449194 0.4152889 8.4753485 16711746
-0.2988162 0.4184552 8.5276299 16711746
-0.5609343 0.4081033 8.5405378 16711746
-0.3826578 0.4137872 8.4971390 16711746
-0.2306698 0.4151483 8.4602356 16711746
-0.3132942 0.4192713 8.5012913 16711746
-0.2136108 0.4146667 8.5028839 16711746
-0.1483697 0.4185941 8.5595655 16711746
-0.5769150 0.4000277 8.5539942 16711746
-0.3416908 0.4096849 8.4732504 16711746
-0.3551348 0.4137157 8.4904194 16711746
-0.3091269 0.4143113 8.5242624 16711746
-0.3545046 0.4142743 8.4915524 16711746
-0.2712203 0.4139599 8.5182276 16711746
-0.3801729 0.4098539 8.5370092 16711746
-0.1527310 0.4159444 8.5588074 16711746
-0.2314056 0.3973623 8.7641563 16711746
-0.2400901 0.4133206 8.5396662 16711746
-0.4364221 0.4107926 8.5897493 16711746
-0.2139488 0.4070984 8.5968027 16711746
-0.6339170 0.4056253 8.5878944 16711746
-0.1272412 0.4171256 8.5992851 16711746
-0.2807963 0.4138581 8.5668097 16711746
-0.3313715 0.4192043 8.5207481 16711746
-0.5671356 0.4102147 8.5491009 16711746
-0.4242167 0.3936335 8.5782566 16711746
-0.1259880 0.4142382 8.7913313 16711746
-0.5024517 0.4109125 8.7310581 16711746
-0.2631343 0.4085677 8.6666012 16711746
-0.2723943 0.4129793 8.5502911 16711746
-0.2814218 0.4200765 8.5036678 16711746
-0.2700197 0.4178699 8.5114527 16711746
-0.3364147 0.4165902 8.5943441 16711746
-0.3658176 0.4134538 8.5110426 16711746
-0.2130227 0.4110711 8.5514460 16711746
-0.4838867 0.4205523 8.4305611 16711746
-0.2661074 0.4056931 8.6516600 16711746
-0.2793474 0.4156310 8.5729694 16711746
-0.9406303 0.1678353 9.1937037 16711746
-0.2539326 0.4131155 8.5287657 16711746
-0.3732898 0.4109774 8.5732069 16711746
-1.3025415 0.3650706 9.1094971 16711746
-0.3821269 0.4101448 8.5180855 16711746
-0.2684398 0.4175761 8.5132284 16711746
-0.2342830 0.4136766 8.4997244 16711746
-0.3900122 0.4102710 8.4792137 16711746
-0.3369280 0.4182272 8.5984221 16711746
-0.3328396 0.4209121 8.5321264 16711746
-0.3211783 0.4190812 8.5695114 16711746
-0.3553711 0.4219685 8.6334124 16711746
-0.2279648 0.4219005 8.5300417 16711746
-1.3971082 0.3633080 9.2017841 16711746
0.8772774 -0.2384001 9.1753054 16711746
-0.3704959 0.4095531 8.7692518 16711746
-0.3731650 0.4097993 8.5690756 16711746
-0.4071005 0.4109474 8.5074472 16711746
1.3678212 -0.0331373 9.5589142 16711746
-0.4468937 0.3912423 8.7705822 16711746
-1.6908512 0.0033774 9.6085081 16711746
-1.9081801 0.0214743 9.6961651 16711746
-0.2610646 0.3839326 8.8868542 16711746
-0.2697406 0.3831366 8.8311920 16711746
-0.3615688 0.4099948 8.7749119 16711746
-0.4052173 0.4087133 8.5862627 16711746
-0.3444590 0.4135364 8.6342363 16711746
-0.4423586 0.4084056 8.7489147 16711746
-0.2463952 0.1081524 9.1074181 16711746
-1.2930154 0.1450429 9.3853397 16711746
-0.6656212 0.4030944 8.5440130 16711746
-0.4222591 0.1402135 9.1340876 16711746
0.5897477 -0.6083655 9.8599348 16711746
1.0756220 -0.4804086 10.0719376 16711746
-0.4342583 0.3948630 8.8766212 16711746
-0.4358664 0.4119280 8.5104465 16711746
-0.5123031 0.4161892 8.4537468 16711746
-0.2357791 0.4125033 8.5512352 16711746
-0.3047290 0.4177740 8.4923611 16711746
-0.2149044 0.4137492 8.4989862 16711746
-0.3825499 0.4115887 8.5212011 16711746
-0.3044355 0.4201036 8.4972620 16711746
-0.2966939 0.4191829 8.5402966 16711746
-0.2312217 0.4165818 8.5060034 16711746
-0.5650856 0.4133290 8.5047855 16711746
-0.2542662 0.4128293 8.5297260 16711746
-0.2362314 0.4025125 8.5850763 16711746
-0.2483507 0.4116063 8.5651407 16711746
-0.2673903 0.4039853 8.5622082 16711746
-0.2300454 0.4050429 8.5936069 16711746
-0.1129423 0.4122723 8.7049456 16711746
-0.4274469 0.4109719 8.5672407 16711746
-0.5690483 0.4166733 8.5171976 16711746
-0.0865514 0.4169304 8.6262350 16711746
-0.1791427 0.4140302 8.6156044 16711746
-0.0344131 0.4155305 8.6151552 16711746
-0.2291753 0.4177697 8.5092049 16711746
-0.0750093 0.4177784 8.4878407 16711746
-0.0826477 0.3968557 8.7157669 16711746
-0.2103580 0.4211187 8.4594088 16711746
-0.3140219 0.4112112 8.7336206 16711746
-0.4937321 0.4158300 8.4263268 16711746
-0.3991134 0.4081410 8.5842285 16711746
-0.3596684 0.4125729 8.5318995 16711746
-0.3914469 0.4136862 8.4892063 16711746
-0.4105582 0.4129046 8.4871683 16711746
-0.4064057 0.4137859 8.5136204 16711746
-0.5059536 0.4212179 8.4498158 16711746
-0.4314185 0.4127617 8.5435028 16711746
-0.2314477 0.4157963 8.5050659 16711746
-0.0813228 0.4098901 8.7032518 16711746
-0.1087522 0.4136640 8.7084112 16711746
-0.1768681 0.4091839 8.6324224 16711746
-0.4019616 0.4125052 8.4939213 16711746
-0.3990144 0.4064502 8.5765486 16711746
-0.3908525 0.4131970 8.5218401 16711746
-0.4328141 0.4139392 8.5486021 16711746
-0.3365461 0.4158985 8.5909643 16711746
-0.1922203 0.4167782 8.4966602 16711746
-0.3545883 0.4140293 8.6027451 16711746
-0.1679182 0.4147536 8.5651293 16711746
-0.2303714 0.4134291 8.4629955 16711746
-0.2541283 0.4110654 8.5024424 16711746
-0.3456756 0.4130275 8.6355896 16711746
-0.1906067 0.4174580 8.5426502 16711746
-0.1881641 0.4177056 8.5456152 16711746
-0.8584825 0.2696739 8.7425995 16711746
-0.1654659 0.3642294 8.8295155 16711746
-0.2098875 0.3914437 8.6687803 16711746
-0.4579219 0.4085886 8.6962366 16711746
-0.2912700 0.4104555 8.8762321 16711746
-0.2654093 0.4042111 8.8801327 16711746
-1.3866590 0.1271466 9.2772989 16711746
-0.2621140 0.4019678 8.6097784 16711746
-0.4012466 0.4125634 8.4938898 16711746
-0.2560081 0.4132902 8.5995617 16711746
-0.4342174 0.3912151 8.6018429 16711746
-0.0968828 0.4139512 8.8215504 16711746
-0.9938645 0.0139877 8.8258686 16711746
-0.3834283 -0.0790186 9.4172564 16711746
-0.2332706 0.1804146 9.0819931 16711746
-0.2526506 0.0374880 9.1757927 16711746
-0.4542465 0.1190613 8.9515514 16711746
-0.4275111 0.3956861 8.5771790 16711746
-0.3809607 0.4089022 8.5845079 16711746
-0.3202411 0.4071512 8.6935291 16711746
-0.2692840 0.4102899 8.5544472 16711746
-0.4287074 0.4121040 8.5718107 16711746
-0.4549688 -0.0249792 9.5137234 16711746
-0.6159919 0.3675392 8.8078508 16711746
-0.4105964 0.4126500 8.8835516 16711746
0.6861721 -0.2641342 9.4264374 16711746
-0.3278596 0.4222864 8.5611687 16711746
-0.2249517 0.4165883 8.5400391 16711746
-0.2139434 0.4136606 8.5482492 16711746
-0.2754456 0.4138983 8.5252028 16711746
-0.3513505 0.4131851 8.5341234 16711746
-0.1047090 0.4222126 8.5770836 16711746
-0.4299603 0.4114178 8.4822664 16711746
-0.0964639 0.4098874 8.7478876 16711746
-0.1776274 0.4227400 8.4848251 16711746
-0.3433420 0.4120057 8.5181170 16711746
0.0832421 0.3988315 8.9179573 16711746
-0.1155929 0.4240610 8.5664101 16711746
-0.3400551 0.4333227 8.5464602 16711746
-0.2971298 0.4202039 8.5213585 16711746
-0.2119732 0.4141519 8.5489988 16711746
-0.1814850 0.4166591 8.5378599 16711746
-0.1376478 0.4173851 8.6136112 16711746
-0.1899481 0.4181825 8.5002317 16711746
-0.3347161 0.4175899 8.5596123 16711746
-0.2848880 0.3741399 8.6369314 16711746
-0.1493785 0.4176952 8.5608273 16711746
-0.2666731 0.4141505 8.6075230 16711746
-0.3853557 0.2478340 8.4984512 16711746
-0.2395052 0.4035341 8.8597870 16711746
-0.2133195 0.4082984 8.7123642 16711746
-0.0802814 0.4061490 8.7680464 16711746
-0.4189805 0.4130135 8.5509787 16711746
-0.1307022 0.4142415 8.6527538 16711746
-0.1217042 0.4210334 8.5568848 16711746
-0.1996789 0.4061864 8.6990681 16711746
-0.3895072 0.4107625 8.4822073 16711746
-0.2595547 0.4161218 8.4706392 16711746
-0.1980062 0.4246238 8.4711580 16711746
-0.2236572 0.4212235 8.4711418 16711746
-0.3464799 0.4159437 8.5167885 16711746
-0.2349234 0.4161285 8.4815769 16711746
-0.2981053 0.4197462 8.5312853 16711746
0.0962818 0.4098254 8.8599005 16711746
-0.2263761 0.4194485 8.4684544 16711746
-0.3189705 0.4213164 8.5308657 16711746
-0.3662846 0.4160658 8.5156126 16711746
-0.5214865 0.4151735 8.6507626 16711746
-0.3912998 0.4095007 8.5370502 16711746
-0.3111561 0.4152547 8.5628138 16711746
-0.3939863 0.4104381 8.5554371 16711746
-0.4383768 0.4103525 8.5094156 16711746
-0.1008506 0.4230566 8.5811529 16711746
-0.2570099 0.4061339 8.6255054 16711746
-0.3502781 0.4137651 8.5056438 16711746
-0.2300639 0.4115785 8.9289236 16711746
-0.3799511 0.4136804 8.5502567 16711746
-0.2927288 0.4066032 8.6807032 16711746
-0.1073473 0.4199498 8.5738430 16711746
-0.1827613 0.4182054 8.5523968 16711746
-0.2018843 0.4115577 8.5755424 16711746
0.2055167 -0.0262337 8.9787073 16711746
0.1335011 0.2033384 9.0229673 16711746
-0.4363318 0.4104991 8.5559130 16711746
-0.1894265 0.4104931 8.5699215 16711746
-0.2675943 0.4049945 8.6502171 16711746
-0.1058373 0.3742218 8.9592628 16711746
-0.1402837 0.4020422 8.7040844 16711746
-0.6196442 0.3753433 8.7589521 16711746
-0.3889243 0.4120949 8.6810961 16711746
-0.5424529 0.4080824 8.7434301 16711746
-0.0697646 0.4154233 8.6525860 16711746
-0.2595422 0.4176920 8.4916449 16711746
-0.3129475 0.4151686 8.7515354 16711746
-0.3614278 0.4084719 8.6269102 16711746
-0.2823912 0.4178279 8.4987812 16711746
-0.3939140 0.4106776 8.5545483 16711746
-0.3712779 0.4245719 8.5847187 16711746
-0.2800395 0.4154520 8.5713196 16711746
-0.4073516 0.4134835 8.5144148 16711746
-0.2710274 0.4089711 8.5937805 16711746
-0.1396794 -0.2962493 9.5601978 16711746
-0.3023680 -0.1527612 9.3067293 16711746
-0.3544334 0.4151543 8.4931755 16711746
-0.2465316 0.4108317 8.5618076 16711746
-0.3216287 -0.4499096 9.9563093 16711746
-0.6148338 0.3843490 8.7543411 16711746
-0.4556211 -0.0287866 9.5252581 16711746
-0.5710118 -0.3843239 10.2610207 16711746
-0.2550950 0.2826378 9.1151543 16711746
-0.7198079 0.5741220 10.1847706 16711746
-0.4815223 0.4140349 8.5280533 16711746
-0.4035192 0.4106719 8.5279932 16711746
-0.4430237 0.4121412 8.4831696 16711746
-0.3898150 0.4121291 8.5190296 16711746
-0.1927817 0.4162776 8.5295134 16711746
-0.5286399 0.4162165 8.5890636 16711746
-0.2544714 0.4129753 8.5282993 16711746
-0.0263468 0.4174844 8.6255646 16711746
0.0900514 0.4084260 8.7723055 16711746
-0.0515583 0.4226674 8.5805855 16711746
-0.2293032 0.4137550 8.5334311 16711746
-0.6147480 0.3149398 8.7333574 16711746
-0.0465757 0.4117449 8.6047535 16711746
-0.3799035 0.4111978 8.5431347 16711746
-0.4608252 0.4105203 8.5816259 16711746
-0.5282301 0.4163779 8.6532230 16711746
-0.0611079 0.1464400 8.7025061 16711746
0.2885638 0.4109979 9.1291771 16711746
-0.1912262 0.4203686 8.5117216 16711746
-0.4320044 0.4085202 8.5572882 16711746
-0.5386571 0.4106557 8.6402788 16711746
-0.3681021 0.4155204 8.5138502 16711746
-0.1760156 0.4096349 8.6333141 16711746
-0.4437214 0.4093775 8.6238689 16711746
-0.4610733 0.4106440 8.6080074 16711746
-0.5463232 0.4099722 8.6550999 16711746
-0.1097429 0.4248840 8.5248165 16711746
-0.5236699 0.4137774 8.5824604 16711746
-0.3946509 0.4117068 8.5593634 16711746
-0.4760367 0.4149374 8.5629759 16711746
-0.2534442 0.4123095 8.5045300 16711746
-0.3941326 0.4097204 8.4903698 16711746
-0.4250568 0.4123931 8.4953861 16711746
-0.4778475 0.4164477 8.5382109 16711746
-0.3999621 0.4110678 8.5189838 16711746
-0.5556731 0.4045801 8.7462130 16711746
-0.4818143 0.4106658 8.6606245 16711746
-0.4593258 0.4110121 8.5307550 16711746
-0.2566603 0.4056774 8.7057428 16711746
-0.2587624 0.4167254 8.5268574 16711746
-0.2710328 0.4140021 8.5529604 16711746
-0.3242304 0.4135789 8.6297579 16711746
-0.4168247 0.4106525 8.5437851 16711746
-0.0489839 0.4020708 8.7753687 16711746
-0.4533454 0.4055371 8.5636692 16711746
-0.3485803 0.4140426 8.5576696 16711746
-0.1575780 0.4224338 8.5240040 16711746
-0.3212584 0.4175594 8.5663719 16711746
-0.6290201 0.3754107 8.7598066 16711746
-0.3052484 -0.0743699 9.1023226 16711746
0.4613920 0.2048729 9.3171082 16711746
-0.5776358 0.1253712 9.0072575 16711746
-0.5970618 0.3987047 8.8275375 16711746
-0.6476464 0.4073500 8.7179661 16711746
-0.3516596 -0.3966745 9.5788221 16711746
-0.3703594 0.4102024 8.5355368 16711746
-0.4800200 0.4139972 8.5898399 16711746
-0.5504705 0.4066384 8.7088375 16711746
-0.2030315 0.4160261 8.5139332 16711746
-0.5522888 0.4034874 8.7411757 16711746
-0.3063616 0.4209633 8.6677895 16711746
-0.6250764 0.3845712 8.9274750 16711746
0.3526791 0.4011184 9.2414522 16711746
0.3155566 -0.0516802 9.0380211 16711746
-0.5343348 0.4135781 8.8729439 16711746
-0.2662550 0.4048602 8.7419348 16711746
-0.3431921 0.4200019 8.8238649 16711746
-0.5308831 0.4131909 8.5437803 16711746
-0.3836058 0.4053059 8.5624466 16711746
-0.2579191 0.3697240 8.9920750 16711746
-1.1257380 0.1143053 9.5138769 16711746
-0.2431822 -0.2045606 9.6061373 16711746
-0.4306451 0.3656291 8.7027798 16711746
-0.4588012 0.3718956 8.8328791 16711746
-0.3961144 0.2439631 8.5685606 16711746
-1.4691488 0.1485181 9.7034531 16711746
-0.4376217 0.4042883 8.6067076 16711746
-0.3861123 0.4093141 8.5754948 16711746
-0.3930042 -0.2923740 10.2516527 16711746
0.0278486 -0.6970302 10.2820396 16711746
-0.5086920 0.4091330 8.5263319 16711746
-0.3091702 0.4166702 8.5678635 16711746
-0.4311460 0.4122713 8.5393410 16711746
-0.4092598 0.4126679 8.5632620 16711746
-0.3498037 0.4141760 8.5818443 16711746
-0.2210388 0.4171595 8.5275126 16711746
-0.3573660 0.4121984 8.5470448 16711746
-0.2172389 0.4112230 8.5705395 16711746
-0.4602299 0.4107075 8.5822620 16711746
-0.4092117 0.4121505 8.5630875 16711746
-0.5277473 0.4073775 8.5252619 16711746
-0.4909053 0.4158657 8.5864353 16711746
-0.5657277 0.4103754 8.6059103 16711746
-0.2850207 0.4155033 8.5974398 16711746
-0.5132852 0.4200662 8.5589228 16711746
-0.4283331 0.4117590 8.5691919 16711746
-0.2286516 0.4025788 8.7278309 16711746
-0.4361528 0.4068622 8.5119667 16711746
-0.4699732 0.4145688 8.4859772 16711746
-0.2433109 0.4130027 8.5558634 16711746
-0.2639769 0.4094603 8.5514469 16711746
-0.2659486 0.4119615 8.5803308 16711746
-0.5171957 0.4104962 8.5716705 16711746
-0.1546447 0.4249752 8.5282011 16711746
-0.1898777 0.4034922 8.7397747 16711746
-0.2563302 0.4096382 8.5935421 16711746
-0.4746122 0.4133375 8.5587835 16711746
-0.5997199 0.3623398 8.7288380 16711746
-0.0984746 0.4208797 8.5887108 16711746
-0.4762308 0.3996811 8.6679611 16711746
-0.5648727 0.4014770 8.5752773 16711746
-0.2408177 0.4065575 8.5714045 16711746
-0.2200762 0.4179266 8.5273848 16711746
-0.8025250 0.3967454 8.9853468 16711746
-0.2619337 0.4024344 8.6153831 16711746
0.0787065 0.0204168 8.8625460 16711746
-0.3546682 0.4071031 8.5776939 16711746
-0.0452408 0.4110506 8.6087704 16711746
-0.6406575 0.3760658 8.7677450 16711746
-0.2427546 0.2302719 8.6856928 16711746
-0.6000276 0.3844161 8.7319927 16711746
-0.0722517 0.4181957 8.6051846 16711746
-0.2708457 0.3624639 8.6719847 16711746
-0.5494350 0.4065530 8.7078018 16711746
-0.1736809 0.4250901 8.4886427 16711746
-0.5392018 0.4023971 8.8225307 16711746
-0.4319201 0.4070556 8.6655130 16711746
-0.4433898 0.4092509 8.6442776 16711746
-0.5429721 0.4040786 8.7860327 16711746
-0.5565895 0.4052145 8.7458630 16711746
-0.4587832 0.4131100 8.4843683 16711746
-0.2791260 0.4084127 8.6267443 16711746
-0.2737688 0.4158437 8.5303202 16711746
-0.2862703 0.4179943 8.5394878 16711746
-0.3821509 0.4075578 8.5352345 16711746
-0.3365021 0.4146202 8.5537491 16711746
-0.5122817 0.4151926 8.5805588 16711746
-0.4401845 0.4092276 8.7480440 16711746
-0.2527907 0.4144027 8.5313931 16711746
-0.4333225 0.4097394 8.4964008 16711746
-0.2698794 0.4114521 8.6054497 16711746
-0.4523990 0.4096572 8.5311794 16711746
0.3827426 -0.0910302 9.2071266 16711746
-0.3110558 0.4087359 8.5954914 16711746
-0.2930823 0.4140126 8.5591125 16711746
-0.5595919 0.4004663 8.9339724 16711746
-0.2833098 0.4104984 8.5577765 16711746
-0.2865709 0.3814418 8.7499352 16711746
-0.4437806 0.3962944 8.6040316 16711746
-0.6609472 0.4217038 8.9668856 16711746
0.3153538 -0.0529668 9.1199303 16711746
-0.3110332 0.4151847 8.5634365 16711746
-0.4109761 0.4100896 8.6631536 16711746
-0.2236992 0.0496311 9.0853453 16711746
-0.3485695 0.4150988 8.6445360 16711746
-0.2899157 0.4157997 8.6975899 16711746
-0.2882946 0.4062055 8.7314615 16711746
-0.0612998 0.4040999 8.7392168 16711746
-0.4020899 0.4068791 8.5912619 16711746
-0.4118401 0.4116064 8.5484190 16711746
-0.5797524 0.4073319 8.5520849 16711746
-0.6021922 0.4038025 8.5620117 16711746
1.3052616 0.0675838 9.4560051 16711746
-0.2715999 -0.3128854 9.6169443 16711746
-0.2661211 0.4119526 8.5824738 16711746
-0.6602187 0.3237518 9.0580683 16711746
-0.2730519 -0.3130281 9.6002560 16711746
0.9758008 -0.4216539 9.7081842 16711746
-0.3081163 0.4141407 8.5799417 16711746
0.6235932 -0.5303056 9.6293488 16711746
-0.2585442 0.4140408 8.5666733 16711746
-0.2592012 0.0164223 8.9702148 16711746
-0.9631672 -0.1278414 9.5703421 16711746
-0.6052055 0.3613417 8.7376480 16711746
-0.5191557 0.4101967 8.6780090 16711746
-0.1423856 0.4123869 8.6493607 16711746
-0.2462244 0.4107967 8.5624371 16711746
-0.2520780 0.3684236 9.0407381 16711746
-0.5452449 0.4041031 8.7676487 16711746
-0.1407993 -0.2381931 9.5382137 16711746
-0.3601543 0.4222212 8.8036070 16711746
-0.4122971 0.4079101 8.7482729 16711746
-0.2213734 0.4001197 8.5723267 16711746
-0.1980275 0.3828119 8.8696423 16711746
-0.3557923 0.0991629 9.3596382 16711746
-0.2634538 0.3627874 8.9586458 16711746
-0.6244032 0.4012249 9.0093470 16711746
-0.3882615 0.4104683 8.6350231 16711746
-0.2851782 0.4164467 8.5984478 16711746
-0.4120587 0.4075636 8.6160927 16711746
-0.2181688 0.4029409 8.5793114 16711746
-0.6383225 0.4050555 8.6886101 16711746
-0.4141621 0.4109894 8.7770929 16711746
-0.3907377 0.4104518 8.8635712 16711746
0.5977757 -0.5031095 9.5819149 16711746
-0.5301762 0.4125909 8.7391014 16711746
-0.2031573 0.4102820 8.6002464 16711746
-0.4747846 0.4192060 8.5360727 16711746
-0.2820264 0.4142846 8.6092167 16711746
-0.4353191 0.4098808 8.5528460 16711746
-0.5168193 0.4149763 8.6179819 16711746
-0.3013974 0.4183402 8.5770597 16711746
-0.4111067 0.4063458 8.6121330 16711746
-0.1502163 0.4091041 8.5327120 16711746
-0.2718720 0.4147892 8.5922318 16711746
-0.2755592 0.4044947 8.5824528 16711746
-0.3542174 0.4126548 8.5966511 16711746
-0.1556732 0.4152874 8.5556622 16711746
-0.2174104 0.4062206 8.6333952 16711746
-0.2529742 0.4130791 8.5568514 16711746
-0.4817192 0.4152302 8.5923004 16711746
-0.2518395 0.4100463 8.5838232 16711746
0.1000002 0.4102122 8.8621264 16711746
-0.0660530 0.4177585 8.6107721 16711746
-0.5204844 0.4114215 8.6395283 16711746
-0.1722306 0.4139568 8.5847387 16711746
-0.3768496 0.4055493 8.6463423 16711746
-0.3732939 0.4098805 8.5699425 16711746
-0.3368810 0.4156063 8.5915747 16711746
-0.4120963 0.4108904 8.5805941 16711746
-0.2408285 0.4065000 8.5999079 16711746
-0.3465710 0.4195983 8.7153902 16711746
-0.5238337 0.4072697 8.5941210 16711746
-0.5239237 0.4112523 8.6845236 16711746
-0.3927122 0.4073266 8.5866480 16711746
-0.2334088 0.3948758 8.7529774 16711746
-0.3326501 0.4105549 8.6393557 16711746
-0.4004612 0.4192406 8.6259480 16711746
-0.3505250 0.4142709 8.5841312 16711746
-0.4345712 0.4091745 8.5504065 16711746
-0.2123085 0.4097079 8.5778351 16711746
-0.4313866 0.4046959 8.6592579 16711746
-0.5123351 0.4151104 8.5805073 16711746
-0.3546111 0.4079353 8.6188202 16711746
-0.4351542 0.4017960 8.6004896 16711746
-0.4650774 0.4138388 8.5522938 16711746
-0.4840760 0.4126505 8.6654415 16711746
-0.4212303 0.3974341 8.7812710 16711746
-0.5741881 0.3923324 8.7753439 16711746
0.5781584 0.1271930 9.4916229 16711746
-0.3547333 0.4100300 8.5863466 16711746
0.1934771 0.0258279 8.8922234 16711746
-0.3612626 0.4124357 8.7435055 16711746
-0.2300349 0.4115147 8.7330627 16711746
-0.2965220 0.3982409 8.8149471 16711746
-0.2932630 0.3995130 8.8302164 16711746
-0.2108201 -0.0560682 9.1475124 16711746
-0.3303829 0.4112895 8.8496618 16711746
-0.3596637 0.4087731 8.7565470 16711746
-0.4101371 0.4050150 8.7553797 16711746
-0.2291183 0.4017866 8.7273874 16711746
-0.2472356 0.3897497 9.0218840 16711746
0.8801800 0.0713305 9.9437485 16711746
-0.3763809 0.4183221 8.6642742 16711746
-0.6282471 0.3852674 8.9445057 16711746
-0.3045187 0.4163820 8.6421385 16711746
-0.5463163 0.4042301 8.8384457 16711746
-0.3044988 0.3621448 9.1085815 16711746
-0.2815728 0.4049704 8.6155891 16711746
1.7109249 -0.0519200 10.5683270 16711746
-1.0371760 -1.2127095 11.6786928 16711746
0.3979847 -0.1695004 9.1445351 16711746
-0.5769365 -0.5039661 10.6129379 16711746
-0.2544234 0.4080417 8.5787268 16711746
-0.6031808 0.3718649 8.7340250 16711746
-0.2361084 0.4007119 8.8228846 16711746
-0.2058320 0.4085993 8.5953474 16711746
-0.2688353 0.4026806 8.7323027 16711746
-0.5418040 0.4208786 8.6672926 16711746
-0.2220085 0.4006315 8.7736034 16711746
-0.2268785 0.4081492 8.5627699 16711746
-0.4317448 0.4051138 8.6615648 16711746
-0.5082470 0.4024157 8.6994333 16711746
-0.3329760 0.4075905 8.6317663 16711746
-0.9612584 0.2744699 8.9598913 16711746
-0.7898483 0.3785703 8.9657574 16711746
-0.2311099 0.4075864 8.5767689 16711746
-0.4241914 0.3923261 8.5737705 16711746
-0.0133450 0.4201722 8.6344223 16711746
-0.2711331 0.3562579 8.7577868 16711746
0.1373061 0.0518373 8.8444710 16711746
-0.4737194 0.3513623 8.6983213 16711746
-0.8825161 0.0729577 9.0735512 16711746
-0.8740345 0.0377735 9.0311241 16711746
-0.2939137 0.4088250 8.6875582 16711746
0.0777439 0.4114677 8.7500010 16711746
-0.5155476 0.4110980 8.6993971 16711746
-0.4406800 0.4156072 8.5646715 16711746
-0.6424707 0.4063987 8.6991272 16711746
-0.5784265 0.3879366 8.7486801 16711746
-0.5169927 0.4107722 8.6703157 16711746
-0.2408775 0.4067870 8.6002293 16711746
-0.2076695 0.4084916 8.5941048 16711746
-0.2357457 0.4003033 8.8227882 16711746
-0.2811548 0.4091936 8.6594658 16711746
-0.4908884 0.4163404 8.5856323 16711746
-0.3547425 0.4084242 8.5805426 16711746
-0.2105871 0.4096144 8.5518465 16711746
-0.2158496 0.4119529 8.5717735 16711746
-0.5197108 0.4076178 8.7149658 16711746
-0.3637969 0.4107370 8.5792456 16711746
-0.3677414 0.4124403 8.6826086 16711746
-0.3588281 0.4121902 8.6020155 16711746
-0.2273082 0.4055846 8.6574478 16711746
-0.1310312 0.4166218 8.6011610 16711746
-0.4930040 0.4173503 8.5501661 16711746
-0.2580844 0.4099057 8.6633024 16711746
-0.5204868 0.4086564 8.7151279 16711746
-0.2408182 0.4085541 8.5651350 16711746
-0.2436374 0.4132792 8.5684671 16711746
-0.2019133 0.4043754 8.6923971 16711746
-0.5510422 0.4127237 8.5821457 16711746
-0.2770438 0.4183762 8.5655584 16711746
0.0996298 0.4103000 8.7858400 16711746
-0.1325127 0.4173217 8.5523539 16711746
-0.3092768 0.4177161 8.6067181 16711746
-0.2973839 0.4156194 8.6333866 16711746
-0.3369609 0.4114283 8.6126976 16711746
-0.1050733 0.4146055 8.6182747 16711746
0.3342614 0.4019563 8.9831696 16711746
-0.2522480 0.4087725 8.5742311 16711746
-0.3256446 0.4096979 8.6185780 16711746
-0.6395329 0.4056368 8.6934566 16711746
0.1127663 0.2556877 8.7320480 16711746
-0.2572234 0.3561957 8.7647552 16711746
-0.2393730 0.4241124 8.7124538 16711746
-0.1152712 0.4034628 8.6796122 16711746
-0.6417086 0.3791893 9.0923080 16711746
0.0990702 0.4170364 8.7341185 16711746
0.0811484 0.3987478 8.7486544 16711746
-0.0357936 0.2822313 8.7251329 16711746
-0.2296620 0.3755515 8.5898647 16711746
-0.0629869 0.3363459 8.6633091 16711746
0.1205078 0.4039821 8.7702780 16711746
-0.2205391 0.3726664 8.7782574 16711746
-0.6093086 0.3735321 8.7422619 16711746
-0.5315804 0.4093284 8.6868515 16711746
-0.2989910 0.4124145 8.6224585 16711746
0.6849455 0.1382191 9.5710173 16711746
-0.5131315 0.4155973 8.5844851 16711746
-0.2954586 -0.1112034 9.2885103 16711746
-0.2477675 0.3685343 9.0449400 16711746
-0.2493943 0.4117107 8.5720177 16711746
-0.3403196 0.4150174 8.6515045 16711746
-0.4153855 0.4028411 8.8011408 16711746
-0.3310483 0.4249513 9.0503950 16711746
-0.2042267 -0.4313478 10.1849098 16711746
1.6812172 -0.0193088 9.8268538 16711746
1.5760996 -0.0152701 9.7608337 16711746
-0.2505164 0.1773282 8.9243212 16711746
-0.3533034 0.4092007 8.5806570 16711746
-0.4106677 0.4084001 8.5763063 16711746
-0.2847926 0.4106910 8.5990963 16711746
-0.2333092 0.4143611 8.5531197 16711746
-0.2657260 0.4119996 8.5636253 16711746
-0.3238408 0.4111717 8.6756344 16711746
-0.3264140 0.4076228 8.6112833 16711746
-0.4393810 0.4114149 8.5911474 16711746
-0.0408756 0.4155903 8.6689062 16711746
-0.4466943 0.4082018 8.5806808 16711746
-0.3929665 0.4074922 8.6277113 16711746
-0.1776112 0.4141381 8.5793591 16711746
-0.1454118 0.4091355 8.6426048 16711746
-0.5050201 0.4051903 8.5602436 16711746
-0.3605002 0.4096601 8.6345701 16711746
-0.1769540 0.4086804 8.6315050 16711746
0.0903062 0.4180793 8.8283577 16711746
0.1140975 0.4123500 8.7985229 16711746
-0.2068689 0.4085627 8.5702791 16711746
-0.4232766 0.4061660 8.6129255 16711746
-0.2527026 0.4048374 8.6499434 16711746
-0.2813111 0.4140344 8.6104441 16711746
-0.2689286 0.4029822 8.6472654 16711746
-0.3817858 0.4024465 8.6219568 16711746
-0.2393619 0.3658840 8.7324486 16711746
0.0113790 0.4188214 8.6395187 16711746
-0.1285923 0.4013700 8.8093529 16711746
-0.4091061 0.4067901 8.5719061 16711746
-0.2886693 0.4089338 8.6294365 16711746
-0.2400825 0.4074481 8.6014872 16711746
-0.4543798 0.4052538 8.6500444 16711746
-0.4783664 0.4091195 8.6528063 16711746
-0.4507915 0.4117970 8.5886402 16711746
0.0902386 0.4078267 8.7755537 16711746
-0.0513682 0.4039016 8.9941797 16711746
-0.0859418 0.4032415 9.0425501 16711746
-0.2529975 0.3682782 8.7709093 16711746
0.0590699 0.3960675 8.7292461 16711746
-0.2733561 0.4090307 8.6436043 16711746
-0.2261472 0.3849618 8.6558304 16711746
-0.2060702 0.3954458 8.6653805 16711746
-0.4203302 0.4019799 8.6086349 16711746
-0.2661451 0.4123768 8.6276817 16711746
-0.3968472 0.4047921 8.7237530 16711746
-0.2306532 0.3969205 8.7658510 16711746
-0.2112141 0.4014345 8.8138857 16711746
-0.2066057 0.4149410 8.5238342 16711746
-0.0282377 0.4173782 8.6252775 16711746
-0.2068177 0.4040295 8.7372818 16711746
-0.2401397 0.4137097 8.5392933 16711746
-0.3744873 0.4081987 8.5997419 16711746
-0.3739889 0.4072903 8.6270666 16711746
-0.1671258 0.4151347 8.5684290 16711746
-0.8380617 0.3796141 8.8852930 16711746
-0.2684317 0.4100799 8.5958977 16711746
-0.5798613 0.3670228 8.7382498 16711746
-0.3040779 0.4180202 8.6742868 16711746
-0.2265717 0.3530392 9.0019226 16711746
-0.4138141 0.3956589 8.5861502 16711746
-0.3820685 0.4003036 8.6353912 16711746
-0.4166699 0.3891271 8.7650652 16711746
-0.4086162 0.4038008 8.7452917 16711746
-0.3829736 0.4112546 8.5796871 16711746
-0.1874842 0.4040239 8.7486124 16711746
-0.2627969 0.4049174 8.6938276 16711746
-0.3938558 0.4095249 8.6343498 16711746
0.2991616 -0.0273529 8.8764143 16711746
-0.4070325 0.4070850 8.6033430 16711746
-0.2498243 0.4028428 8.7849340 16711746
-0.2587469 0.3978921 8.7573519 16711746
-0.3713224 0.4098768 9.0446100 16711746
-0.4753017 -0.1062157 9.8134947 16711746
-0.2340165 0.2078579 8.7378263 16711746
1.1656065 0.0654058 9.6159782 16711746
-1.5282964 -0.0552773 11.0738754 16711746
-0.3978387 0.4064114 8.7303524 16711746
-0.3291192 0.4078896 8.9422483 16711746
-0.2859737 0.4126338 8.6248598 16711746
-0.5133929 0.4072622 8.6690388 16711746
-0.3725587 0.0426694 9.1635170 16711746
-0.5830748 0.3983945 8.7192135 16711746
-0.2569448 -0.4558626 9.8882685 16711746
-0.3514431 -0.2148400 9.6524935 16711746
-0.3913002 -0.0991990 9.5877256 16711746
-0.6147067 0.3374819 8.8200884 16711746
-0.3038253 0.4104509 8.6543751 16711746
-0.3350803 0.4103125 8.8804636 16711746
-0.2773697 0.4071400 8.8970947 16711746
-0.1638920 0.4200641 8.5574818 16711746
-0.2616461 0.4017039 8.5929813 16711746
-0.2629307 0.4043562 8.6067429 16711746
-0.2557584 0.4061960 8.6053162 16711746
-0.6643137 0.2005504 8.6920452 16711746
-0.2608174 0.4038703 8.6390991 16711746
-0.2198226 0.4013660 8.8756142 16711746
-0.1866224 0.3981919 8.6957350 16711746
-0.4086758 0.4023913 8.7541151 16711746
-0.0473414 0.4081987 8.6030493 16711746
-0.5402418 0.4118726 8.6429377 16711746
-0.2712801 0.4099978 8.6027727 16711746
-0.5039474 0.4056370 8.7522297 16711746
-0.3473873 0.4085574 8.6684561 16711746
-0.2870826 0.4055340 8.7783213 16711746
-0.2570865 0.4109585 8.5842838 16711746
-0.4352352 0.3895761 8.7329187 16711746
-0.1726614 0.3924447 8.9239502 16711746
-0.2791060 0.4068211 8.7236958 16711746
-0.3591604 0.4065522 8.7162638 16711746
-0.5229148 0.4127398 8.6640625 16711746
-0.3812048 0.4070345 8.6415625 16711746
-0.0857640 0.4053860 8.9329004 16711746
-0.0500325 0.4027871 8.9980488 16711746
-0.1984595 0.1077558 8.8819008 16711746
-0.3934975 0.3887835 8.7277431 16711746
-0.2287726 0.3923578 8.7646866 16711746
-0.2329781 0.4042153 8.8365736 16711746
0.4544439 -0.0886156 8.8955250 16711746
-0.7530424 0.3425598 8.8419952 16711746
-0.2385814 0.3887224 8.7381678 16711746
0.1920287 0.3421001 8.8462620 16711746
0.0671793 0.4169509 8.7542715 16711746
-0.5227308 0.3958956 8.7442532 16711746
-0.3290814 0.4145617 8.8648796 16711746
-0.2148476 0.3782818 8.8071032 16711746
-0.3244346 0.4125111 8.6264353 16711746
-0.2610875 0.4088392 8.5992880 16711746
-0.3246855 0.4065990 8.7947168 16711746
1.0252496 -0.4248625 9.4515858 16711746
-0.2853375 -0.0863048 9.2703781 16711746
-0.5897142 0.3541110 8.8376894 16711746
-0.3260837 0.4055812 8.8636570 16711746
-0.9134822 0.2097680 9.4381390 16711746
-0.5973269 0.3244505 8.9090805 16711746
-0.2456918 0.3707083 9.0882244 16711746
0.4224102 -0.1884212 9.3311129 16711746
-0.8451859 0.0148694 9.1997404 16711746
-0.2412815 0.1618590 8.9361067 16711746
-0.2283400 0.1270144 9.1361923 16711746
-0.5998167 0.3244554 8.9107246 16711746
-0.2067376 0.4090926 8.5962858 16711746
-0.4777074 0.4157917 8.6013975 16711746
-0.2615150 0.4080749 8.5974731 16711746
-0.1795251 0.4074631 8.6967831 16711746
-0.2042602 0.4050687 8.6355124 16711746
-0.5190965 0.4108513 8.5982656 16711746
-0.5822263 0.3657093 8.7383757 16711746
-0.4731686 0.4121375 8.5930834 16711746
-0.5136501 0.4096574 8.5672560 16711746
-0.3728028 0.4064773 8.6243095 16711746
-0.4390761 0.4093251 8.6574697 16711746
-0.2788641 0.4082623 8.6272974 16711746
-0.0919835 0.4177739 8.6278830 16711746
-0.5864792 0.4032795 8.7226734 16711746
-0.6155329 0.4088828 8.6899166 16711746
-0.6615982 0.4120215 8.7174511 16711746
-0.4045658 0.4104548 8.6196957 16711746
-0.4234267 0.4104962 8.6220512 16711746
-0.2391869 0.4070665 8.5715971 16711746
-0.1809522 0.4068172 8.6937637 16711746
-0.1467707 0.4070817 8.5453510 16711746
-0.3242679 0.4129145 8.6267891 16711746
-0.2412608 0.4047541 8.6285992 16711746
