# .PCD v0.7 - Point Cloud Data file format
VERSION 0.7
FIELDS x y z rgb
SIZE 4 4 4 4
TYPE F F F F
COUNT 1 1 1 1
WIDTH 430
HEIGHT 1
VIEWPOINT 0 0 0 1 0 0 0
POINTS 430
DATA ascii
0 0 0 16777215
0.14249079 -0.040795848 0.094409741 16777215
0.16092719 -0.047870822 0.098039158 16777215
0.16876183 -0.051936369 0.10071865 16777215
0.18432708 -0.048899859 0.1020876 16777215
0.19138424 -0.051484559 0.11228317 16777215
0.19979824 -0.055009935 0.12921666 16777215
0.20149073 -0.0521979 0.13178426 16777215
0.21132714 -0.054949362 0.15467317 16777215
0.2162849 -0.059342716 0.18888718 16777215
0.21122809 -0.0603632 0.21598631 16777215
0.20565748 -0.059159569 0.24223669 16777215
0.19569065 -0.057397954 0.27339709 16777215
0.18417314 -0.071954817 0.3299627 16777215
0.16529775 -0.075261414 0.37703893 16777215
0.14555223 -0.07424663 0.4087117 16777215
0.13826348 -0.07678929 0.45695168 16777215
0.12993854 -0.081167676 0.48323414 16777215
0.16382688 -0.083920561 0.55076635 16777215
0.20273641 -0.080066666 0.60736901 16777215
0.24502949 -0.071899943 0.6488654 16777215
0.35506076 -0.088287547 0.73388696 16777215
0.3843562 -0.10233702 0.76531959 16777215
0.41069925 -0.1037074 0.83337063 16777215
0.422355 -0.11586271 0.87875646 16777215
0.40815085 -0.13586122 0.94592458 16777215
0.42508149 -0.14182661 1.0281427 16777215
0.42256877 -0.15543427 1.0969292 16777215
0.41548738 -0.14769298 1.1457129 16777215
0.4297713 -0.13096759 1.1887763 16777215
0.45398217 -0.13103315 1.2234571 16777215
0.50182801 -0.14946885 1.303565 16777215
0.55826324 -0.16216005 1.3681492 16777215
0.59436643 -0.17523037 1.4177574 16777215
0.62388706 -0.17513701 1.4625183 16777215
0.63060999 -0.18469337 1.5114987 16777215
0.63406694 -0.18479741 1.6061144 16777215
0.63157487 -0.18913732 1.7025038 16777215
0.63841683 -0.20961398 1.7991356 16777215
0.65483081 -0.21447483 1.8810622 16777215
0.68813056 -0.22013807 1.9800234 16777215
0.73319501 -0.22065403 2.0462465 16777215
0.80739534 -0.22652324 2.1375456 16777215
0.87067032 -0.24565518 2.2420199 16777215
0.89013219 -0.24956393 2.2735295 16777215
0.89933366 -0.25498778 2.4072428 16777215
0.91180611 -0.24773462 2.5119913 16777215
0.89340317 -0.2450352 2.6555581 16777215
0.928617 -0.24376172 2.7345657 16777215
0.9646945 -0.2485235 2.8255322 16777215
1.0261103 -0.24860546 2.9045627 16777215
1.1033121 -0.25925213 2.9807549 16777215
1.1960195 -0.26763904 3.0812819 16777215
1.272022 -0.26957098 3.1775243 16777215
1.3230584 -0.29067978 3.340481 16777215
1.3437381 -0.29168314 3.4438479 16777215
1.4150807 -0.30293912 3.5619214 16777215
1.4964423 -0.28850126 3.6515586 16777215
1.5479404 -0.29934746 3.7483928 16777215
1.6570709 -0.33859193 3.8278029 16777215
1.6997901 -0.35660714 3.8927107 16777215
1.7439053 -0.34327102 3.9825127 16777215
1.7437421 -0.35688508 4.073173 16777215
1.7458929 -0.35879493 4.1927972 16777215
1.769374 -0.39557371 4.3181295 16777215
1.7425529 -0.39875773 4.3526464 16777215
1.7694553 -0.4070805 4.4843788 16777215
1.8134294 -0.40458703 4.6103334 16777215
1.904596 -0.43239662 4.7149029 16777215
1.9760178 -0.45890072 4.8197179 16777215
1.9984156 -0.46222728 4.8802619 16777215
2.0292518 -0.48345721 4.9879169 16777215
2.0279362 -0.47520354 5.0739799 16777215
2.033633 -0.49872738 5.2336473 16777215
2.0136325 -0.4893086 5.3482423 16777215
2.0443745 -0.49602297 5.4497042 16777215
2.0601542 -0.50207531 5.5073466 16777215
2.1470871 -0.49099749 5.6303253 16777215
2.2385244 -0.52146524 5.7391224 16777215
2.2719455 -0.53556961 5.7814636 16777215
2.3356464 -0.56195819 5.9054365 16777215
2.3675859 -0.56923127 5.9688783 16777215
2.3917446 -0.57204831 6.1338825 16777215
2.4078095 -0.59394664 6.2824078 16777215
2.4449601 -0.60036248 6.4026561 16777215
2.4807169 -0.59275943 6.5211148 16777215
2.5683973 -0.59350342 6.6063843 16777215
2.6554241 -0.57002515 6.6984863 16777215
2.7594717 -0.62214106 6.8125677 16777215
2.8407784 -0.64138496 6.9198232 16777215
2.8399715 -0.65623182 7.0354781 16777215
2.8458436 -0.64781356 7.1301508 16777215
2.8443549 -0.68074483 7.2269635 16777215
2.8691659 -0.68817395 7.3055763 16777215
2.901921 -0.69542569 7.4115906 16777215
2.9420712 -0.70393091 7.5623665 16777215
3.01542 -0.70551157 7.6396661 16777215
3.0831931 -0.74233377 7.7491555 16777215
3.1309278 -0.77323186 7.8185163 16777215
3.1549284 -0.77620286 7.9226174 16777215
3.155787 -0.76652747 8.0980244 16777215
3.1720016 -0.78276902 8.2468624 16777215
3.1990449 -0.7777856 8.4030113 16777215
3.2736559 -0.79405349 8.5515747 16777215
3.3743267 -0.78611338 8.6590128 16777215
3.4446228 -0.79438341 8.8133669 16777215
3.5152712 -0.80633563 8.9602137 16777215
3.5431671 -0.81239867 9.1034098 16777215
3.5859795 -0.82567567 9.2835236 16777215
3.6279292 -0.83241856 9.4423847 16777215
3.6658835 -0.82218659 9.5950193 16777215
3.686883 -0.83748466 9.6714773 16777215
3.8430283 -0.85752732 9.8533497 16777215
3.9315131 -0.87160885 10.007825 16777215
4.0077786 -0.87785292 10.11733 16777215
4.0207329 -0.89513052 10.214508 16777215
4.0072274 -0.8940987 10.311359 16777215
4.014956 -0.88498557 10.470881 16777215
4.0333834 -0.90989476 10.59479 16777215
4.0796981 -0.88585716 10.702983 16777215
4.135201 -0.90803772 10.83147 16777215
4.2478995 -0.9222554 10.955217 16777215
4.2875609 -0.91648376 11.066097 16777215
4.2994251 -0.93653286 11.13396 16777215
4.3141403 -0.91479838 11.282204 16777215
4.3180714 -0.92452723 11.445338 16777215
4.3425851 -0.90470111 11.586405 16777215
4.3894396 -0.92391151 11.745566 16777215
4.4826512 -0.94504595 11.875419 16777215
4.5673165 -0.96233571 12.011085 16777215
4.626884 -0.96786004 12.082763 16777215
4.6636992 -0.99985635 12.257872 16777215
4.688242 -0.99781537 12.380054 16777215
4.6813765 -1.021719 12.515944 16777215
4.7324286 -1.0232397 12.60782 16777215
4.7769508 -1.0386989 12.729187 16777215
4.8599215 -1.060325 12.798895 16777215
4.9536357 -1.0419128 12.893555 16777215
4.9910326 -1.0691909 13.021234 16777215
5.0393548 -1.0739092 13.169772 16777215
5.055099 -1.0761874 13.242025 16777215
5.0793233 -1.1097158 13.420567 16777215
5.0984426 -1.1197475 13.583136 16777215
5.1643419 -1.1271703 13.731422 16777215
5.2347317 -1.1242378 13.900458 16777215
5.391469 -1.1471652 14.047368 16777215
5.4805856 -1.1670882 14.159385 16777215
5.5432916 -1.1580186 14.312138 16777215
5.5739326 -1.1652895 14.500724 16777215
5.6172404 -1.1808226 14.6388 16777215
5.6213789 -1.1804307 14.749835 16777215
5.6772161 -1.1723217 14.889754 16777215
5.7319884 -1.1718271 15.037354 16777215
5.8332176 -1.176445 15.206314 16777215
5.9375439 -1.1776336 15.349822 16777215
5.9835253 -1.2139578 15.436036 16777215
6.0440888 -1.2232418 15.575938 16777215
6.027904 -1.2147324 15.741735 16777215
6.0508194 -1.2221936 15.869946 16777215
6.0670877 -1.2321198 15.993953 16777215
6.0962834 -1.2424736 16.132986 16777215
6.1930733 -1.2366393 16.286411 16777215
6.3097229 -1.2474242 16.399845 16777215
6.3399119 -1.2718631 16.509426 16777215
6.3884158 -1.2720627 16.647409 16777215
6.3847671 -1.2800812 16.828653 16777215
6.3704267 -1.2830642 17.005838 16777215
6.3817706 -1.3016089 17.170448 16777215
6.4261799 -1.3024812 17.338829 16777215
6.4930105 -1.2993327 17.434441 16777215
6.6038833 -1.320143 17.569262 16777215
6.6849794 -1.3398571 17.699862 16777215
6.7335868 -1.3541389 17.832129 16777215
6.7591782 -1.3625636 17.962017 16777215
6.7637634 -1.3597822 18.138948 16777215
6.8015571 -1.3685617 18.283997 16777215
6.8402491 -1.3783255 18.445402 16777215
6.9236612 -1.375381 18.622555 16777215
7.0245681 -1.401714 18.737961 16777215
7.1035047 -1.4370091 18.864599 16777215
7.1610632 -1.443997 18.996435 16777215
7.2044244 -1.4520755 19.178631 16777215
7.2068286 -1.4374253 19.312162 16777215
7.2215505 -1.4377766 19.455559 16777215
7.2792144 -1.4461122 19.63866 16777215
7.3244715 -1.447194 19.781351 16777215
7.4655547 -1.4688599 19.906507 16777215
7.5378613 -1.495322 20.044809 16777215
7.5840678 -1.4891677 20.153999 16777215
7.6134286 -1.4924544 20.345289 16777215
7.6835761 -1.4692975 20.503704 16777215
7.7364206 -1.5095682 20.659332 16777215
7.8083882 -1.5165726 20.785027 16777215
7.8796425 -1.5184611 20.86688 16777215
7.9686637 -1.5285797 20.977301 16777215
8.0362034 -1.5412937 21.12958 16777215
8.0882778 -1.5462999 21.305906 16777215
8.1182976 -1.5534105 21.486334 16777215
8.1577749 -1.5840406 21.647573 16777215
8.2078266 -1.5655915 21.761393 16777215
8.2758675 -1.5840706 21.939959 16777215
8.4108839 -1.595353 22.102713 16777215
8.5181704 -1.6169933 22.232023 16777215
8.5522861 -1.6236736 22.390001 16777215
8.5755959 -1.6361046 22.504232 16777215
8.5788851 -1.6426744 22.650944 16777215
8.5929871 -1.6582004 22.768408 16777215
8.6240053 -1.6772817 22.882446 16777215
8.6625223 -1.655677 23.027939 16777215
8.7693605 -1.6691421 23.216564 16777215
8.8476305 -1.6880347 23.334351 16777215
8.8975868 -1.674464 23.475033 16777215
8.944869 -1.7000388 23.659468 16777215
8.9746494 -1.7050322 23.850931 16777215
8.966609 -1.7105964 24.025808 16777215
9.0175447 -1.7124991 24.181183 16777215
9.1006489 -1.6976309 24.35918 16777215
9.2358952 -1.7161392 24.508089 16777215
9.3122501 -1.7384672 24.626751 16777215
9.3500948 -1.7499655 24.738892 16777215
9.3452778 -1.7614895 24.883789 16777215
9.3039255 -1.7790793 25.026318 16777215
9.2394333 -1.7787216 25.152819 16777215
9.2916422 -1.7849008 25.247423 16777215
9.3404274 -1.783085 25.371248 16777215
9.4198265 -1.7816283 25.476883 16777215
9.4827452 -1.7945228 25.594509 16777215
9.5162096 -1.7930868 25.738773 16777215
9.5267086 -1.8099774 25.895683 16777215
9.5118208 -1.7936269 26.023487 16777215
9.4937963 -1.7997198 26.164085 16777215
9.5263214 -1.81344 26.275806 16777215
9.5914783 -1.8200924 26.402119 16777215
9.633975 -1.8246254 26.517887 16777215
9.7011786 -1.8279535 26.65736 16777215
9.7206106 -1.8338876 26.809221 16777215
9.6770277 -1.8310021 26.946455 16777215
9.7002048 -1.8155508 27.069109 16777215
9.7738581 -1.8337051 27.206635 16777215
9.8844442 -1.8320175 27.348429 16777215
9.9537077 -1.8275886 27.439512 16777215
10.004404 -1.8576103 27.533501 16777215
10.051221 -1.8475429 27.66 16777215
10.044464 -1.8520817 27.748657 16777215
10.057141 -1.8508708 27.884396 16777215
10.095763 -1.8512009 27.996925 16777215
10.162133 -1.8520118 28.112358 16777215
10.275754 -1.864135 28.216688 16777215
10.31952 -1.8805164 28.29995 16777215
10.342232 -1.8659338 28.397936 16777215
10.360121 -1.8743911 28.549202 16777215
10.380926 -1.8765804 28.635828 16777215
10.38049 -1.8654778 28.759121 16777215
10.41093 -1.8690871 28.887289 16777215
10.502349 -1.8741354 28.998703 16777215
10.6134 -1.894511 29.128389 16777215
10.620852 -1.8957387 29.198156 16777215
10.671285 -1.907088 29.317513 16777215
10.707023 -1.8865308 29.462721 16777215
10.739138 -1.8840653 29.609024 16777215
10.763752 -1.8870696 29.722754 16777215
10.798152 -1.8961692 29.82262 16777215
10.891933 -1.8968191 29.934469 16777215
10.933636 -1.9229853 30.056746 16777215
10.965296 -1.9214853 30.192776 16777215
10.956539 -1.9356729 30.341888 16777215
10.982696 -1.9416242 30.47167 16777215
11.024567 -1.9541978 30.60935 16777215
11.11957 -1.9538413 30.726051 16777215
11.249042 -1.95143 30.8123 16777215
11.273031 -1.9486471 30.933992 16777215
11.273753 -1.9540247 31.070963 16777215
11.2959 -1.9596429 31.194845 16777215
11.314636 -1.9569714 31.302391 16777215
11.350273 -1.9702774 31.442179 16777215
11.452353 -1.9894379 31.577993 16777215
11.521673 -1.9685737 31.710297 16777215
11.556514 -1.9789218 31.816296 16777215
11.570904 -1.9801283 31.957848 16777215
11.584949 -1.9793898 32.080288 16777215
11.604045 -1.9882792 32.201557 16777215
11.648074 -1.9859233 32.330685 16777215
11.750662 -2.0163946 32.481609 16777215
11.794099 -2.005512 32.565487 16777215
11.821499 -1.9931906 32.65794 16777215
11.850355 -2.0012853 32.774719 16777215
11.875367 -2.0148189 32.916134 16777215
11.910968 -2.0216675 33.067467 16777215
11.943736 -2.0258276 33.170963 16777215
12.009999 -2.013551 33.278347 16777215
12.109386 -1.988602 33.413586 16777215
12.147649 -1.9984628 33.515419 16777215
12.176689 -2.0182123 33.648575 16777215
12.160241 -2.0199835 33.749424 16777215
12.228661 -2.0363746 33.890884 16777215
12.348096 -2.041358 34.003147 16777215
12.415555 -2.0810463 34.121639 16777215
12.449192 -2.0729687 34.260403 16777215
12.473302 -2.0732801 34.412521 16777215
12.463901 -2.0598471 34.561157 16777215
12.509409 -2.0648839 34.695477 16777215
12.587818 -2.0644407 34.825649 16777215
12.706973 -2.0784097 34.956245 16777215
12.752543 -2.0631936 35.061401 16777215
12.768658 -2.0781496 35.192825 16777215
12.784087 -2.0815816 35.317539 16777215
12.765591 -2.0725973 35.41544 16777215
12.813864 -2.0651612 35.557842 16777215
12.918734 -2.0714054 35.698406 16777215
12.973095 -2.0711687 35.792336 16777215
13.000901 -2.0741725 35.950485 16777215
13.02833 -2.0826747 36.127628 16777215
13.05535 -2.080405 36.225594 16777215
13.08905 -2.0880814 36.326115 16777215
13.17676 -2.0517964 36.451588 16777215
13.29499 -2.09272 36.591217 16777215
13.346819 -2.1051247 36.687405 16777215
13.383909 -2.0986798 36.829384 16777215
13.391473 -2.0887349 37.013615 16777215
13.443637 -2.089412 37.111691 16777215
13.502201 -2.0867054 37.284767 16777215
13.592999 -2.0764043 37.421097 16777215
13.661567 -2.0971575 37.576611 16777215
13.675331 -2.1120014 37.749626 16777215
13.700142 -2.1277208 37.895721 16777215
13.716184 -2.1149776 38.062851 16777215
13.767302 -2.1185408 38.232506 16777215
13.875291 -2.1247156 38.353184 16777215
13.915427 -2.1484404 38.478561 16777215
13.934647 -2.1390257 38.606865 16777215
13.96734 -2.1365736 38.841904 16777215
13.963468 -2.1526706 38.996834 16777215
14.007085 -2.150063 39.142391 16777215
14.094047 -2.1525273 39.259281 16777215
14.199762 -2.139848 39.375751 16777215
14.26003 -2.170258 39.487614 16777215
14.294126 -2.1746166 39.633533 16777215
14.315911 -2.1724017 39.789135 16777215
14.336994 -2.1633813 39.928761 16777215
14.374469 -2.1696887 40.069771 16777215
14.476211 -2.188339 40.22427 16777215
14.541914 -2.1804118 40.336697 16777215
14.551882 -2.178874 40.477425 16777215
14.580137 -2.1974657 40.652153 16777215
14.588407 -2.1821384 40.763012 16777215
14.636587 -2.1798358 40.913998 16777215
14.722765 -2.1834497 41.040749 16777215
14.804021 -2.2105503 41.165554 16777215
14.831046 -2.2018075 41.308784 16777215
14.855522 -2.2004566 41.460041 16777215
14.844528 -2.2182024 41.637794 16777215
14.887177 -2.2105138 41.778965 16777215
15.02938 -2.200798 41.921143 16777215
15.071185 -2.2014036 42.042004 16777215
15.092581 -2.1933303 42.169147 16777215
15.119157 -2.22105 42.328548 16777215
15.11968 -2.2075465 42.475136 16777215
15.159236 -2.2059979 42.628708 16777215
15.244412 -2.2144461 42.773304 16777215
15.30021 -2.218761 42.88044 16777215
15.328059 -2.2259822 43.037331 16777215
15.338207 -2.2361379 43.170616 16777215
15.340433 -2.2186627 43.349079 16777215
15.364201 -2.2282333 43.467155 16777215
15.438342 -2.2316911 43.622387 16777215
15.526184 -2.2264097 43.752171 16777215
15.559499 -2.2380419 43.892616 16777215
15.574227 -2.2326922 44.031921 16777215
15.603698 -2.2416444 44.158314 16777215
15.626096 -2.2314601 44.263401 16777215
15.689353 -2.2290416 44.407906 16777215
15.770424 -2.2076597 44.545994 16777215
15.818633 -2.2147598 44.674328 16777215
15.836449 -2.2051015 44.82925 16777215
15.824844 -2.2128975 44.961681 16777215
15.859479 -2.2309158 45.1049 16777215
15.878043 -2.2188046 45.2384 16777215
15.954314 -2.2264612 45.385536 16777215
16.021664 -2.2095776 45.509293 16777215
16.046265 -2.2290223 45.669231 16777215
16.023203 -2.2234423 45.818424 16777215
16.051765 -2.2528555 45.937992 16777215
16.100054 -2.2355123 46.070599 16777215
16.183256 -2.2457213 46.200157 16777215
16.263466 -2.2314546 46.348137 16777215
16.296316 -2.2166417 46.507404 16777215
16.312683 -2.2249737 46.647675 16777215
16.343243 -2.2273505 46.762489 16777215
16.378857 -2.2159982 46.893093 16777215
16.475805 -2.2275662 47.020859 16777215
16.525215 -2.2309201 47.118198 16777215
16.55159 -2.2293937 47.241592 16777215
16.60206 -2.2174749 47.406345 16777215
16.619434 -2.2379787 47.517426 16777215
16.671764 -2.210412 47.634331 16777215
16.790579 -2.2079298 47.765549 16777215
16.848776 -2.2072971 47.860016 16777215
16.895067 -2.2021403 48.021423 16777215
16.921162 -2.2127764 48.187443 16777215
16.934481 -2.2047317 48.29068 16777215
16.971666 -2.203099 48.437469 16777215
17.046949 -2.2033079 48.551342 16777215
17.121206 -2.2015989 48.647774 16777215
17.165697 -2.2066357 48.768143 16777215
17.180513 -2.2036633 48.913647 16777215
17.194805 -2.2153676 49.055958 16777215
17.210424 -2.1922905 49.158302 16777215
17.277435 -2.2037239 49.291382 16777215
17.376806 -2.1971898 49.433987 16777215
17.428736 -2.2092354 49.557613 16777215
17.439976 -2.1859887 49.733631 16777215
17.463665 -2.1780643 49.879463 16777215
17.524614 -2.1897144 50.022694 16777215
17.614611 -2.1751933 50.112995 16777215
17.663469 -2.1849833 50.192181 16777215
17.689444 -2.1758137 50.299858 16777215
17.720125 -2.1742339 50.436714 16777215
17.738653 -2.1527641 50.564548 16777215
17.803946 -2.1555424 50.715717 16777215
17.92046 -2.1428084 50.864742 16777215
17.951696 -2.168766 50.965393 16777215
17.995701 -2.1787899 51.056313 16777215
18.004238 -2.1885343 51.2099 16777215
18.003021 -2.1574473 51.312916 16777215
18.02803 -2.1597841 51.400696 16777215
18.085243 -2.165904 51.464909 16777215
18.071814 -2.1520455 51.506001 16777215
18.067732 -2.1660535 51.556458 16777215
18.058989 -2.1697471 51.572956 16777215
18.046553 -2.1703751 51.590984 16777215
