# .PCD v0.7 - Point Cloud Data file format
VERSION 0.7
FIELDS x y z rgb
SIZE 4 4 4 4
TYPE F F F F
COUNT 1 1 1 1
WIDTH 1199
HEIGHT 1
VIEWPOINT 0 0 0 1 0 0 0
POINTS 1199
DATA ascii
-11.692287 -35.044693 4.7212958 16711746
-6.7777982 -15.591105 4.8252058 16711746
-3.7339051 -25.665333 10.951361 16711746
-12.817412 -37.140545 2.9224384 16711746
13.282445 -42.584885 18.074865 16711746
18.130743 -34.384888 9.7196188 16711746
13.932487 -27.974741 24.687243 16711746
-13.23173 -38.674839 3.8246753 16711746
9.129674 -29.782911 8.6695642 16711746
-3.0088367 -24.921701 4.4006214 16711746
4.1290083 -27.586544 3.4292428 16711746
40.181557 -42.273651 11.291734 16711746
2.0304732 -33.539993 1.3136979 16711746
-6.8628402 -29.606106 13.913069 16711746
12.918421 -25.300692 10.425629 16711746
16.75765 -30.281639 8.113308 16711746
15.580091 -36.206139 4.2544003 16711746
-8.9095039 -30.342333 17.711077 16711746
12.426447 -33.273685 11.302899 16711746
-10.545267 -35.37727 9.9881954 16711746
16.522503 -32.334846 10.244891 16711746
-11.03426 -31.463175 4.458539 16711746
-14.645839 -32.855312 5.7389545 16711746
6.2912769 -20.821329 16.428228 16711746
17.254496 -33.855381 10.473812 16711746
-8.5010567 -29.515999 17.480646 16711746
-6.4441361 -31.355885 10.282689 16711746
-8.5056381 -29.271004 17.497656 16711746
18.902229 -24.869633 11.963965 16711746
-3.0527489 -23.218079 19.383944 16711746
-6.4954123 -11.295012 3.2712579 16711746
2.4854066 -27.721012 1.3184782 16711746
-6.5130491 -26.063082 2.9268436 16711746
-9.9808235 -23.035751 4.9585948 16711746
-6.4231272 -27.402781 4.6255999 16711746
6.7158008 -28.88167 -0.84778643 16711746
-1.4957774 -24.74844 3.3233361 16711746
-18.193041 -16.589537 4.2560539 16711746
11.884086 -21.669867 6.2100196 16711746
7.48276 -21.347811 16.550581 16711746
-8.3509254 -28.295971 1.7100762 16711746
-4.7427435 -22.382919 11.066627 16711746
10.071692 -33.129063 9.8063326 16711746
-9.9230576 -29.511986 12.054015 16711746
6.2691555 -32.916103 2.6076155 16711746
-21.668921 -23.898443 11.203711 16711746
11.722968 -32.937382 1.5573335 16711746
-0.34659475 -17.648262 7.6623507 16711746
-2.7863355 -22.13669 7.4094448 16711746
-13.191106 -16.358606 4.0657687 16711746
-12.006189 -31.279924 2.2692831 16711746
20.62888 -38.813381 31.278442 16711746
-2.0551686 -29.973982 6.9564967 16711746
-6.4808626 -32.893574 3.132298 16711746
-0.5740943 -31.833269 5.2983932 16711746
18.597469 -37.965599 -1.1736557 16711746
9.9448252 -33.605637 7.5563674 16711746
-13.417163 -37.374367 3.4604521 16711746
24.387251 -35.957901 4.1448917 16711746
10.572314 -15.322092 1.7542449 16711746
2.6840591 -4.6685925 6.6653147 16711746
-1.2740195 -13.629292 5.0765362 16711746
8.4894409 -30.614803 4.3048658 16711746
16.554262 -33.16864 15.974788 16711746
8.4729252 -32.45652 5.689239 16711746
12.009616 -58.142891 10.040733 16711746
-7.7091269 -28.396765 11.979994 16711746
31.380377 -37.873524 10.614259 16711746
6.0718198 -30.068951 21.579109 16711746
20.598864 -38.031136 22.473509 16711746
6.9765224 -37.001629 2.208771 16711746
20.424131 -37.174675 25.63402 16711746
-23.513378 -21.966331 8.7352552 16711746
3.5662575 -2.8113761 6.0376606 16711746
11.989094 -25.485983 22.521765 16711746
-4.2235675 -24.91095 5.7031012 16711746
22.918774 -30.846594 4.9855771 16711746
22.292244 -29.945187 5.0534935 16711746
-22.569347 -31.375311 10.549939 16711746
15.526419 -28.456856 28.084999 16711746
-7.3361416 -35.142292 10.750869 16711746
-4.8456292 -43.106743 6.5358415 16711746
-16.063614 -38.565964 6.9895334 16711746
14.793475 -22.116478 9.6279802 16711746
14.488746 -27.305992 8.7266188 16711746
-10.482077 -15.019639 8.9455757 16711746
15.085061 -15.729733 9.2811823 16711746
17.986879 -35.720367 10.739888 16711746
14.15691 -34.550434 1.31037 16711746
33.048588 -30.201883 11.330269 16711746
18.269159 -35.090969 18.051971 16711746
8.0125418 -44.882839 33.055458 16711746
23.0889 -34.004349 13.152488 16711746
13.13506 -25.99081 10.546556 16711746
14.868348 -28.939901 8.9657202 16711746
27.011698 -23.341322 11.304456 16711746
-8.5504541 -40.505543 -0.36966607 16711746
18.914265 -33.450043 9.9952765 16711746
13.788548 -45.161407 10.304567 16711746
5.5286059 -24.77951 2.2739265 16711746
27.225952 -29.144659 6.1141424 16711746
-8.9918261 -32.184181 1.9044405 16711746
-11.823975 -28.065247 9.9928989 16711746
-24.819696 -35.439407 11.185722 16711746
-31.28406 -40.477192 8.8761711 16711746
-10.499547 -32.964561 3.5912924 16711746
13.300769 -36.327816 3.6064165 16711746
12.68047 -23.904612 8.5727787 16711746
13.493896 -16.935823 4.6936016 16711746
-12.59974 -17.152575 9.5408964 16711746
13.352161 -34.324894 3.0064394 16711746
6.5979395 -27.011452 6.0140514 16711746
10.941912 -22.46286 13.853109 16711746
18.764851 -27.851833 4.7744565 16711746
11.70365 -27.967611 0.76996166 16711746
38.021111 -120.07114 34.07618 16711746
14.230372 -32.004044 7.9229198 16711746
29.862175 -34.847321 5.6787481 16711746
13.806594 -27.389738 10.726365 16711746
6.0706596 -23.290403 4.4109077 16711746
6.6772847 -16.51306 16.201368 16711746
11.607034 -26.030066 5.4448981 16711746
15.546914 -26.038286 3.1333179 16711746
6.9772491 -28.076109 4.0803499 16711746
26.085276 -27.962204 3.9737234 16711746
15.089123 -34.497742 8.1733742 16711746
14.671801 -27.201008 15.775214 16711746
9.252141 -6.511313 8.8100786 16711746
14.298175 -43.403732 18.950663 16711746
8.1646347 -46.624165 -0.45975944 16711746
18.690701 -40.949963 2.201978 16711746
2.4431016 -27.234056 5.9551544 16711746
3.9319289 -13.78618 10.212555 16711746
17.433241 -26.324526 8.7151346 16711746
16.000969 -32.561123 18.001348 16711746
-6.7415562 -28.098145 13.997396 16711746
40.548038 -72.059479 54.78825 16711746
15.511968 -25.965485 14.161273 16711746
3.2589793 -9.621603 9.4646664 16711746
8.4734812 -30.097345 3.0993755 16711746
14.930995 -29.771307 5.9353256 16711746
12.058962 -22.751293 4.9875984 16711746
14.118326 -34.022232 4.5710988 16711746
17.390627 -25.337677 2.3633804 16711746
9.2022104 -23.316977 9.5958261 16711746
33.142864 -35.713181 3.2556648 16711746
28.847328 -40.910835 5.0092311 16711746
-1.7922088 -17.077854 7.942862 16711746
9.8205118 -31.832886 12.91116 16711746
13.184872 -29.669432 10.251829 16711746
18.310925 -31.203726 2.6695848 16711746
10.465473 -24.545757 7.2467437 16711746
12.093323 -36.704937 16.163034 16711746
21.61088 -29.979305 5.5728655 16711746
2.2908707 -27.114489 12.218452 16711746
32.657719 -36.023853 1.8569297 16711746
14.990421 -24.0525 8.3290911 16711746
-2.3326905 -19.653717 8.1331778 16711746
14.04297 -28.247461 7.7585239 16711746
13.585702 -39.029583 5.9430685 16711746
11.894139 -32.607826 9.3494883 16711746
-7.5569596 -26.349142 13.710343 16711746
19.279396 -32.796654 7.6920576 16711746
-7.8683348 -37.499691 25.987535 16711746
-4.3121085 -29.818872 13.184786 16711746
-5.1349583 -29.302437 24.070652 16711746
-11.258106 -45.192062 7.6748633 16711746
15.94717 -29.310947 9.6311378 16711746
12.571102 -29.068203 16.415867 16711746
4.5637517 -35.977848 3.4676213 16711746
-5.8980045 -21.988102 22.603237 16711746
-4.2304969 -20.869537 22.458269 16711746
2.2323942 -13.815022 12.117673 16711746
-3.654933 -27.144735 20.180233 16711746
2.6292808 -28.385168 22.64377 16711746
5.9229269 -27.384197 27.859867 16711746
2.1562977 -20.14854 21.569714 16711746
-2.9175363 -22.664757 6.4448967 16711746
-2.2489586 -29.471199 19.41378 16711746
11.814739 -42.220562 37.58416 16711746
8.2488527 -22.182325 21.389851 16711746
13.259598 -16.135424 14.957448 16711746
7.043366 -34.638123 28.507027 16711746
-5.370296 -29.583586 6.3548102 16711746
11.539667 -33.06073 13.468753 16711746
20.784531 -41.23119 9.525095 16711746
34.938065 -57.369759 15.898238 16711746
-13.254393 -41.597397 5.0558043 16711746
4.035852 -31.303072 15.864643 16711746
0.15991811 -28.721895 23.13069 16711746
23.170685 -35.216457 12.572353 16711746
20.157745 -34.121773 17.730068 16711746
7.1278596 -32.76112 1.2688395 16711746
-3.9528363 -22.747702 10.370787 16711746
23.036152 -30.531921 1.978214 16711746
22.02247 -38.387016 10.423222 16711746
2.1356359 -27.86994 15.482077 16711746
-13.074396 -16.482552 10.681532 16711746
-15.34687 -19.197718 19.436014 16711746
-11.236552 -32.262245 8.2076778 16711746
5.007865 -22.565248 7.6086926 16711746
14.527486 -28.689491 17.734808 16711746
7.4791055 -20.863474 8.3868961 16711746
6.537806 -26.802639 7.0394602 16711746
10.916119 -16.144083 12.788428 16711746
-21.04221 -22.412523 11.334465 16711746
-11.183625 -12.890556 10.88296 16711746
-5.2196879 -29.48107 24.121574 16711746
-3.328191 -28.169186 15.661319 16711746
-6.0292425 -24.019339 8.1293364 16711746
5.792016 -14.129828 11.819798 16711746
-8.1717834 -24.326881 23.686342 16711746
3.1229243 -16.185217 8.5587616 16711746
9.9582424 -9.7232342 13.928444 16711746
11.633057 -25.800369 19.083347 16711746
11.450027 -24.419718 18.19486 16711746
-27.936621 -37.251915 8.5143805 16711746
27.760153 -48.711964 13.150277 16711746
20.622965 -15.376942 2.8735564 16711746
12.881853 -29.914974 16.677294 16711746
22.111948 -47.904991 28.166176 16711746
10.180485 -18.38084 8.8331785 16711746
9.8995333 -37.326088 5.1736526 16711746
12.615587 -38.594097 4.7531166 16711746
5.7390757 -14.525099 10.909685 16711746
26.268751 -35.403236 11.675599 16711746
5.8930211 -10.488761 12.954464 16711746
28.067186 -25.097565 14.883456 16711746
3.5964911 -28.449322 8.6746597 16711746
39.69735 -33.447304 24.958242 16711746
7.5864725 -26.296768 9.5364628 16711746
26.097193 -29.324907 2.4353559 16711746
30.306446 -54.984375 -2.5843852 16711746
8.1139259 -19.247244 10.887462 16711746
24.668652 -43.435669 4.413867 16711746
15.746757 -26.153198 9.3187666 16711746
11.084082 -32.848152 17.556963 16711746
14.834822 -39.420921 14.176071 16711746
27.451782 -34.661652 11.587965 16711746
11.196867 -32.98312 17.481308 16711746
-8.2684278 -17.75717 8.7102222 16711746
9.1901226 -22.108047 12.054608 16711746
7.7498674 -27.282413 7.7699823 16711746
-3.8317943 -11.520618 5.7465081 16711746
12.686069 -26.019413 15.365609 16711746
7.7531652 -28.100119 3.3580213 16711746
-7.9064255 -31.047352 4.5364242 16711746
6.8776789 -24.570141 5.1599698 16711746
8.7164545 -27.750626 9.4213839 16711746
9.3300905 -25.527842 14.586751 16711746
-0.37209114 -15.501606 7.4092093 16711746
8.5801296 -12.294829 6.5494785 16711746
-15.76555 -19.210369 11.765885 16711746
9.7933683 -34.526928 10.9813 16711746
-1.779695 -14.691294 18.112047 16711746
6.7568207 -20.708445 9.0458765 16711746
11.281273 -24.214479 12.138894 16711746
6.8510647 -33.147301 5.3146787 16711746
6.4961524 -23.691414 4.5857639 16711746
-2.4690063 -23.133104 11.759953 16711746
-2.8535435 -26.383429 14.591279 16711746
-18.087027 -23.489767 12.38512 16711746
9.4832067 -38.351345 7.9319873 16711746
10.927163 -26.666706 12.814397 16711746
-12.984911 -30.214527 11.682005 16711746
-16.993973 -29.07188 10.874844 16711746
10.802232 -25.771902 12.883751 16711746
9.3793545 -12.801265 9.2767954 16711746
15.062797 -32.931774 15.832899 16711746
23.311539 -33.398991 11.480818 16711746
7.4632301 -29.112314 7.3285542 16711746
13.686855 -28.620758 10.643079 16711746
-4.2256074 -22.124456 6.4317508 16711746
12.190472 -20.000767 8.6208382 16711746
13.769084 -23.432076 19.24715 16711746
-19.184072 -38.578316 1.9748876 16711746
25.633768 -22.625778 14.367329 16711746
6.8077431 -26.282139 6.2428904 16711746
15.809604 -25.030455 10.037626 16711746
15.922554 -31.792276 15.766521 16711746
16.419958 -30.2738 16.125332 16711746
23.409956 -33.328949 8.9991341 16711746
19.109646 -35.131302 20.232618 16711746
19.615873 -45.102337 21.967222 16711746
-14.730035 -38.251213 23.51067 16711746
-14.377287 -25.747976 8.3405561 16711746
15.651793 -28.77813 17.187777 16711746
15.462666 -39.00935 11.735806 16711746
11.140439 -36.120743 3.1774004 16711746
22.598207 -52.228264 24.050325 16711746
13.604142 -25.841042 7.8474584 16711746
29.427944 -34.531044 14.250971 16711746
29.592976 -22.160744 13.88749 16711746
28.573484 -40.550541 10.751882 16711746
23.575678 -23.607126 12.04393 16711746
21.854136 -25.975224 11.993417 16711746
10.362906 -19.881819 9.2071695 16711746
11.801665 -16.65028 11.378796 16711746
6.881516 -32.543076 27.345783 16711746
-21.088589 -28.339373 11.527877 16711746
35.216866 -59.859417 43.430031 16711746
43.799652 -77.690262 62.612919 16711746
6.269702 -34.000854 13.263368 16711746
17.583359 -44.695072 14.074594 16711746
32.789715 -29.92288 16.175276 16711746
14.025034 -29.45188 10.630887 16711746
-9.1796017 -24.677626 7.5288682 16711746
-8.6103468 -27.356976 10.980855 16711746
3.2621832 -30.987795 17.756443 16711746
6.9640937 -27.45293 6.5482841 16711746
10.529482 -9.7980967 9.4613771 16711746
3.6442506 -25.387739 27.502855 16711746
14.409058 -37.664341 12.288623 16711746
8.7881098 -21.615009 16.308847 16711746
-6.4338183 -44.02718 3.4284489 16711746
-9.2977238 -27.31414 3.6530168 16711746
-3.7861254 -28.814924 13.83054 16711746
13.295092 -20.933249 18.532064 16711746
7.2023287 -27.325529 5.328424 16711746
6.7240224 -22.426241 6.2313523 16711746
-3.1289816 -21.846674 12.749062 16711746
-7.2837982 -21.408792 7.7144079 16711746
-7.826405 -26.073864 12.672739 16711746
-26.810083 -32.232307 1.0562074 16711746
6.16961 -19.716759 8.6788845 16711746
12.768475 -31.092197 16.773417 16711746
3.3918612 -14.930305 11.672248 16711746
7.731873 -25.58943 11.662905 16711746
10.017013 -23.93148 7.0317254 16711746
4.5380025 -18.747379 8.7878571 16711746
23.504385 -20.985136 5.4194875 16711746
17.485498 -32.335155 17.659433 16711746
2.7686939 -28.713209 8.9667797 16711746
12.875484 -34.761246 12.660134 16711746
10.339053 -79.811745 3.2768919 16711746
16.781038 -27.353136 9.5791082 16711746
0.38245276 -31.884676 22.615612 16711746
-2.9940062 -29.256165 9.4091892 16711746
-3.9349205 -33.990494 12.167641 16711746
-4.4863429 -25.391478 13.961169 16711746
3.5260503 -18.400812 9.3793745 16711746
-12.783132 -21.280624 18.938396 16711746
16.333574 -31.635805 21.245258 16711746
14.634317 -26.720196 15.646364 16711746
7.5648031 -26.404913 7.7950907 16711746
28.570358 -48.821751 36.920406 16711746
7.8635688 -13.830773 9.7155046 16711746
17.612558 -36.982391 18.094183 16711746
6.634553 -59.119884 14.36423 16711746
13.620946 -30.197552 11.602408 16711746
3.1899848 -15.594811 9.3595438 16711746
14.177532 -20.854336 14.623298 16711746
11.154552 -24.731913 12.881474 16711746
11.944782 -23.889603 10.592619 16711746
-3.513603 -49.497444 6.9748645 16711746
-3.0856602 -25.17309 13.137641 16711746
-5.9192538 -28.06823 13.560963 16711746
-13.049537 -31.96608 14.908245 16711746
-15.197264 -15.713287 16.408892 16711746
8.1480875 -25.178095 8.5321722 16711746
17.767752 -27.155613 24.73465 16711746
23.917946 -51.460625 26.186499 16711746
9.9355221 -24.374981 8.0444622 16711746
-6.7169409 -28.271776 13.970874 16711746
-6.5662465 -21.274355 12.540524 16711746
-7.9575529 -29.120285 12.404786 16711746
17.12361 -22.747904 18.399368 16711746
12.925862 -29.159319 16.68215 16711746
-4.6153631 -22.176689 10.919409 16711746
-3.6160071 -35.209503 22.637888 16711746
-5.7643752 -21.760885 9.1001196 16711746
11.870171 -23.605812 19.208529 16711746
-5.7051458 -24.586695 21.859819 16711746
-21.547112 -24.595852 15.172399 16711746
-9.9943371 -17.881165 13.527737 16711746
9.0377159 -18.144405 11.895988 16711746
-1.7275591 -28.944897 8.2100143 16711746
11.31389 -16.699791 19.451 16711746
10.167386 -22.697172 14.107383 16711746
-5.6345134 -25.323053 13.123983 16711746
19.143526 -22.917816 16.474173 16711746
15.472189 -27.539745 15.714664 16711746
8.6472931 -17.068316 19.22838 16711746
12.71768 -33.758545 11.440614 16711746
-4.6305594 -23.377123 18.628685 16711746
-3.8656549 -28.333368 9.1543236 16711746
6.6724286 -20.481483 14.701459 16711746
15.93003 -15.798266 21.181995 16711746
-32.681995 -33.854687 16.997349 16711746
0.62916833 -20.270243 15.210757 16711746
9.9988441 -19.449823 12.873023 16711746
12.246804 -19.247412 24.120495 16711746
10.574363 -15.996026 13.263007 16711746
7.7401237 -25.872135 8.7484903 16711746
-5.345716 -40.07214 24.071289 16711746
-8.7543631 -29.66815 12.010376 16711746
20.756517 -41.648987 33.75494 16711746
23.229954 -43.196415 29.108341 16711746
4.6866665 -11.656415 11.599605 16711746
23.342365 -27.227564 17.209175 16711746
11.55338 -24.493044 15.80738 16711746
11.869904 -30.7465 12.633405 16711746
8.720645 -21.224461 15.089254 16711746
27.07955 -22.792208 14.728482 16711746
10.237132 -23.397987 14.187276 16711746
10.592375 -34.087299 15.353 16711746
22.513157 -21.93598 15.276777 16711746
-6.547471 -21.725487 14.020905 16711746
-12.122024 -20.103443 13.629783 16711746
25.385654 -29.973974 17.826315 16711746
7.2678051 -22.391087 8.4018164 16711746
9.877182 -17.687128 9.441905 16711746
8.0828619 -22.955954 11.227551 16711746
-7.4044437 -23.095472 13.999331 16711746
-12.056338 -40.941254 20.169071 16711746
-7.0759859 -18.119452 12.771224 16711746
9.8290291 -21.69784 11.477793 16711746
22.171888 -32.394596 21.248745 16711746
-3.0859113 -25.274324 13.03099 16711746
9.3694592 -11.345417 11.175291 16711746
26.907225 -28.121208 14.371887 16711746
-13.081245 -19.87339 14.02107 16711746
12.244577 -24.180134 11.961824 16711746
-11.577619 -33.837753 11.445086 16711746
15.527674 -31.068703 19.768759 16711746
12.483342 -22.969767 10.774779 16711746
22.568813 -33.255188 24.110128 16711746
22.714148 -46.889515 25.942778 16711746
-3.0018322 -22.46785 11.244299 16711746
15.65106 -24.457018 15.570848 16711746
21.806873 -27.178699 17.461422 16711746
18.706694 -32.00378 21.376215 16711746
10.11955 -11.728696 11.053019 16711746
-31.773512 -42.590408 6.2450709 16711746
17.62738 -21.976618 9.6492949 16711746
6.0478611 -25.55407 26.62471 16711746
10.633698 -9.7034149 11.634944 16711746
14.247159 -13.320889 19.950909 16711746
57.697754 -85.68277 82.238968 16711746
3.0063474 -14.986238 19.493193 16711746
24.828913 -38.326916 37.019135 16711746
-11.288952 -23.510389 8.3924704 16711746
11.245571 -21.710688 10.681707 16711746
13.991838 -29.879627 16.622097 16711746
20.575703 -22.972221 19.0758 16711746
5.7511697 -20.006266 11.396143 16711746
21.108694 -21.425404 16.995922 16711746
-5.2877855 -36.952957 25.089621 16711746
6.0087891 -29.141197 14.559246 16711746
18.14274 -36.519749 24.403204 16711746
11.150405 -19.911045 16.045324 16711746
6.4731479 -29.47127 19.316227 16711746
16.616859 -25.559019 21.496647 16711746
4.4081154 -20.99404 16.883299 16711746
2.7460585 -27.089947 16.950499 16711746
11.053144 -16.711605 20.504362 16711746
28.773643 -32.480145 16.797808 16711746
22.345503 -30.662279 23.169128 16711746
9.4868841 -20.277967 15.92033 16711746
4.5360584 -20.382879 16.846203 16711746
16.265396 -18.692575 11.328223 16711746
4.6764588 -17.71302 14.046204 16711746
6.4876113 -29.88257 18.741821 16711746
8.4703379 -24.146151 16.92383 16711746
3.6394475 -14.837683 17.178352 16711746
7.8461623 -18.383587 16.110075 16711746
11.486701 -25.811302 15.12552 16711746
32.802753 -34.374535 32.9436 16711746
15.02484 -16.096724 11.469183 16711746
15.194642 -20.956657 11.162765 16711746
7.5562196 -16.833879 14.901364 16711746
12.453794 -18.585991 14.007771 16711746
18.011099 -21.337599 20.918655 16711746
18.881493 -19.165234 23.414846 16711746
10.589589 -21.837227 16.064762 16711746
20.015079 -27.436056 16.425688 16711746
13.614972 -24.980885 13.592004 16711746
15.556616 -27.178654 23.892462 16711746
23.019245 -39.419777 26.949154 16711746
13.921669 -21.597382 17.01935 16711746
5.8220048 -27.497023 13.59909 16711746
6.9747915 -30.188305 17.386242 16711746
12.282732 -17.308201 13.770967 16711746
17.821102 -20.676046 23.119648 16711746
12.542173 -17.759886 13.110624 16711746
31.504288 -32.238987 17.815872 16711746
12.090605 -32.818115 9.1948605 16711746
13.959193 -32.087227 18.700285 16711746
15.150084 -19.639587 17.972237 16711746
21.644537 -27.546406 13.104995 16711746
5.5136342 -22.357073 14.954501 16711746
3.8947721 -18.612206 13.609889 16711746
11.152055 -21.845053 15.653256 16711746
23.431908 -25.93589 20.101206 16711746
10.858491 -26.110239 15.544747 16711746
4.2731018 -33.049793 18.81966 16711746
4.7949638 -16.874762 14.518756 16711746
17.337313 -16.51786 15.958803 16711746
24.902328 -29.351068 15.162425 16711746
8.8031158 -17.887753 12.827967 16711746
41.636143 -69.200325 59.195797 16711746
28.502878 -29.263287 29.569298 16711746
8.0538101 -24.005196 25.633608 16711746
20.272348 -25.07935 18.039742 16711746
26.664034 -32.557457 15.449149 16711746
18.81835 -23.440254 19.683241 16711746
25.119892 -51.882446 27.659487 16711746
16.231628 -20.169264 14.018361 16711746
8.5679302 -21.110693 12.036794 16711746
-5.6587739 -43.177929 31.716434 16711746
7.4446173 -24.244993 23.880167 16711746
10.031783 -13.251057 19.157223 16711746
5.167654 -20.097412 19.513811 16711746
8.5683088 -28.332891 20.266804 16711746
11.558689 -22.980497 18.904518 16711746
26.438322 -36.23843 13.418342 16711746
1.7799673 -18.860229 26.496241 16711746
4.1099811 -27.95335 32.325886 16711746
18.706306 -22.755766 22.241508 16711746
8.1215944 -18.182602 14.581829 16711746
4.7951961 -27.937193 19.234009 16711746
18.099825 -39.220589 20.890125 16711746
7.0783777 -23.992437 16.334877 16711746
32.989468 -38.277966 32.095676 16711746
-10.551928 -28.17235 15.173695 16711746
-3.7721109 -24.046062 16.542418 16711746
17.969055 -23.575094 21.293112 16711746
22.535799 -34.467003 23.06423 16711746
3.1873753 -29.952518 19.030533 16711746
28.403889 -27.399815 23.873943 16711746
6.6652336 -19.208735 16.276594 16711746
-2.4122982 -27.93932 17.339355 16711746
16.395061 -20.994719 15.023688 16711746
0.42927533 -14.827004 22.20986 16711746
14.015411 -21.279032 13.73388 16711746
14.986813 -17.663412 13.845629 16711746
21.77903 -24.971907 17.148462 16711746
17.127363 -20.289942 17.490351 16711746
17.802523 -25.356548 14.870743 16711746
19.397141 -26.269884 16.196745 16711746
-4.3559976 -28.874767 16.109829 16711746
5.1561022 -18.231068 14.750641 16711746
20.731916 -36.182888 22.634312 16711746
-32.285423 -43.392879 6.0247273 16711746
24.167875 -34.217022 23.793034 16711746
17.245926 -30.005522 15.270406 16711746
10.253119 -21.356169 15.608296 16711746
-0.71952319 -29.971226 14.422688 16711746
5.3071914 -34.284512 19.300825 16711746
4.7976751 -12.562592 14.817577 16711746
18.606638 -16.902607 15.098161 16711746
2.2278614 -21.386824 19.753092 16711746
-3.7063513 -26.383955 18.790146 16711746
22.355453 -24.0634 15.709579 16711746
40.416767 -64.181282 52.233894 16711746
13.252913 -22.945877 21.801977 16711746
1.737218 -30.226139 22.271584 16711746
-6.5579453 -33.085823 16.25918 16711746
20.425461 -23.597725 17.146511 16711746
1.1420392 -29.351694 20.158049 16711746
10.288031 -21.725651 14.951746 16711746
13.363832 -29.807941 18.285084 16711746
17.898693 -28.883783 22.865395 16711746
20.902933 -36.372845 23.39012 16711746
3.173692 -18.103624 14.692881 16711746
2.838721 -21.379135 14.489741 16711746
15.907545 -29.770685 19.952135 16711746
17.313175 -29.418741 21.092575 16711746
16.635063 -31.756138 20.391611 16711746
6.0365973 -26.226009 13.013777 16711746
19.812746 -33.324631 22.657278 16711746
23.950159 -22.979382 16.142834 16711746
20.261768 -39.66864 26.698887 16711746
22.536997 -21.513081 16.002436 16711746
8.299695 -14.800034 14.964007 16711746
17.430342 -16.306776 14.204692 16711746
-13.56611 -35.866756 11.667377 16711746
3.6685667 -19.4454 13.713646 16711746
9.4746637 -23.487213 14.401273 16711746
25.09868 -23.695791 14.743376 16711746
28.150379 -20.979662 19.16905 16711746
18.832767 -21.709993 16.195463 16711746
18.687963 -21.764835 16.224131 16711746
5.4890375 -16.056454 22.317259 16711746
11.608224 -16.33025 21.779297 16711746
16.186052 -30.737421 21.161749 16711746
8.436532 -18.845528 15.19916 16711746
14.486563 -19.277571 14.923701 16711746
20.159201 -20.625084 16.273771 16711746
12.031596 -24.567333 22.36367 16711746
-7.4713883 -26.681799 13.850206 16711746
29.575291 -31.569855 19.346481 16711746
16.37088 -20.894201 15.57619 16711746
34.742249 -35.358616 22.233932 16711746
3.9667022 -25.857449 19.425751 16711746
18.566069 -40.626472 20.929527 16711746
18.059034 -27.192892 22.401682 16711746
10.239548 -28.643728 14.381538 16711746
25.672058 -31.452375 15.430078 16711746
15.353723 -20.654394 17.857244 16711746
10.972412 -19.317913 18.989401 16711746
41.322578 -65.861984 53.583054 16711746
2.6891232 -28.09956 18.33676 16711746
17.074301 -28.933975 19.191536 16711746
14.418875 -25.960165 12.457814 16711746
9.5843735 -14.856896 17.812048 16711746
12.986967 -18.37882 15.124983 16711746
14.157652 -21.868553 13.630165 16711746
10.082393 -13.122571 19.946682 16711746
4.4951906 -30.149014 17.754519 16711746
8.9801683 -14.645393 18.803688 16711746
9.167552 -17.598343 16.213449 16711746
8.9986105 -9.134264 17.649458 16711746
9.7158127 -19.128372 16.758966 16711746
8.5300741 -9.8414516 20.108055 16711746
8.8224201 -14.538908 15.07504 16711746
6.3432937 -16.277885 17.313507 16711746
12.836402 -17.306108 15.478322 16711746
9.3239441 -19.368155 13.609855 16711746
11.569608 -14.594027 15.467304 16711746
16.788252 -30.268978 18.580496 16711746
5.8795938 -13.729121 16.800253 16711746
-8.1872272 -16.997347 14.928566 16711746
25.596783 -32.210224 28.963522 16711746
8.5119371 -19.543814 14.556561 16711746
9.573513 -20.767691 12.874962 16711746
9.6092682 -23.178713 13.415908 16711746
10.938992 -17.147738 13.427529 16711746
9.4558907 -18.57947 16.036642 16711746
18.517092 -22.298407 12.233759 16711746
18.523668 -33.830227 24.784868 16711746
33.196781 -30.016434 16.256811 16711746
18.234085 -27.761644 22.423931 16711746
14.827884 -23.681227 28.577398 16711746
18.268669 -32.11937 34.117592 16711746
14.907606 -18.891136 22.818085 16711746
-10.589164 -30.57649 12.258261 16711746
31.203449 -45.368057 24.306999 16711746
24.883207 -48.859024 26.445965 16711746
2.0021243 -19.468798 19.213993 16711746
14.662481 -31.254017 12.372384 16711746
19.495003 -28.588902 19.525969 16711746
24.574976 -27.81485 14.14533 16711746
-15.767147 -72.207123 19.149464 16711746
5.9250584 -17.595749 16.673838 16711746
12.793892 -9.8740606 16.757849 16711746
15.28196 -20.350815 15.803836 16711746
-1.8064221 -20.860655 13.683638 16711746
-6.0848594 -12.924346 20.242586 16711746
16.778254 -24.042904 17.335543 16711746
4.1772885 -24.698992 16.619236 16711746
3.2693722 -23.738678 18.587017 16711746
10.718712 -22.39435 15.163573 16711746
-7.2866926 -25.759241 12.812149 16711746
11.582865 -24.03948 12.554644 16711746
10.873261 -24.706005 13.027074 16711746
19.40871 -23.558802 19.727297 16711746
26.143023 -35.273891 13.220814 16711746
10.954327 -22.025183 15.875955 16711746
19.566351 -29.273125 20.07869 16711746
23.149948 -34.281998 18.909828 16711746
1.9428157 -32.913906 15.438523 16711746
13.314489 -24.854822 13.024201 16711746
21.463858 -20.938498 13.041934 16711746
13.467256 -31.75037 24.799517 16711746
35.878445 -51.88586 12.124623 16711746
3.4901247 -21.608295 27.690037 16711746
23.64467 -32.338997 21.957735 16711746
16.323437 -20.434422 13.044486 16711746
9.859273 -13.777929 14.440369 16711746
15.133538 -25.546576 14.703864 16711746
18.762529 -18.425922 17.960869 16711746
5.362946 -10.674974 15.697453 16711746
13.275421 -16.858883 14.655258 16711746
24.708862 -26.856226 27.926697 16711746
-0.52258474 -35.080963 20.057238 16711746
21.330961 -32.405617 15.880775 16711746
20.011677 -29.741844 19.002972 16711746
-0.50721908 -7.5826368 12.808433 16711746
9.5812321 -24.563761 14.560367 16711746
13.31792 -21.658712 19.310802 16711746
17.184046 -36.649506 26.84375 16711746
17.553719 -23.575277 17.00717 16711746
18.261206 -31.771353 29.620275 16711746
29.582947 -28.440027 21.298637 16711746
12.567384 -18.955496 15.175968 16711746
20.597664 -37.991993 27.060068 16711746
34.22168 -34.056957 22.382528 16711746
3.4772673 -29.669592 12.818051 16711746
15.209979 -33.20356 21.023369 16711746
19.62112 -31.09761 23.062553 16711746
15.14001 -27.489748 15.090316 16711746
14.355696 -20.236162 17.749811 16711746
17.527405 -19.61285 16.653837 16711746
25.596977 -40.162483 17.80673 16711746
2.3666799 -25.117773 14.307703 16711746
23.201719 -26.567987 20.941113 16711746
28.204647 -39.263599 25.096167 16711746
2.7598102 -25.794905 14.291675 16711746
27.308016 -30.038364 23.614878 16711746
15.464385 -26.903309 17.060259 16711746
6.5537353 -13.443572 15.863142 16711746
16.724508 -22.564705 19.174679 16711746
27.783276 -33.097019 22.442955 16711746
19.679445 -45.377876 18.272329 16711746
15.227857 -22.893887 14.996161 16711746
-8.6000299 -14.313699 22.758917 16711746
12.667892 -32.336575 24.654375 16711746
18.593842 -36.473457 19.417336 16711746
18.69153 -36.053806 23.649332 16711746
21.483257 -28.112078 21.77523 16711746
10.21895 -8.7036066 18.45153 16711746
11.493523 -23.279078 14.939045 16711746
15.047638 -32.425846 19.479591 16711746
14.016934 -22.873903 27.335369 16711746
5.0311575 -21.813683 17.670681 16711746
9.8812075 -22.270998 24.343506 16711746
11.145546 -15.260101 22.163254 16711746
14.267934 -21.647762 25.036245 16711746
-3.9793797 -26.337692 18.512121 16711746
12.176758 -22.562746 20.552229 16711746
14.827332 -29.178539 26.430777 16711746
12.514023 -11.772287 18.066481 16711746
24.578293 -34.141426 36.896465 16711746
2.6917903 -23.822672 14.464631 16711746
18.670641 -23.291971 29.250694 16711746
17.026665 -28.941978 27.368959 16711746
13.098374 -26.323616 15.885715 16711746
18.68552 -19.553352 24.200514 16711746
13.540128 -28.494328 15.732481 16711746
12.948963 -26.59206 16.270927 16711746
8.1744347 -17.155111 22.831692 16711746
2.450141 -23.950008 20.110233 16711746
16.465607 -21.050919 16.890881 16711746
11.713544 -15.459618 15.525562 16711746
1.702736 -22.506603 14.115376 16711746
11.006403 -25.4547 15.711066 16711746
14.158968 -18.84445 17.600109 16711746
18.002413 -21.281721 19.157139 16711746
23.222504 -30.61845 21.053951 16711746
18.757605 -34.503307 17.73736 16711746
22.528353 -23.60631 26.561756 16711746
10.520882 -13.924684 16.216908 16711746
17.620186 -23.801929 17.019365 16711746
21.439661 -21.44116 25.847042 16711746
19.274729 -28.407644 24.016619 16711746
-8.2999954 -30.241688 16.482912 16711746
-3.6065922 -32.698891 20.03196 16711746
1.0486792 -29.581673 19.360319 16711746
10.927397 -10.357103 18.444389 16711746
18.042009 -26.50227 18.176594 16711746
-20.771351 -33.180706 21.281557 16711746
15.706014 -12.972505 16.762739 16711746
24.153404 -31.608772 27.210686 16711746
17.290796 -13.721875 18.089273 16711746
11.245173 -21.808807 21.317942 16711746
22.34127 -39.873642 26.69075 16711746
17.264486 -13.755453 16.394333 16711746
-10.008726 -19.414667 23.591757 16711746
24.182779 -47.325424 28.179068 16711746
12.483035 -19.083754 17.311525 16711746
11.339118 -44.043823 16.260479 16711746
16.929108 -22.487598 19.082327 16711746
1.8282707 -22.095749 21.453655 16711746
24.437813 -18.853302 19.010595 16711746
19.635002 -20.221872 26.48296 16711746
11.93906 -22.002144 15.605626 16711746
23.499319 -16.733484 16.118319 16711746
10.236186 -15.570539 16.459175 16711746
18.685196 -28.376202 19.493509 16711746
10.402683 -19.462471 16.666401 16711746
12.744117 -16.503613 16.774866 16711746
14.353815 -16.23632 18.769453 16711746
8.6223316 -13.627032 18.739922 16711746
20.126131 -17.881195 16.657179 16711746
20.2194 -24.329477 15.429847 16711746
18.126951 -20.811646 15.762313 16711746
11.635062 -22.020548 18.154091 16711746
12.130834 -24.509331 20.4671 16711746
3.25984 -11.942102 23.837717 16711746
22.355076 -19.439816 16.465233 16711746
9.4465961 -14.800951 17.799084 16711746
5.5886898 -15.351231 18.497885 16711746
14.179645 -18.07979 17.360579 16711746
24.169357 -52.728901 35.125751 16711746
9.2600088 -36.513397 21.467752 16711746
33.23732 -42.584381 48.674641 16711746
17.013231 -52.641052 19.911461 16711746
-13.167575 -24.248941 25.93185 16711746
-23.070248 -35.068989 27.200769 16711746
48.904781 -77.580338 72.241501 16711746
-8.2176075 -27.345636 23.54055 16711746
11.193184 -26.608948 19.379656 16711746
17.178991 -27.092403 24.932444 16711746
17.400976 -35.403847 22.233282 16711746
14.08483 -20.593807 16.664707 16711746
13.303359 -17.084448 19.330421 16711746
14.566939 -21.535099 21.000471 16711746
-7.6271682 -15.429527 23.460073 16711746
16.431328 -27.38587 19.95368 16711746
7.9047246 -19.964401 26.162323 16711746
13.294765 -33.858459 17.748056 16711746
-1.9237707 -10.008678 23.859783 16711746
-9.0272951 -36.996849 25.813211 16711746
3.1190376 -43.945309 38.522579 16711746
8.2159224 -7.4650917 19.755554 16711746
4.9042559 -19.837667 19.427921 16711746
19.051538 -22.266178 16.48937 16711746
27.137619 -31.952465 23.951363 16711746
-15.238759 -19.984167 26.009253 16711746
4.1514339 -17.645262 19.119143 16711746
-0.80389488 -42.888668 35.070229 16711746
4.7462807 -37.826866 19.574678 16711746
17.271948 -39.032543 22.594677 16711746
4.5882812 -30.930706 25.362474 16711746
-0.42671058 -37.633377 32.774933 16711746
18.841791 -35.445095 24.331085 16711746
-12.174052 -20.039097 19.649105 16711746
4.2169881 -33.592018 28.37711 16711746
-1.1785059 -25.417498 19.40383 16711746
15.454322 -35.169128 18.404881 16711746
17.201067 -27.520632 30.862453 16711746
14.556991 -24.027027 26.479317 16711746
-11.645888 -23.570583 23.970404 16711746
1.6747212 -38.09269 30.194439 16711746
11.682626 -14.602322 19.688198 16711746
-2.9512591 -15.344961 17.116325 16711746
16.019352 -31.673058 21.221884 16711746
16.886271 -25.908381 23.511072 16711746
-0.46344087 -15.583977 19.966806 16711746
4.5911379 -33.276386 33.460125 16711746
7.6424932 -26.222082 18.207981 16711746
29.822412 -25.494221 32.859047 16711746
6.7647367 -28.704456 28.789541 16711746
15.533891 -29.929262 21.384882 16711746
7.1878357 -24.9576 25.363914 16711746
23.609797 -32.540222 36.785408 16711746
15.738506 -25.151613 20.746069 16711746
23.574583 -28.7159 36.609547 16711746
6.0015531 -32.468601 33.18782 16711746
27.051342 -28.129139 25.364658 16711746
11.874099 -32.490486 20.143351 16711746
17.013542 -27.249645 20.828939 16711746
18.353989 -31.526312 20.920128 16711746
14.176872 -34.401264 28.617706 16711746
30.965166 -26.867233 23.476467 16711746
12.165822 -29.557302 29.552794 16711746
12.018538 -25.602999 20.812683 16711746
23.906076 -25.863756 37.161709 16711746
38.604366 -31.383884 38.694542 16711746
-9.8975821 -41.056423 18.451986 16711746
13.089478 -31.68788 29.7502 16711746
39.332378 -30.417366 34.468044 16711746
19.095135 -32.512455 26.099493 16711746
20.408829 -23.439112 26.046461 16711746
24.264753 -29.457575 21.844158 16711746
13.066883 -22.159412 24.553556 16711746
16.743017 -27.757938 28.910387 16711746
32.809254 -28.718866 23.937038 16711746
28.902514 -25.020353 21.605459 16711746
16.815977 -29.617376 25.134754 16711746
19.461262 -25.243128 20.933662 16711746
9.1815081 -32.717041 27.304995 16711746
12.4597 -29.330841 29.712145 16711746
22.905651 -19.850985 22.386982 16711746
7.7531042 -23.397987 26.070438 16711746
12.246757 -29.577002 29.567112 16711746
17.973963 -31.059782 22.678562 16711746
6.6180921 -27.185955 24.289509 16711746
32.815487 -37.717533 54.557632 16711746
-20.558727 -34.978081 18.043663 16711746
10.720684 -27.501291 27.094145 16711746
1.4699937 -32.003998 45.708611 16711746
7.4301109 -26.701645 26.901165 16711746
11.974365 -29.387388 26.818094 16711746
15.043616 -21.463953 21.269243 16711746
9.2850094 -37.954342 25.236855 16711746
1.3206539 -26.865179 29.009716 16711746
17.386866 -25.383257 23.771687 16711746
20.654657 -22.109058 41.659073 16711746
15.865126 -25.031548 26.394663 16711746
27.911198 -23.243141 31.843889 16711746
21.121881 -27.426683 29.356394 16711746
19.65197 -18.977417 29.868898 16711746
27.030195 -35.069706 27.598888 16711746
19.971489 -27.511011 46.793827 16711746
19.959993 -21.516747 29.885563 16711746
7.040946 -42.00341 27.943518 16711746
19.778088 -20.908512 26.085785 16711746
10.864811 -34.318787 29.264442 16711746
1.4804822 -31.113575 31.746618 16711746
25.466497 -33.6264 42.042118 16711746
15.593964 -14.907697 32.798359 16711746
13.251701 -32.83469 36.883266 16711746
20.334703 -21.110765 28.315714 16711746
13.308843 -34.194809 42.41383 16711746
28.30171 -25.950823 38.514584 16711746
28.883423 -20.227852 40.612949 16711746
20.684534 -27.227749 29.235043 16711746
23.882162 -20.988354 27.073959 16711746
25.949167 -29.103798 39.941078 16711746
10.582797 -30.709949 21.024473 16711746
27.574726 -24.702551 31.675406 16711746
31.858446 -30.61548 32.753902 16711746
-2.6016181 -25.461201 26.296841 16711746
8.5710087 -24.334171 21.327654 16711746
35.773243 -22.613274 24.983643 16711746
24.529402 -25.807636 38.813419 16711746
-6.0362153 -43.447674 27.377041 16711746
21.401094 -28.318762 34.085289 16711746
8.7760849 -34.274532 26.453461 16711746
25.332218 -21.980125 29.585604 16711746
34.755302 -26.116417 35.901188 16711746
16.946304 -30.238388 21.91997 16711746
19.18895 -21.765265 37.616367 16711746
26.029089 -34.349899 22.917641 16711746
14.980106 -36.202911 20.42617 16711746
12.731568 -30.548225 20.676889 16711746
7.6336794 -26.601273 21.461803 16711746
29.889244 -21.792912 18.030914 16711746
9.2712355 -30.643946 25.803486 16711746
4.8429785 -35.923527 30.124315 16711746
9.5066605 -34.394161 24.941133 16711746
8.5462618 -20.813951 21.22436 16711746
9.2484741 -20.459236 22.903509 16711746
4.4090333 -28.613544 21.967735 16711746
5.8429346 -27.428608 21.538111 16711746
4.5293541 -36.152946 21.588505 16711746
17.351742 -26.160353 23.933662 16711746
20.548035 -24.195082 27.677204 16711746
10.176233 -30.717562 19.254801 16711746
7.1118503 -26.788908 20.706892 16711746
22.016037 -17.915886 38.427563 16711746
20.72401 -23.614 30.73996 16711746
17.029091 -19.116026 33.037346 16711746
-2.7048721 -25.510109 26.305567 16711746
-4.2972069 -36.223179 16.507515 16711746
-13.109016 -20.987984 31.456436 16711746
20.233191 -27.714241 31.935493 16711746
27.744267 -42.675079 37.057404 16711746
6.1945386 -25.363003 21.663961 16711746
5.5798316 -20.30477 22.607529 16711746
1.8635521 -29.086882 23.878321 16711746
7.0292249 -22.276873 25.919786 16711746
5.7417631 -27.530819 21.832611 16711746
21.430006 -25.695026 35.162926 16711746
28.733166 -25.918339 25.753534 16711746
8.0569344 -24.888447 19.592373 16711746
26.476591 -24.507904 26.477922 16711746
22.169598 -18.020494 38.54068 16711746
17.711275 -17.124624 29.055199 16711746
8.0660372 -25.184771 19.577187 16711746
23.188862 -28.775194 40.570229 16711746
19.310572 -28.871672 34.547802 16711746
16.849392 -26.707989 24.186039 16711746
12.397546 -25.334793 36.736744 16711746
10.521152 -21.855511 20.76996 16711746
17.433613 -23.149881 26.199785 16711746
27.659784 -19.154835 28.495918 16711746
14.761417 -32.531681 22.268286 16711746
27.904181 -26.528746 25.397959 16711746
15.878019 -25.107422 20.067266 16711746
11.377995 -24.617163 39.574226 16711746
19.544777 -29.885462 35.023319 16711746
22.60544 -19.932167 33.034588 16711746
25.950979 -28.512699 27.889425 16711746
4.6795607 -21.138723 28.908735 16711746
29.474627 -35.271824 48.221966 16711746
8.8524752 -21.166241 22.705469 16711746
27.673481 -25.575794 26.356159 16711746
4.7264891 -14.391665 30.635475 16711746
-12.861569 -21.840784 30.962921 16711746
11.863991 -16.723776 28.75429 16711746
15.668964 -26.710817 30.246075 16711746
18.762453 -27.087915 26.329817 16711746
20.829014 -33.216904 36.665482 16711746
27.619976 -22.130648 25.300821 16711746
14.175453 -21.533045 37.430237 16711746
17.232117 -22.963953 25.817045 16711746
29.32555 -26.527718 27.788111 16711746
18.631416 -25.70896 32.028679 16711746
12.271074 -15.644386 25.545504 16711746
24.016554 -23.21434 25.200024 16711746
5.7126532 -22.119667 24.990534 16711746
16.344015 -25.541525 22.483974 16711746
13.06321 -26.101639 24.024822 16711746
11.598308 -19.602606 32.816082 16711746
-11.995919 -24.063152 28.018444 16711746
20.251986 -17.199413 25.007185 16711746
19.169001 -21.208582 22.910875 16711746
26.605677 -24.613476 27.922016 16711746
18.805557 -28.407707 29.376549 16711746
22.515785 -23.043095 25.004484 16711746
-33.856411 -60.15065 21.812359 16711746
22.822817 -30.031656 34.350323 16711746
27.665628 -21.649256 26.416021 16711746
9.6417551 -20.743076 31.4937 16711746
23.107399 -38.428402 41.976204 16711746
26.072702 -21.114063 23.790176 16711746
-7.7577043 -28.104425 24.882477 16711746
18.950647 -18.733223 38.738625 16711746
17.440704 -22.817028 27.241423 16711746
28.537176 -23.731804 28.277407 16711746
19.103283 -36.70155 39.748077 16711746
19.440063 -27.855045 26.140875 16711746
26.505224 -20.106407 25.200703 16711746
18.810987 -27.396076 32.24118 16711746
17.547016 -17.014223 25.481033 16711746
18.272486 -25.741922 30.634716 16711746
19.790476 -20.231606 23.967054 16711746
30.875385 -25.867697 28.156727 16711746
14.61013 -23.42901 25.415541 16711746
23.1481 -18.343563 23.672422 16711746
25.025808 -24.429909 24.647505 16711746
30.107288 -23.853271 26.669144 16711746
27.165518 -19.913799 28.709547 16711746
20.853006 -19.977224 27.75592 16711746
14.317601 -16.864744 22.347746 16711746
9.5149136 -35.04446 47.284195 16711746
-16.474979 -37.200684 33.227966 16711746
24.116709 -18.285105 24.509308 16711746
25.450544 -20.882328 24.498415 16711746
27.706095 -23.869987 25.054502 16711746
26.158691 -26.095228 24.456238 16711746
23.444996 -21.395103 23.839823 16711746
20.803528 -22.226431 41.788086 16711746
8.2992029 -13.417453 21.883476 16711746
20.02606 -29.409067 40.476173 16711746
28.451223 -27.462669 29.409952 16711746
21.063753 -22.392202 41.984631 16711746
11.126693 -35.859344 49.616711 16711746
23.902342 -16.214729 22.865496 16711746
17.578922 -17.783476 23.799419 16711746
17.538307 -18.402771 26.49995 16711746
9.2014875 -37.982895 36.807861 16711746
32.678043 -32.79995 52.485371 16711746
21.308846 -18.916759 28.350531 16711746
18.803986 -22.380842 24.240763 16711746
16.186335 -32.699551 45.534084 16711746
16.043625 -26.938044 32.507381 16711746
14.916099 -17.91696 23.751745 16711746
25.477522 -22.304134 33.914356 16711746
18.631847 -21.202435 28.483877 16711746
15.493464 -23.704842 23.415359 16711746
19.211931 -20.729675 24.127794 16711746
18.219208 -39.061832 50.301819 16711746
26.949581 -19.961422 31.86459 16711746
31.083269 -20.568493 25.945122 16711746
8.2889071 -16.722521 25.615007 16711746
9.8833961 -33.881748 27.691673 16711746
-9.0108032 -18.639547 32.303967 16711746
19.767273 -15.075116 29.294937 16711746
5.4055309 -23.754562 31.096743 16711746
21.028513 -23.177973 35.834381 16711746
12.53365 -26.072641 25.236759 16711746
14.478358 -20.53426 26.290077 16711746
14.778291 -26.189665 23.46559 16711746
8.6801929 -30.636223 34.874031 16711746
15.84737 -11.082857 26.899105 16711746
11.421587 -34.489555 49.766804 16711746
16.451082 -17.187857 25.129801 16711746
19.373333 -27.06542 34.964279 16711746
22.549742 -14.354359 31.26063 16711746
15.370535 -23.352217 36.745068 16711746
22.917744 -22.706633 37.671818 16711746
21.908037 -20.314222 30.562872 16711746
23.244272 -18.130781 33.598209 16711746
17.160339 -14.175492 25.890821 16711746
17.151745 -15.540731 25.833652 16711746
22.79451 -19.669949 31.061237 16711746
19.304871 -15.684264 28.362972 16711746
20.397087 -13.746116 34.022591 16711746
13.608334 -17.148481 30.386406 16711746
10.431673 -25.718264 25.756672 16711746
12.366414 -25.622061 25.311232 16711746
18.998014 -21.325716 29.324234 16711746
14.57589 -14.984002 32.797962 16711746
9.9166632 -24.800858 24.895065 16711746
18.002287 -19.169167 29.172527 16711746
15.625483 -17.784685 26.101906 16711746
23.528296 -23.748337 38.083118 16711746
15.510311 -19.415621 34.45776 16711746
18.955149 -16.431738 31.066385 16711746
22.059771 -13.519135 30.420744 16711746
21.50086 -15.605944 30.381367 16711746
21.209185 -21.616669 35.117744 16711746
21.814758 -15.877165 34.774788 16711746
21.383533 -15.469922 32.447296 16711746
27.624807 -22.99824 35.040161 16711746
3.5913537 -38.070713 35.906124 16711746
12.646342 -33.043789 25.992201 16711746
22.207939 -26.031315 39.694439 16711746
16.241199 -29.258312 33.691563 16711746
2.5991628 -36.58736 40.692986 16711746
8.6128197 -34.4039 31.753592 16711746
11.125687 -37.320236 25.304447 16711746
6.9187765 -29.714666 25.221445 16711746
24.177071 -19.710085 27.456549 16711746
7.110033 -36.329536 34.104542 16711746
36.697411 -22.162638 38.761738 16711746
21.862047 -17.979582 30.421841 16711746
22.163311 -20.782377 37.40934 16711746
-2.1242788 -14.273061 30.667009 16711746
19.737162 -26.986063 38.088989 16711746
20.553705 -14.198385 30.298021 16711746
21.935139 -21.290876 32.037449 16711746
20.556679 -18.404741 30.271151 16711746
19.133598 -21.804531 30.508957 16711746
11.167282 -26.653723 38.896809 16711746
21.685913 -30.498896 35.12167 16711746
28.793163 -18.386284 45.838669 16711746
15.006086 -19.88056 25.979359 16711746
12.980913 -28.23951 25.75996 16711746
20.973482 -27.204084 34.061272 16711746
18.093647 -17.172085 38.087921 16711746
20.518486 -15.076968 33.628151 16711746
21.001663 -9.6427679 33.745968 16711746
22.215443 -15.990679 35.491634 16711746
23.274887 -19.721989 32.139851 16711746
23.72912 -30.406713 37.795448 16711746
12.764822 -26.669624 25.464859 16711746
9.1819448 -25.188822 25.450357 16711746
8.0079679 -24.807499 29.196806 16711746
9.8385248 -10.255482 27.052336 16711746
23.584875 -15.050069 29.973387 16711746
22.6056 -14.371552 29.237486 16711746
21.322855 -14.083821 27.438253 16711746
21.35603 -15.335708 28.764065 16711746
23.375546 -22.323322 34.981716 16711746
27.358599 -43.098503 34.52182 16711746
5.6151872 -9.5453358 28.586676 16711746
11.13474 -8.0528498 28.124508 16711746
15.074794 -10.733814 27.544739 16711746
20.970177 -18.185686 28.625385 16711746
20.840918 -9.4297848 35.263802 16711746
29.711748 -22.370817 29.816011 16711746
5.0017319 -28.626671 37.198421 16711746
23.933273 -33.071507 55.631054 16711746
30.10862 -23.50498 30.109123 16711746
16.571327 -21.497313 28.218758 16711746
20.581854 -16.054592 28.554029 16711746
16.325304 -10.257119 29.977253 16711746
15.2315 -20.086966 28.449364 16711746
8.1283236 -10.294502 28.084431 16711746
18.703127 -19.406933 32.424728 16711746
17.776293 -17.304193 31.973297 16711746
10.472211 -15.841557 32.957634 16711746
12.616187 -18.96019 36.261314 16711746
22.795645 -32.395706 34.119358 16711746
30.659683 -59.278614 19.417561 16711746
23.433865 -20.229094 28.42433 16711746
23.886692 -17.86418 29.325665 16711746
19.418585 -17.220156 32.632908 16711746
11.833802 -5.7573714 30.033037 16711746
19.217287 -14.361522 30.572971 16711746
21.167414 -19.964777 33.352806 16711746
20.627043 -15.964992 27.543337 16711746
19.938688 -16.848576 28.703556 16711746
22.558807 -13.911089 29.784403 16711746
18.584578 -22.887436 36.958572 16711746
16.16807 -21.587681 29.577126 16711746
18.905949 -29.066843 24.851887 16711746
10.974734 -56.495678 59.612675 16711746
18.84771 -22.990608 28.762352 16711746
29.041328 -19.491703 44.213158 16711746
19.921162 -21.824734 41.535862 16711746
27.86812 -42.131157 63.915604 16711746
1.5753523 -19.110094 31.636471 16711746
20.344185 -15.565119 31.738369 16711746
19.231035 -14.43787 30.821163 16711746
20.231962 -27.729368 34.530388 16711746
9.8139219 -28.253971 28.929592 16711746
6.0601063 -29.807325 29.885201 16711746
6.5596189 -25.006861 29.140959 16711746
10.096658 -23.638891 29.019638 16711746
9.8241777 -31.373363 29.757803 16711746
10.728883 -19.116339 34.96257 16711746
10.864103 -27.956612 34.373959 16711746
26.714432 -21.422855 34.368118 16711746
8.8373709 -22.324116 27.782824 16711746
14.032364 -10.747359 35.957104 16711746
10.794038 -20.443811 39.55698 16711746
4.8489823 -23.547613 28.709084 16711746
16.909594 -21.567209 28.488499 16711746
18.072189 -16.05312 38.72002 16711746
6.1170893 -29.730703 29.959393 16711746
21.859259 -21.829094 35.781464 16711746
15.701583 -24.157595 27.942869 16711746
22.444332 -18.984529 28.513086 16711746
22.013023 -26.562864 39.212975 16711746
23.754494 -29.108501 47.978336 16711746
25.815241 -51.077282 44.854263 16711746
4.6932135 -34.978699 46.937557 16711746
27.786943 -24.086885 26.912067 16711746
19.33955 -19.633173 41.191753 16711746
20.224684 -28.235325 32.467045 16711746
22.981531 -27.110632 36.344391 16711746
10.789243 -32.677887 31.538265 16711746
23.930805 -19.984978 30.03056 16711746
