# .PCD v.7 - Point Cloud Data file format
VERSION .7
FIELDS x y z rgb
SIZE 4 4 4 4
TYPE F F F F
COUNT 1 1 1 1
WIDTH 219
HEIGHT 1
VIEWPOINT 0 0 0 1 0 0 0
POINTS 219
DATA ascii

 0.4769860 -0.1441635 0.8313206 16777215
 0.2131109 -0.0542990 0.3936304 16777215
 0.4972467 -0.1568233 0.8455272 16777215
 0.4833651 -0.1740632 0.8642736 16777215
 0.4792753 -0.1775440 0.8659335 16777215
 0.4895840 -0.2079253 0.8708541 16777215
 0.5009990 -0.2501732 0.8860011 16777215
 0.4999631 -0.2516365 0.8896587 16777215
 0.5019094 -0.2505265 0.8908808 16777215
 0.5179498 -0.2817933 0.9110191 16777215
 0.5112785 -0.3064825 0.9105861 16777215
 0.5076458 -0.3060001 0.9116421 16777215
 0.5240301 -0.3360144 0.9209751 16777215
 0.5290436 -0.3795312 0.9231586 16777215
 0.6044775 -0.5114171 1.0519843 16777215
 0.5634933 -0.5096918 1.0387095 16777215
 0.6203775 -0.5777484 1.0526783 16777215
 0.6057532 -0.4203832 1.0501485 16777215
 0.7123295 -0.6529009 1.1894805 16777215
 0.7441577 -0.6910665 1.2490938 16777215
 0.7343970 -0.6199816 1.2443838 16777215
 0.7340772 -0.5116432 1.2555671 16777215
 0.7422938 -0.4376018 1.2873340 16777215
 0.7457735 -0.5109792 1.3540332 16777215
 0.7712287 -0.5342979 1.4528654 16777215
 0.8005145 -0.5502341 1.4651512 16777215
 0.8205259 -0.5537398 1.5266348 16777215
 0.8220176 -0.5775051 1.5335624 16777215
 0.8322372 -0.5863382 1.5373943 16777215
 0.8875656 -0.5745707 1.5754391 16777215
 0.8914939 -0.5690497 1.6620224 16777215
 0.9202028 -0.5924976 1.7001815 16777215
 0.9438430 -0.6327198 1.7064455 16777215
 0.9721102 -0.6054589 1.7584099 16777215
 0.9696549 -0.5570747 1.8141675 16777215
 0.9864981 -0.6021909 1.8579966 16777215
 1.0158796 -0.6072000 1.9151036 16777215
 0.9988574 -0.5475094 2.0479310 16777215
 1.0404533 -0.5534916 2.0917854 16777215
 1.0734110 -0.5155376 2.1163971 16777215
 1.0772219 -0.5462331 2.1666808 16777215
 1.1263980 -0.5119085 2.2601209 16777215
 1.1483699 -0.5251821 2.2786455 16777215
 1.1569328 -0.5279146 2.3422840 16777215
 1.1740551 -0.5199104 2.3400033 16777215
 1.1379327 -0.5235084 2.4820838 16777215
 1.1922823 -0.5362540 2.5380297 16777215
 1.1652040 -0.5660824 2.5625067 16777215
 1.2556920 -0.4775227 2.6025939 16777215
 1.3156011 -0.5285429 2.6211357 16777215
 1.3241957 -0.5272732 2.6502576 16777215
 1.3082750 -0.5144623 2.6957397 16777215
 1.3155408 -0.5166337 2.7267315 16777215
 1.3421395 -0.5403058 2.7896399 16777215
 1.3473510 -0.5463780 2.7825906 16777215
 1.3816346 -0.4819829 2.9390898 16777215
 1.4017451 -0.5096024 2.9986036 16777215
 1.4234588 -0.5126635 3.0081978 16777215
 1.4257667 -0.5059057 3.0313647 16777215
 1.4807329 -0.4659873 3.0339937 16777215
 1.5347745 -0.5380411 3.0889721 16777215
 1.5669482 -0.4875031 3.1606052 16777215
 1.5564219 -0.5375725 3.2238348 16777215
 1.5677449 -0.5712047 3.2811105 16777215
 1.5887712 -0.5640921 3.2966936 16777215
 1.5988783 -0.5590289 3.3880763 16777215
 1.6227106 -0.6320302 3.4362726 16777215
 1.6301826 -0.6413469 3.4595456 16777215
 1.6872972 -0.6556172 3.5284944 16777215
 1.6835107 -0.7073467 3.5526581 16777215
 1.6941313 -0.6577520 3.5798085 16777215
 1.7089407 -0.5961190 3.6515551 16777215
 1.6870289 -0.6492898 3.7252414 16777215
 1.6898394 -0.6471182 3.7612646 16777215
 1.6865557 -0.5882344 3.7679930 16777215
 1.7268906 -0.7077112 3.8205476 16777215
 1.7759967 -0.7520670 3.8722038 16777215
 1.7556555 -0.7676511 3.8981521 16777215
 1.8185331 -0.7267437 3.9610755 16777215
 1.8640935 -0.7199756 4.0214758 16777215
 1.9162567 -0.7186835 4.0607181 16777215
 1.9079747 -0.7535967 4.0781932 16777215
 1.9742528 -0.7083412 4.2314777 16777215
 1.9174852 -0.7569408 4.2670040 16777215
 1.9195380 -0.8578143 4.2935271 16777215
 1.9814521 -0.7961392 4.3626490 16777215
 1.9681315 -0.8995385 4.4078584 16777215
 1.9653082 -0.7858415 4.4629779 16777215
 2.0335774 -0.8546396 4.5254426 16777215
 2.0353339 -0.8409904 4.5476704 16777215
 2.0525370 -0.8512586 4.6329937 16777215
 2.1056128 -0.8038656 4.6658306 16777215
 2.0659306 -0.8342662 4.7545428 16777215
 2.1141567 -0.8652036 4.7931933 16777215
 2.0969653 -0.9136893 4.8355646 16777215
 2.1806183 -0.8963144 4.8923907 16777215
 2.1540103 -0.8766826 4.9689922 16777215
 2.1461356 -0.9271548 5.0055642 16777215
 2.2221315 -0.9404919 5.0160933 16777215
 2.2452216 -0.9356903 5.0516958 16777215
 2.2660923 -0.9771578 5.0657825 16777215
 2.2378232 -0.9077162 5.0929852 16777215
 2.3086867 -0.9780697 5.0836668 16777215
 2.2633514 -0.7632535 5.2021933 16777215
 2.2686179 -0.8413810 5.2768536 16777215
 2.2536848 -0.8179795 5.3129864 16777215
 2.2718959 -0.8336669 5.3755412 16777215
 2.3158138 -0.8936280 5.3976312 16777215
 2.3515530 -0.9165087 5.4124722 16777215
 2.3285348 -0.8198874 5.4796734 16777215
 2.3846111 -0.8068751 5.5898609 16777215
 2.4216189 -0.7871519 5.6157570 16777215
 2.4059527 -0.7665390 5.6470833 16777215
 2.4544644 -0.8238547 5.6379466 16777215
 2.4292758 -0.9115295 5.7138643 16777215
 2.4486575 -0.8883520 5.7511086 16777215
 2.5417945 -0.8992156 5.8095055 16777215
 2.5485611 -0.9195678 5.8311100 16777215
 2.5557835 -0.9253981 5.8471932 16777215
 2.5605898 -0.9321302 5.8864937 16777215
 2.5429082 -0.9388909 5.9361467 16777215
 2.5572193 -0.9341391 6.0062990 16777215
 2.5685115 -0.8942151 6.1014819 16777215
 2.5879958 -0.9312637 6.1402831 16777215
 2.6028659 -0.9785081 6.2170482 16777215
 2.6307526 -0.9642203 6.2184553 16777215
 2.6503839 -0.9928746 6.2587404 16777215
 2.5111322 -1.0535525 6.5239878 16777215
 2.5459318 -1.0737979 6.5658646 16777215
 2.5609612 -1.1173768 6.5920439 16777215
 2.6072464 -1.1141467 6.5685916 16777215
 2.5863757 -1.1227297 6.7313709 16777215
 2.6179967 -1.0861462 6.7661395 16777215
 2.5180147 -1.1066039 6.7828913 16777215
 2.6353641 -1.1634358 6.8180971 16777215
 2.6713290 -1.2311341 6.8490973 16777215
 2.5622134 -1.1324512 6.9434166 16777215
 2.6580610 -1.1244711 6.9532237 16777215
 2.6584690 -1.1439834 6.9419360 16777215
 2.5487931 -0.9302567 7.0446987 16777215
 2.6016319 -0.9858220 7.0699630 16777215
 2.6355779 -0.9675894 7.0924473 16777215
 2.5958793 -1.0209605 7.1215959 16777215
 2.6134830 -1.0572467 7.2482252 16777215
 2.6365616 -1.0913262 7.2740893 16777215
 2.6951511 -0.9389920 7.3341808 16777215
 2.6201086 -1.1061723 7.3843746 16777215
 2.6405504 -0.9904265 7.4175653 16777215
 2.6298730 -1.0282359 7.4641232 16777215
 2.6863265 -1.1087165 7.5196152 16777215
 2.6954331 -1.0834057 7.5355015 16777215
 2.6727796 -1.0526130 7.6234703 16777215
 2.7165029 -1.0738256 7.6300697 16777215
 2.7286353 -1.1084931 7.6486363 16777215
 2.7311430 -1.1110826 7.7149496 16777215
 2.7436903 -1.1128633 7.7597604 16777215
 2.7384405 -1.0885546 7.8308244 16777215
 2.7575593 -1.1390715 7.8334603 16777215
 2.7689958 -1.0405550 7.8958163 16777215
 2.8055665 -1.0511596 7.9004197 16777215
 2.8141894 -1.0832705 7.9258819 16777215
 2.8508322 -1.0485950 7.9104900 16777215
 2.8762333 -0.9971690 8.0393448 16777215
 2.8578780 -1.0778456 8.1038332 16777215
 2.8972313 -1.1239491 8.1433134 16777215
 2.9088807 -1.1579700 8.1712246 16777215
 2.9122808 -1.1604769 8.2535820 16777215
 2.9424744 -1.1567292 8.2531652 16777215
 2.9860115 -1.1250856 8.2964983 16777215
 3.0346739 -1.1211340 8.3507318 16777215
 3.0263350 -1.1603363 8.4057798 16777215
 3.0794773 -1.1130545 8.4391317 16777215
 3.0878518 -1.1488190 8.5448246 16777215
 3.0704000 -1.1917405 8.5498962 16777215
 3.0766938 -1.1424073 8.5670462 16777215
 3.0647168 -1.1779428 8.6096897 16777215
 3.0015461 -1.2252488 8.7145481 16777215
 3.0092845 -1.2031105 8.7558479 16777215
 3.0360799 -1.2427256 8.7869539 16777215
 3.0451124 -1.2278874 8.8276415 16777215
 3.0710592 -1.1906528 8.8318071 16777215
 3.0680470 -1.2302554 8.8569860 16777215
 3.0932744 -1.2244740 8.9396372 16777215
 3.0813637 -1.1444898 8.9783735 16777215
 3.1058602 -1.1684599 9.0332069 16777215
 3.1361101 -1.2009184 9.0410671 16777215
 3.1964357 -1.1981540 9.0680780 16777215
 3.1777205 -1.2076342 9.0919638 16777215
 3.1695902 -1.1981642 9.1231403 16777215
 3.2144206 -1.2527461 9.1384983 16777215
 3.2284253 -1.2771971 9.1802979 16777215
 3.2276509 -1.2154992 9.2530308 16777215
 3.2359049 -1.2371733 9.2861757 16777215
 3.2902610 -1.2695570 9.3047123 16777215
 3.2716196 -1.2556381 9.3506975 16777215
 3.2818391 -1.2856288 9.3646841 16777215
 3.3032186 -1.2860303 9.4012203 16777215
 3.2926753 -1.3085639 9.4674301 16777215
 3.2976530 -1.3000906 9.4603748 16777215
 3.2824464 -1.2776301 9.4907455 16777215
 3.3005593 -1.2740302 9.5506134 16777215
 3.3092418 -1.2716763 9.5683718 16777215
 3.3004675 -1.2596204 9.6237783 16777215
 3.3485367 -1.2339938 9.6628532 16777215
 3.3672953 -1.2816050 9.6819315 16777215
 3.3764677 -1.2819786 9.7085905 16777215
 3.3844235 -1.3203959 9.7500124 16777215
 3.3711827 -1.2488360 9.7802849 16777215
 3.3563676 -1.2514107 9.8129091 16777215
 3.3753223 -1.2668190 9.8649197 16777215
 3.3886468 -1.2744181 9.9111814 16777215
 3.3915164 -1.3000069 9.9157944 16777215
 3.4339492 -1.2831838 9.9078693 16777215
 3.3657916 -1.3442624 9.9752064 16777215
 3.4394825 -1.3137543 10.0137682 16777215
 3.4106476 -1.3773422 10.0888405 16777215
 3.4326162 -1.3608651 10.0828152 16777215
 3.5101185 -1.3498337 10.0636158 16777215
 3.4183993 -1.4659638 10.1698570 16777215
