# .PCD v.7 - Point Cloud Data file format
VERSION .7
FIELDS x y z rgb
SIZE 4 4 4 4
TYPE F F F F
COUNT 1 1 1 1
WIDTH 102
HEIGHT 1
VIEWPOINT 0 0 0 1 0 0 0
POINTS 102
DATA ascii

 0.3893681 -0.1013318 0.6275077 16777215
 0.0036433 -0.0031383 0.0081935 16777215
-0.4016250 -1.2508553 0.5607613 16711746
-0.3999461 -1.3815541 0.5755216 16711746
-0.4172286 -1.2954742 0.5630177 16711746
0.0183708 -0.4189744 0.1572233 16711746
-0.4866068 -0.9894810 -0.1636883 16711746
-0.3671729 -1.1361461 -0.1022630 16711746
-0.4741959 -1.2674412 -0.1199036 16711746
-0.4701223 -1.1177337 -0.1205542 16711746
-0.3030565 -0.6585233 -0.0741399 16711746
-0.4736885 -1.0645589 -0.1329843 16711746
-0.0241971 -0.4525898 0.1856066 16711746
0.0158681 -0.2191018 0.0564197 16711746
-0.0031728 -0.6805834 0.0892524 16711746
0.0699535 -0.9612511 0.2899017 16711746
-1.7512823 -1.1995604 -0.1334672 16711746
0.0581887 -1.0630729 0.1285708 16711746
0.0798771 -1.1283445 0.1226513 16711746
0.0045243 -1.2913256 -0.1362195 16711746
-0.1901279 -2.0471859 0.4717971 16711746
-0.1370886 -2.3897200 0.5140967 16711746
-0.0521877 -0.5430378 0.1183093 16711746
-0.0881146 -0.4757676 0.1119678 16711746
-0.0533423 -0.1118701 0.1343583 16711746
0.0959115 -0.5831281 0.1768035 16711746
0.2182912 -0.8733616 -0.0607908 16711746
0.1243370 -1.2432394 0.1161173 16711746
0.1463120 -1.2969315 0.1054808 16711746
-0.3952686 -1.4561226 0.5404693 16711746
-0.4189496 -1.5429469 0.6203404 16711746
-0.4194520 -1.3279388 0.5375183 16711746
0.1570845 -1.2694920 0.2148678 16711746
0.1186153 -1.1854478 0.1995537 16711746
0.1940151 -1.3656356 0.1796836 16711746
-0.7830369 -0.6782809 -0.1040127 16711746
0.0064596 -0.6466548 0.1097052 16711746
-0.0303763 -0.7625677 0.1153037 16711746
0.2295173 -0.9009179 -0.0238681 16711746
-0.0393151 -0.8147935 0.0606485 16711746
0.7098317 1.1072481 -1.3267412 16711746
-0.2750815 -1.9503369 0.4018241 16711746
0.0818968 -1.9827458 0.1233819 16711746
0.1861620 -0.8223023 -0.0397778 16711746
-0.3448867 -1.6050436 0.5712476 16711746
-0.1693055 -0.3949264 -0.0574394 16711746
-1.7970092 -1.3030502 -0.2650029 16711746
-0.1520140 -2.1835852 0.3855188 16711746
-0.0537445 -0.6530991 0.1181778 16711746
-0.5035537 -0.6602095 -0.0257033 16711746
-0.0368684 -0.6082589 0.1580781 16711746
0.0699975 -0.9650959 0.2863984 16711746
-0.0932943 -2.0006425 0.6840475 16711746
0.5951188 -1.4187959 0.8915825 16711746
0.1406304 -1.2909431 0.0878797 16711746
0.1036243 -1.2088382 0.0813409 16711746
0.0465155 -0.5149871 0.0681915 16711746
0.2762421 -0.9867929 -0.0110090 16711746
0.1495966 -1.1956190 0.3026493 16711746
-0.5249671 2.0632164 -1.5803354 16711746
-0.3491074 -1.4980980 0.6472996 16711746
-0.2434894 -1.6451337 0.7652745 16711746
0.3254029 0.9030029 -0.8726609 16711746
0.1350491 0.6824844 -0.7425370 16711746
0.5376489 1.1273956 -1.0068488 16711746
0.3368960 -1.6154102 0.1540104 16711746
-0.2889598 -1.5862767 0.4688154 16711746
-0.2918427 -1.8371550 0.4833278 16711746
-0.4705438 -1.3842611 -0.0883131 16711746
-0.1462944 -0.4368078 -0.0285158 16711746
0.2958753 -1.5080204 0.2628179 16711746
-0.0496841 -0.7414513 0.0859951 16711746
-1.0953217 -0.8959261 -0.1098326 16711746
-0.2188768 -2.8879447 -0.3938626 16711746
0.1965556 -0.6328712 -0.0356481 16711746
-0.2862066 -2.1587105 0.4186602 16711746
-0.3027631 -1.7421875 0.3525245 16711746
0.1063127 -0.7587776 0.1186336 16711746
0.0343470 -0.4039462 0.0660558 16711746
0.0049732 -0.5941436 0.1271817 16711746
0.0055457 -0.2814629 0.0719504 16711746
-0.4097457 -0.3256768 0.0021171 16711746
-1.4880836 -1.2620351 -0.0168476 16711746
-0.8067695 -0.6362948 -0.0232277 16711746
0.0043964 -0.4800551 0.1491531 16711746
0.2651088 -1.4325855 0.3073994 16711746
-0.0446431 -0.6068990 0.1005364 16711746
-0.0640093 -0.6447677 0.1052120 16711746
-0.1707383 -4.3403983 0.9803575 16711746
0.2004047 -0.7942278 0.5777774 16711746
0.4928148 -0.9180618 0.7189286 16711746
5.4373484 -9.5013571 7.8414302 16711746
6.5575533 -10.5988808 10.9758940 16711746
3.9601438 -7.4541445 5.8176808 16711746
0.1557370 -1.2766033 0.5642754 16711746
1.3274297 -23.1293640 14.2545938 16711746
1.2900684 -22.6047478 13.9580803 16711746
7.9462657 -13.9644213 12.3435745 16711746
8.6039019 -18.0494690 12.1224976 16711746
-10.4250298 -32.1054916 13.7731190 16711746
-3.9806004 -30.5474625 6.6461439 16711746
5.6456575 -9.9715786 8.1548367 16711746
