# .PCD v.7 - Point Cloud Data file format
VERSION .7
FIELDS x y z rgb
SIZE 4 4 4 4
TYPE F F F F
COUNT 1 1 1 1
WIDTH 49
HEIGHT 1
VIEWPOINT 0 0 0 1 0 0 0
POINTS 49
DATA ascii

 0.3685551 -0.1070927 0.6571006 16777215
 0.0100324 -0.0042461 0.0170594 16777215
0.0845913 -1.2127441 0.6139221 16711746
1.3917234 2.4254193 -2.3930044 16711746
0.1253139 -0.8563293 0.3414031 16711746
4.0082641 4.1052399 -3.9614291 16711746
-0.5098414 -0.5231274 0.4182928 16711746
-0.8423679 -1.6166549 0.4769401 16711746
-0.1890877 -1.7338132 0.5953946 16711746
3.1845624 2.5840421 -2.7145300 16711746
-0.7614912 -0.7731401 0.6872047 16711746
4.6039610 2.8885205 -2.8307703 16711746
-3.9512250 -2.4401391 1.8898822 16711746
0.0978100 -0.9994368 0.2184090 16711746
0.5967761 -4.1419363 1.0152639 16711746
-0.3972861 -1.6667092 0.1021792 16711746
-0.0081309 -2.8281901 1.8492597 16711746
-0.1620109 -1.5078257 1.0819169 16711746
0.5400906 -3.7836757 2.1001930 16711746
-0.9767275 2.9201264 -3.1790900 16711746
-0.7477913 3.3382118 -3.3539019 16711746
0.3674265 2.4967573 -2.6024652 16711746
0.3048569 2.4408596 -2.7552862 16711746
0.7675048 -3.1263340 2.4823630 16711746
-0.8790862 3.0374038 -2.9279606 16711746
0.3274315 -3.2575371 2.7866080 16711746
-0.2047660 -1.6440052 0.9541808 16711746
-0.2570993 -1.6063677 1.0701876 16711746
1.0611614 2.2967763 -2.7474730 16711746
0.6766887 2.3125997 -2.8120255 16711746
0.4555618 2.4122922 -2.7098486 16711746
0.5461928 0.5910423 -0.7877251 16711746
1.4898120 2.2752833 -2.8706782 16711746
1.6722897 2.2932887 -2.8846531 16711746
1.3311709 3.8291717 -3.4693520 16711746
-2.2738857 -3.5711381 2.9025490 16711746
1.4232152 2.4644353 -2.2754476 16711746
0.3810382 -3.0488951 1.4113750 16711746
0.5738727 -3.5466757 2.3518898 16711746
-0.0470780 -1.4227427 0.2120065 16711746
0.3900653 -2.2875812 1.8111299 16711746
-0.1951401 -1.6660998 0.8944293 16711746
3.4120581 2.6128235 -2.9587924 16711746
-2.6299534 -5.0535903 1.3878103 16711746
-0.9380834 -1.0003408 0.8222260 16711746
1.8506917 2.4247246 -2.6272652 16711746
-0.1159677 0.8786598 -0.6335416 16711746
-0.0061720 -1.4262258 0.4471869 16711746
1.1484023 -3.0678329 2.3436894 16711746
