# .PCD v.7 - Point Cloud Data file format
VERSION .7
FIELDS x y z rgb
SIZE 4 4 4 4
TYPE F F F F
COUNT 1 1 1 1
WIDTH 59
HEIGHT 1
VIEWPOINT 0 0 0 1 0 0 0
POINTS 59
DATA ascii

 0.7850214 -0.3371138 1.8533556 16777215
 -0.0089571 -0.0036930 -0.0116276 16777215
0.1118887 1.6044624 -0.4575253 16711746
-0.4177899 -0.9218156 0.9657505 16711746
-0.1812632 1.1770020 -0.8532677 16711746
-0.1767648 1.3312386 -0.9433690 16711746
0.0020668 -0.0280761 0.0000219 16711746
-0.5205137 1.2521011 -0.8630355 16711746
-0.4645156 1.4015702 -0.8443391 16711746
0.2222670 -0.6891437 0.5082959 16711746
-0.6112691 -0.9488999 1.0763119 16711746
-1.0690370 1.2327859 -0.8137839 16711746
-0.0385147 -0.2245826 0.1521382 16711746
0.1738607 1.2415601 -0.8854744 16711746
0.1926765 1.1906821 -0.8615164 16711746
0.3850370 -0.9240018 0.7374091 16711746
0.2979004 -0.8004912 0.6395552 16711746
0.3505982 -0.9462583 0.7284818 16711746
-0.2304546 -0.8891162 1.0076290 16711746
0.1864103 -0.8684231 0.6499488 16711746
0.3274374 -0.9417738 0.7818002 16711746
0.3595030 -0.7907413 0.7687256 16711746
-0.0437417 -0.2850977 0.2016517 16711746
0.4233410 -0.8316963 0.9255297 16711746
0.4066070 -0.8048903 0.8162537 16711746
0.4759884 -0.8523227 1.0746691 16711746
-0.4859133 1.3819687 -0.9528255 16711746
0.5120978 -0.9408471 0.7196183 16711746
0.0837093 -0.6232119 0.5785608 16711746
0.3006973 -0.8126625 0.8678214 16711746
0.3366543 -0.8178050 0.9939159 16711746
0.3129627 -0.7777220 0.9270508 16711746
-0.1800302 -0.7428225 0.7059748 16711746
-0.1798941 -0.8066747 0.7436941 16711746
-0.6439286 -1.0314646 0.8469883 16711746
-0.5663815 -0.9604740 0.9997926 16711746
0.8484166 -0.8787321 0.8395680 16711746
0.5464330 -0.9319574 0.7639956 16711746
0.7034915 -0.8567423 0.7753448 16711746
0.4461962 -0.8671448 0.8002275 16711746
0.2869540 1.2873458 -0.8689407 16711746
-0.2688043 -0.7979395 0.8510092 16711746
-0.8073233 -0.9354761 1.0694602 16711746
-0.0202262 -0.0189131 -0.0006133 16711746
32.9056549 -68.7896423 26.6709595 16711746
9.7592974 -23.8615112 17.8625221 16711746
1.5419246 -7.0007224 2.0522168 16711746
-9.5646305 -58.8978996 41.2327156 16711746
1.1302536 -2.0007246 2.1806769 16711746
1.9235767 -6.0740695 2.6563406 16711746
1.9841868 -5.5980816 2.7043004 16711746
1.5406777 -6.9743981 2.0426879 16711746
1.9810562 -5.5384407 2.6681399 16711746
17.7533779 -72.8223953 13.1475954 16711746
-7.0559592 -71.5057907 25.4903889 16711746
-3.0893795 -21.2218838 14.3615265 16711746
-0.3853406 -4.3802624 1.5828522 16711746
1.9163200 -5.8732071 2.7185583 16711746
1.3701638 -8.5567827 6.4382062 16711746
