# .PCD v.7 - Point Cloud Data file format
VERSION .7
FIELDS x y z rgb
SIZE 4 4 4 4
TYPE F F F F
COUNT 1 1 1 1
WIDTH 105
HEIGHT 1
VIEWPOINT 0 0 0 1 0 0 0
POINTS 105
DATA ascii

0.6251366 -1.0646510 1.2474384 16711746
0.5811168 -0.7601957 0.9772750 16711746
0.7315370 -0.8382847 1.2327449 16711746
0.3076490 -0.9335813 1.2563844 16711746
0.1202110 -0.6691824 0.9813108 16711746
0.7756946 -0.6922196 0.8095595 16711746
0.6067092 -0.6418431 0.6699302 16711746
0.6499488 -0.8071048 1.1443517 16711746
0.2303504 0.9470205 -0.1113280 16711746
0.2316946 0.9500073 -0.0765757 16711746
0.2262023 0.9497231 -0.0644836 16711746
0.2426386 0.9612094 -0.0629470 16711746
-0.4392435 -1.0105649 2.0574546 16711746
-0.4280411 -0.9398398 1.5444258 16711746
-0.1203776 -0.9985305 2.0203629 16711746
0.2768689 1.7017993 0.4018824 16711746
0.5992370 -0.7694937 0.9624960 16711746
0.6581989 -0.7917315 1.0177016 16711746
0.5043599 -1.0334400 1.4846357 16711746
0.5294859 -1.0578319 1.4555407 16711746
0.4730141 -1.0775093 1.5063058 16711746
-0.0867786 -0.9835693 1.9783242 16711746
0.3665920 -0.9970479 1.8833098 16711746
0.2884869 -0.8507625 0.9274028 16711746
-0.1109190 2.1273184 0.9403563 16711746
0.5934089 -0.8510465 1.0803971 16711746
0.6920897 -0.9674066 1.3171428 16711746
0.4769564 -1.0201892 1.5541208 16711746
0.2402185 -0.9615446 1.3618232 16711746
0.2676115 -0.9650339 1.2910683 16711746
0.3444543 -0.9280168 1.1979235 16711746
0.7678336 -0.7716936 0.9214717 16711746
0.7756450 -0.8283484 1.0934352 16711746
0.5566078 -0.7667091 0.9792069 16711746
0.6155929 -0.7366898 0.8203569 16711746
0.2538338 1.0141957 -0.0396224 16711746
0.2476217 1.0128871 -0.0284465 16711746
0.5522068 -1.0773568 1.2824439 16711746
0.5477424 -1.0905756 1.2889544 16711746
0.8133757 -0.8560266 1.1928533 16711746
0.5988525 -0.7524122 0.7353501 16711746
0.7180275 -0.9668955 1.2989857 16711746
0.6755933 -0.6919146 0.7243441 16711746
1.1672351 -0.9398165 1.1220905 16711746
0.4623262 -0.7628748 1.0879364 16711746
0.5325895 -1.0768195 1.3306178 16711746
0.8065987 -0.8913289 1.3298397 16711746
0.0434366 -0.7308633 0.8982893 16711746
-0.1658119 -1.0216017 1.5509502 16711746
0.3903889 -0.6870187 0.9208530 16711746
0.3069347 1.1520201 0.0130846 16711746
0.2724428 1.0547438 0.0291832 16711746
0.4856846 -0.7175581 0.8256707 16711746
0.2539691 -0.7395019 1.0586330 16711746
-0.3547849 2.3173630 1.1819727 16711746
0.2679762 -0.9264192 1.3300861 16711746
0.4521353 -0.9465135 1.0541264 16711746
0.4767280 -0.9518712 1.0429271 16711746
0.1263424 -0.6736223 0.9953467 16711746
0.7039372 -0.9489781 1.3541181 16711746
0.3510925 -0.7827132 0.9599384 16711746
0.4609397 -0.7297369 1.0260017 16711746
0.1755921 -0.8891657 1.5497580 16711746
0.7593621 -0.7089738 0.7946993 16711746
0.7064305 -0.9904351 1.2624538 16711746
0.2193239 -0.8997775 1.4636506 16711746
0.1168939 -0.6601523 0.8767474 16711746
0.2186569 -0.7695191 0.9841617 16711746
0.1593571 -0.6885962 1.0078523 16711746
0.1407026 -0.6489915 0.9541908 16711746
0.0397697 -0.7147492 0.8733221 16711746
0.2283659 -0.8681142 1.4602900 16711746
0.3389924 -0.8355265 1.2184787 16711746
0.3441347 1.1605144 -0.0232976 16711746
0.2816015 0.9906656 -0.0582051 16711746
0.2649387 0.9821396 -0.0455120 16711746
0.2771729 1.0090121 -0.0287248 16711746
0.3037687 1.0086464 -0.0737392 16711746
0.2554418 1.0096380 0.0061840 16711746
0.2540930 0.9809148 -0.0401211 16711746
0.3564559 1.2755688 -0.0037084 16711746
0.2294546 -0.9096885 1.4061489 16711746
0.4377363 -0.8790122 1.0939772 16711746
0.5723771 -0.9708822 1.3373370 16711746
0.4438331 -0.8250063 0.8554622 16711746
0.2914278 -0.8655066 0.9204388 16711746
0.6516086 -1.0080996 1.2941161 16711746
0.6531162 -0.7774090 0.9385301 16711746
0.8294534 -0.8911253 1.3470019 16711746
0.2343244 0.9676558 -0.0209232 16711746
0.2282161 0.9652551 -0.0242910 16711746
0.2281779 0.9640232 -0.0114946 16711746
0.3445184 -0.7630048 1.0309849 16711746
0.3180166 -0.7393290 0.9121625 16711746
0.2437310 -0.7651428 1.0511601 16711746
0.4773340 -0.9148698 1.0332499 16711746
0.6177761 -1.0105999 1.4347743 16711746
0.2943611 -0.7136669 1.0281806 16711746
0.2161053 -0.7769950 0.7815956 16711746
0.6579983 -0.6666135 0.8346183 16711746
0.1945836 0.9257734 -0.1293525 16711746
0.4970010 -0.6515246 0.8151768 16711746
0.2185144 0.9460028 -0.0418381 16711746
0.2222061 0.9545254 -0.0260662 16711746
0.4119136 -0.6960328 0.8102089 16711746
