# .PCD v.7 - Point Cloud Data file format
VERSION .7
FIELDS x y z rgb
SIZE 4 4 4 4
TYPE F F F F
COUNT 1 1 1 1
WIDTH 147
HEIGHT 1
VIEWPOINT 0 0 0 1 0 0 0
POINTS 147
DATA ascii

-0.0054576 -0.6250828 0.0933409 16711746
-0.0096084 -0.6397784 0.0875671 16711746
-0.1853642 -2.9877119 0.3071855 16711746
-0.0168353 -0.4462661 0.1740804 16711746
1.4467727 -1.7805965 0.3504923 16711746
0.7026395 -0.9353108 0.2051820 16711746
2.3015106 -2.7522147 1.4494021 16711746
2.1827369 -2.4382322 1.2357737 16711746
0.4784075 -1.5074553 0.6198744 16711746
0.4638523 -1.4748098 0.5799551 16711746
1.5082780 -1.7302713 0.2165407 16711746
0.4421936 -0.5051242 0.0706178 16711746
-0.0921814 -2.8535016 0.5363643 16711746
0.2101036 -2.3470044 0.4649873 16711746
0.3263379 -0.9176832 0.4879909 16711746
0.2379581 -0.5543526 0.3892476 16711746
0.1983970 -3.8181779 -0.3184425 16711746
-0.2212310 -1.0322570 0.2008046 16711746
0.8418454 -3.9948730 1.3307148 16711746
1.0424169 -6.9605732 0.8926029 16711746
1.0781041 -1.0804050 0.1995966 16711746
0.8834469 -0.8134356 0.2154804 16711746
0.9738510 -0.7805519 0.2409275 16711746
0.2213183 -0.4429187 0.1257428 16711746
0.3788532 -0.6038657 0.1305380 16711746
2.5466132 -3.6199689 0.6600874 16711746
1.5753410 -2.7468944 0.7242883 16711746
-0.2660212 -5.3646936 2.0482268 16711746
-0.3468450 -2.2235887 0.6872379 16711746
-0.4881539 -2.7761884 0.9728861 16711746
-0.4567730 -2.6085956 0.7231501 16711746
-0.8811796 -3.0632551 0.6030759 16711746
-0.0248608 -6.0832148 -0.2478620 16711746
0.9085240 -4.1496124 1.0409184 16711746
0.2053004 -1.1006564 0.2963139 16711746
-0.1951734 -1.2689912 0.2166907 16711746
0.5674516 -0.6672944 -0.0320909 16711746
0.1322447 -4.4946699 0.3169673 16711746
-0.0223601 -4.2785110 0.3143998 16711746
0.7099354 -1.0427961 0.1880668 16711746
2.9934437 -4.2452536 0.5670666 16711746
0.1769087 -0.6355495 -0.0168672 16711746
0.1793417 -0.6503357 -0.0314349 16711746
0.5852516 -0.9281939 0.0631166 16711746
0.9323582 -0.8166820 0.2101328 16711746
0.1060135 -1.0474885 -0.0561333 16711746
0.2859853 -2.6311681 -0.2008661 16711746
0.2834071 -0.4358318 0.1766450 16711746
0.2730237 -0.7041425 -0.0244610 16711746
0.2757287 -0.7550502 -0.0378587 16711746
0.2792220 -0.6969702 -0.0395639 16711746
0.2315088 -1.4841210 0.1746988 16711746
1.7332292 -2.0913708 0.2558940 16711746
1.6912452 -2.1543553 0.2594952 16711746
0.5631462 -0.5814703 0.1475670 16711746
1.4877874 -2.0728457 -0.1418009 16711746
0.3554803 -0.5189637 -0.0126295 16711746
0.1803541 -0.9902918 0.3017454 16711746
0.8860894 -5.8136225 1.5729743 16711746
0.1732545 -1.1925884 0.3425441 16711746
1.3230411 -1.1433487 0.6985987 16711746
0.4467725 -0.4668086 0.0758617 16711746
-0.3748437 -2.2960653 0.5424516 16711746
-0.5331557 -2.8395410 0.6335729 16711746
0.7836133 -1.1396503 0.1434511 16711746
-0.2733672 -1.9351552 0.4591869 16711746
-0.2216037 -1.7527989 0.4116177 16711746
-0.2739264 -2.6141791 0.2106756 16711746
-0.0921802 -0.5839097 0.2961233 16711746
0.5720281 -0.9279079 0.0897873 16711746
0.7792357 -0.9745649 0.0700479 16711746
-0.1442471 -2.5323734 -0.0257855 16711746
0.4798693 -1.8749959 0.9815031 16711746
0.1097325 -0.5768408 0.3121386 16711746
0.4467597 -0.8268049 0.6170517 16711746
0.3906777 -0.6096713 0.3784620 16711746
0.3634599 -0.3951819 0.2739204 16711746
-0.0802066 0.1691564 -0.1736910 16711746
-0.0538799 0.1225516 -0.1044257 16711746
-2.6190505 2.5392969 -2.5195606 16711746
0.1388451 -0.6918086 0.0399835 16711746
0.2448561 -2.3519762 -0.1070196 16711746
0.4920786 -0.4166901 0.0414464 16711746
0.2536872 -1.5169593 0.0619735 16711746
1.7556322 -2.0364568 0.1724249 16711746
0.4975279 -0.5166373 0.0399248 16711746
1.7150222 -1.9098510 0.1208291 16711746
0.5594456 -0.5835620 -0.0270913 16711746
0.9354953 -1.0750701 -0.0457537 16711746
0.1153051 -0.7189113 0.0902270 16711746
0.1127331 -0.7224699 0.0758875 16711746
2.3578126 -2.1245093 0.4725929 16711746
0.5106931 -0.4978851 0.1195498 16711746
0.1154826 -0.4534044 0.1451879 16711746
1.4012173 -1.8596343 1.2865622 16711746
0.7964470 -3.5272572 1.1887690 16711746
0.5768073 -1.9860314 0.4578909 16711746
0.1223976 -0.6697264 0.3170285 16711746
0.1923777 -0.5426011 0.0042331 16711746
0.6338087 -0.6440759 0.1135186 16711746
1.2482402 -1.1632239 0.1595998 16711746
0.0880827 -0.6958929 0.1360640 16711746
0.5607375 -0.6665075 0.1730381 16711746
1.4831136 -1.3005623 0.1729317 16711746
0.9665388 -4.8152142 1.2928846 16711746
-0.2600648 -1.8900343 0.5212281 16711746
-0.0783738 -0.5965104 0.1743471 16711746
0.1798137 -0.5940179 0.0006183 16711746
0.8520869 -2.7878861 -0.1532726 16711746
-0.3826854 -2.3081217 0.4365963 16711746
0.1300057 -0.6807499 0.0657397 16711746
-0.1937072 -0.6938953 0.1977680 16711746
-0.2366452 -0.8293107 0.2163556 16711746
0.4025919 -1.5911039 1.0491256 16711746
0.4459033 -0.8588345 -0.0631090 16711746
0.6769219 -0.6287907 -0.0571427 16711746
0.0340594 -1.2110543 -0.0037138 16711746
0.5344372 -1.8475212 0.6900715 16711746
0.5341645 -0.6360518 0.1841546 16711746
1.8028619 -3.6076217 2.5049405 16711746
0.1898523 -1.1865045 0.2803291 16711746
-0.0558909 -0.9970840 -0.0503505 16711746
-0.0811817 -0.9454135 -0.0553709 16711746
1.0478901 -1.3526356 0.9793440 16711746
1.0335324 -1.2374605 0.8644611 16711746
0.2417790 -0.4372858 0.0542810 16711746
1.1919907 -2.2416725 0.2355716 16711746
0.6400273 -0.7699514 0.1386087 16711746
0.7225072 -0.6199535 -0.0387821 16711746
0.4060600 -0.6326925 -0.0255112 16711746
0.5049217 -0.8026688 -0.0620668 16711746
0.7096624 -1.0794443 -0.0910169 16711746
0.3369372 -0.7575460 0.3340927 16711746
0.6977664 -0.6125649 0.2362264 16711746
0.6664943 -0.8725427 0.4353330 16711746
15.3823175 -43.7495232 24.4150372 16711746
9.8693829 -27.8156700 15.5381985 16711746
10.8515959 -28.3585606 15.1866922 16711746
-1.2853012 -3.2885561 1.5387855 16711746
1.8387511 -3.6901643 3.4775660 16711746
0.4359450 -3.5536392 2.7112577 16711746
-3.4600751 -4.0738220 0.3836103 16711746
6.1389742 -35.4021454 30.0848122 16711746
8.9269571 -17.9062119 16.6750813 16711746
2.6799982 -5.5585289 4.9028177 16711746
11.0168009 -21.1102180 22.3184566 16711746
12.9113693 -36.7459831 20.5745411 16711746
