# .PCD v.7 - Point Cloud Data file format
VERSION .7
FIELDS x y z rgb
SIZE 4 4 4 4
TYPE F F F F
COUNT 1 1 1 1
WIDTH 77
HEIGHT 1
VIEWPOINT 0 0 0 1 0 0 0
POINTS 77
DATA ascii

 0.4141584 -0.1085144 0.6517980 16777215
 1.0732847 0.3931486 1.4477307 16777215
2.7299418 -0.0138099 4.1094685 16711746
2.0608401 2.0519984 3.3610823 16711746
2.0993547 2.2670438 3.7219541 16711746
1.8730879 0.0195400 4.3903236 16711746
2.8613899 1.8033495 2.5490704 16711746
2.2740510 1.5571563 2.0269220 16711746
1.1593000 2.3758683 4.1700611 16711746
2.5076487 -0.3927712 2.4678664 16711746
2.7791481 1.9541807 3.0407765 16711746
1.8370723 0.0303790 4.5398297 16711746
3.7768538 -0.5622083 3.2705503 16711746
2.9790704 -0.5191361 2.7562191 16711746
2.0270751 -0.4768084 1.9846512 16711746
-0.1735719 -0.9045959 3.3733287 16711746
-0.2474152 -0.9546887 3.4155889 16711746
3.5727570 -0.7287931 3.0783091 16711746
2.8172326 -0.6693268 2.6187954 16711746
3.5200672 -0.7711743 3.0220470 16711746
0.8858868 -1.0139859 4.2824593 16711746
1.2672693 0.0474067 4.7584481 16711746
1.8955837 0.0387875 4.4177628 16711746
1.7425188 1.9640398 3.1523120 16711746
1.9010470 0.1161521 4.8052807 16711746
2.7351425 1.6283743 2.1295455 16711746
2.7181561 -0.2103394 3.0060270 16711746
2.8789580 -0.5738389 2.8522735 16711746
2.4823678 -0.3863693 2.5164568 16711746
2.9222136 -0.4026367 3.5431468 16711746
1.9272331 0.0692928 4.5231328 16711746
2.5353281 2.0008492 3.2006779 16711746
2.8362226 1.7243143 2.3210962 16711746
2.6205988 -0.0591942 4.0664110 16711746
1.9297578 -0.1344468 3.5945740 16711746
2.7551050 -0.7377500 2.5051432 16711746
3.8387728 -0.5220163 3.4724505 16711746
2.7159929 -0.1189292 3.5157716 16711746
2.0515954 2.1983056 3.7028763 16711746
2.9449196 -0.3154988 3.9516418 16711746
2.6191266 -0.1016258 3.7873769 16711746
1.1466140 -0.1805910 2.8226349 16711746
2.1608355 -0.4477291 3.0369732 16711746
2.2901106 -0.5760810 1.6750578 16711746
3.5941927 -0.5841426 2.8043451 16711746
3.0695283 -0.4750580 2.5956950 16711746
3.7818148 -0.5350461 3.1454840 16711746
2.7855630 2.1746726 3.6474948 16711746
2.8284659 1.9478663 2.9931877 16711746
2.5729935 -0.2728670 2.8994789 16711746
4.0439167 -0.3150398 3.2100837 16711746
3.3891692 -0.1138974 3.7826891 16711746
2.1326644 2.4792035 3.8857427 16711746
2.1832705 2.5984747 3.7811637 16711746
1.9826605 2.3649125 4.1585908 16711746
1.3072512 2.2975373 3.7995081 16711746
2.0990179 2.3530080 3.8535931 16711746
2.4578135 2.0684764 2.8197711 16711746
2.3048553 1.5674152 2.0120440 16711746
2.1910825 1.8695687 2.8014035 16711746
2.1630445 1.8633221 2.8307300 16711746
2.0917671 2.0400164 3.3060317 16711746
2.9282684 2.1452489 3.3799481 16711746
2.9007266 2.1804178 3.5367076 16711746
0.8005594 -6.4851732 4.2764544 16711746
0.4033038 -4.2049050 3.3577178 16711746
0.3983455 -4.2709537 3.3819497 16711746
0.6934378 -5.7607336 3.9679253 16711746
1.8413756 -5.7233906 3.4386199 16711746
-0.7896368 -19.3397846 1.2718881 16711746
0.7306382 -7.0810399 4.4424205 16711746
0.7606663 -6.6503544 4.2624974 16711746
0.8003956 -0.7652905 1.2768313 16711746
6.0892286 -21.5579357 17.0871563 16711746
0.5981538 -6.0302615 4.0249305 16711746
0.5988439 -6.0005636 4.0140724 16711746
0.4100879 -4.1474032 3.3089244 16711746
