# .PCD v.7 - Point Cloud Data file format
VERSION .7
FIELDS x y z rgb
SIZE 4 4 4 4
TYPE F F F F
COUNT 1 1 1 1
WIDTH 65
HEIGHT 1
VIEWPOINT 0 0 0 1 0 0 0
POINTS 65
DATA ascii

 0.3583955 -0.0936856 0.5715199 16777215
 0.0037049 0.0015017 0.0058474 16777215
0.3161384 -1.1722816 0.9907809 16711746
0.1920934 -0.9364446 0.7864608 16711746
-0.6769034 -1.2010198 1.0690854 16711746
0.1858921 -0.9993972 0.7565463 16711746
0.4954701 -1.0870655 0.7604162 16711746
0.3284255 0.7516081 -0.7561999 16711746
0.4104986 -1.1207547 0.6675935 16711746
-0.0473847 -0.9382713 0.4423007 16711746
0.2265699 -0.9235123 0.7156949 16711746
-0.2666266 -0.9007632 0.2255709 16711746
0.4501339 0.4460398 -0.4734431 16711746
0.7908995 0.7777038 -0.8007637 16711746
-0.2100031 -0.8720251 0.3369303 16711746
0.2587076 -0.9749112 0.7033625 16711746
0.5441278 -1.2973908 1.0537559 16711746
-0.0888086 -0.9207118 0.5666847 16711746
-0.6833757 0.5948591 -0.5627125 16711746
-0.5126312 0.8377912 -1.0449451 16711746
-0.6144237 1.0830743 -1.2403098 16711746
-0.6225663 1.1723349 -1.0844985 16711746
0.5459117 -1.0742468 0.9289728 16711746
-0.3091211 1.2537206 -1.2555739 16711746
-0.2790811 0.9319711 -0.9128333 16711746
-0.6364410 0.9076173 -0.9197781 16711746
-0.3561848 -0.9519399 0.5174402 16711746
0.2524562 0.6861513 -0.7561082 16711746
0.2732108 0.7980573 -0.8509916 16711746
0.3471069 0.6440869 -0.8259110 16711746
0.2270569 0.8068531 -0.9916798 16711746
-0.2458152 -0.9123460 0.4420666 16711746
0.4447123 0.3536275 -0.4981019 16711746
0.9565582 1.0858808 -1.0446848 16711746
-0.0290163 -1.1010743 0.7036016 16711746
-0.0239810 -0.9144964 0.5641673 16711746
0.1940662 -0.8741848 0.7498628 16711746
-0.8121643 -1.0315078 0.7763345 16711746
0.4401168 0.3844358 -0.4798362 16711746
0.7721039 0.7087314 -0.8471114 16711746
0.4711730 -0.9941641 0.7934394 16711746
0.4505583 -1.1090333 0.7908135 16711746
0.5591992 0.9623784 -0.9409474 16711746
-0.8126296 -0.9776251 0.8404188 16711746
-0.3086317 -0.9139674 0.3737332 16711746
0.1812698 -1.0071716 0.7102429 16711746
0.1345004 -1.0340897 0.6936622 16711746
-0.1761759 -0.8233489 0.2358177 16711746
-0.1623622 -0.8593905 0.1948072 16711746
0.4648111 -1.7550762 0.8259815 16711746
6.2983179 -12.4875565 10.7780151 16711746
-0.1170550 -1.5251313 0.7020484 16711746
0.3236738 -0.6307656 0.5463859 16711746
0.3609177 -0.7733364 0.6500458 16711746
1.7206386 -3.6356711 2.8332915 16711746
5.4053049 -9.5610018 9.5027542 16711746
-3.7039652 -12.9439163 0.2918651 16711746
0.3597890 -0.6860955 0.6212228 16711746
0.2169477 -1.1361407 0.8400398 16711746
0.1377847 -2.8879263 0.8527748 16711746
5.1240191 -13.0040321 1.9755478 16711746
-0.1789514 -1.0206308 0.5414767 16711746
-1.2913910 -6.1577969 0.9133458 16711746
0.3583080 -0.6848710 0.6209193 16711746
-3.5351646 -12.3574762 0.2783887 16711746
