# .PCD v.7 - Point Cloud Data file format
VERSION .7
FIELDS x y z rgb
SIZE 4 4 4 4
TYPE F F F F
COUNT 1 1 1 1
WIDTH 83
HEIGHT 1
VIEWPOINT 0 0 0 1 0 0 0
POINTS 83
DATA ascii

 0.4341155 -0.1478502 0.7957352 16777215
 0.0105648 -0.0059256 0.0259762 16777215
-2.2557895 -5.6693492 2.9863532 16711746
0.3678868 -1.4237665 0.1282098 16711746
0.2408758 -1.4689603 0.1470201 16711746
0.2015426 -0.8354207 0.1344074 16711746
0.1396235 -0.6321834 -0.0047327 16711746
0.2002408 -0.8552665 0.0337748 16711746
0.0259276 -1.3577039 -0.0328821 16711746
-0.0184907 -1.3139803 -0.0646545 16711746
0.1687302 -2.6067383 -0.0593164 16711746
0.5236586 -1.1517440 -0.0604406 16711746
0.4173431 -0.5188665 -0.0305144 16711746
-0.0578143 -0.6379083 0.0731703 16711746
-2.7209466 -6.8831897 0.4393040 16711746
0.2582682 -0.7844731 0.1168205 16711746
-0.7645375 -1.0336441 0.3983015 16711746
-0.3485076 -0.8329603 0.0201076 16711746
-0.2978639 -0.9695066 -0.0634511 16711746
-2.2185810 -7.3822918 -0.6876741 16711746
-0.4101637 -0.6957052 0.0149909 16711746
-1.1546464 -1.8056166 0.0021196 16711746
0.2313632 -0.4535423 0.0998490 16711746
0.3176869 -0.6924329 0.1346273 16711746
-0.0955059 -0.6049200 0.0400111 16711746
-0.0996556 -0.5159919 0.0363704 16711746
-2.1861408 -5.9866724 3.1779549 16711746
-0.3358675 -0.8812240 -0.0253936 16711746
-0.2488850 -1.1062638 0.0762244 16711746
0.4779947 -1.3360870 0.1168971 16711746
-1.9892416 -8.7126665 -0.6460821 16711746
-2.0657995 -8.0293531 -0.7843432 16711746
-2.0100451 -8.8791494 -0.5309978 16711746
0.2248926 -0.7310309 0.0874971 16711746
-0.0550221 -0.5445869 0.0247830 16711746
0.0250587 -0.6792600 0.1623793 16711746
0.0302041 -0.6844420 0.1575250 16711746
0.0806183 -1.4481934 0.1690184 16711746
0.3645579 -0.6111043 0.0938765 16711746
-0.1803288 -0.4911907 -0.0094011 16711746
-0.3416310 -0.8038165 0.0997494 16711746
-0.1800947 -1.2115306 0.0237037 16711746
0.1986925 -0.4927268 -0.0010136 16711746
0.3194482 -0.7124037 0.1181328 16711746
-2.6932104 -6.8365593 2.0829232 16711746
-0.0462222 -1.3488491 0.0312979 16711746
-0.0453874 -0.6502657 0.0228643 16711746
0.0770839 -1.4315090 0.0836503 16711746
0.2162670 -1.4704161 0.3235061 16711746
-2.3467729 -6.8714938 2.9442170 16711746
-1.3302637 -2.1774817 0.1075180 16711746
-3.5314856 -11.4125452 2.8587167 16711746
0.1654276 -0.7905583 0.2337685 16711746
0.2190902 -0.8139106 0.1491648 16711746
0.2848215 -0.7485091 0.0289981 16711746
-0.3699980 -0.7412035 -0.0021773 16711746
0.1101957 -0.9201998 -0.0148034 16711746
-2.5750718 -7.7999878 -0.5826005 16711746
-2.7822797 -6.7126307 0.9009477 16711746
-2.1534505 -12.6028833 -0.6909432 16711746
-0.1707140 -0.9527218 -0.0571551 16711746
-2.7089298 -7.7973742 0.5876305 16711746
-1.9770390 -3.7219272 0.1735229 16711746
-0.8887296 -1.1938100 0.2041456 16711746
-0.1470185 -0.6901837 0.2245983 16711746
-4.4001470 -12.0711269 1.8860731 16711746
-0.2241902 -1.0526191 0.2948337 16711746
-0.3376435 -0.7574866 0.1360711 16711746
-0.3658410 -0.5921767 0.1473128 16711746
-1.8499742 -3.1936636 0.5726223 16711746
0.2112511 -0.9191512 0.7725900 16711746
1.3708835 -2.6343751 2.3411334 16711746
1.9269865 -3.4762306 3.5100479 16711746
10.1831741 -22.3170128 15.9303598 16711746
1.1035491 -1.9300001 1.9153998 16711746
-18.2182617 -43.3560600 -2.2967536 16711746
15.9244661 -46.4929085 6.3321104 16711746
-3.1431839 -5.9781923 0.2621326 16711746
7.4035501 -29.1116810 9.0579405 16711746
-19.5279636 -54.3781624 7.7953458 16711746
7.6273112 -32.9450760 11.6263866 16711746
1.5135645 -36.0417099 16.8988056 16711746
7.4237943 -13.4228811 14.0378809 16711746
