# .PCD v.7 - Point Cloud Data file format
VERSION .7
FIELDS x y z rgb
SIZE 4 4 4 4
TYPE F F F F
COUNT 1 1 1 1
WIDTH 86
HEIGHT 1
VIEWPOINT 0 0 0 1 0 0 0
POINTS 86
DATA ascii

 0.5493195 -0.2232837 1.2311540 16777215
 0.0053691 -0.0058973 0.0153813 16777215
1.2383510 -1.5389836 0.5127647 16711746
1.6780096 -2.0474281 0.3823090 16711746
0.5109558 -0.7549110 -0.0262642 16711746
0.0752437 -1.0417030 0.4379873 16711746
0.1240557 -0.6543648 0.1872548 16711746
1.3153853 -1.1654902 0.1628386 16711746
0.0212181 -0.7747027 0.0035819 16711746
-0.4878298 -5.0456080 0.1843068 16711746
-0.0740091 -1.0728266 0.0363339 16711746
1.8890336 -1.6847373 0.5500118 16711746
1.1539211 -2.2706263 0.7105792 16711746
0.4451209 -0.5616633 0.2300637 16711746
0.6558647 -0.6909658 0.1281036 16711746
1.1281478 -1.1610004 0.3475073 16711746
0.8893673 -1.5123638 0.3182023 16711746
-0.6693342 -4.6328754 0.0358190 16711746
-0.3625929 -1.4724586 0.1422513 16711746
-0.0797619 -1.0264236 -0.0745629 16711746
1.8621047 -2.3415437 0.2513387 16711746
0.2235238 -0.5060261 0.0022104 16711746
0.7320864 -0.8725347 0.1912322 16711746
1.4052861 -1.8706989 0.3644103 16711746
0.5233410 -0.7359076 0.0353680 16711746
0.4727162 -0.7209901 0.0288875 16711746
1.3932693 -5.1372929 -0.0818673 16711746
0.6410729 -2.0345185 -0.0623513 16711746
0.0928245 -0.8696644 0.0827114 16711746
0.4957272 -0.9338506 0.5158880 16711746
0.5335764 -0.9687114 -0.0619603 16711746
0.3479525 -0.6767614 -0.0396708 16711746
0.7102993 -1.0573593 -0.0748440 16711746
0.3267301 -0.8753369 0.4349063 16711746
-0.9353945 -2.6113985 0.3508410 16711746
0.6954294 -0.7790871 0.4121611 16711746
0.0907819 -1.3446072 -0.1059452 16711746
0.4398854 -1.1815925 0.1333981 16711746
0.8611206 -0.7448691 0.2522734 16711746
0.1506132 -1.1912842 0.3978436 16711746
1.7058321 -2.2231092 0.2548749 16711746
1.2117150 -1.1754471 0.3630092 16711746
0.4419861 -0.6999943 0.0546689 16711746
-0.0511004 -0.5235466 0.0908698 16711746
0.4519340 -0.7616825 0.3228590 16711746
0.2550558 -2.8117797 0.3969596 16711746
0.0628045 -0.8367164 0.1167039 16711746
1.0881950 -4.8989725 -0.3679492 16711746
-0.0058960 -0.7875810 -0.0293330 16711746
-0.0508884 -1.0906696 -0.0600032 16711746
0.1360677 -0.8761371 0.2618747 16711746
0.8896289 -0.9164875 0.1278904 16711746
0.6175372 -0.7226996 0.0936748 16711746
0.6978969 -0.7479804 0.0675844 16711746
0.6192142 -3.5868633 0.4136779 16711746
0.4435070 -2.9912460 0.2814265 16711746
0.1070846 -1.0976559 0.4314757 16711746
0.5026820 -1.9116918 -0.1034511 16711746
0.9400396 -1.1085067 0.2932859 16711746
2.5005240 -3.1534312 0.8142254 16711746
2.1205506 -1.9906245 0.5084198 16711746
0.6973956 -0.9268605 0.6033939 16711746
1.8823411 -5.7111878 -0.1560107 16711746
0.0384821 -0.8023130 0.0290679 16711746
0.6896754 -0.6847862 -0.0126631 16711746
0.3318826 -0.5346131 -0.0334761 16711746
0.6384180 -1.0352650 -0.1116398 16711746
0.5196985 -0.6371652 -0.0283241 16711746
0.3022347 -0.9029257 0.3799737 16711746
0.3809882 -1.6019295 0.3626135 16711746
0.9506114 -0.9842384 0.3903016 16711746
0.0019166 -1.2030119 0.0551959 16711746
0.9254224 -1.2459124 0.5455746 16711746
0.3216927 -0.5284036 -0.0028479 16711746
2.5765734 -4.4063573 -0.2546396 16711746
0.6594087 -0.6414596 0.1564189 16711746
0.7765818 -2.1669068 -0.1693763 16711746
-0.3781311 -0.9935650 0.4821222 16711746
0.7219459 -0.8267459 -0.0444950 16711746
-0.0981394 -0.6594937 0.1161056 16711746
0.3188957 -0.8251513 -0.0253248 16711746
0.7902668 -2.1668069 -0.1287939 16711746
0.3429202 -0.8430975 -0.0434254 16711746
1.7967880 -5.5350089 0.0057298 16711746
0.4424355 -0.7113449 0.0233995 16711746
0.0950265 -0.9187629 0.0482304 16711746
