# .PCD v.7 - Point Cloud Data file format
VERSION .7
FIELDS x y z rgb
SIZE 4 4 4 4
TYPE F F F F
COUNT 1 1 1 1
WIDTH 246
HEIGHT 1
VIEWPOINT 0 0 0 1 0 0 0
POINTS 246
DATA ascii

0.3778754 -0.9974292 0.2426267 16711746
-0.1176396 -1.0434256 0.1027087 16711746
-0.2362935 -1.0118468 0.0924169 16711746
-0.2625287 -0.9709842 0.0922452 16711746
-0.4189937 -1.0586133 0.3981433 16711746
-0.0305851 -1.0213474 -0.0501377 16711746
0.9104523 -0.8156579 0.5113714 16711746
0.9349006 -0.7993992 0.4832173 16711746
-0.0459775 -1.0840991 0.4795109 16711746
-0.3540554 -1.1727482 0.4047973 16711746
-0.3123514 -1.0539327 0.3322877 16711746
0.1144616 -1.1241261 0.5086586 16711746
0.6691205 -0.9320548 0.4100910 16711746
0.1703112 -1.2327156 0.0988345 16711746
0.1551954 -0.9889486 0.0590889 16711746
-0.0044539 -1.0083109 0.1226093 16711746
-0.3636067 -1.0543803 0.3958877 16711746
0.2016471 -1.0452119 0.2169373 16711746
0.2653899 -1.0338973 0.6165869 16711746
0.3756659 -0.9886754 0.7671736 16711746
-0.4564475 -1.0041566 -0.1141295 16711746
-0.3786080 -0.9195039 -0.1018898 16711746
0.4322059 -0.9641349 0.4373406 16711746
-0.2660682 -1.0541024 0.2689998 16711746
-0.2919661 -1.0274030 0.0612069 16711746
-0.4007084 -0.9442420 -0.0402942 16711746
-0.3224199 -1.0185361 0.1028829 16711746
-0.0198435 -1.0148716 -0.0737481 16711746
-0.3391180 -0.9757916 -0.1147875 16711746
-0.2654778 -0.9842361 -0.1223161 16711746
-0.3753671 -0.9738294 -0.1496107 16711746
-0.3680702 -0.9733323 -0.0575021 16711746
-0.2653570 -0.9832777 -0.0625828 16711746
-0.3655962 -0.9488906 -0.0918173 16711746
-1.0815125 -0.7819816 -0.1291485 16711746
-0.3216659 -1.0956575 0.4239994 16711746
-0.2760286 -1.0481094 0.3360063 16711746
-0.5052914 -1.0941933 0.3560823 16711746
-0.5682979 -0.9770216 0.0797053 16711746
-0.5360621 -1.0791705 0.0757424 16711746
-0.3599704 -1.0281934 0.1356840 16711746
-0.3914422 -1.0319053 0.1779914 16711746
-0.4958762 -1.0521206 0.1331250 16711746
-0.5597546 -1.0718588 0.1264780 16711746
-0.2453761 -1.0889453 0.0431304 16711746
0.8506142 -0.8453658 0.4182648 16711746
0.9084777 -0.9239171 0.4568636 16711746
0.7365630 -0.8565689 0.7066578 16711746
0.7842538 -0.8138022 0.6665764 16711746
0.7519826 -0.8619041 0.6811516 16711746
0.7094110 -0.9845687 0.7133222 16711746
-0.3978647 0.9055746 -1.0935322 16711746
0.3299104 -0.9278567 0.8091382 16711746
-0.4465393 0.7624968 -0.9646531 16711746
-0.7542481 1.0606209 -1.0082548 16711746
-0.6702926 1.1726077 -1.0895722 16711746
-0.2881608 -1.0328269 0.4508183 16711746
-0.4059866 -1.0760748 0.5300081 16711746
-0.7615978 -0.9881727 0.4863778 16711746
-0.4394511 -1.0737895 0.5533437 16711746
0.2736579 -1.0025930 0.0792438 16711746
0.2897379 -1.0230469 0.1730354 16711746
0.1360736 -1.0420756 0.1205865 16711746
0.9677423 -0.8769680 0.0905279 16711746
0.6558259 -0.9816442 0.2289961 16711746
0.5596088 -0.9922200 0.1880514 16711746
0.6706275 -0.9936620 0.0479602 16711746
0.6003623 -0.9690593 0.5630868 16711746
0.5973564 -0.9430688 0.5162167 16711746
0.9540181 -0.7816616 0.4653893 16711746
0.9291004 -0.8227469 0.4738408 16711746
0.8362009 -0.9054441 0.0365236 16711746
-0.4405803 -1.0699821 0.3681312 16711746
0.4305201 -1.0416243 0.2566117 16711746
0.0025369 -0.9948339 -0.0400634 16711746
0.8533887 -0.8759634 0.3651929 16711746
0.8458369 -0.8965558 0.3483543 16711746
0.0647542 -1.0172756 0.0872176 16711746
0.5276889 -0.9987767 0.2899483 16711746
-0.2805542 -1.0444807 -0.0533870 16711746
-0.2994404 -0.9684111 -0.0541887 16711746
0.0347130 -1.0670969 0.4264987 16711746
0.4626494 -1.0036640 0.3880605 16711746
0.4644749 -1.0041027 0.3802672 16711746
0.4986106 -1.1604576 0.4333130 16711746
0.1665521 -1.0268680 0.0131789 16711746
0.1293020 -1.0096855 -0.0013431 16711746
0.2472949 -1.0519052 0.3667444 16711746
0.2184016 -1.0726168 0.3504007 16711746
-0.4183065 -1.0699582 0.3516741 16711746
-0.3927719 -1.0197358 0.3189528 16711746
-0.2236034 -1.0545480 0.2028214 16711746
0.1977466 -1.0548216 0.1861315 16711746
0.1871757 -1.0498143 0.1916405 16711746
0.1680023 -1.0556328 0.1779913 16711746
0.2840491 -1.0476136 0.3034629 16711746
0.3396037 -1.0273545 0.2955949 16711746
0.7088581 -0.9309913 0.3207026 16711746
-0.4357432 -1.0373433 0.1629848 16711746
-0.2776746 -0.9617497 -0.0097632 16711746
-0.3281425 -0.9764718 -0.0330475 16711746
0.6004120 -0.9892746 0.0188245 16711746
0.5997115 -1.0428374 0.3275637 16711746
-0.2255731 -1.0557852 0.1927505 16711746
-0.1333203 -1.0219944 0.0375874 16711746
0.2166057 -1.0431467 0.1485089 16711746
0.1038229 -1.0438505 0.4554001 16711746
-0.0937868 -1.0018048 -0.0289462 16711746
-0.0906374 -1.0352771 -0.0449754 16711746
0.1546121 -1.1572592 0.5691902 16711746
-0.1286401 -0.9932228 -0.0892087 16711746
-0.1740843 -1.0280408 -0.0295676 16711746
0.1354469 -1.0132791 0.1398658 16711746
0.1099441 -1.0801145 0.1466659 16711746
0.1685433 -1.1167234 0.3448984 16711746
-0.0566589 -1.1624432 0.3957902 16711746
-0.4351104 -0.9922326 -0.0010112 16711746
0.3567893 -1.1211200 0.5012597 16711746
0.0132485 -1.0066688 0.1388122 16711746
0.0568442 -1.0584655 0.4104303 16711746
0.0617966 -1.0011507 0.0025340 16711746
-0.4576134 -1.1148716 0.2502446 16711746
0.6285897 -0.9880505 0.2723991 16711746
0.5807607 -0.9718964 0.2638532 16711746
-0.2843525 -1.0073816 0.2560358 16711746
-0.3374066 -1.0761135 0.2604298 16711746
-0.1586396 -1.0081645 0.0277353 16711746
0.8134467 -0.9467667 0.1240579 16711746
0.8203083 -0.9693670 0.1161362 16711746
0.2567897 -1.0307951 0.2234537 16711746
-0.1283271 -1.0233673 0.0479309 16711746
-0.0711396 -0.9911118 -0.0179200 16711746
-0.0382371 -1.0154477 -0.0298439 16711746
-0.0649607 -1.0311277 -0.0306106 16711746
-0.3750090 -0.9943222 0.0354554 16711746
0.0163094 -1.0223221 -0.0052694 16711746
0.0411699 -1.0484978 -0.0219970 16711746
-0.2102887 -1.0297701 0.0443990 16711746
0.2748386 -1.0588710 0.2924012 16711746
0.2454285 -1.0797496 0.2882314 16711746
0.9518458 -0.8639428 0.4108735 16711746
0.2395542 -1.0272353 0.1879517 16711746
0.1784919 -1.0514878 0.5225142 16711746
0.0780583 -1.0373147 0.0499020 16711746
0.0683549 -1.0495496 0.0601662 16711746
-0.0091504 -1.1081071 0.3283943 16711746
0.3721214 -1.0007093 0.8394707 16711746
0.3911253 -0.9600957 0.8040038 16711746
0.3787715 -1.0088352 0.8246869 16711746
0.7227399 -0.9747038 -0.0129310 16711746
0.8769875 -0.8135443 0.4194145 16711746
0.8912535 -0.8042476 0.4073392 16711746
0.0157932 -1.0559120 0.1678727 16711746
-0.2186283 -0.9662324 -0.1042762 16711746
0.9590146 -0.8877690 0.3902874 16711746
0.0336205 -1.0852435 0.3867806 16711746
0.2846222 -1.0865155 0.4898144 16711746
-0.0365009 -1.0145501 0.0353698 16711746
-0.0404104 -1.1013800 0.4447631 16711746
0.9158148 -0.7670801 0.7101393 16711746
0.2361438 -1.0272434 0.2569197 16711746
0.5653204 -0.9761103 0.0567224 16711746
0.3359208 -0.9422277 0.6359566 16711746
0.2841707 -1.0131940 0.2622650 16711746
0.3211786 -1.0039690 0.2381505 16711746
0.6691697 -0.9583033 0.2978859 16711746
0.7093557 -0.9413745 0.2661684 16711746
0.0284528 -1.0008879 0.6785146 16711746
0.1797722 -1.0551625 0.1142444 16711746
0.2756985 -1.0568668 0.2515763 16711746
0.2305023 -1.0370128 0.2408911 16711746
0.4668540 -0.9785208 0.7347153 16711746
0.3668488 -1.0436764 0.5407581 16711746
0.3940455 -1.0221405 0.5302537 16711746
0.8415275 -0.8646078 0.4041007 16711746
-0.4072284 -0.9782068 0.0028121 16711746
0.6533628 -0.9573699 0.3755855 16711746
-0.2446361 -1.1105486 0.3283278 16711746
-0.2852054 -1.0559626 0.3080543 16711746
0.2138382 -1.0815784 0.3364733 16711746
0.4573808 -1.1204197 0.7011030 16711746
0.7580222 -0.9501860 0.0402069 16711746
0.7050420 -0.9808056 0.0366056 16711746
0.7480747 -0.9562525 0.0303353 16711746
0.7030807 -0.9823410 0.0211919 16711746
-0.2451800 -1.0773991 0.1278792 16711746
0.3068788 -0.9775397 0.7941231 16711746
0.3148865 -0.9739957 0.7348756 16711746
0.4580304 -0.8892170 0.7438883 16711746
-0.1224419 -1.0518525 -0.0691587 16711746
-0.1429997 -1.0154978 -0.0018258 16711746
-0.1115678 -1.0442355 -0.0084225 16711746
0.4378324 -1.0003083 0.2628397 16711746
0.1343614 -1.0670762 0.2146278 16711746
0.0890444 -1.0336125 0.2037931 16711746
0.4135203 -1.0451621 0.2811629 16711746
0.3705861 -1.0193915 0.2674701 16711746
0.1136643 -1.0750189 0.1686703 16711746
0.0644984 -1.1493531 0.2530994 16711746
-0.2739694 -0.9652854 0.0026313 16711746
0.5077325 -1.1804576 0.4161528 16711746
0.4586295 -0.9938586 0.3284580 16711746
0.4231841 -0.9895408 0.3240233 16711746
0.0348186 -1.0820696 0.3329355 16711746
0.5602370 -0.9243196 0.4814237 16711746
-0.3566788 -0.9542353 -0.0123065 16711746
-0.4472205 -1.0770799 -0.0266256 16711746
0.6924903 -0.9394609 0.3163568 16711746
0.2454177 -1.0160306 0.8257737 16711746
-0.1603968 -1.0021814 -0.0706935 16711746
-0.1906565 -0.9934356 -0.0739798 16711746
0.0222521 -1.2029065 0.0432684 16711746
-0.0032084 -1.0177774 0.0244192 16711746
0.0329694 -1.0240865 0.0180886 16711746
0.1057057 -1.0292542 0.7131146 16711746
0.2120074 -1.0266138 0.5424651 16711746
0.4710633 -0.9494438 0.5658916 16711746
0.2666326 -1.0647267 0.6458627 16711746
0.4028268 -1.0099251 0.6411203 16711746
0.1125227 -1.0936923 0.6416909 16711746
-1.0597439 0.9340702 -0.9156933 16711746
-1.6345612 1.0304619 -1.1460407 16711746
0.5222510 -0.9144079 0.7454198 16711746
-0.8981827 1.0079424 -0.9463111 16711746
0.8375854 -0.8557231 0.5700810 16711746
0.9230304 -0.7602727 0.5371872 16711746
0.5896341 -0.9032401 0.6588913 16711746
0.2394706 -1.0399686 0.4330913 16711746
0.4005468 -0.9784457 0.4350954 16711746
0.1601048 -1.0406873 0.3393205 16711746
0.4852153 -1.0183629 0.2420984 16711746
0.4030530 -1.0002387 0.3218547 16711746
0.4495073 -0.9925851 0.2921731 16711746
1.0717988 -0.7126979 0.4518976 16711746
0.6112153 -0.9216793 0.3925189 16711746
0.7867451 -0.9350436 0.3998216 16711746
0.6686389 -0.9203929 0.4413364 16711746
0.7486629 -0.9222667 0.2416901 16711746
0.7174035 -0.9444072 0.2311324 16711746
0.6359909 -0.9692050 0.3341102 16711746
-0.6450630 -0.8971907 -0.1114498 16711746
-0.6799061 -0.9730722 -0.2503080 16711746
-0.8321003 -1.1576959 -0.1958675 16711746
13.1857548 -40.3587456 19.1674900 16711746
2.8408852 -4.1892614 2.1856623 16711746
1.5263251 -3.6958289 3.0155454 16711746
