# .PCD v.7 - Point Cloud Data file format
VERSION .7
FIELDS x y z rgb
SIZE 4 4 4 4
TYPE F F F F
COUNT 1 1 1 1
WIDTH 366
HEIGHT 1
VIEWPOINT 0 0 0 1 0 0 0
POINTS 366
DATA ascii

 -53.7227249 36.8970222 93.8538589 16777215
 -1.5327235 1.0551050 2.6775334 16777215
-1.8160549 -0.5479878 2.6924634 16711746
-0.9174013 -1.4047136 2.6860690 16711746
-0.7828906 -1.5240321 2.6611328 16711746
-1.4632814 -0.8183137 2.8148093 16711746
-1.7971050 0.1144132 3.0882835 16711746
-1.7639678 0.1239461 3.0696664 16711746
-1.1118335 -0.7749758 3.4247618 16711746
-2.0096774 2.7983088 0.9570491 16711746
-1.8844888 2.6504982 1.1325302 16711746
-0.9593514 -1.3084122 2.5169952 16711746
-0.8490171 -1.3954824 2.4894445 16711746
-0.8705679 -1.4000210 2.4565997 16711746
-1.4313334 1.9727484 2.0099585 16711746
-1.8106976 -0.6217600 2.7428195 16711746
-1.6687720 2.3720572 1.5661192 16711746
-1.6344666 2.2067354 1.7315150 16711746
-1.6458002 2.3425159 1.6501889 16711746
-0.2717672 3.0696812 1.5494025 16711746
-0.7326957 2.4096861 1.9574600 16711746
-0.7079194 2.4235833 1.9398024 16711746
-1.6646581 0.2708812 3.1210294 16711746
-1.3296809 1.7532675 2.2592189 16711746
-1.7176758 0.2658049 3.1398778 16711746
-0.8556561 -1.1819929 3.0704379 16711746
-1.8352095 -0.1840170 2.8912537 16711746
-1.1432954 -1.1919024 2.5146387 16711746
-1.5684336 -0.7197778 2.8144839 16711746
-0.8698527 -1.3260658 2.5849452 16711746
-0.9486731 -1.2771953 2.5767949 16711746
-0.8639079 -1.3405830 2.5676746 16711746
-0.8652129 -1.5399452 2.5315001 16711746
-1.1445429 -1.2643683 2.4095461 16711746
-1.2719446 -1.1343081 2.3848586 16711746
-1.2334917 1.8128254 2.0956600 16711746
-1.1716158 1.8979012 2.0742452 16711746
-1.5586472 1.7098913 2.0220442 16711746
-1.6462642 2.2213809 1.5073376 16711746
1.5001991 -1.5023409 2.5116966 16711746
-1.6577163 2.2407129 1.6120207 16711746
-1.6044573 2.1630573 1.7300626 16711746
0.0006355 -0.7342675 3.6123991 16711746
-1.8436332 0.1318047 3.1569250 16711746
1.2699509 -1.4234574 2.7060437 16711746
-0.7312589 -0.4716955 3.3526032 16711746
-1.6420937 0.2612137 3.1171355 16711746
-1.6322112 0.2472404 3.1116493 16711746
-1.5949135 0.6499337 2.8957050 16711746
-1.1723984 -0.3604872 3.5052879 16711746
-0.7246306 -0.4754379 3.3542681 16711746
-1.3756300 1.6469208 2.2681808 16711746
-1.3403153 1.7101922 2.2416456 16711746
-1.9471314 0.1730416 3.0844476 16711746
-1.8434929 0.2864410 3.0319166 16711746
-1.1965348 1.9084747 2.1375842 16711746
-1.1747999 -0.4981593 3.0022950 16711746
-0.9610131 -0.4667405 3.2375455 16711746
-1.5062400 1.6457840 2.0724812 16711746
-1.5013616 1.6281613 2.1211846 16711746
-1.0701497 2.1105652 2.1385560 16711746
-1.0431722 2.1432211 2.1305385 16711746
-1.9659530 0.0880808 3.1483405 16711746
-2.2926478 -0.7325862 2.6784041 16711746
-1.5520558 -0.8235151 2.7557666 16711746
-1.5820211 -0.6952509 2.6959357 16711746
0.5054435 -0.9109805 3.5229638 16711746
-1.8621476 -0.7122648 2.6618271 16711746
-1.9279867 -1.1265892 2.6175733 16711746
-1.6702684 1.8959340 1.7943187 16711746
-1.7221154 2.4133894 1.2784908 16711746
-1.9661651 0.0513066 3.1159346 16711746
-0.5210034 2.5932622 2.0403028 16711746
-1.7921349 0.1546271 3.0298200 16711746
-1.8990998 -0.0138983 3.0883532 16711746
-1.8690748 -0.1410601 3.1192281 16711746
-1.8686907 -0.0097997 3.0635886 16711746
-1.7242563 0.2499072 3.1307268 16711746
-1.6203388 0.6038204 2.9298453 16711746
-1.5590149 1.6932532 2.0798695 16711746
-1.1698176 -0.6335492 3.4602196 16711746
-1.4191490 -0.3739907 3.0884700 16711746
-2.0963330 -0.3633186 2.9544752 16711746
-2.0966399 -0.2721477 2.9060867 16711746
-1.4358206 -1.1613413 2.9106596 16711746
-1.1860200 -0.5339529 3.2791004 16711746
-1.7214955 -1.1564833 2.7027800 16711746
-1.6174638 -0.6761429 2.6905644 16711746
-1.6439462 -0.9207630 2.6270895 16711746
-0.2645381 -0.9704110 3.2826946 16711746
-0.2466937 -0.9947581 3.2619436 16711746
-1.3206255 1.7033305 2.1556270 16711746
-2.0037093 0.0515831 3.1549420 16711746
-1.9533559 0.0796521 3.1264555 16711746
-1.6297019 1.8485025 1.8131216 16711746
-1.7219567 2.3085930 1.2952237 16711746
-1.6596593 2.2360082 1.4219419 16711746
-1.3916022 1.6299044 2.1326449 16711746
-1.3733876 1.9416217 1.8618749 16711746
-1.0825710 2.0756857 2.1257212 16711746
-1.0391641 2.1480157 2.1102536 16711746
-1.6686752 -0.9491488 2.5892341 16711746
-1.7772617 2.0446126 1.5335516 16711746
-1.7766476 2.2863047 1.3260014 16711746
-2.1716895 -0.2941895 2.9246256 16711746
-2.3435082 -0.4127085 2.9083266 16711746
-1.4560518 1.9980956 1.6771183 16711746
-1.5046281 2.0451617 1.6276654 16711746
-1.6957650 -0.4545015 2.8781967 16711746
-1.7295506 -0.9786239 2.8259025 16711746
-1.7355000 -1.0110552 2.8044820 16711746
-1.6525004 -1.0824066 2.3296614 16711746
-1.6166621 -1.2460984 2.2927067 16711746
-1.2587872 -0.8369921 2.8025215 16711746
-1.2424436 -1.0481837 2.7894831 16711746
-1.5608089 2.1003060 1.7839518 16711746
-1.7902724 2.0472760 1.6373292 16711746
-1.8907357 2.6415162 1.0629478 16711746
-2.2331986 -0.4118375 2.8598039 16711746
-1.7587355 2.3717594 1.3993280 16711746
-2.0894172 -0.1139167 3.2304025 16711746
-1.2793518 1.8307456 2.2233362 16711746
-1.2524588 1.8664826 2.1988850 16711746
-1.2840581 1.8324293 2.2332516 16711746
-1.2468376 1.8893286 2.2061126 16711746
-0.8765802 -0.9053323 3.4007528 16711746
0.7659835 -1.7214664 3.1275823 16711746
0.1914207 -1.1230747 2.8313529 16711746
-1.8940880 -0.3655262 2.8144610 16711746
-1.8959962 -0.4991814 2.8098712 16711746
-2.1089151 -0.6127356 2.6790502 16711746
-2.1374009 -0.7013348 2.6698475 16711746
-1.8994900 0.0813895 2.9878888 16711746
-0.4393652 -0.8192406 3.3251729 16711746
-1.7591723 -0.0762741 2.9950838 16711746
-1.7544659 0.0632590 2.9471540 16711746
-2.0140021 -0.9419146 2.7627938 16711746
-1.8345914 -0.6096920 2.7464068 16711746
-1.6644809 -0.6892239 2.9839544 16711746
-1.6880282 -0.3873556 2.9120147 16711746
-1.6771657 -0.4256056 2.9020016 16711746
-1.8157936 -0.6473830 2.6830943 16711746
-1.6190197 -1.1072469 2.4665644 16711746
-1.5196521 2.0644028 1.5724880 16711746
-1.5255139 2.0697467 1.5853957 16711746
1.0058534 -1.8311821 2.6868575 16711746
-1.3768669 1.6632290 2.2847304 16711746
-1.3306222 1.7374406 2.2473004 16711746
-1.2846081 2.0433221 2.0558379 16711746
-1.3275464 1.7494224 2.2511344 16711746
-2.0222974 0.0983989 3.1117122 16711746
-2.1303732 0.0004395 3.1431439 16711746
-2.0163379 0.0881426 3.0965846 16711746
-1.6246809 -1.5133317 2.3713181 16711746
-1.6490573 -1.5230811 2.3409257 16711746
-1.0755246 -0.8392365 3.1583571 16711746
-1.4559681 1.9833528 1.8844039 16711746
-0.5875592 -0.6996926 3.4441695 16711746
-0.5892285 -0.7952681 3.4607275 16711746
-1.5268655 -1.1161056 2.5172939 16711746
-1.5190796 1.6306666 2.1374180 16711746
-1.7781695 0.1785315 3.1205482 16711746
-1.6928926 0.4988518 2.9517608 16711746
-0.7419889 2.4433558 2.0076234 16711746
-0.7193755 2.4334085 2.0491474 16711746
-0.9427985 -0.7973186 2.9443822 16711746
-0.8467423 -1.1101844 2.9292052 16711746
0.4391890 -1.0449167 3.3745587 16711746
-2.0771141 0.0226196 3.1064327 16711746
-1.0569729 2.2981789 1.9060154 16711746
-1.1112653 1.9975572 2.0756712 16711746
-1.1362877 1.9800639 2.1011879 16711746
-0.8874200 2.4507074 1.7992187 16711746
-1.8097140 0.1261687 3.1100039 16711746
-1.6591517 0.5170240 2.9262958 16711746
-1.5049357 1.5395881 2.3038566 16711746
-1.7833394 -1.1109831 2.7186532 16711746
-2.2773595 -0.6458109 2.7663925 16711746
-2.2155893 -0.5582891 2.7371509 16711746
-0.8161182 -1.4552823 2.4148629 16711746
-0.9587021 -1.2436023 2.4009910 16711746
-0.5569563 -1.2008867 2.6320972 16711746
-0.4181643 -1.8155748 2.6223896 16711746
-1.5232978 1.6100494 2.1845291 16711746
-1.7417921 -0.9162521 2.5756173 16711746
-1.7349950 -0.9461656 2.5543942 16711746
-0.5741580 -0.7149373 3.6054881 16711746
-1.4888961 1.5272850 2.3503511 16711746
-1.4794756 1.5302930 2.3580139 16711746
-2.5458622 -0.6609972 2.9409690 16711746
-0.9586107 -1.1032301 2.8067691 16711746
-0.9751109 -1.0954762 2.7986906 16711746
-0.6899265 -1.4658688 2.8881450 16711746
-2.3060777 -0.2241814 3.1296587 16711746
-0.6640387 -0.5026303 3.3703048 16711746
-1.9555670 0.0628667 3.0242131 16711746
-1.4144205 1.5863578 2.2671893 16711746
-1.3814427 1.6335815 2.2492058 16711746
-1.4087161 1.5883528 2.2855968 16711746
-0.7311895 -0.4717164 3.3526144 16711746
-0.7312751 -0.4716767 3.3525960 16711746
-1.5826730 1.7629112 1.9440000 16711746
-1.5667498 2.1173563 1.5789616 16711746
-0.7778003 -1.2303892 3.1196308 16711746
-1.7201022 -0.6367642 2.9859324 16711746
1.6043648 -1.3516005 3.4420688 16711746
-2.5138807 -0.6539209 2.9213767 16711746
-1.7573489 0.3732665 2.9842875 16711746
-1.8296725 0.2882662 3.0191791 16711746
-1.7726492 0.3478900 2.9898183 16711746
-1.7997584 0.3002712 2.9973247 16711746
-0.1365532 -1.5633012 2.8885584 16711746
-1.9761740 -0.4878649 2.8208144 16711746
-1.9936161 -0.5418165 2.7855613 16711746
-2.0267611 -0.5403004 2.7904854 16711746
0.1952324 -1.0478381 3.1934736 16711746
-0.3086874 -1.2979903 2.6506450 16711746
-0.4783125 -0.7783904 3.6580157 16711746
-0.9898972 -0.7824690 3.6670675 16711746
-1.4643958 2.0448518 1.8628345 16711746
-1.5056881 1.5457476 2.2893004 16711746
-1.7479078 0.3610819 2.9702754 16711746
-1.9005444 -0.1012212 3.1452286 16711746
-1.3757954 1.9573749 1.8656174 16711746
-1.7816455 2.0522909 1.5664219 16711746
-1.7477896 2.0113547 1.6503903 16711746
-1.8139671 2.4294970 1.2611119 16711746
-0.5760188 -1.3516940 3.2666149 16711746
-0.6684610 -1.2762010 3.2288868 16711746
-0.4055662 -1.6939315 2.9208522 16711746
-0.5621527 -1.4043978 2.8535581 16711746
-1.0972679 -0.6668116 3.2969067 16711746
-1.4047685 -0.5833533 3.1719203 16711746
-2.2047770 -0.4219577 2.9179330 16711746
-0.5077500 2.6723032 1.9783694 16711746
-0.3913866 2.7649972 1.9509878 16711746
-2.1893456 -0.0690839 3.1372745 16711746
-0.2327626 2.9014957 1.9444273 16711746
-1.3223876 -0.5817797 2.8618944 16711746
-2.4644902 -0.5645063 3.0310137 16711746
-2.3239071 -0.4842829 3.0017934 16711746
-2.3616247 -0.5188498 2.9882948 16711746
-1.4722520 1.5627156 2.2685637 16711746
-0.7312751 -0.4716767 3.3525960 16711746
-1.9271096 0.1185716 3.0353284 16711746
-1.3734775 1.6450008 2.2423584 16711746
-1.3456810 1.6898928 2.2282546 16711746
-1.3092016 1.7367228 2.1896057 16711746
-1.9797144 -0.6094561 2.7359540 16711746
-2.0715091 -0.6434841 2.7138779 16711746
-2.1287396 -1.0126401 2.6969635 16711746
0.6900061 -1.8063380 2.6930206 16711746
-2.1982198 -0.1608041 3.0534451 16711746
-2.4913871 -0.5324448 3.1598804 16711746
-2.1091828 -0.5097116 2.8339448 16711746
-2.1588330 -0.5451924 2.8198192 16711746
-0.2318895 -1.4622449 3.2966590 16711746
-0.1390433 -1.3932885 3.2519960 16711746
-2.2879734 -0.1533635 3.1491368 16711746
-2.2096603 -0.1145182 3.1107430 16711746
-1.2280402 1.8334687 2.1149154 16711746
-2.1145530 -0.1918906 3.1633263 16711746
-2.0889361 -0.0443267 3.0605376 16711746
-1.0722516 2.0666568 2.0815935 16711746
-0.9904292 2.3854110 1.9006790 16711746
-2.2004721 -0.2112079 3.0089140 16711746
-2.1988280 -0.2307742 2.9907382 16711746
-1.1433961 -1.2166488 2.4803896 16711746
-0.9792879 -1.4247216 2.5882676 16711746
-1.0672525 -1.3914211 2.5471668 16711746
-1.0014801 -1.2529180 2.5595229 16711746
-1.1883219 1.9638855 2.1674132 16711746
-1.1522427 2.0077429 2.1541328 16711746
-0.9602036 2.4467661 1.9326227 16711746
1.0747768 -1.6521827 3.0360150 16711746
-1.2904102 -0.9570554 2.8317707 16711746
-1.7535827 0.4139766 2.9928699 16711746
-1.7758399 0.3641831 2.9978979 16711746
-1.1875638 -0.9279296 2.9481933 16711746
-1.1060457 -1.0105016 2.9548733 16711746
-0.9673883 -0.9506851 3.4946661 16711746
-1.0199763 -0.9096986 3.4452231 16711746
-2.0711999 -0.5552925 2.7167845 16711746
-2.0655305 -0.0719301 3.0198314 16711746
-2.1510940 -0.2952034 3.0735474 16711746
-0.7080398 -0.6947101 3.2935584 16711746
-1.3581649 -1.1038655 2.4002521 16711746
-1.0172243 -1.2708360 2.5172627 16711746
-2.2838604 -0.1920824 3.0992777 16711746
0.0131470 -1.3741797 2.8018024 16711746
-0.1253907 -1.7119925 2.9340444 16711746
-0.5108723 -1.1565117 2.8657908 16711746
-1.1707137 -0.1287390 3.2588041 16711746
-1.4352962 -1.0685505 2.4549768 16711746
-1.5548831 -1.1894816 2.4137604 16711746
-1.7458656 0.4542324 3.0002542 16711746
-0.6099070 -1.3460926 3.2162964 16711746
-0.5619539 -1.4224182 3.1692779 16711746
-0.9283283 -0.9707077 3.5455341 16711746
-0.4461534 -1.5902549 3.0613389 16711746
-0.6570399 -1.3739295 3.0909853 16711746
-0.5591433 -1.3109341 3.3668988 16711746
-2.2186875 -0.1906406 3.0419841 16711746
-2.3273742 -0.2943749 3.0220156 16711746
-2.1494019 -0.6113058 2.7556903 16711746
0.0806040 -0.8614281 4.0602565 16711746
-2.1676931 2.3158634 0.9613680 16711746
-2.4414756 2.4743135 0.4909285 16711746
-2.0736129 -0.1618530 3.1451871 16711746
-1.7327129 0.1679571 3.0763700 16711746
-1.7428114 0.1991852 3.1035569 16711746
-0.7063780 -0.4853463 3.3592279 16711746
-0.2809670 2.8146315 1.8623005 16711746
-2.0275469 -0.1994391 3.0504844 16711746
-1.6216661 0.4234621 2.9055669 16711746
-1.6925802 0.3485126 2.9355209 16711746
-2.0868573 -0.0540756 3.0507567 16711746
-1.0658901 -0.0667512 3.5891039 16711746
-0.7033359 -0.9288149 3.7144964 16711746
-1.0939814 -0.3394719 3.4799666 16711746
-1.4555614 -0.1726200 3.1348381 16711746
-1.6009452 0.1543661 3.0924788 16711746
-0.9519730 2.0831103 1.9030033 16711746
-0.8984973 2.1314545 1.8762281 16711746
-1.0123599 2.2338305 1.7391318 16711746
-0.8524871 2.1112545 1.7659266 16711746
-1.0235043 2.1506784 2.0939546 16711746
-0.7106231 -0.4951217 3.3612711 16711746
-0.8392522 2.5402520 1.8386499 16711746
-1.1411546 1.9377599 2.0625997 16711746
-0.7309729 -0.4718641 3.3526525 16711746
-0.7557221 2.3418384 1.9116087 16711746
-1.6002444 1.8231583 1.8265151 16711746
-1.7630800 2.0259333 1.5056595 16711746
-1.3938137 1.6143944 2.1886058 16711746
-1.4054877 1.5969666 2.2442019 16711746
-1.2994522 1.9337400 1.8616849 16711746
-1.4257814 1.6253161 2.1098878 16711746
-1.3350891 0.2197339 3.3119800 16711746
-1.6074282 0.2943307 3.1864209 16711746
-0.2830181 -1.0089647 3.0780230 16711746
-0.7313837 -0.4716674 3.3525944 16711746
-1.8359951 -0.8044066 2.6109560 16711746
-1.7504927 -1.0497761 2.6565950 16711746
-2.0190158 -0.7431947 2.6275327 16711746
-1.9759848 -0.7997451 2.4881310 16711746
-0.8655888 -1.3271718 2.8595850 16711746
-1.5637783 -1.0244837 2.5853834 16711746
-1.0394892 -1.2498764 2.7614186 16711746
-1.0559714 -1.2648212 2.7262230 16711746
-0.8105764 -1.2173296 2.4408469 16711746
-0.4978735 -1.7843786 2.5595219 16711746
-1.7696383 -0.0817563 2.9046674 16711746
-1.9371133 -0.4888377 3.0103345 16711746
-1.6919701 -0.3238567 3.0834649 16711746
-1.6589779 0.1119362 2.9153407 16711746
-1.9736526 -0.3810608 2.8177807 16711746
-1.0072263 -1.0490420 3.3147128 16711746
-0.8886142 -0.5905192 3.1985085 16711746
-1.2002835 -0.5609832 3.2337470 16711746
-0.6843703 -1.0135638 3.6151054 16711746
-1.0589534 -0.3610328 3.2898643 16711746
-1.5435227 0.0622072 2.9329791 16711746
-1.4556262 -0.3259769 2.9372954 16711746
-1.5744607 0.3007904 2.9023283 16711746
-1.4436965 0.0904031 3.1380589 16711746
