# .PCD v.7 - Point Cloud Data file format
VERSION .7
FIELDS x y z rgb
SIZE 4 4 4 4
TYPE F F F F
COUNT 1 1 1 1
WIDTH 94
HEIGHT 1
VIEWPOINT 0 0 0 1 0 0 0
POINTS 94
DATA ascii

-1.3578956 -1.2884923 0.1434959 16711746
-1.6575645 -1.4573730 0.1228897 16711746
-0.3894042 -0.3118149 0.2260069 16711746
-0.7163084 -1.7312883 -0.2123311 16711746
-0.5751740 -1.8206612 0.4083769 16711746
-0.7959639 -0.6721480 0.4476736 16711746
-2.1713662 -1.3632983 0.8679615 16711746
-0.5349059 -1.7659342 0.4688133 16711746
1.8302091 1.5096039 -1.1649684 16711746
1.8231555 1.3585742 -1.1027950 16711746
-0.3696066 -1.8113105 0.5060244 16711746
-0.0697807 -0.1765662 0.0190120 16711746
-0.5612293 -1.2764567 0.1112065 16711746
-1.1138556 -1.1299173 0.0432588 16711746
-0.2720609 -2.2871106 -0.1890101 16711746
1.3790876 1.0116948 -1.0476755 16711746
1.6242555 1.1123794 -1.1826574 16711746
1.9182327 1.2472239 -1.3015143 16711746
-0.3983977 -1.0691791 -0.1526069 16711746
0.6366786 -1.8975133 0.6386655 16711746
-1.2861444 -1.2155255 0.7532366 16711746
-1.2944953 -1.2784958 0.7380990 16711746
1.3449184 1.2099217 -1.2524891 16711746
-0.0692784 -0.3148456 0.0284762 16711746
-1.6714702 -1.8806992 -0.0364946 16711746
-1.0071560 -1.0276425 -0.0356812 16711746
-1.5662239 -1.4101068 0.0995314 16711746
-1.0461859 -0.9433077 0.0320034 16711746
-1.3300635 -1.2774239 0.8751287 16711746
-1.2301623 -1.0496181 0.7374807 16711746
1.0475855 1.1848426 -1.1411476 16711746
1.2282482 1.3077433 -1.2842752 16711746
-0.7288372 -1.2049762 -0.2327691 16711746
0.4624811 0.9934596 -0.9864440 16711746
0.4576356 -2.0230012 1.0409937 16711746
-1.1928899 -1.1115280 0.5705838 16711746
1.4066277 1.1083398 -1.3286825 16711746
0.5312394 1.2086459 -1.2927314 16711746
0.4505179 1.4261885 -1.1752117 16711746
-0.4212234 -0.7596208 -0.0972664 16711746
-0.8582461 -1.2903898 0.2462908 16711746
0.6117457 1.3252113 -1.0915951 16711746
-0.3846368 -1.4113878 0.1409660 16711746
-0.3554347 -0.5178779 -0.1114446 16711746
-1.5927175 -1.4368072 -0.0409560 16711746
-0.4789258 -1.6358968 0.5771626 16711746
-0.2119194 -0.6978217 0.0084413 16711746
0.3164293 -1.6243067 0.6550007 16711746
1.3940881 1.2192156 -1.0602403 16711746
-1.0129567 -0.8830084 0.5963218 16711746
-1.1118957 -1.3250972 -0.0053946 16711746
-0.4566366 -1.3486857 0.6528019 16711746
0.9101093 1.2874010 -1.3361211 16711746
-0.5162551 -1.5974556 0.5530139 16711746
-0.2633914 -0.9298006 0.2932668 16711746
-0.9016637 -1.1581460 -0.0765460 16711746
-1.2473981 -1.4738535 -0.1269140 16711746
-0.8876070 -1.1480833 -0.0500552 16711746
-0.2375549 -0.4711101 -0.0653555 16711746
-0.8096308 -2.2005620 0.2117900 16711746
1.0569652 0.9685320 -1.0353998 16711746
1.4939514 1.2676780 -1.4081335 16711746
-0.3846894 -0.5581807 -0.0930614 16711746
-0.4603051 -2.3737063 -0.0128454 16711746
-0.4993109 -1.7489866 0.5110536 16711746
1.4573777 1.3411601 -1.0530002 16711746
-0.4965233 -0.8730099 -0.1158051 16711746
1.5296770 1.3603758 -1.1127335 16711746
-1.6662781 -1.4762557 0.0236546 16711746
-0.8803279 -0.9628946 0.0761195 16711746
-0.5913158 -1.6699535 0.4780205 16711746
1.4599005 0.9730918 -0.8721042 16711746
-1.2447174 -2.0817010 -0.3702556 16711746
1.6538970 1.1819485 -1.1522801 16711746
-0.2249502 -0.5831487 -0.0416737 16711746
-1.4871081 -1.3554904 0.1855153 16711746
2.0881939 1.4340563 -1.2076863 16711746
0.6779043 1.3683394 -1.2291958 16711746
0.1141995 -7.6075377 2.3663464 16711746
0.0186220 -0.7929137 0.4586502 16711746
-0.5825322 -2.8172777 -0.1950006 16711746
-0.4016328 -3.3431277 -0.3274499 16711746
-3.6534340 -11.8095140 4.9915996 16711746
0.0078135 -1.5110291 0.4614000 16711746
-4.5308666 -11.4151926 -0.8346178 16711746
-4.6418056 -12.3656340 3.5008283 16711746
-4.4073882 -5.9172039 0.0941618 16711746
-4.9652987 -12.3892927 1.3449991 16711746
-6.0877967 -4.5435262 1.0167142 16711746
0.5988414 -5.0964966 -0.1695235 16711746
2.7574611 -7.7156363 2.8939500 16711746
-4.0051603 -14.7800303 2.7289896 16711746
2.7936356 -8.3066082 3.1200829 16711746
-3.5455642 -2.9513156 2.9216580 16711746
