# .PCD v.7 - Point Cloud Data file format
VERSION .7
FIELDS x y z rgb
SIZE 4 4 4 4
TYPE F F F F
COUNT 1 1 1 1
WIDTH 150
HEIGHT 1
VIEWPOINT 0 0 0 1 0 0 0
POINTS 150
DATA ascii

0.1617038 -1.2406076 0.2833462 16711746
0.3505832 -0.8578880 0.5901440 16711746
-0.1799675 -1.6928180 0.9025929 16711746
0.3810189 -0.8703484 0.7267337 16711746
-0.5474623 0.3945478 -0.1425903 16711746
0.6026049 -0.6492658 0.5203023 16711746
0.4059207 -0.7095157 0.5845089 16711746
-0.4776273 0.3845783 -0.2400087 16711746
0.7817100 -0.7184607 0.4571247 16711746
0.6863600 -0.7031605 0.4663694 16711746
0.5206499 -0.7034037 0.5055435 16711746
0.4786877 -0.7082583 0.4489443 16711746
0.3405467 -1.1276478 0.1579914 16711746
0.0955555 -1.8780217 0.0766168 16711746
0.2130265 -1.3155305 0.1131372 16711746
0.0730854 -1.3022705 0.1771799 16711746
0.2324023 -1.2010041 0.1698552 16711746
0.6550004 -1.1032833 0.2116375 16711746
0.9097800 -1.0008209 0.2202304 16711746
0.7775385 -1.0015160 0.2163815 16711746
0.4744903 -0.8559120 0.3326895 16711746
0.7818357 -1.0194126 0.2460418 16711746
0.2536809 -0.9717504 0.2878616 16711746
0.4444200 -0.9419534 0.3142386 16711746
0.4725678 -0.9483937 0.3008097 16711746
0.4355842 -0.9669838 0.3000582 16711746
-0.2296604 -1.9246442 -0.0486684 16711746
0.1920163 -0.9326364 0.7680213 16711746
-0.1463670 0.2082282 -0.2436524 16711746
-0.3581088 0.3240512 -0.2745885 16711746
-0.2031368 0.1994651 -0.1589788 16711746
-0.1712581 1.0171655 -1.0993327 16711746
-0.2774793 0.4506973 -0.4394582 16711746
-0.3025301 0.4079158 -0.4264403 16711746
-0.1614389 0.2141128 -0.2661513 16711746
-0.0160909 -0.2887554 0.1858333 16711746
0.2674415 -0.8834423 0.7082025 16711746
0.3960195 -0.7445366 0.6474392 16711746
0.2989490 -0.7324467 0.4019326 16711746
0.2478656 -1.0218753 0.6327543 16711746
0.3131423 -0.7994332 0.4940591 16711746
-0.0608339 -1.4209447 0.7409544 16711746
-0.2022326 -1.6098974 0.7226693 16711746
-0.3027922 -1.8355529 0.9439977 16711746
0.2798819 -1.1386775 0.1891080 16711746
0.2318442 -0.9223175 0.4704942 16711746
0.1750080 -0.9199895 0.4531760 16711746
0.3968545 -0.9469547 0.3085290 16711746
0.4132456 -0.9840199 0.2899154 16711746
-0.2036740 -2.3732936 0.1811158 16711746
-0.0208841 -1.9802140 -0.0206009 16711746
0.1807281 -1.4039189 0.0686921 16711746
0.1789157 -1.4406527 0.0394761 16711746
-0.1383376 -1.6819570 0.1740158 16711746
0.1713331 -1.1893997 0.1945419 16711746
0.1495258 -1.3692935 0.2310634 16711746
0.0522611 -1.1346081 0.3581532 16711746
0.0519162 -1.3428024 0.3851093 16711746
0.0754487 -2.1694944 0.2471277 16711746
0.3531127 -1.0213327 0.2499287 16711746
0.3763922 -1.0391326 0.2331007 16711746
0.5243240 -1.0078593 0.2606179 16711746
0.4961246 -1.0563794 0.2511345 16711746
0.2579022 -1.2728990 0.1561897 16711746
0.2341330 -1.4479454 0.1657104 16711746
0.2294763 -1.4113822 0.1434449 16711746
-0.0366134 -1.3362439 0.2488196 16711746
1.0882705 -0.7342278 0.4557025 16711746
0.6742772 -0.8759168 0.3555141 16711746
0.9999477 -0.8757207 0.2953262 16711746
0.9268831 -0.8844483 0.2839807 16711746
0.6762440 -0.9717959 0.2810930 16711746
0.7441861 -0.9466555 0.3183795 16711746
0.0029075 -0.3075217 0.2167867 16711746
-0.0571020 -0.1677341 0.1160986 16711746
-0.0879388 -0.0654635 0.0239118 16711746
-0.2822480 0.2911937 -0.4831011 16711746
-0.2659909 0.2827855 -0.4640134 16711746
0.0985832 -0.1302722 -0.0195158 16711746
0.0500066 -0.0949988 0.0473534 16711746
-0.4363325 -1.7332290 1.5549983 16711746
0.7772165 -1.0621572 0.1764725 16711746
0.1818880 -0.9246474 0.4069288 16711746
0.2723862 -0.9825264 0.3847479 16711746
0.2770728 -0.9784730 0.2790133 16711746
-0.0619065 -1.4229680 0.1905590 16711746
0.8961647 -0.8064399 0.3774388 16711746
0.9737360 -0.8478641 0.3664056 16711746
0.9842417 -0.7805533 0.4211747 16711746
0.1500288 -1.1792468 0.3532984 16711746
0.6174152 -0.9760355 0.2925153 16711746
0.3399569 -0.9808260 0.2724260 16711746
-0.0238233 -1.0414486 0.7528505 16711746
-0.0688810 -1.1971186 0.8839627 16711746
0.9187083 -0.8461758 0.3344432 16711746
-0.1970484 -2.2550900 0.9721445 16711746
0.1486335 -1.0836890 0.8311760 16711746
0.4130334 -0.7440685 0.4867690 16711746
0.5951446 -0.6597059 0.4488407 16711746
0.5994357 -0.7029569 0.4729924 16711746
-0.2024495 0.3175890 -0.3542309 16711746
-0.2698908 0.4423724 -0.5865872 16711746
0.0549067 1.3521482 -1.3859246 16711746
-0.1297911 0.0606444 -0.0726082 16711746
-0.2006527 0.1686838 -0.1696006 16711746
0.1236838 -1.1626178 0.8770807 16711746
-0.0539719 -1.7052212 -0.0053346 16711746
-0.0653841 -1.7681175 -0.0392827 16711746
0.7499611 -0.9430879 0.2806089 16711746
-0.0954226 -1.7415265 0.1928573 16711746
0.2553289 -1.2637336 0.1054816 16711746
0.2275034 -1.2443041 0.0919537 16711746
0.2867532 -0.7302015 0.4736577 16711746
0.1732278 -1.3917853 -0.0175661 16711746
0.1531538 -1.4757886 0.0298190 16711746
0.0681997 -1.5235966 0.0157935 16711746
-0.3120316 -2.2258708 0.0077654 16711746
-0.1695355 -1.7955159 0.5439795 16711746
0.2929227 -0.9003417 0.4607891 16711746
-0.0019519 -1.1810460 0.9501898 16711746
0.6874627 -0.6718901 0.5978507 16711746
0.5570787 -0.8096710 0.4129977 16711746
0.1812248 -1.3758060 0.1568266 16711746
0.4594220 -1.0695695 0.2222213 16711746
0.4218349 -1.0936351 0.2149378 16711746
0.1139724 -0.9658964 0.4356524 16711746
0.5569694 -0.9939181 0.2616121 16711746
0.1653661 -1.8974695 0.2980285 16711746
-0.0063348 -1.9699793 0.1249638 16711746
-0.0291720 -1.3627447 0.9386379 16711746
0.3002558 -0.8831413 0.5444654 16711746
0.2471693 -0.8588543 0.5149629 16711746
-0.0486743 -1.2533282 0.3268967 16711746
-0.0327194 -1.2773235 0.3100208 16711746
-0.1002147 -2.4410098 0.1034515 16711746
0.3438635 -0.8276742 0.6620111 16711746
0.9567124 -0.9007038 0.2731054 16711746
0.3606731 -0.9204140 0.3272745 16711746
0.2895792 -1.1088617 0.2309109 16711746
0.4917892 -0.8088541 0.4001023 16711746
-0.0107228 -1.1682723 0.7393274 16711746
0.3218328 -0.9421775 0.3113418 16711746
-0.2435792 0.2415494 -0.2179771 16711746
0.1859168 -1.4527379 0.0103040 16711746
0.2186345 -0.9829312 0.3985920 16711746
0.1963959 -1.0316615 0.4126297 16711746
0.2025862 -1.0152878 0.3940789 16711746
0.8422744 -0.8345068 0.3537521 16711746
0.6399067 -0.8803364 0.3072442 16711746
0.2265309 -1.0024967 0.2505101 16711746
