# .PCD v.7 - Point Cloud Data file format
VERSION .7
FIELDS x y z rgb
SIZE 4 4 4 4
TYPE F F F F
COUNT 1 1 1 1
WIDTH 56
HEIGHT 1
VIEWPOINT 0 0 0 1 0 0 0
POINTS 56
DATA ascii

 0.3277871 -0.0837442 0.5271331 16777215
 0.0077733 -0.0021345 0.0095257 16777215
0.2127186 1.3256701 -1.6155826 16711746
0.2221698 1.5162401 -1.7922530 16711746
0.0029763 -1.1798403 0.9120316 16711746
0.4897445 -0.6393248 0.3201096 16711746
0.3565988 -0.4847453 0.2222436 16711746
-0.2716154 -0.8067548 0.4387332 16711746
-0.0036269 -0.9764648 0.5284153 16711746
0.9761189 1.7815942 -1.8454133 16711746
1.1468903 1.8760343 -1.9955574 16711746
0.5302576 -1.3186746 1.0010676 16711746
0.5350783 -1.2207711 0.9135523 16711746
0.0016279 -0.9079803 0.5998757 16711746
0.6707867 -1.4790698 1.2681423 16711746
1.0389532 -1.4141531 1.0732836 16711746
0.8200582 -0.8830078 0.6995905 16711746
1.4542093 -1.3978984 1.0551453 16711746
0.8019418 -1.2765880 1.0311631 16711746
0.3084755 -0.5676588 0.3153870 16711746
0.7853709 -1.4637743 0.8546910 16711746
-0.2194771 0.4026505 -0.4504499 16711746
0.3515450 -1.4339486 1.1673018 16711746
0.5600422 -1.0711805 0.9453688 16711746
-0.5120478 1.2371353 -1.2229434 16711746
-0.4130208 0.7805529 -0.7927714 16711746
-0.4908966 0.9021967 -0.8847854 16711746
-0.1329867 0.1720753 -0.2072424 16711746
0.5053201 -1.1578846 0.9887943 16711746
0.4653177 -1.0408152 0.8611012 16711746
0.8055959 -1.7708520 1.3867267 16711746
-0.1305634 -1.0007687 0.3379057 16711746
1.6760638 -1.5676485 0.6002576 16711746
1.1688573 1.8108971 -2.3127191 16711746
-0.2157795 -0.8889059 0.3441373 16711746
1.0197976 -0.8190461 0.2960763 16711746
1.1394809 -1.0395989 0.3659932 16711746
-0.0550715 -0.8617182 0.2490976 16711746
0.7038708 -1.2982967 0.8467839 16711746
0.2226405 -1.2886592 0.9685403 16711746
-0.0693636 0.0771463 -0.0896383 16711746
-0.2751392 0.3646192 -0.3388095 16711746
-0.9465914 1.1502866 -1.0763168 16711746
0.6358513 -1.0595509 0.9221094 16711746
-0.0876884 -0.8412970 0.5948218 16711746
-0.0494411 -0.5871052 0.2921999 16711746
-0.0783451 -0.7028462 0.3890528 16711746
0.4254746 1.4814929 -1.8280762 16711746
-0.1434044 -0.7357441 0.2644612 16711746
-0.0605958 -0.7704329 0.2969303 16711746
1.5338501 -1.1594189 0.4582705 16711746
1.3076160 -1.0539119 0.4022357 16711746
0.8432329 -1.4922857 1.2171543 16711746
0.8222328 -1.6779903 1.3197883 16711746
0.2162994 -3.2609880 1.5883089 16711746
0.1020259 -0.8222797 0.5521606 16711746
