# .PCD v.7 - Point Cloud Data file format
VERSION .7
FIELDS x y z rgb
SIZE 4 4 4 4
TYPE F F F F
COUNT 1 1 1 1
WIDTH 154
HEIGHT 1
VIEWPOINT 0 0 0 1 0 0 0
POINTS 154
DATA ascii

 0.4328174 -0.1148640 0.6732829 16777215
 0.0043239 0.0014314 0.0053237 16777215
-0.3807177 -1.2686830 0.5062454 16711746
-0.4255795 -1.2516806 0.4848965 16711746
-0.1556164 -1.1448609 0.2313255 16711746
-0.1031578 -1.1156895 0.2111044 16711746
-1.0564656 -1.1884483 -0.2177345 16711746
0.1126503 -1.0674949 0.0354594 16711746
-0.1580659 -1.1390994 0.2142652 16711746
-0.2015474 -1.1460367 0.1905485 16711746
0.4472499 0.8922611 -0.8688732 16711746
0.4500773 0.9003876 -0.8502055 16711746
0.0588125 -1.0607271 0.0782307 16711746
0.0269452 -1.0438385 0.0652469 16711746
-0.0005327 -1.0346401 0.0598198 16711746
-0.1990045 -1.1234739 0.1352500 16711746
-0.2626909 -1.2274450 0.3960378 16711746
-0.0885904 -1.0801024 0.1382271 16711746
-0.2091375 -1.1131593 0.1005632 16711746
0.2839383 -1.1447877 0.6445641 16711746
0.5060953 -1.1409639 0.7758769 16711746
0.5046991 -1.1560391 0.5541078 16711746
0.0554944 -1.2170590 0.6137499 16711746
-0.0884097 -1.2253333 0.5731888 16711746
0.7352587 -1.0488588 0.5270184 16711746
-0.7319219 1.2351309 -1.1953578 16711746
0.0404296 0.9824076 -1.0593963 16711746
-0.0752442 1.0293813 -1.0993150 16711746
-0.4131081 1.2924652 -1.0015596 16711746
-0.6657578 1.4200155 -1.0155228 16711746
-0.4357922 1.1763407 -1.0531702 16711746
-0.4160209 1.2404121 -1.0381441 16711746
-0.5969810 1.3090566 -1.1047461 16711746
0.0841421 -1.2287543 0.8622679 16711746
-0.0373367 1.1404644 -0.9023100 16711746
-0.0789274 1.1452494 -0.9241729 16711746
0.0453693 -1.2254338 0.7237971 16711746
0.0566760 -1.2247481 0.6909135 16711746
-0.2633863 -1.0442588 -0.1539399 16711746
0.0702367 1.0436584 -0.9524893 16711746
0.2541727 -1.1611326 0.7480388 16711746
0.4601646 0.9502212 -0.7527723 16711746
0.2879346 -1.1202682 0.4927738 16711746
-0.0381654 -1.2332048 0.7862201 16711746
-0.0138016 -1.2302378 0.7615058 16711746
-0.0763164 -1.2417648 0.7551829 16711746
-0.9148996 -1.3162389 0.8845710 16711746
0.5866780 0.9166393 -0.6775029 16711746
0.6083194 0.9057074 -0.6832830 16711746
-0.7947599 -1.2324519 0.9083565 16711746
-0.4336879 -1.3264899 0.6511103 16711746
0.6625897 0.8599623 -0.7592751 16711746
-0.0276431 -1.1949142 0.4684657 16711746
-0.0466260 -1.0518662 0.1000351 16711746
0.6704215 0.8705375 -0.7209733 16711746
0.7117589 0.8581167 -0.7192642 16711746
0.6568378 0.8850990 -0.6900874 16711746
-0.3864498 -1.2609905 0.4408469 16711746
-1.7144554 -1.0760175 0.1384319 16711746
-0.0084657 -1.0590906 0.1132055 16711746
-0.3562935 -1.2497791 0.4085524 16711746
-0.4175136 -1.2619401 0.4087467 16711746
-0.3954031 -1.2542597 0.3811994 16711746
0.4229208 0.9424860 -0.7962109 16711746
0.4438244 0.9449393 -0.7596885 16711746
0.7851318 0.8063929 -0.8045367 16711746
-0.1420972 -1.1170647 0.1771246 16711746
0.2770742 0.9340705 -0.9954680 16711746
0.6678824 0.8590605 -0.6606278 16711746
0.6491387 0.8945413 -0.6677204 16711746
-0.8511796 -1.2438338 0.6941393 16711746
-0.0518194 -1.1827912 0.4262235 16711746
0.6975592 0.8015225 -0.7867805 16711746
0.0373029 -1.0356832 0.0416928 16711746
0.0201757 -1.0283403 0.0367231 16711746
0.0001162 -1.0175307 0.0225323 16711746
-1.7003115 -1.1203816 0.2284438 16711746
0.3072004 0.9298162 -0.9357210 16711746
-0.0437204 -1.2218467 0.5950147 16711746
-0.0714507 -1.0561354 0.0998931 16711746
-0.1345760 -1.0789405 0.1002108 16711746
-0.8692393 -1.2351418 0.8559583 16711746
-0.2705049 -1.1523416 0.1358793 16711746
0.6216465 0.8473288 -0.7849455 16711746
-0.0812888 -1.0257661 0.0300948 16711746
-0.0989186 -1.0317986 0.0296923 16711746
0.7375193 0.7794448 -0.7992306 16711746
-0.0578831 -1.2002369 0.4733652 16711746
-0.0484992 -1.1927761 0.4492959 16711746
0.5128816 0.8913655 -0.8091320 16711746
0.5413899 0.8783326 -0.8069590 16711746
0.4200773 -1.0864536 0.5293964 16711746
0.2974207 0.9700875 -0.8955107 16711746
0.2098142 0.9245812 -1.0460995 16711746
0.2646697 0.8927069 -1.0187228 16711746
0.2087357 0.9294658 -1.0051608 16711746
0.4689313 -1.1448195 0.5734798 16711746
-0.3485084 -1.2753158 0.6554915 16711746
-0.1028311 -1.0448475 0.0627816 16711746
0.0681521 -1.0309714 0.0069701 16711746
-0.0369455 1.2344524 -0.8913334 16711746
-0.0079144 0.0091566 -0.0050407 16711746
0.3287374 -1.1477052 0.7963565 16711746
-0.2284609 -1.2213025 0.4004645 16711746
-0.3564658 -1.2767748 0.6785309 16711746
-0.4916002 -1.2670186 0.8074794 16711746
-0.7333881 -1.2693601 0.7849144 16711746
-0.6567008 -1.2725306 0.6963130 16711746
-0.2479902 -1.2467607 0.5201098 16711746
-0.0998486 -1.2001319 0.4425675 16711746
-0.4236911 -1.2789739 0.6118801 16711746
-0.4773523 -1.2812214 0.5394974 16711746
0.2657110 0.9550011 -0.9339700 16711746
0.2526956 0.9802318 -0.9263309 16711746
0.3645264 0.8633694 -0.9865266 16711746
0.1830637 0.9620458 -1.0405334 16711746
0.2510889 0.9375338 -1.0058128 16711746
0.5608641 0.8336433 -0.8799695 16711746
0.6480122 0.7898085 -0.8809050 16711746
0.7045629 0.7825599 -0.9125088 16711746
0.5451705 0.8194628 -0.9185567 16711746
0.3062699 1.0174427 -0.7929978 16711746
0.3649616 1.0010225 -0.7555563 16711746
-0.3907610 -1.2224796 0.8824946 16711746
0.3726164 0.9584828 -0.8363625 16711746
0.2719632 1.0047494 -0.8245457 16711746
0.2671290 1.0164785 -0.8239767 16711746
0.5118362 0.9250723 -0.7190779 16711746
0.4788162 0.9579396 -0.7087029 16711746
-0.6006358 -1.1914245 0.8532926 16711746
-1.7347960 -1.0162458 0.3198108 16711746
0.4732111 0.8724493 -0.9137312 16711746
-0.0530701 -0.9694034 -0.1066390 16711746
0.5487298 -1.1544828 0.7237468 16711746
-0.3432397 -1.1937742 0.1850225 16711746
-0.3402264 -1.1872890 0.1673816 16711746
0.7367217 0.7553985 -0.8666924 16711746
0.6403525 0.8784961 -0.7288863 16711746
0.6043021 0.8817054 -0.6973571 16711746
0.4715372 0.9063698 -0.8133000 16711746
0.4526397 0.9269224 -0.8160303 16711746
0.4073957 0.8654030 -0.9545069 16711746
0.3739329 0.8890365 -0.9328388 16711746
0.4261162 0.8722876 -0.9246976 16711746
-0.0809134 -1.1322556 0.2565563 16711746
-0.0911015 -1.1237975 0.2310015 16711746
0.6812034 0.8030232 -0.8191685 16711746
0.7193280 0.8162262 -0.8249514 16711746
-0.2009425 -1.1958102 0.3368806 16711746
10.4548550 -23.1214752 13.8347778 16711746
1.5861698 -2.8020949 2.2097712 16711746
3.9144666 -8.2181072 5.8087821 16711746
-13.0597019 -46.6238823 14.0568285 16711746
1.5427108 -2.7673204 2.1593344 16711746
