# .PCD v.7 - Point Cloud Data file format
VERSION .7
FIELDS x y z rgb
SIZE 4 4 4 4
TYPE F F F F
COUNT 1 1 1 1
WIDTH 560
HEIGHT 1
VIEWPOINT 0 0 0 1 0 0 0
POINTS 560
DATA ascii

 0.4631153 -0.1422272 0.8063816 16777215
 0.0010005 0.0179387 -0.0191182 16777215
-0.3454529 -1.0795803 -0.1122142 16711746
-0.3702873 -1.0726229 -0.0649918 16711746
-0.2375572 -1.0807183 -0.0156486 16711746
-0.4907787 -1.0077024 -0.0082810 16711746
0.8046898 1.0033329 -0.7888780 16711746
-0.4201735 -1.1019917 0.2925357 16711746
-0.5112231 -1.0309008 0.2512336 16711746
-0.5313534 -1.0098938 0.2297436 16711746
-0.3619547 -1.1282682 0.3110476 16711746
-0.2625232 -1.0562252 -0.0880819 16711746
-0.5463092 -1.0097780 0.4061366 16711746
-0.5642985 -0.9663352 0.0216147 16711746
-0.7864081 -0.8895453 0.2623226 16711746
-1.0387938 -0.5958935 0.2592706 16711746
-0.9822890 -0.7335601 0.2598253 16711746
-0.6865224 -0.9741015 0.1228233 16711746
-0.9478307 -0.7848094 0.1722027 16711746
-0.4381695 -1.0724919 0.3090765 16711746
-0.7105179 -0.9361856 -0.0414735 16711746
-0.1545213 -1.1074957 -0.1073996 16711746
-0.3488183 -1.0920568 -0.0379368 16711746
-0.0804834 -1.1996727 0.1934252 16711746
1.0079697 0.8782958 -0.8113269 16711746
-0.3152510 -1.1114974 -0.0777149 16711746
0.4679407 0.9881175 -0.7874455 16711746
-0.0149631 -1.2032427 -0.0485791 16711746
-0.9660658 -0.5967969 0.4824870 16711746
-1.0291704 -0.5622866 0.4632234 16711746
-0.3953652 -1.1003187 0.1523115 16711746
-0.5797931 -1.0561767 0.1895705 16711746
-0.5940378 -0.9417839 -0.0226746 16711746
0.8919163 0.8622018 -0.8836840 16711746
-0.6063929 -1.0434427 0.4079774 16711746
-0.4126968 -1.0878971 0.1681858 16711746
-0.4805654 -1.0548054 0.2364115 16711746
-1.4209694 -34.5724297 5.8706512 16711746
-0.0530581 -33.2162552 11.8402052 16711746
8.8378830 -20.9165325 11.8505478 16711746
-2.4145432 -31.3171959 12.3577871 16711746
-0.0792198 -30.7617435 11.0318966 16711746
-0.6414460 -35.9243622 -3.6404881 16711746
13.0926800 -23.9752426 11.3925982 16711746
6.2028389 -39.5344772 6.5621524 16711746
-9.7984238 -35.4468384 -0.8443235 16711746
13.0289431 -39.3207741 8.8289490 16711746
9.9483614 -31.9971676 7.5535960 16711746
-8.4650850 -37.6525002 7.9808292 16711746
-15.0715818 -35.1959991 1.5395430 16711746
-9.7560015 -36.4268684 12.4239254 16711746
2.2338111 -45.8235703 2.8903816 16711746
8.8668699 -19.1822224 12.1171312 16711746
8.6923065 -20.5216160 12.7593288 16711746
-0.5805636 -1.8098733 0.5992595 16711746
-20.2965050 -34.6551628 2.8089266 16711746
6.7193031 -36.5560379 5.2642527 16711746
1.5338264 -31.7254181 9.5532970 16711746
-14.1907845 -32.5396690 5.6089697 16711746
-11.5482540 -35.2895660 -0.5447730 16711746
-2.7707860 -32.3565063 11.0219202 16711746
5.0590892 -33.6462784 9.7847652 16711746
3.3297927 -31.8297119 8.8168774 16711746
-3.4070826 -34.5640488 6.7550035 16711746
15.0528116 -36.5699959 3.7323663 16711746
8.0963898 -35.4873772 6.5279441 16711746
8.8923197 -35.8543091 5.8099327 16711746
8.1585188 -35.9975853 5.7840443 16711746
4.2473655 -27.1872177 12.4569817 16711746
6.3736391 -34.0248528 8.8818254 16711746
3.7494099 -35.9060249 -0.7374902 16711746
5.0891781 -39.4103699 -3.7306335 16711746
2.9039469 -27.1065865 11.3837128 16711746
3.2204804 -24.8329659 8.8791332 16711746
2.7657616 -30.7809696 10.3299751 16711746
2.3722935 -45.0114479 0.3730945 16711746
1.6475120 -43.6586838 0.2836395 16711746
-0.3988013 -44.8065414 2.5355697 16711746
-1.3947580 -38.5685883 1.7740939 16711746
9.1008034 -37.2907143 -1.5416080 16711746
8.7749338 -41.3706245 -2.2212670 16711746
9.3063288 -28.1650085 10.6036758 16711746
2.2326028 -36.1779861 10.1223593 16711746
1.4418175 -32.3712769 9.5020428 16711746
1.5010424 -34.7043762 9.5572109 16711746
-13.3548346 -35.5729218 3.7878401 16711746
6.6846695 -28.5841770 13.1928902 16711746
4.3038993 -34.8669701 8.5759382 16711746
4.9691887 -36.2027283 6.3574433 16711746
7.6596947 -34.9043198 7.4170022 16711746
9.7240906 -39.8949203 7.4484162 16711746
11.8341970 -33.9628525 11.0044470 16711746
-15.1051636 -35.5411224 5.2413888 16711746
2.5694351 -28.6935749 6.4484954 16711746
4.7006421 -35.6870880 7.2643113 16711746
4.6979618 -39.3143959 -2.8856025 16711746
5.6137171 -45.4536858 -3.9844322 16711746
13.3078518 -42.9530449 -0.7002894 16711746
11.2550640 -39.0133209 -0.8374817 16711746
-6.7438679 -33.5360184 10.5223141 16711746
-12.0755320 -34.9258232 -1.9075725 16711746
8.6966887 -18.0455074 12.2650251 16711746
8.4148540 -30.4130974 9.3032780 16711746
7.4759798 -33.2968140 9.9652786 16711746
-0.3404338 -35.7117920 1.2233562 16711746
-1.1481892 -38.6404266 1.3425598 16711746
-1.6931165 -43.3186035 0.7618909 16711746
5.5561738 -24.2879448 12.0292444 16711746
4.8218665 -25.0112095 11.9679165 16711746
15.3787270 -41.1301727 2.9584782 16711746
-6.1222668 -18.8232174 6.0255671 16711746
-6.1433182 -36.4792595 0.0249807 16711746
-4.1375217 -37.9558182 5.1714888 16711746
6.7621398 -41.0434608 -1.9198872 16711746
6.2290220 -33.6483688 6.5007453 16711746
15.8007298 -42.2502213 -1.9651666 16711746
-34.3749275 -21.2390862 21.3338776 16711746
5.6426530 -28.5551262 9.0580559 16711746
6.2034879 -31.1074028 9.3390627 16711746
-16.9226665 -35.0726776 2.2454534 16711746
-19.9292736 -37.4952927 2.0347543 16711746
-10.2966976 -45.8312759 7.2793312 16711746
4.3276882 -34.7278061 5.2566705 16711746
-7.8668475 -33.2581329 3.1962235 16711746
2.5390797 -36.4465675 6.7183962 16711746
2.7552166 -39.0687828 6.6378875 16711746
-2.7437809 -38.0660629 4.3235116 16711746
9.2542276 -36.9935951 9.0654345 16711746
7.5034637 -34.5949059 7.8456316 16711746
3.6692424 -40.0605202 3.6943622 16711746
3.1626985 -37.9994926 3.0230765 16711746
-7.1446509 -35.7610626 1.5673555 16711746
-6.2359638 -38.1638565 4.9267154 16711746
-2.6759324 -35.6129189 2.4304776 16711746
-3.5554550 -38.5285988 2.2933655 16711746
10.9465809 -40.8498154 -1.9572648 16711746
17.1231441 -40.5351295 3.8138683 16711746
2.9374304 -34.6307030 4.0726118 16711746
-0.3152366 -20.0032673 14.1862392 16711746
4.8058047 -21.5872574 15.0468569 16711746
11.1105747 -26.9119110 12.3020220 16711746
2.4632933 -28.3503399 13.0503254 16711746
5.4804931 -26.0499992 11.0563250 16711746
-0.3693004 -26.3539867 13.6019087 16711746
4.7191901 -7.0349813 7.9339757 16711746
4.9987335 -16.4710140 13.1204214 16711746
-0.0917099 -18.0223007 16.1807365 16711746
-7.2704272 -29.5846348 13.5713139 16711746
12.3689995 -36.2213898 2.0304534 16711746
8.9004889 -44.5033646 0.8727072 16711746
2.5382698 -37.6829033 4.0338917 16711746
0.7714993 -38.2722702 2.6756642 16711746
9.9417048 -42.9374046 -1.1023799 16711746
6.9127345 -45.2432899 -4.1373048 16711746
2.4294531 -41.1980286 -1.4389728 16711746
6.6610813 -26.4048901 10.3663893 16711746
14.4234409 -34.4241714 11.0032110 16711746
1.6605998 -30.6323338 11.4011106 16711746
5.5359716 -29.7650738 10.7219172 16711746
-21.1595249 -30.3050022 -1.3693339 16711746
-17.2915382 -35.3167610 4.1491566 16711746
-4.5407009 -40.8077469 -2.3922002 16711746
-2.1088455 -38.8641090 -3.9240646 16711746
-21.0733376 -34.7004700 -4.1174088 16711746
-21.9062309 -31.4578190 10.9194136 16711746
-17.4975491 -30.0701237 7.0076771 16711746
6.6457744 -39.7491493 -2.7913072 16711746
5.6474409 -39.7068748 -2.9318476 16711746
10.1511269 -35.1166611 -0.7627923 16711746
5.9784298 -31.7142258 11.4376469 16711746
-0.0164061 -44.0546265 10.2240210 16711746
9.2033644 -30.6309223 11.0952654 16711746
2.5910273 -45.2914200 5.7491822 16711746
1.0755130 -35.1595268 4.3348069 16711746
-15.2205210 -34.9112663 5.9836812 16711746
-18.1624680 -31.8359985 4.6176071 16711746
-3.1487980 -39.0123596 -1.2864988 16711746
3.4373939 -22.7582512 13.1489010 16711746
17.7935696 -35.9697189 4.8375802 16711746
9.1148520 -39.8866844 -2.7701945 16711746
-2.4674628 -39.3070564 1.5038000 16711746
-4.1452127 -42.2096863 1.6397115 16711746
-2.4688766 -30.9099407 12.1961098 16711746
-1.7832173 -23.6815548 9.3107414 16711746
8.4486322 -16.2144203 11.9925365 16711746
5.4139729 -11.1793947 8.2490864 16711746
-1.3724140 -32.8700485 5.5934572 16711746
-6.6774554 -37.1411591 8.8148079 16711746
-2.6331856 -29.0554256 4.7815528 16711746
-2.0282452 -34.4176674 5.2734232 16711746
-4.6771574 -42.0925255 -2.4701741 16711746
-7.6166496 -38.6420670 1.0502571 16711746
-25.0948410 -41.4049377 -0.5575997 16711746
-10.4150066 -33.2780266 10.5755062 16711746
-15.3614731 -34.4890099 1.4217498 16711746
13.0054741 -36.8105278 4.1707668 16711746
15.7006063 -42.0006638 3.7456560 16711746
-32.6734886 -29.4969635 19.2224121 16711746
4.8328533 -36.4758873 9.7698116 16711746
3.5807383 -38.6204529 10.0404272 16711746
-17.4945564 -37.9317398 8.0004168 16711746
9.4127607 -29.1357250 9.7609520 16711746
-0.4346014 -37.8395576 11.9275637 16711746
-0.3925754 -31.7114372 10.0123644 16711746
7.2734499 -34.3917694 -3.1598656 16711746
-9.3864555 -33.5830269 11.0092134 16711746
-7.1261387 -27.3298626 8.6736908 16711746
-9.3967381 -33.7126389 10.6466370 16711746
-12.5453587 -38.1239128 0.2713082 16711746
-38.1911812 -27.9308891 9.2397318 16711746
-37.6137009 -25.9627571 8.0304232 16711746
-12.3060722 -42.5568542 3.0826478 16711746
0.7353935 -38.4562759 2.6443532 16711746
0.6687832 -37.9112549 2.0373843 16711746
-4.6664233 -31.9783134 5.4584780 16711746
-4.7256122 -34.7575035 5.0426149 16711746
6.8798771 -40.9693909 1.9134363 16711746
10.8834972 -37.9978409 -4.0128765 16711746
-6.8190331 -38.5643158 2.6453776 16711746
-8.7750759 -42.5462799 2.6748109 16711746
-7.8107829 -35.2398415 2.0727882 16711746
10.7372789 -31.4001503 10.0970554 16711746
6.9072928 -37.1721916 4.5708714 16711746
5.5106602 -24.8326893 11.1452742 16711746
6.2531471 -33.0159149 14.2834244 16711746
9.4453897 -22.4183826 12.6069813 16711746
10.8295784 -32.5409431 9.1940947 16711746
11.9107237 -37.2163696 9.4373703 16711746
18.8677063 -41.4528618 -5.7396698 16711746
17.4814911 -36.7657585 -5.4411573 16711746
14.3814850 -37.6173019 5.0128584 16711746
-14.6151018 -34.8721848 3.8122671 16711746
3.8757961 -36.3364258 6.7717557 16711746
4.9078856 -36.4116669 6.3530221 16711746
5.7804775 -34.2557068 9.0303316 16711746
-1.5602809 -31.2895813 11.1916809 16711746
-2.5851960 -31.1139355 11.2352057 16711746
-2.1222744 -29.2460861 10.2372084 16711746
-11.5241766 -34.6855240 7.8882065 16711746
-2.6517117 -42.0769882 0.2913301 16711746
-1.4418207 -26.4916630 2.1073549 16711746
-3.4959884 -37.9244537 2.2550476 16711746
-1.6474895 -41.9821587 0.7412227 16711746
-14.0571289 -31.9229145 1.7723073 16711746
5.8852663 -37.7423515 3.6573503 16711746
-22.0071392 -40.1697083 2.2694073 16711746
6.4841218 -35.7779999 6.8842144 16711746
5.9669423 -38.3176460 6.3824692 16711746
6.8511128 -35.0054893 7.8030114 16711746
-0.1984068 -33.4940910 11.9764385 16711746
-0.0928934 -31.9883499 11.4301863 16711746
11.5428352 -41.6724701 -2.1665456 16711746
9.1412516 -35.7458572 8.0685120 16711746
-19.3701668 -33.6690903 1.3192003 16711746
-7.5497513 -27.4053268 15.3345470 16711746
-8.3135281 -27.8497238 15.3916111 16711746
-6.9240842 -35.2463264 -0.6955521 16711746
-11.9769373 -40.5298119 -0.5581388 16711746
-6.0436954 -42.9362030 0.3109469 16711746
2.6987035 -21.0131073 5.4739661 16711746
2.0595059 -23.9527645 6.3444943 16711746
1.9367185 -29.9145737 7.0847778 16711746
1.0533167 -40.1810760 9.7985573 16711746
-7.6657619 -35.2093239 2.7507319 16711746
4.2717819 -34.3663177 5.4644814 16711746
3.7425621 -36.8259315 5.9543338 16711746
-35.4967270 -21.1942654 17.2338696 16711746
-10.0943842 -35.0116844 0.3012893 16711746
-5.3117619 -29.8143578 4.5763674 16711746
-5.6125941 -40.2437706 7.3987017 16711746
4.7446480 -40.2802048 1.6288706 16711746
-10.1086683 -36.9400597 10.9158983 16711746
-7.7692413 -28.9875622 7.8832688 16711746
3.9061689 -28.2274075 8.5031509 16711746
-13.6745214 -34.4830093 4.7128725 16711746
3.3424482 -39.5129929 3.0101500 16711746
8.4252481 -41.6511726 -1.3276458 16711746
9.4470062 -44.6198082 -2.4061522 16711746
2.9724030 -34.8687782 9.2567911 16711746
1.5473458 -35.0003662 9.6183319 16711746
8.7390394 -20.5089703 13.1712646 16711746
13.5585451 -40.1269150 2.1899686 16711746
-16.0872707 -31.7500916 2.4481065 16711746
-5.0536160 -43.6467400 -1.0320828 16711746
-10.7060232 -34.1613579 9.8781738 16711746
-11.3645067 -34.3134575 9.6169758 16711746
8.3170576 -33.9422607 8.8838062 16711746
6.9634767 -19.8876724 12.3850422 16711746
9.4657545 -20.5263920 12.9006567 16711746
7.2164664 -17.3606758 12.5423441 16711746
8.0282335 -20.0741558 13.5004311 16711746
-0.8314826 -26.6938667 15.5221939 16711746
4.2910781 -21.0903111 13.3613005 16711746
0.9990280 -28.4786701 19.5519028 16711746
3.6639051 -20.9500694 13.8603802 16711746
5.2152066 -12.4401188 6.2347150 16711746
10.5646267 -26.5336323 11.3884020 16711746
9.2911253 -24.8983707 12.2850962 16711746
9.3637390 -23.4177418 12.3921404 16711746
10.2225666 -24.4316788 12.2606411 16711746
4.3462086 -31.2891827 12.4554377 16711746
3.9874153 -24.6710567 11.8822784 16711746
15.9248981 -26.9787292 11.2341528 16711746
4.9184294 -14.0697393 15.0244074 16711746
6.2951975 -16.0796642 15.7270603 16711746
7.4979377 -11.2618771 12.6075468 16711746
5.0953755 -8.8339863 10.8009157 16711746
3.0012703 -15.1164904 14.3769035 16711746
7.1819015 -17.0929852 12.7872400 16711746
11.7610979 -21.4846058 16.4416618 16711746
7.9094334 -16.4153290 12.2260408 16711746
5.9360604 -15.8640404 14.6537933 16711746
9.4629402 -16.1031742 13.8498659 16711746
4.6827950 -20.4292336 15.0796442 16711746
-8.5083046 -34.3287964 15.7634907 16711746
-8.9154844 -29.4787674 12.6461172 16711746
-3.8934746 -30.0904217 14.0897226 16711746
10.7197733 -40.8058128 1.2168617 16711746
0.7146397 -33.1457405 1.3099226 16711746
2.2577779 -38.1624603 3.3092937 16711746
-1.7005926 -42.0128174 -3.7034245 16711746
4.2632751 -35.8488235 -2.6085007 16711746
2.4422421 -41.9550629 -1.4813117 16711746
3.1635830 -39.0445671 0.2009908 16711746
5.9937539 -44.1520004 -2.0427504 16711746
12.0623913 -32.4528999 10.2509575 16711746
13.7460356 -29.7866936 8.1736746 16711746
2.7946999 -29.1009064 11.4970484 16711746
12.1275158 -37.7503738 9.0448055 16711746
8.3366165 -35.1725464 7.1916237 16711746
13.3680515 -33.0585747 6.1843328 16711746
6.1307197 -36.9231606 5.1799526 16711746
-22.3964691 -36.0209312 -3.5895216 16711746
-2.7239985 -37.9933395 4.9070320 16711746
-5.8695488 -38.5170555 3.0775964 16711746
-15.1003838 -34.3373108 0.4361811 16711746
-10.9573374 -41.7308578 -3.5414512 16711746
-2.3635173 -41.9450035 -4.2768750 16711746
-20.9933987 -34.5619698 -4.0585475 16711746
-10.8171091 -34.8254967 -0.6068641 16711746
-15.4181414 -37.4956894 -0.6042769 16711746
-13.1207218 -34.3124008 -1.2732829 16711746
-22.0945034 -31.2483692 12.0364065 16711746
-8.5366316 -36.2792397 11.8957090 16711746
-1.7705448 -34.9687233 11.0750027 16711746
-4.0930953 -33.2562675 9.1483755 16711746
-16.7314682 -34.7295227 9.3952332 16711746
-14.3984842 -35.5682411 10.7937899 16711746
-9.7255468 -28.2561378 10.5188417 16711746
-15.5904703 -34.7921295 8.3691254 16711746
-15.0637331 -38.0048218 7.5144005 16711746
-0.8230206 -20.0592899 5.9187784 16711746
8.4612360 -40.5537567 -3.8523927 16711746
6.0500708 -32.6913567 14.7309446 16711746
9.6869421 -23.1345062 11.6055241 16711746
10.8933001 -25.7642841 12.2527075 16711746
9.5523901 -23.6694279 11.4729643 16711746
1.5466276 -28.4523163 8.6422081 16711746
1.5631473 -26.3553925 7.4424915 16711746
1.8243597 -3.0044646 2.7738676 16711746
7.4195652 -16.5855865 12.0305262 16711746
8.0360146 -18.6778545 12.8364944 16711746
-5.9378443 -34.8083839 0.3002537 16711746
-4.8795066 -28.8475418 0.2221604 16711746
-7.7622318 -34.0065842 -3.3222766 16711746
-10.1693821 -38.2336502 -1.9631507 16711746
-8.4068642 -34.3020439 -2.3107638 16711746
-10.8828373 -37.9672928 -2.7709739 16711746
13.4776640 -32.2329750 10.3145075 16711746
-20.9534378 -37.1676292 3.2828708 16711746
-1.4269289 -25.9329891 2.0711534 16711746
14.7252703 -39.6157761 0.2922532 16711746
12.1921625 -34.7749214 0.2044546 16711746
-18.8273773 -38.6942749 2.4914246 16711746
-15.0537872 -33.7745018 1.3796252 16711746
-6.1020350 -34.7570343 -1.0728482 16711746
3.9084678 -33.5080872 10.7089529 16711746
2.9630303 -35.0332108 -2.7624772 16711746
5.5164309 -42.9924240 -4.1467814 16711746
4.0844254 -42.9886436 -4.0700464 16711746
15.4902287 -42.1143990 -0.5568970 16711746
2.8470712 -39.4677505 17.2488956 16711746
8.3437328 -19.0113316 10.4908285 16711746
10.1067448 -25.3984222 13.3821363 16711746
-14.3533478 -43.2264366 0.1632671 16711746
-2.2201345 -30.4947758 1.4038913 16711746
1.9179611 -35.9826279 7.4719863 16711746
4.1378040 -30.2865448 9.1225996 16711746
3.4430780 -34.6112595 9.6231928 16711746
-12.3129711 -42.4536018 3.0982685 16711746
8.8089952 -18.8938847 10.9789047 16711746
20.7245255 -30.5058556 5.4831276 16711746
-0.6937795 -42.7081375 1.6448263 16711746
-0.4918096 -34.0857811 1.2713401 16711746
6.5878248 -29.4745235 8.8360853 16711746
4.9647231 -16.9697762 5.0727262 16711746
-5.5785232 -31.1731606 4.8014255 16711746
-0.6639963 -41.3312798 0.2835318 16711746
-3.4633627 -33.5995560 6.5842733 16711746
-10.7976465 -41.6576118 13.1810989 16711746
-9.3212395 -33.0738068 10.4926453 16711746
7.2956944 -31.2911434 6.8606634 16711746
7.4778614 -35.3418007 7.5464659 16711746
-13.8979216 -31.6917076 1.6764721 16711746
-4.0980449 -34.9045753 0.4537267 16711746
5.6877646 -38.6743050 -0.6643928 16711746
5.4560833 -39.9224510 -1.8640521 16711746
-13.8081455 -35.3815536 3.1240320 16711746
-6.9707828 -37.9277916 -2.7251704 16711746
-8.4745064 -37.9748917 -2.2963324 16711746
7.7819180 -17.5503769 11.8518457 16711746
6.4140816 -33.4288101 9.9275656 16711746
-8.9691725 -34.4819527 -0.3946795 16711746
-16.3579865 -40.4080429 6.1585293 16711746
-14.8504887 -34.1584473 5.8240857 16711746
-20.9366436 -36.7807388 6.8164129 16711746
-3.8246293 -33.9249573 5.7491679 16711746
-5.2449250 -38.0668526 5.4647641 16711746
-15.8123007 -35.5511780 0.3943844 16711746
-19.7913952 -39.8263245 -0.0891135 16711746
-15.0884256 -42.6376610 -2.7981014 16711746
-11.8247757 -33.2425041 11.1752348 16711746
-9.9239054 -31.7525749 10.0794420 16711746
-15.8775358 -42.9953918 13.1696625 16711746
-9.4892273 -29.3924580 8.5883007 16711746
-12.6173782 -33.7480774 9.5050688 16711746
-2.7762325 -38.0765343 -0.6352781 16711746
-4.0501752 -38.1217499 -0.8975455 16711746
-3.1425681 -38.0722923 -1.2569052 16711746
-9.6788692 -30.4538479 8.2582598 16711746
-12.4148941 -33.8274460 9.0429773 16711746
-12.7428350 -31.1921558 4.2398586 16711746
-4.8189416 -43.0125885 -2.5453436 16711746
-5.0206380 -43.0924835 -1.0028083 16711746
7.9853334 -39.9133263 -1.2381818 16711746
10.7315016 -42.6351967 -1.8071115 16711746
8.9776382 -42.6881676 -2.2797453 16711746
10.4315023 -31.4691563 8.8594513 16711746
10.3643703 -33.1378021 9.7383366 16711746
5.8059721 -18.6318855 5.4813480 16711746
-7.5819578 -38.7087173 0.9577695 16711746
-2.3525200 -37.6288986 3.8757563 16711746
-3.5445704 -34.4773636 3.5849349 16711746
-2.6571605 -38.1159554 4.8489480 16711746
-3.9528222 -38.1758232 4.8586121 16711746
-2.7448444 -42.9723282 0.5553031 16711746
-2.9240212 -32.2742996 0.2498028 16711746
-6.3876843 -28.7419872 3.3387187 16711746
-6.8485484 -38.2608795 3.2822204 16711746
-17.2946033 -36.1747437 3.2258463 16711746
-14.2697392 -29.9521217 2.6327240 16711746
-17.0519218 -33.5945244 2.5168543 16711746
6.6374121 -37.8293076 3.9709284 16711746
3.3505065 -38.2546921 3.5211942 16711746
10.8689480 -31.5637894 10.1743546 16711746
3.3533237 -38.4929008 2.9192376 16711746
3.3444014 -34.5157127 2.0345232 16711746
-12.2272072 -38.2198677 3.6878457 16711746
-11.3366613 -34.4143829 2.8226049 16711746
2.6186557 -37.3440323 5.6478744 16711746
10.6958132 -40.8358727 3.5256083 16711746
6.9939055 -16.9001656 12.2168837 16711746
11.5151300 -31.3067360 14.2927170 16711746
13.8730774 -27.5464725 11.5943079 16711746
10.2583961 -25.8134003 11.0892630 16711746
8.7620821 -25.8982258 13.7195053 16711746
1.3570564 -2.5965929 1.9055334 16711746
5.6283422 -22.6669502 11.3287115 16711746
2.3310361 -29.0781078 15.1150293 16711746
-0.4361443 -27.4517193 14.0627489 16711746
14.1974344 -24.0474720 10.0297861 16711746
6.5207829 -10.0504198 10.9977274 16711746
2.9575529 -4.5297184 4.9478064 16711746
4.7503843 -13.6152964 14.5484514 16711746
-0.2028470 -17.5227165 16.5775013 16711746
7.5211477 -17.8530025 13.3420286 16711746
7.1543989 -12.7927389 10.3890324 16711746
11.4678526 -20.9247475 16.0049820 16711746
7.6653137 -16.0254650 11.9123039 16711746
5.0897107 -13.6123066 12.6983786 16711746
2.5531280 -4.1934209 4.1324201 16711746
-39.3228836 -27.1054649 12.8396273 16711746
-1.5334240 -22.9432030 14.9551392 16711746
-7.6491151 -30.9185734 14.1846066 16711746
-10.8543386 -35.2895889 15.0470228 16711746
-1.9365195 -27.3452759 11.2135096 16711746
-8.6707058 -30.1591263 16.0775280 16711746
-8.0011177 -32.0073776 15.6512508 16711746
-13.1122665 -30.8460979 13.9631653 16711746
-11.5978403 -33.9644356 18.0847263 16711746
-0.7721980 -17.0470905 19.1945629 16711746
-8.6447430 -25.5700493 20.4034786 16711746
-1.6761681 -18.9817505 17.2041874 16711746
6.7386932 -32.6022339 2.0411313 16711746
13.4064484 -41.8025169 0.6314082 16711746
8.3695288 -42.0993500 0.8852583 16711746
16.9910583 -40.8487053 2.2022095 16711746
10.8329344 -40.3644981 4.4101853 16711746
16.4440136 -37.3481331 3.8984892 16711746
16.2144794 -39.1202087 2.7912915 16711746
0.7352960 -42.3418732 2.8389821 16711746
6.3341532 -42.1269302 1.4119519 16711746
9.6903305 -42.8662453 -3.0108709 16711746
17.8338852 -41.7771950 -4.4613571 16711746
16.8988171 -40.1334229 -0.4751261 16711746
0.8551792 -42.9926720 -3.1095209 16711746
4.1776648 -35.4619560 -2.5642025 16711746
1.6778809 -39.3509636 -0.0185978 16711746
2.0729353 -36.5947952 -1.2684370 16711746
-1.3365070 -42.9840126 -0.6995209 16711746
4.9279895 -39.3058510 -0.6827886 16711746
10.2587481 -26.6999054 7.8163767 16711746
8.8808231 -26.9933376 10.1024342 16711746
14.8269215 -29.8818474 10.3331308 16711746
6.3698759 -32.9727516 10.3741035 16711746
2.7449512 -28.6754398 11.3346052 16711746
8.1607084 -36.5458221 5.8157053 16711746
10.0530548 -34.6147690 7.7653484 16711746
13.7085114 -38.9260635 9.5865927 16711746
4.4038968 -37.0495377 5.7961998 16711746
2.0541821 -24.4113350 6.4524813 16711746
2.9403167 -35.0259361 9.2679310 16711746
-22.7271538 -31.5717144 0.9492962 16711746
-21.0923138 -34.5888557 -4.0508800 16711746
-7.9512739 -38.5850563 2.4618194 16711746
-3.3532536 -32.7104645 0.9322805 16711746
-4.7099051 -34.4106102 4.1328883 16711746
-11.6330824 -35.8908501 1.8374313 16711746
-16.6508503 -33.8793640 4.0152955 16711746
-12.7527180 -38.7514572 4.8320813 16711746
-3.8958652 -39.1503525 -2.0156498 16711746
-17.0036430 -42.1812210 -3.5704043 16711746
-11.8481560 -37.5639076 -3.2739530 16711746
-17.6056271 -36.6261902 -1.2917845 16711746
-13.3246927 -39.7051620 -1.7018404 16711746
-35.1814423 -24.2155304 7.5033488 16711746
20.4557076 -33.4448586 10.8853369 16711746
-1.0399580 -0.9999756 1.0982718 16711746
-40.2860680 -29.9352531 12.4986525 16711746
-23.0002632 -30.2699509 7.4223771 16711746
-7.6475091 -32.6776886 10.7034416 16711746
-9.8981428 -33.2980614 10.0897217 16711746
-4.5199480 -36.2948074 9.9602051 16711746
-10.8829088 -35.6102791 14.3627787 16711746
-2.4019692 -32.7492065 12.0994530 16711746
-1.4923606 -30.7893124 10.9997005 16711746
-4.2894034 -31.6833820 11.0187435 16711746
-13.6344528 -33.6788216 10.2200785 16711746
-9.8644686 -28.6471596 10.6681347 16711746
-7.0904360 -30.7970333 6.0603018 16711746
-10.8300447 -37.7494583 5.2749214 16711746
-3.0428452 -41.8840561 6.6566482 16711746
-2.3548324 -36.4977455 8.7505112 16711746
-4.2376142 -32.9668999 8.4642296 16711746
-4.4231510 -37.2693787 7.6975570 16711746
-15.0039825 -37.8177452 7.4458385 16711746
-19.8003922 -33.7758064 7.8087502 16711746
-16.2112598 -36.1923790 8.7016907 16711746
-9.6865597 -32.5457535 9.8704681 16711746
-8.8064098 -36.8384781 10.0976515 16711746
