# .PCD v.7 - Point Cloud Data file format
VERSION .7
FIELDS x y z rgb
SIZE 4 4 4 4
TYPE F F F F
COUNT 1 1 1 1
WIDTH 56
HEIGHT 1
VIEWPOINT 0 0 0 1 0 0 0
POINTS 56
DATA ascii

-0.0807967 -1.0252578 0.2165685 16711746
0.6787168 0.5220446 -0.5444942 16711746
-0.0425638 -1.0894374 0.3561421 16711746
-0.2429127 -0.6368843 0.1231608 16711746
-0.3752024 -1.0338758 0.1758917 16711746
-0.2503147 -0.9314666 0.2391577 16711746
0.6863610 0.8161519 -0.6030163 16711746
-0.6277227 -0.7191320 0.5282404 16711746
-0.3347599 -1.1010720 0.4219732 16711746
-0.0991450 -1.1810716 0.2197412 16711746
-0.1557558 -1.2958604 0.2519914 16711746
0.7011826 0.8019083 -0.6092571 16711746
0.3819232 -1.2180181 0.3637465 16711746
-0.1865265 -0.8850172 0.2016728 16711746
-0.1882616 -0.8010648 0.0312387 16711746
-0.2820818 -1.1433889 0.3760066 16711746
-0.2247136 -0.9664871 0.2504349 16711746
-0.0720576 -1.1794283 0.3044344 16711746
-0.0275645 -0.5601491 0.1361090 16711746
-0.2905547 -1.0010539 0.1832948 16711746
0.4442778 0.8757486 -0.8202890 16711746
-0.4557273 -1.5367938 0.2120643 16711746
-0.4992246 -1.5532238 0.0460220 16711746
0.5752975 0.6460846 -0.6308937 16711746
-0.7960169 -0.9584968 0.6337584 16711746
-0.3557439 -1.2924027 0.6542520 16711746
-0.1765115 -0.8456212 0.0758164 16711746
-0.1693044 -0.8549655 0.0651959 16711746
-0.5251155 -1.2737372 0.2390705 16711746
-0.0398815 -1.3632106 0.4620788 16711746
0.3897721 -0.7678951 0.2001207 16711746
0.3918500 0.4288520 -0.3888337 16711746
-0.0119381 -0.6714678 0.2209366 16711746
0.6659079 0.7499747 -0.6230398 16711746
-0.3646232 -1.4021442 0.1957592 16711746
-0.3782747 -0.6975892 0.1784496 16711746
-0.7837656 -0.9826672 0.6246938 16711746
-0.0782381 -1.1184965 0.4310446 16711746
0.3032376 0.8378413 -0.7432864 16711746
1.0287669 -1.4523647 0.7855184 16711746
1.8024715 -3.1688659 2.7250297 16711746
1.6524744 -2.9781954 2.2847705 16711746
5.4443221 -9.3410006 7.7037606 16711746
8.7650681 -13.4258966 14.4370995 16711746
5.1466746 -8.7825089 7.2664981 16711746
-0.8165566 -4.1824746 1.0666244 16711746
1.5800364 -2.6277900 2.4634118 16711746
-11.6629448 -36.1981430 12.1678123 16711746
3.5698993 -7.4441104 5.2243075 16711746
-4.9681950 -32.7284164 4.8764696 16711746
4.6967449 -16.2744904 10.9959259 16711746
0.5711474 -0.8892711 0.9323217 16711746
6.1838598 -18.2507706 6.2106504 16711746
1.3631825 -2.3130841 1.9139822 16711746
1.8735840 -3.2681634 2.7987690 16711746
0.5613458 -1.1571856 0.7943410 16711746
