# .PCD v.7 - Point Cloud Data file format
VERSION .7
FIELDS x y z rgb
SIZE 4 4 4 4
TYPE F F F F
COUNT 1 1 1 1
WIDTH 210
HEIGHT 1
VIEWPOINT 0 0 0 1 0 0 0
POINTS 210
DATA ascii

 0.1473584 -0.0220467 0.1082211 16777215
 -0.6746055 1.3391980 1.1467271 16777215
-0.3925078 -0.9006181 1.8547502 16711746
-2.1522660 -0.0071963 2.3072381 16711746
-2.1102004 -0.0382230 2.1469350 16711746
-1.2368442 1.8842227 2.7004364 16711746
-0.7719262 -0.0842818 3.3200996 16711746
-1.9848806 1.3684198 1.5814474 16711746
-0.2622535 -0.5196218 1.5283086 16711746
-0.2345837 -0.3201560 2.5963964 16711746
2.0001347 -1.0588284 2.4569995 16711746
-0.4188724 -0.2835162 2.9110730 16711746
-1.9840456 1.3706353 1.5642016 16711746
-1.7259513 1.3261906 1.4055123 16711746
-1.5353291 -0.0734020 1.7430692 16711746
-0.3923973 -0.4405794 1.8080091 16711746
-0.4902583 -0.5643531 2.3760571 16711746
-1.5756208 1.3185062 1.3375012 16711746
0.0947252 -0.6580273 1.4814092 16711746
0.0689806 -1.0225564 2.4227924 16711746
-0.1881223 -0.7259598 2.0251417 16711746
-0.1509034 -0.7950984 2.1703849 16711746
-0.2090547 -0.7317519 1.9383962 16711746
-1.3068160 -0.4645937 1.1212506 16711746
-0.1564903 -0.6597549 2.2235935 16711746
-0.5586631 -0.3979946 2.2985525 16711746
-0.5655997 -0.4207238 2.1133075 16711746
0.0721997 -0.9410093 2.4304404 16711746
0.1243377 -0.7932037 1.9429129 16711746
-0.2651460 -0.6368141 1.9112478 16711746
-1.7170540 1.5375307 1.9714657 16711746
-1.9142295 1.5539212 2.0386622 16711746
-0.3519377 -0.5851274 1.8135684 16711746
-0.1373515 -0.6685472 1.5142618 16711746
-0.7141463 -0.5850615 3.1268799 16711746
-0.3922357 -0.4408025 1.9816283 16711746
-0.6688730 -0.5657386 2.8315582 16711746
-0.0326828 -0.8199174 2.1571770 16711746
-0.0322888 -0.6958597 1.6920540 16711746
-0.2891665 -0.4501926 2.0892706 16711746
-0.2933498 -0.4630938 2.0638981 16711746
-0.5236576 -0.6014215 1.9613196 16711746
-0.5332019 -0.5988928 1.9128468 16711746
-0.4854289 -0.4278076 2.5557709 16711746
-0.5336514 -0.3952359 2.2781327 16711746
-0.3636118 -0.3969304 1.9459808 16711746
-0.2689955 -0.4044420 2.2708387 16711746
-0.9428166 -1.0035014 2.2741594 16711746
-0.4846298 -0.7080926 1.3623205 16711746
-0.3388021 -0.5255406 1.8482974 16711746
-0.8482419 -0.0046884 3.0721378 16711746
-0.2074776 -0.2566927 1.9204327 16711746
-0.3541599 -0.2964768 2.1383986 16711746
-0.0585722 -0.7364118 1.5176425 16711746
-1.6371475 -0.0499755 1.9848739 16711746
-1.6880434 0.0053218 2.1823151 16711746
-1.6765410 0.6649594 1.4464546 16711746
-2.0253100 -0.0811795 1.9465739 16711746
-1.5994146 -0.0983685 1.8100144 16711746
-0.8197057 0.0999922 3.3085732 16711746
-0.8857973 -0.0463236 2.8895881 16711746
-2.3536716 1.5097538 2.0729556 16711746
-0.9631277 -0.6995040 1.1559629 16711746
-0.9578494 -0.6144251 1.1866735 16711746
-0.4897726 -0.4755767 1.5109477 16711746
-0.5770996 -0.5682814 1.7285708 16711746
-0.3307535 -0.6547137 1.6116837 16711746
-0.9233637 -0.7128998 1.6129888 16711746
-0.5299959 -0.2141923 2.5795045 16711746
-0.8009974 -0.3412080 2.8588734 16711746
-0.8365090 -0.4879346 2.2828822 16711746
-0.4926259 -0.7557721 1.4928573 16711746
-0.4580658 -0.2046552 2.9451158 16711746
-1.0784436 -0.4530597 1.0361704 16711746
0.2989887 -0.2032636 2.8014774 16711746
0.8422341 -0.1274682 2.5347636 16711746
-1.8438382 -0.1844175 1.5475981 16711746
-1.7403799 -0.2100727 1.3323109 16711746
-1.8866885 1.5022181 1.7442727 16711746
-2.2922616 1.7122896 2.3154759 16711746
-2.2165031 1.6118989 2.0622251 16711746
-1.3212333 1.8774053 2.8648567 16711746
-1.3231206 1.8497419 2.8098917 16711746
-1.3275912 1.7552196 2.5664423 16711746
-1.3231659 1.8416307 2.7436759 16711746
-0.2151118 -0.4735704 2.3547850 16711746
-0.2266395 -0.4988985 2.3018017 16711746
-0.6741299 -0.2683100 1.9943936 16711746
-0.8515553 -0.5385814 1.1324188 16711746
0.1834301 -0.0952478 2.1553648 16711746
-0.5864365 -0.5715551 1.6496340 16711746
0.4496221 -0.5507314 2.2634437 16711746
-0.8785632 0.0284212 2.8720376 16711746
-1.5176232 -0.0876689 1.7103604 16711746
-2.0848832 -0.0395447 2.1551130 16711746
-1.6242304 -0.0866095 1.7767479 16711746
-0.1917155 -0.1265707 2.6114969 16711746
-0.5793337 -0.6126066 1.0556524 16711746
-0.8367243 -0.8172352 1.4431442 16711746
-0.0046791 -0.7757471 1.6954906 16711746
-0.2374059 -0.7362791 1.8153862 16711746
-0.2679764 -0.7077467 1.7538533 16711746
-0.2072808 -1.0750664 2.6780117 16711746
-0.5104420 -0.1867004 2.6657486 16711746
-1.1075847 -0.4347815 1.2517661 16711746
-0.7635728 -0.7065499 1.2335813 16711746
-0.8381760 -0.7536643 1.2870653 16711746
0.2193385 -0.6954374 1.7233944 16711746
-0.6777197 -0.3928058 1.7741473 16711746
-0.8817897 -0.4389256 1.9452080 16711746
-0.8212187 -0.4862005 2.0889707 16711746
-1.8248886 -0.1584255 1.4641767 16711746
-0.8275402 -0.3947616 2.3377092 16711746
0.2450239 -0.5816202 2.5526118 16711746
-1.1790438 -0.3423816 1.1947401 16711746
-1.3986149 -0.3951140 1.4010593 16711746
-1.9534193 1.3670307 1.5015179 16711746
-2.0415528 1.4184452 1.6754078 16711746
-0.2967616 -0.0604417 2.4094441 16711746
-0.4997286 -0.6760507 1.8991914 16711746
-0.2849812 -0.6567140 1.8011724 16711746
0.4340803 -0.0829427 3.0261111 16711746
-2.0694342 1.4466140 1.8525730 16711746
-0.8936878 -0.7006773 1.1329695 16711746
-0.1036305 -0.5787255 1.7000449 16711746
-0.1455854 -0.7347477 2.1546583 16711746
-0.1838260 -0.7099124 2.0666823 16711746
-1.3117125 -0.0938608 1.6688628 16711746
-1.3064016 -0.1003173 1.6599419 16711746
-0.8775717 -0.2471405 2.6428235 16711746
-0.1591578 -0.2370085 2.7285092 16711746
-0.2712277 -0.2550715 3.4137394 16711746
-0.7121674 -0.7318438 1.3832426 16711746
-0.3204664 -0.6709643 1.4301959 16711746
-0.3369379 -0.5896704 1.7418281 16711746
-0.3840668 -0.5759916 1.7121556 16711746
-0.6200232 -0.9208664 2.7467513 16711746
-0.1522674 -0.4147055 2.3777611 16711746
-2.2175043 1.3788037 1.6601878 16711746
-0.3407065 -0.6619559 1.3160669 16711746
-0.6083857 -0.5848540 1.1915530 16711746
0.1896009 -0.9055610 1.9285021 16711746
-0.5171497 -0.3052873 2.5507629 16711746
-0.5820664 -0.2316957 2.4748397 16711746
-1.3299577 1.6804260 2.3478692 16711746
-0.5213045 -0.6627203 1.7902344 16711746
0.6062880 -0.0521198 3.2840257 16711746
-0.9076566 -0.2187730 2.3312762 16711746
-0.7079501 -0.2548492 1.8739508 16711746
-1.9034897 1.2484379 1.1084232 16711746
-0.2555769 -0.7674798 1.6343167 16711746
-0.8859323 -0.5419753 1.0462213 16711746
-0.5398335 -0.4201436 1.3399565 16711746
0.2641396 0.0393294 2.7713094 16711746
-1.2072110 -0.2879233 1.7059810 16711746
-0.8508634 0.1653028 3.1724811 16711746
-0.1462308 -0.0384612 2.7364590 16711746
-0.1620339 -0.0678415 2.7760596 16711746
-1.6339152 1.3890613 1.6044786 16711746
-1.6147776 1.3508484 1.4643368 16711746
-2.0643537 1.7511714 2.2648163 16711746
-0.7128143 -0.0346590 2.1412466 16711746
-1.3768003 0.7644978 1.3894807 16711746
-0.7584029 -0.6175286 1.1620651 16711746
-0.6996046 -0.6198543 1.0936054 16711746
-0.6635457 -0.7189056 1.3204453 16711746
-1.4537702 -0.1997105 1.1352051 16711746
-0.0096796 -0.8471031 2.4274142 16711746
-0.0039981 -0.6072239 1.5105510 16711746
-0.0390859 -0.8794788 2.4201963 16711746
-0.4169585 -0.8105024 1.5491298 16711746
-0.9016882 -0.1980445 2.4114990 16711746
-0.8570208 -0.8880857 1.7461339 16711746
-1.6187661 -0.0903766 1.7692744 16711746
-1.6076407 -0.1109801 1.6678939 16711746
-1.6003594 -0.1160361 1.6583289 16711746
-0.4773028 -0.7079037 1.9505547 16711746
-1.0332065 -0.4864880 1.2855231 16711746
-0.7717965 -0.1430313 3.2680874 16711746
-0.8423667 -0.2089142 3.1404896 16711746
-0.1637385 -0.6562628 1.3513139 16711746
-1.0104314 -0.5024884 1.0965718 16711746
-1.2182797 1.7657288 2.2254889 16711746
-1.5594453 1.5216347 1.8650960 16711746
-1.5555788 1.5077180 1.8488121 16711746
-1.5516129 -0.0399272 1.9106185 16711746
-1.6782246 -0.0317522 1.9954706 16711746
-1.6623212 -0.0372808 1.9845512 16711746
-1.8405942 1.2390716 1.0430437 16711746
-0.3579727 -0.6793572 1.3304986 16711746
0.3612024 -11.9389515 -1.0995841 16711746
0.5807769 -4.9698186 0.0978519 16711746
0.5335324 -6.2850151 -0.1582816 16711746
0.4930201 -8.1873379 -0.4606461 16711746
0.5648296 -6.6457253 -0.2251771 16711746
0.5130342 -8.3214512 -0.4804672 16711746
0.6177369 -4.5195589 0.0561547 16711746
-0.3731364 -2.3991494 1.2192265 16711746
-0.3496312 -1.9786668 1.9865392 16711746
0.7500458 -5.3491731 0.1598584 16711746
0.5354905 -6.5335360 -0.2143608 16711746
1.5404974 -4.8333864 3.5107863 16711746
0.5649990 -6.6634889 -0.2300615 16711746
-0.7647778 -4.2838163 2.0921702 16711746
0.7183862 -4.3292832 0.1239703 16711746
0.4017086 -10.5034485 -0.7805243 16711746
0.4095338 -10.7366171 -0.8300329 16711746
0.5951616 -5.2031360 0.0631807 16711746
0.6610615 -4.2037435 0.0667129 16711746
0.6986253 -5.5478759 0.0279686 16711746
