# .PCD v.7 - Point Cloud Data file format
VERSION .7
FIELDS x y z rgb
SIZE 4 4 4 4
TYPE F F F F
COUNT 1 1 1 1
WIDTH 178
HEIGHT 1
VIEWPOINT 0 0 0 1 0 0 0
POINTS 178
DATA ascii

 0.0833903 -0.0162051 -0.0720590 16777215
 0.0805752 -0.0156303 -0.0735376 16777215
 0.0690159 -0.0172270 -0.0683472 16777215
 0.0600174 -0.0187849 -0.0667178 16777215
 0.0486250 -0.0157712 -0.0654294 16777215
 0.0447222 -0.0155291 -0.0643909 16777215
 0.0464379 -0.0176268 -0.0639549 16777215
 0.0500290 -0.0178432 -0.0618387 16777215
 0.0561425 -0.0186028 -0.0618347 16777215
 0.0606960 -0.0187292 -0.0621995 16777215
 0.0604392 -0.0191133 -0.0634700 16777215
 0.0595289 -0.0194903 -0.0615774 16777215
 0.0607466 -0.0212700 -0.0606218 16777215
 0.0599125 -0.0201462 -0.0509503 16777215
 0.0618550 -0.0200899 -0.0448381 16777215
 0.0655772 -0.0177779 0.0010504 16777215
 0.1169475 -0.0331214 0.1242041 16777215
 0.1289381 -0.0392246 0.2343905 16777215
 0.1616083 -0.0565267 0.3142173 16777215
 0.1901578 -0.0805377 0.3873403 16777215
 0.2267233 -0.1684261 0.4960330 16777215
 0.2292425 -0.1766075 0.7520452 16777215
 0.2625547 -0.0515309 0.7499858 16777215
 0.3431047 -0.1397190 1.0167826 16777215
 0.3274209 -0.1480024 1.0302746 16777215
 0.3500101 -0.2258694 1.0429016 16777215
 0.3576867 -0.2395879 1.0748773 16777215
 0.3506273 -0.2562273 1.0891420 16777215
 0.3654307 -0.2976154 1.1123909 16777215
 0.3813548 -0.1998437 1.2112873 16777215
 0.4014473 -0.3011923 1.3126667 16777215
 0.3852024 -0.3399719 1.4106315 16777215
 0.4812609 -0.3907114 1.5316503 16777215
 0.4136995 -0.3241312 1.5991529 16777215
 0.4787026 -0.4492473 1.6852020 16777215
 0.5125917 -0.3031452 1.7819687 16777215
 0.5227860 -0.4048973 1.8657687 16777215
 0.5275173 -0.4794509 1.9490811 16777215
 0.5658227 -0.4483268 2.0605731 16777215
 0.5586292 -0.6007442 2.1591113 16777215
 0.4255807 -0.6145920 2.2656245 16777215
 0.6263114 -0.5218751 2.4061267 16777215
 0.6704479 -0.7077818 2.5242453 16777215
 0.5913437 -0.5891427 2.6780598 16777215
 0.6079294 -0.6297318 2.6850238 16777215
 0.7273175 -0.8641455 2.8066068 16777215
 0.7336677 -0.7209037 2.8840110 16777215
 0.7046437 -0.6661840 2.9421875 16777215
 0.7302027 -0.7153971 3.0287087 16777215
 0.7476901 -0.7572944 3.1559963 16777215
 0.8096626 -0.7401884 3.3203218 16777215
 0.8481187 -0.7873195 3.4502797 16777215
 0.8508766 -0.8505954 3.5973985 16777215
 0.8457415 -0.8909048 3.7081497 16777215
 0.9078995 -0.8646309 3.7606034 16777215
 0.9294682 -0.8430078 3.8979986 16777215
 0.9092777 -0.9270864 3.9910421 16777215
 0.9256107 -0.9469916 4.0569515 16777215
 0.9470251 -1.0422909 4.2462411 16777215
 0.8846794 -0.9775352 4.2858543 16777215
 0.8091056 -0.8154730 4.4300075 16777215
 0.8467740 -0.9605926 4.5845842 16777215
 1.0130473 -0.9733059 4.6414690 16777215
 0.9956094 -1.2563292 4.8092575 16777215
 0.9244214 -0.9835258 4.8672404 16777215
 0.9791413 -1.2309152 4.9756727 16777215
 1.0288273 -1.1388166 5.0790186 16777215
 1.0015604 -1.2196139 5.1599488 16777215
 0.9882060 -1.2848707 5.3838763 16777215
 0.8260575 -1.3463448 5.5930166 16777215
 0.9887999 -1.2277801 5.6000767 16777215
 0.9998305 -1.2796140 5.7150526 16777215
 1.0445405 -1.2316698 5.8239908 16777215
 1.1337353 -1.2548014 5.8904390 16777215
 1.0924608 -1.2589480 6.0086083 16777215
 1.1088349 -1.2540619 6.1193371 16777215
 1.1435770 -1.2478869 6.2369480 16777215
 1.1731617 -1.1653036 6.2675781 16777215
 1.1743917 -1.2084050 6.3608961 16777215
 1.2024004 -1.2750438 6.5065155 16777215
 1.2399417 -1.3715490 6.6461926 16777215
 1.2053895 -1.3566121 6.7711558 16777215
 1.2599740 -1.4869145 6.8487120 16777215
 1.2247752 -1.3783293 7.0178118 16777215
 1.2443860 -1.3647339 7.1423063 16777215
 1.1765445 -1.2970617 7.1790280 16777215
 1.1640241 -1.4906006 7.3375182 16777215
 1.2459924 -1.5046654 7.4868011 16777215
 1.3292639 -1.3955970 7.5515308 16777215
 1.3637245 -1.3204782 7.6505356 16777215
 1.3660355 -1.6439512 7.6209588 16777215
 1.3217402 -1.4537890 7.9688082 16777215
 1.3693659 -1.5295467 7.9899778 16777215
 1.2827022 -1.5533414 8.1573887 16777215
 1.1435633 -1.5817854 8.3143082 16777215
 1.1361144 -1.3420393 8.4256067 16777215
 1.2563386 -1.5286183 8.4797726 16777215
 1.3332493 -1.6082706 8.5455456 16777215
 1.3233293 -1.6638894 8.5804100 16777215
 1.3583517 -1.6827552 8.7068548 16777215
 1.3817093 -1.6988945 8.7894688 16777215
 1.3734893 -1.6391373 8.8548107 16777215
 1.3499839 -1.6403012 9.0457544 16777215
 1.3479290 -1.5511582 9.1408415 16777215
 1.3419260 -1.6017466 9.1181660 16777215
 1.3852396 -1.5575771 9.2193384 16777215
 1.3949167 -1.6412024 9.2886305 16777215
 1.3722584 -1.5962551 9.3835926 16777215
 1.4516656 -1.7060158 9.5004921 16777215
 1.4675885 -1.8304715 9.6538382 16777215
 1.4534906 -1.6672313 9.6989155 16777215
 1.4880621 -1.7438586 9.7778721 16777215
 1.5813377 -1.6779997 9.8508539 16777215
 1.5206171 -1.6360905 9.8274536 16777215
 1.4154413 -1.8027699 10.0304537 16777215
 1.1270070 -1.4076054 9.9630995 16777215
 1.4666488 -1.9711158 10.1557865 16777215
 1.4667535 -1.9511192 10.2249680 16777215
 1.7598391 -1.7348371 10.0883789 16777215
 1.3867674 -1.5851038 10.3929253 16777215
 1.5376165 -1.6963158 10.3323975 16777215
 1.2532650 -1.5402517 10.4201660 16777215
 1.2532701 -1.7025394 10.4556656 16777215
 1.4752450 -1.7783730 10.4755850 16777215
 1.7522091 -2.0596719 10.2019415 16777215
 1.4042871 -1.9471908 10.4915190 16777215
 1.3134995 -1.6052363 10.4746838 16777215
 1.1292459 -1.2930236 10.4048328 16777215
 1.1741796 -1.3928027 10.4627600 16777215
 0.9464082 -1.8469255 10.3980837 16777215
 1.2476076 -2.0719979 10.6861944 16777215
 1.2757208 -2.0390127 10.6171455 16777215
 1.2684047 -1.3846934 10.6025543 16777215
 1.3225939 -2.3732524 11.1326866 16777215
 1.3195288 -1.8271759 10.6503811 16777215
 1.4148307 -1.8414359 10.8372154 16777215
 2.1128275 -2.2579083 10.8048887 16777215
 2.0766578 -2.2383647 10.7642126 16777215
 1.6383870 -2.0207877 11.1649046 16777215
 1.7606943 -1.9942210 11.1718569 16777215
 1.6370536 -1.9623730 11.2798271 16777215
 1.6269267 -2.0202644 11.3540649 16777215
 1.6093432 -2.0468159 11.3751812 16777215
 1.5892186 -2.0586619 11.3436632 16777215
 1.5706539 -2.0576627 11.4002934 16777215
 1.6344101 -2.0668502 11.5148058 16777215
 1.5705078 -2.0613956 11.4655113 16777215
 1.5438883 -2.0343263 11.5285625 16777215
 1.5790608 -2.0620997 11.5827942 16777215
 1.5337873 -2.1073554 11.6318436 16777215
 1.5552468 -2.1616623 11.6705160 16777215
 1.5893812 -2.0337303 11.7506800 16777215
 1.6029713 -2.1059556 11.8096323 16777215
 1.5809717 -2.0263979 11.9841814 16777215
 1.5881530 -2.0270410 12.0816183 16777215
 1.5564013 -1.9931264 12.1302032 16777215
 1.5473242 -2.0173645 12.1716404 16777215
 1.5617085 -1.9876966 12.2400970 16777215
 1.5017270 -1.8317060 12.3241053 16777215
 1.4652745 -1.8305235 12.4381771 16777215
 1.4792414 -1.8992834 12.4747992 16777215
 1.5151042 -1.9366918 12.6336536 16777215
 1.6089070 -1.9267759 12.6910324 16777215
 1.5828717 -2.0148034 12.7614250 16777215
 1.5692978 -2.0825224 12.8123398 16777215
 1.5777719 -2.0241246 13.0321236 16777215
 1.6352384 -2.0140996 13.0475216 16777215
 1.6317571 -1.9474559 13.1362324 16777215
 1.6563777 -2.0600309 13.2152328 16777215
 1.6211461 -2.1431603 13.3090210 16777215
 1.7010889 -2.1598625 13.3833332 16777215
 1.6407158 -2.1122742 13.4001741 16777215
 1.6285259 -2.2614412 13.4528923 16777215
 1.4644153 -1.5826960 13.6188717 16777215
 1.4711303 -2.0969663 13.5911455 16777215
 1.4328098 -2.0413141 13.7679596 16777215
 1.4410564 -2.0742698 13.8079119 16777215
 1.4266372 -2.0703311 13.8591843 16777215
