# .PCD v.7 - Point Cloud Data file format
VERSION .7
FIELDS x y z rgb
SIZE 4 4 4 4
TYPE F F F F
COUNT 1 1 1 1
WIDTH 78
HEIGHT 1
VIEWPOINT 0 0 0 1 0 0 0
POINTS 78
DATA ascii

0.5036532 -1.2311206 -0.0312140 16711746
-0.1382210 -1.0842774 -0.0739940 16711746
-0.3650112 -1.0923669 -0.0669627 16711746
0.1394144 -1.1064428 0.0267908 16711746
-1.4218462 -0.8189621 1.6799310 16711746
-2.8433244 -1.2485955 1.9665972 16711746
-5.1018500 -2.0778065 1.6004192 16711746
-1.9849994 -1.0899622 2.0060537 16711746
0.0826939 -1.6833394 0.5459757 16711746
-2.0343544 -1.1181171 2.0529976 16711746
-1.7025287 -1.6072692 1.5016758 16711746
-2.3011918 -2.2417154 1.4057049 16711746
-0.7357279 -4.4312863 0.3830501 16711746
-2.6628251 -1.8142453 0.4315499 16711746
0.0493525 -0.5166683 0.0395828 16711746
-0.2766491 -2.2292135 0.6832327 16711746
-0.1535935 -1.3639098 0.3631741 16711746
-0.1453514 -1.4523156 0.3704664 16711746
-2.5374918 -2.0675383 0.1083714 16711746
-2.6955953 -2.5749834 0.0301814 16711746
-0.6751536 -4.9647112 0.3827316 16711746
-2.8968256 -1.8856878 0.5465634 16711746
-2.6723247 -1.7074504 0.4446380 16711746
-2.8015275 -2.2959526 1.8390940 16711746
-0.9367974 -6.0162349 0.4267522 16711746
-4.8494616 -2.8257899 2.0190716 16711746
-0.7399808 -5.3853388 0.2511371 16711746
-0.1289918 -1.2651565 0.3267880 16711746
-2.0929780 -1.4316034 2.1422706 16711746
-2.7212634 -1.8340460 0.4365603 16711746
1.5013472 -3.2347550 -0.0801243 16711746
-2.5392375 -1.6201506 0.4235393 16711746
-3.1583600 -1.3299279 2.7313533 16711746
-1.4788370 -0.8903514 0.6341454 16711746
-3.0653050 -2.5525265 0.3965609 16711746
-2.6137764 -2.6338944 0.0208072 16711746
-3.0422866 -1.4444320 2.5427959 16711746
-2.2130487 -1.2211856 1.9072938 16711746
-2.7410033 -2.2254663 0.1111188 16711746
-3.7545328 -3.1753230 0.1517580 16711746
-3.0656419 -2.4589660 0.0656994 16711746
4.3047600 -4.8102059 -0.4913749 16711746
-4.4431429 -3.1833482 0.7347283 16711746
-1.8646493 -1.1285989 1.8625401 16711746
-2.7065237 -1.1704808 1.9401011 16711746
-5.0843978 -3.6412146 0.6857951 16711746
-2.7261181 -2.5958152 0.0281447 16711746
-3.8000681 -2.1681857 1.0749556 16711746
-1.6866164 -1.1632847 1.8675369 16711746
-1.8442339 -1.2652751 1.9006079 16711746
-0.0269335 -3.7674043 1.2824500 16711746
-2.9871590 -2.3871415 0.0486817 16711746
-2.4287610 -1.5513449 0.4079876 16711746
-0.7261732 -4.1528850 0.4318157 16711746
-0.8105282 -4.6397424 0.5886548 16711746
-2.8264554 -2.6939180 0.0281784 16711746
-2.3918004 -2.5666611 0.0219135 16711746
-4.0203862 -2.8780165 0.6676304 16711746
-3.9083881 -2.9891932 0.6576606 16711746
2.5501842 -4.0362439 -0.0659996 16711746
-2.1424844 -1.9185786 1.1448811 16711746
-1.5644486 -0.9432366 0.6696627 16711746
-1.6751004 -1.2368230 1.2330536 16711746
-1.7510226 -2.3967187 1.3226498 16711746
-1.2049187 -1.7268904 0.9038720 16711746
0.0279593 -5.3869781 1.8908907 16711746
-3.6607125 -3.4496670 0.3430370 16711746
-2.1042607 -1.9828631 0.0322731 16711746
-0.5201428 -5.5199523 0.7907962 16711746
-0.5209587 -2.4337859 0.8189894 16711746
-4.2024155 -3.0064933 0.6948547 16711746
-1.7653552 -1.7599679 1.9595720 16711746
-2.4360735 -2.6073070 0.0197188 16711746
-1.3955492 -8.1121941 1.0087008 16711746
-0.3494494 -4.0223284 0.8415993 16711746
-2.5370283 -2.6421351 2.5178819 16711746
-2.6246085 -1.9596219 1.9391383 16711746
-2.3671613 -1.6015158 0.6608108 16711746
