# .PCD v.7 - Point Cloud Data file format
VERSION .7
FIELDS x y z rgb
SIZE 4 4 4 4
TYPE F F F F
COUNT 1 1 1 1
WIDTH 81
HEIGHT 1
VIEWPOINT 0 0 0 1 0 0 0
POINTS 81
DATA ascii

 -19.2105045 41.7360191 63.6963577 16777215
 -0.4872887 1.0596162 1.6151844 16777215
0.1993221 -0.2771803 3.0128608 16711746
-0.6943894 0.5714115 2.3714533 16711746
-0.9719265 0.4138003 2.4678862 16711746
-0.2278556 1.2937733 0.9000546 16711746
-0.1523520 -0.2653825 3.0608330 16711746
-1.1225278 0.3716239 2.6637969 16711746
-1.0905993 0.3871081 2.6233513 16711746
-0.7238969 0.5965249 2.4048162 16711746
-1.2907758 -1.1224304 3.0704708 16711746
-0.8029284 -0.6087818 2.9968398 16711746
-1.1991875 0.3880448 2.6252728 16711746
-1.1854823 0.4222136 2.6386559 16711746
-1.1632596 0.3896337 2.6423836 16711746
-1.1719233 0.4348741 2.6151090 16711746
-1.0691025 0.4280526 2.5023861 16711746
-0.8144995 0.6907880 2.4261076 16711746
-0.8350610 0.6652200 2.4641423 16711746
-1.0096995 0.4091601 2.4678032 16711746
-0.7553926 0.7133790 2.3356214 16711746
-0.7754171 0.5050340 2.5949140 16711746
0.0350342 -0.7490467 2.9905069 16711746
-0.1809425 -0.6148426 3.7633266 16711746
-0.3208366 -0.5701378 3.5154779 16711746
0.7820570 -0.2359265 3.4989872 16711746
0.4994380 0.0421393 2.8853321 16711746
0.3955970 0.0377080 2.7731390 16711746
-0.1745605 -0.2099895 3.5098324 16711746
-0.3207598 0.1757513 2.8066807 16711746
-0.1727024 0.4039106 2.4518769 16711746
0.2708240 -0.3278006 2.9378686 16711746
-0.1165958 -0.2458538 2.9374740 16711746
1.4941314 -0.2101382 2.5603936 16711746
-0.6344762 1.6152427 0.9088205 16711746
-0.6756985 1.4482342 0.8759919 16711746
-0.6250291 1.4721466 0.9415911 16711746
0.5290434 0.0491250 3.0480232 16711746
-0.7093188 2.8366795 0.9581501 16711746
-0.2567863 2.1747453 0.4167384 16711746
-0.0277674 2.4045515 0.5051196 16711746
-1.1091008 0.4239019 2.5320246 16711746
-1.0657679 0.4163053 2.5305948 16711746
-1.2516135 0.4120092 2.7023454 16711746
-0.7660185 0.6733034 2.3423710 16711746
-0.9081759 -0.0880473 3.4801917 16711746
-1.0181254 0.0529710 2.8555694 16711746
-0.7041691 0.6458185 2.2776310 16711746
-1.1983749 0.1187261 2.9163387 16711746
-0.6284655 0.5389639 2.3183174 16711746
-0.7900185 0.0148517 2.6923251 16711746
-0.4862471 0.3535746 2.3707626 16711746
-0.6137781 0.5627488 2.1959345 16711746
-0.0328481 1.3109124 0.4145655 16711746
-0.7617251 0.7160037 2.3570027 16711746
-0.2928349 1.3959272 0.4996586 16711746
-0.7656797 1.9632847 0.7257024 16711746
-0.7063748 1.6267874 0.7584777 16711746
-0.8341699 2.1250894 0.6959620 16711746
-0.3299035 1.2900003 0.7943148 16711746
-0.3614700 1.3130989 0.8403688 16711746
-0.2599081 1.2854871 0.8667785 16711746
-0.3894576 1.3306931 0.8565148 16711746
-0.7561719 1.5805664 0.5884708 16711746
-0.6672313 0.2293548 2.9273782 16711746
-0.5557747 0.7806792 2.1322105 16711746
-0.5556849 0.7812876 2.0980585 16711746
-0.5357772 1.4235171 0.9375180 16711746
-0.6351287 0.2734056 2.8583078 16711746
-0.3260745 1.3142887 0.9516072 16711746
-0.7174249 0.4784951 2.5943754 16711746
0.7070967 -0.7041066 3.2152929 16711746
-1.2981048 -0.3847567 2.9431231 16711746
-1.1864024 -0.1508110 2.6542003 16711746
-0.0482945 1.2382027 0.6415611 16711746
38.2296143 -479.3840027 320.6356812 16711746
-59.2594070 -2510.5913086 1765.0123291 16711746
-249.4326324 -4252.6333008 1837.2438965 16711746
-147.7242126 -3304.5922852 2706.8735352 16711746
-1.3964787 -400.8251343 293.2677307 16711746
-2656.8063965 -1834.1027832 1804.3336182 16711746
