# .PCD v.7 - Point Cloud Data file format
VERSION .7
FIELDS x y z rgb
SIZE 4 4 4 4
TYPE F F F F
COUNT 1 1 1 1
WIDTH 1175
HEIGHT 1
VIEWPOINT 0 0 0 1 0 0 0
POINTS 1175
DATA ascii
0.2312068 -0.1639699 -0.0110738 16711746
-0.1457678 -0.5754932 0.2555132 16711746
0.0496821 -0.4259050 0.1150750 16711746
0.2172336 -0.1960882 -0.0322211 16711746
0.0924837 -0.3256862 -0.0235614 16711746
-1.1969264 -1.6672950 0.5049828 16711746
-0.5722791 -0.4604157 0.1513188 16711746
0.0912010 -0.3690707 0.0882110 16711746
0.1470215 -0.2300497 0.0605711 16711746
0.1498361 -0.3592646 0.0494985 16711746
0.2200726 -0.2786105 -0.0158600 16711746
-0.8028989 -0.8031665 0.9223455 16711746
0.1269771 -0.1700447 0.0695280 16711746
-0.3334896 -0.9111666 0.2843701 16711746
0.1196784 -0.4406146 -0.0089816 16711746
0.1626100 -0.1969237 0.0736993 16711746
0.1363283 -0.3413521 -0.0254547 16711746
0.1921464 -0.1569792 0.0198024 16711746
0.2059080 -0.1750118 0.0412054 16711746
0.1120590 -0.2515611 -0.0374146 16711746
0.1905847 -0.1470944 -0.0100887 16711746
0.1092435 -0.1865896 0.0697404 16711746
0.1943497 -0.1560712 -0.0106798 16711746
0.1763945 -0.1632935 -0.0187826 16711746
0.1675199 -0.1544852 -0.0124438 16711746
0.0201698 -0.4045954 0.0504017 16711746
0.0970886 -0.2882081 0.0766265 16711746
0.0966217 -0.3107112 -0.0020837 16711746
0.0859588 -0.2935521 0.1134170 16711746
0.0800552 -0.3392192 0.1197848 16711746
0.1466135 -0.3515684 0.0592574 16711746
-0.0097471 -0.4147965 0.1303028 16711746
0.0745018 -0.3143038 0.0575324 16711746
0.0911931 -0.3143494 0.0523858 16711746
0.0814978 -0.3495919 0.0319330 16711746
-0.0052449 -0.5364432 0.0448382 16711746
0.0917543 -0.3421850 -0.0491109 16711746
0.0771856 -0.3490377 0.0670985 16711746
0.1471084 -0.2993630 0.0298876 16711746
0.0913259 -0.3180230 0.0530427 16711746
0.0897251 -0.3308614 0.0931567 16711746
0.1168855 -0.2934537 -0.0119730 16711746
0.0059105 -0.4275115 0.1233631 16711746
0.0931552 -0.3110890 0.0433360 16711746
0.1062468 -0.3225567 -0.0456813 16711746
0.1386699 -0.3778194 -0.0287910 16711746
0.0791697 -0.3712392 0.0161521 16711746
0.0021238 -0.3227153 0.2124058 16711746
-0.0569912 -0.4823095 0.1729579 16711746
0.0536746 -0.3353420 0.0405454 16711746
0.0912459 -0.3436464 0.0477664 16711746
0.0835674 -0.3249764 0.0843627 16711746
0.2199465 -0.1819692 0.0088575 16711746
0.0903053 -0.4753692 0.0400120 16711746
0.0502744 -0.3867644 0.0328227 16711746
0.0336852 -0.4367720 0.0275516 16711746
0.0422017 -0.3640534 0.0899490 16711746
0.1918306 -0.2233962 -0.0265565 16711746
-0.1254614 -0.3897361 0.2752597 16711746
0.0935488 -0.2652388 0.0307198 16711746
0.0222984 -0.3661896 0.1223570 16711746
0.1938180 -0.2245900 -0.0266763 16711746
0.1119391 -0.2731569 0.0054509 16711746
0.0849880 -0.3839944 0.0327735 16711746
0.1052614 -0.2938477 -0.0366595 16711746
0.0707941 -0.3335995 0.0347117 16711746
0.0524920 -0.3708371 0.0338821 16711746
0.1183351 -0.3661085 0.0140100 16711746
0.2210458 -0.2738423 -0.0318443 16711746
0.0849131 -0.3567948 -0.0314756 16711746
0.0609041 -0.4320544 0.0755188 16711746
0.1890921 -0.3092541 0.0070463 16711746
0.0851468 -0.3913572 -0.0346243 16711746
0.1305341 -0.3234122 -0.0255254 16711746
0.0481753 -0.4735299 0.0298422 16711746
0.0522788 -0.5056781 0.0217555 16711746
0.1179493 -0.3100862 0.0209505 16711746
0.0552946 -0.4513420 0.0669962 16711746
0.1733044 -0.2217007 0.0219652 16711746
0.1639677 -0.2487448 -0.0091875 16711746
0.0058266 -0.4382006 0.1289937 16711746
0.1019801 -0.3838655 0.0930298 16711746
0.1869282 -0.3430366 0.1106834 16711746
0.1142450 -0.3672770 0.1021555 16711746
0.0860145 -0.3224378 0.0780940 16711746
0.0728975 -0.3503946 0.0597119 16711746
0.0888707 -0.4121881 0.0494564 16711746
0.1061308 -0.4129790 0.0363787 16711746
0.1575458 -0.3155421 0.0299692 16711746
0.1412418 -0.2770041 0.0562751 16711746
0.1778696 -0.2254067 -0.0228004 16711746
0.2597567 -0.1520018 0.0170782 16711746
0.0374299 -0.4280120 0.0637640 16711746
0.0911241 -0.4015050 0.0471372 16711746
0.1436733 -0.2865342 0.0610135 16711746
0.1411851 -0.2789764 0.0449124 16711746
0.1942839 -0.2650138 -0.0415228 16711746
0.1791053 -0.1994690 0.0031397 16711746
0.2108881 -0.2532081 -0.0344821 16711746
0.1818703 -0.2118083 -0.0217034 16711746
0.0191536 -0.5153322 0.0068041 16711746
0.1596881 -0.1908248 0.0800033 16711746
0.1012980 -0.3426192 0.0753759 16711746
0.1267431 -0.2499213 -0.0337614 16711746
0.0591210 -0.5272598 0.0599619 16711746
0.1759698 -0.2281496 0.0240096 16711746
-0.0085953 -0.3583573 0.2448166 16711746
0.0847273 -0.3895996 0.1120350 16711746
-0.0023753 -0.4102962 0.1208897 16711746
0.0306563 -0.4513941 0.0722175 16711746
0.1294471 -0.3714500 -0.0311292 16711746
-0.0097661 -0.4967718 0.0383589 16711746
0.1791182 -0.2669359 -0.0313394 16711746
0.0237999 -0.4460706 0.1076788 16711746
0.0931896 -0.3026388 0.0197810 16711746
0.1177321 -0.3004456 -0.0104620 16711746
0.1436385 -0.2408982 0.0906455 16711746
0.1676507 -0.2063398 0.0117803 16711746
0.1309441 -0.3398070 -0.0011708 16711746
0.1184698 -0.4124952 -0.0127361 16711746
0.1359748 -0.3914290 -0.0308753 16711746
0.1608078 -0.1942367 0.0611256 16711746
0.1334291 -0.2315240 0.0025778 16711746
0.1560050 -0.1596034 -0.0471550 16711746
0.0676116 -0.3830959 -0.0017756 16711746
0.1191126 -0.3712128 -0.0194840 16711746
0.1338407 -0.2287610 0.0220334 16711746
0.1851691 -0.2237184 -0.0319633 16711746
0.2042634 -0.1285652 0.0127035 16711746
0.2357543 -0.1312420 0.0034795 16711746
0.0375855 -0.4073057 -0.0513735 16711746
-0.1625705 -0.4322096 0.4012350 16711746
0.0977191 -0.3740550 0.1242480 16711746
0.0451790 -0.3707669 0.0380283 16711746
0.0533205 -0.4186211 0.0669807 16711746
0.0791278 -0.3576574 0.1306921 16711746
-0.0484269 -0.4784899 0.1562972 16711746
0.1630085 -0.3466738 0.0299509 16711746
0.0580186 -0.4561208 0.0531062 16711746
-0.0088780 -0.5812482 0.0553079 16711746
0.1729067 -0.2392957 -0.0437342 16711746
0.1891292 -0.2167897 -0.0278069 16711746
0.1587193 -0.1917706 0.0686831 16711746
-0.1294882 -0.3870459 -0.0537742 16711746
0.1850844 -0.1602650 -0.0375139 16711746
0.1957462 -0.1795074 -0.0374002 16711746
0.0072804 -0.4343943 0.1660473 16711746
0.0718375 -0.3328757 0.0699022 16711746
0.0678810 -0.3375432 0.0578868 16711746
0.1564737 -0.1821577 0.0512487 16711746
-0.0110223 -0.5082864 0.0638870 16711746
0.0239151 -0.3905744 0.0908249 16711746
0.0093607 -0.3902915 0.1359049 16711746
0.0953099 -0.3246496 0.0009226 16711746
0.0654189 -0.2869963 0.1519387 16711746
-0.0387524 -0.5065409 0.1005558 16711746
0.1174432 -0.2518398 -0.0269143 16711746
0.1352040 -0.2885128 0.0269811 16711746
0.0523072 -0.3728284 0.0293431 16711746
0.0602934 -0.3566279 0.0237014 16711746
0.0117478 -0.4101042 0.1513055 16711746
0.0156213 -0.4417194 0.0228781 16711746
0.0128394 -0.3647907 0.1275299 16711746
0.0837173 -0.3821619 0.0553223 16711746
0.1242461 -0.3029779 0.0106632 16711746
0.0904176 -0.3375204 0.0274374 16711746
0.0116960 -0.5637905 0.0144355 16711746
0.2283514 -0.2045137 0.0125960 16711746
0.0411912 -0.3524042 0.0725064 16711746
0.1109552 -0.3098143 -0.0163020 16711746
0.1029687 -0.2904842 -0.0260520 16711746
0.0487994 -0.3709205 -0.0289591 16711746
0.1959957 -0.2482532 0.1783609 16711746
0.0839491 -0.2951916 -0.0296209 16711746
0.1393962 -0.2729112 0.0311309 16711746
-0.0419149 -0.6259156 -0.0056629 16711746
0.1324733 -0.2264146 0.0210614 16711746
0.1581620 -0.1871645 0.0761824 16711746
0.1699529 -0.2257953 0.0874655 16711746
0.1326821 -0.3742957 -0.0122646 16711746
0.2001020 -0.1833663 0.0175452 16711746
0.2138284 -0.1362466 -0.0094711 16711746
-0.3565168 -0.5387632 -0.0263476 16711746
0.0865635 -0.2875389 0.1098725 16711746
0.0098428 -0.3655349 0.1379012 16711746
-0.0342627 -0.3278567 0.2957337 16711746
-0.0363914 -0.3314643 0.3000537 16711746
0.0672068 -0.4276556 0.0264396 16711746
0.0256631 -0.4112705 0.1153833 16711746
0.0015065 -0.3393325 0.0772392 16711746
0.0491740 -0.4707535 0.0849071 16711746
0.1973572 -0.2418507 0.0221194 16711746
0.1415122 -0.2880037 0.0375225 16711746
0.1312313 -0.2571141 0.0131356 16711746
0.0194116 -0.4642995 0.1044633 16711746
0.0602431 -0.2343670 0.1750579 16711746
0.2097674 -0.2455641 -0.0373504 16711746
0.0708902 -0.4810460 0.1328093 16711746
0.1366266 -0.2418833 0.0383314 16711746
0.1678074 -0.4154692 0.0462588 16711746
0.1027597 -0.2952722 0.1108126 16711746
0.0917265 -0.4220594 0.0301206 16711746
0.1226372 -0.2742950 -0.0194831 16711746
0.0428058 -0.3052542 0.0677463 16711746
0.0819295 -0.3050359 0.0490079 16711746
0.1324031 -0.2043535 -0.0100547 16711746
0.0929737 -0.3616444 0.0084630 16711746
0.1099972 -0.2834096 -0.0210792 16711746
0.0101855 -0.4629150 0.0565533 16711746
0.0766348 -0.2442321 -0.0220669 16711746
0.0880810 -0.3479468 0.0159995 16711746
0.1204231 -0.3601084 -0.0206861 16711746
0.1175241 -0.1363884 -0.0380470 16711746
0.1784682 -0.2239811 0.0015934 16711746
0.1016286 -0.2977331 0.0479731 16711746
0.0979631 -0.2435595 0.0994792 16711746
0.0807362 -0.3673390 0.0476203 16711746
0.0842954 -0.3085622 0.0189546 16711746
0.0487828 -0.3744056 0.0557813 16711746
0.0619605 -0.3600066 0.0034075 16711746
0.0191846 -0.3940921 0.1172651 16711746
0.0835779 -0.3625804 0.0261939 16711746
0.1381175 -0.3667602 0.0587311 16711746
0.0890129 -0.3070419 0.0365491 16711746
-0.0390439 -0.4494472 0.1417815 16711746
0.0948842 -0.3079699 -0.0038651 16711746
0.0963487 -0.3181198 0.0247005 16711746
-0.0486038 -0.9878787 0.1298804 16711746
0.1014855 -0.2345181 -0.0081377 16711746
0.0364967 -0.4802273 0.0267017 16711746
0.1243954 -0.3034663 -0.0045921 16711746
0.1160807 -0.2214975 0.0387187 16711746
-0.0072775 -0.2071741 -0.0639659 16711746
0.1908857 -0.2746221 0.0327364 16711746
0.1947856 -0.2017507 -0.0441468 16711746
0.1903861 -0.2517105 0.0158693 16711746
0.2452550 -0.2073259 0.0285583 16711746
0.2344638 -0.1853647 -0.0325657 16711746
0.1443324 -0.2640462 -0.0014706 16711746
0.1473347 -0.3020060 0.0550038 16711746
0.0890237 -0.4008252 -0.0445985 16711746
0.2360652 -0.1706978 -0.0076564 16711746
0.1039474 -0.3293096 0.0445788 16711746
0.1900083 -0.2730323 -0.0466515 16711746
0.1357922 -0.1529649 0.0315207 16711746
0.1264165 -0.1840720 0.0396101 16711746
0.1970882 -0.1617067 0.0319020 16711746
0.1852053 -0.2604107 0.0267242 16711746
0.1748332 -0.3032207 0.0285550 16711746
0.1391398 -0.2159341 0.0633514 16711746
0.2198843 -0.2124841 0.0348101 16711746
0.1213510 -0.3394016 0.0728310 16711746
0.1935918 -0.2420717 0.0024049 16711746
0.1870313 -0.2444633 0.0042050 16711746
0.1959352 -0.2184328 -0.0622545 16711746
-0.1486221 -0.2220762 -0.0512376 16711746
0.2209802 -0.1849952 0.0119198 16711746
0.2124739 -0.1963301 -0.0453275 16711746
0.1569793 -0.3205095 0.0186471 16711746
0.2253005 -0.1811126 0.0032590 16711746
0.2068857 -0.2080687 -0.0309289 16711746
0.1979067 -0.2304336 -0.0299234 16711746
0.1442751 -0.2661424 -0.0008714 16711746
0.1828532 -0.2348180 -0.0210651 16711746
0.1752135 -0.2721532 -0.0406852 16711746
0.2112010 -0.1868410 -0.0665331 16711746
0.2142365 -0.2686144 0.0005609 16711746
0.1706261 -0.3093864 -0.0119285 16711746
0.1001945 -0.2656591 0.0639659 16711746
0.2374859 -0.1722007 -0.0069558 16711746
0.1465560 -0.2793634 -0.0266610 16711746
0.1855274 -0.2915090 -0.0298123 16711746
0.1644887 -0.2168244 -0.0469787 16711746
0.1647021 -0.2792789 -0.0420356 16711746
0.2058454 -0.2481917 0.0672797 16711746
0.1253814 -0.1293889 -0.0158685 16711746
0.2130679 -0.2247968 0.0516427 16711746
0.2103611 -0.2445175 -0.0033439 16711746
0.1269607 -0.2063481 0.0388048 16711746
0.2318022 -0.1387967 -0.0732320 16711746
0.1953377 -0.1896216 -0.0349849 16711746
0.1965124 -0.2150197 -0.0343604 16711746
0.1222489 -0.3067179 0.0778297 16711746
0.0915696 -0.3584387 -0.0576716 16711746
0.1246468 -0.3131600 0.0136846 16711746
0.2110693 -0.1937139 -0.0280574 16711746
0.1365535 -0.2510915 0.0248423 16711746
0.1819474 -0.2983523 0.0006606 16711746
0.2452697 -0.1813410 -0.0282700 16711746
0.1892219 -0.1510029 -0.0129451 16711746
0.1522185 -0.2445275 0.0347394 16711746
0.2234922 -0.2054648 -0.0369824 16711746
0.2273133 -0.1938022 -0.0509182 16711746
0.2059287 -0.2220860 -0.0411393 16711746
0.1985013 -0.3249967 -0.0001554 16711746
0.1803071 -0.3504182 -0.0024767 16711746
0.1121101 -0.3662766 -0.0053508 16711746
0.2453167 -0.1802568 -0.0034201 16711746
0.1733002 -0.2560378 -0.0635953 16711746
0.1053489 -0.3877290 -0.0183243 16711746
0.0636578 -0.3886857 -0.0399505 16711746
0.1709531 -0.2148004 0.0190247 16711746
0.2159377 -0.1883987 0.0520844 16711746
0.2042869 -0.1666266 0.0188100 16711746
0.1934284 -0.2227429 0.0510307 16711746
0.1937683 -0.1723911 0.0115811 16711746
0.1827571 -0.2431612 0.0285437 16711746
0.1981160 -0.1557278 -0.0045975 16711746
0.1196210 -0.3250291 0.0661445 16711746
0.2237712 -0.1917434 0.0358210 16711746
0.2022097 -0.1737462 -0.0231847 16711746
0.1956625 -0.3194341 -0.0015568 16711746
0.1903131 -0.2315178 -0.0293895 16711746
0.2199046 -0.1785463 -0.0698517 16711746
0.1887185 -0.2815328 -0.0593412 16711746
0.1754840 -0.2976519 -0.0262040 16711746
0.1537296 -0.2983457 -0.0337880 16711746
0.1824727 -0.2903463 -0.0452542 16711746
0.2031920 -0.1818732 -0.0310861 16711746
0.2290866 -0.2094053 0.0059607 16711746
0.2099259 -0.2003682 0.0077630 16711746
0.2149346 -0.2397875 0.0283762 16711746
0.1212322 -0.3450432 0.0330759 16711746
0.0741615 -0.4059334 0.0101033 16711746
0.1610897 -0.2852031 -0.0096290 16711746
0.2115830 -0.1886885 -0.0404716 16711746
0.1523636 -0.3535791 -0.0195662 16711746
0.2022382 -0.2781602 -0.0465345 16711746
0.0840453 -0.4228661 -0.0309233 16711746
0.1948685 -0.3220183 -0.0254386 16711746
0.1658510 -0.2021820 0.0126660 16711746
0.1492643 -0.1348092 0.0668324 16711746
0.2222389 -0.1963933 0.0582698 16711746
0.2027778 -0.2434540 0.0642513 16711746
0.1412998 -0.2293485 0.0730116 16711746
0.1472316 -0.3322341 -0.0518682 16711746
0.1254681 -0.3215989 -0.0522714 16711746
0.1777419 -0.2071460 -0.0472076 16711746
0.1493059 -0.2972625 -0.0241971 16711746
0.1794122 -0.3258627 0.0870667 16711746
0.2227075 -0.1775545 -0.0067406 16711746
0.1722767 -0.1918600 -0.0379877 16711746
0.1558028 -0.2129564 -0.0226521 16711746
0.1267041 -0.3931337 0.0008528 16711746
0.0829841 -0.4119655 -0.0325098 16711746
0.0285403 -0.5206760 -0.0234896 16711746
0.2445416 -0.2330727 -0.0042165 16711746
0.2605197 -0.2133122 -0.0116699 16711746
0.2418159 -0.2130940 -0.0527553 16711746
0.1719818 -0.1001913 0.0274286 16711746
0.1581548 -0.1538165 0.0889717 16711746
0.2141435 -0.1782254 0.0262261 16711746
0.1727592 -0.2659365 0.0824495 16711746
0.2033505 -0.2420013 0.0625062 16711746
0.1716095 -0.2245464 0.0842355 16711746
0.1411128 -0.2268774 0.0706413 16711746
0.2055245 -0.3829887 0.0224752 16711746
0.1813133 -0.2341610 -0.0214255 16711746
0.2228645 -0.1803562 -0.0439661 16711746
0.2407099 -0.1822083 -0.0480183 16711746
0.2407418 -0.1612550 -0.0514942 16711746
0.2509528 -0.2221387 -0.0006954 16711746
0.1094045 -0.5256463 -0.0280811 16711746
0.0596862 -0.3794468 -0.0455258 16711746
0.1302870 -0.2396396 0.0068206 16711746
0.1488704 -0.3677265 0.0533918 16711746
0.2162371 -0.2556690 -0.0293851 16711746
0.1467559 -0.2575690 -0.0524554 16711746
0.2838499 -0.1798445 -0.0093560 16711746
0.2677386 -0.1751206 -0.0274263 16711746
0.2449003 -0.2171766 0.0260442 16711746
0.1375471 -0.2252355 -0.0106867 16711746
0.1850454 -0.2203258 -0.0202221 16711746
0.2145477 -0.1792822 0.0276878 16711746
0.2248634 -0.1997955 0.0603081 16711746
0.1833721 -0.3049843 0.1073571 16711746
0.1744694 -0.2563060 0.0920175 16711746
0.1560376 -0.2264167 -0.0363766 16711746
0.2554349 -0.2120568 -0.0342215 16711746
0.2757666 -0.2459320 -0.0328740 16711746
0.1851019 -0.2287044 -0.0448673 16711746
0.2453551 -0.2017836 -0.0023581 16711746
0.1804058 -0.3357395 -0.0031004 16711746
0.2401652 -0.2379570 -0.0185082 16711746
0.1608744 -0.4912702 -0.0043537 16711746
0.1883624 -0.3065881 -0.0273063 16711746
0.2196679 -0.2644410 -0.0280980 16711746
0.2237236 -0.2316051 0.0187503 16711746
0.2347958 -0.1968031 0.0031792 16711746
0.2626343 -0.1789264 -0.0049011 16711746
0.3328780 -0.2467867 -0.0429991 16711746
0.1229638 -0.1845778 0.0859970 16711746
0.1893393 -0.1304967 0.0333515 16711746
0.1876429 -0.2892315 -0.0237073 16711746
0.1658164 -0.2522333 -0.0320757 16711746
0.1618602 -0.1749817 -0.0540974 16711746
0.2730351 -0.2652141 -0.0177310 16711746
0.1672662 -0.3479914 0.0425492 16711746
0.0555219 -0.4900857 -0.0137050 16711746
0.3199234 -0.2837121 -0.0430461 16711746
0.1035571 -0.4222510 0.0705926 16711746
0.2415820 -0.3060704 0.0167701 16711746
0.2393865 -0.1560131 -0.0098857 16711746
0.2583628 -0.2617549 -0.0130998 16711746
0.1894268 -0.1662969 0.0085115 16711746
0.2220187 -0.1462024 0.0610947 16711746
0.2015676 -0.2596794 0.0087441 16711746
0.2066613 -0.2210148 0.0097242 16711746
0.2293310 -0.1792468 -0.0082858 16711746
0.1456447 -0.2740697 -0.0277655 16711746
0.2353136 -0.2307838 -0.0400696 16711746
0.2288460 -0.1861316 0.0054721 16711746
0.1509355 -0.2535326 -0.0145015 16711746
0.1995931 -0.1667581 0.0268510 16711746
0.1651857 -0.2836069 0.0125393 16711746
0.1180077 -0.2260574 -0.0431898 16711746
0.2623754 -0.2838032 -0.0074046 16711746
0.1768789 -0.2667981 -0.0046858 16711746
0.2456185 -0.1675472 0.0222188 16711746
0.2424227 -0.2045626 0.0049940 16711746
0.2320874 -0.2094128 0.0149756 16711746
0.2491772 -0.2144009 -0.0628221 16711746
0.1384767 -0.2175666 0.0648165 16711746
0.2249663 -0.1983480 0.0095217 16711746
0.2088654 -0.1827524 0.0376606 16711746
0.0972460 -0.2702388 0.1202083 16711746
0.1312423 -0.2767548 0.0144993 16711746
0.0783241 -0.3408540 0.1201490 16711746
0.0591658 -0.2719614 0.0082256 16711746
0.0989114 -0.3851097 0.1296427 16711746
0.1808720 -0.2610369 0.1164996 16711746
0.1138184 -0.1138140 0.0478108 16711746
-0.1409787 -0.2695713 -0.0236489 16711746
0.0313001 -0.3520569 0.1409130 16711746
0.0704431 -0.3667862 0.0797228 16711746
0.0801572 -0.2330736 0.0247344 16711746
0.0185908 -0.3768846 -0.0070221 16711746
0.1024755 -0.1822020 0.1060492 16711746
-0.0841335 -0.5789010 0.1891660 16711746
0.1198600 -0.7328791 -0.0193009 16711746
-0.0016517 -0.5801187 0.1508116 16711746
-0.2176981 -0.6738527 0.1919923 16711746
-0.3635307 -0.6415911 0.3339880 16711746
-0.1217308 -0.4674193 0.2801012 16711746
0.1019610 -0.1696658 0.0920014 16711746
0.0977656 -0.2774196 0.1260043 16711746
-0.1843655 -0.9174447 -0.0046542 16711746
0.1575217 -0.6066306 0.0590087 16711746
0.0436265 -0.6876737 0.1045981 16711746
-0.0382877 -0.7303898 0.1224636 16711746
-0.3031043 -0.8842320 0.2133586 16711746
-0.1757245 -0.4265386 0.4568528 16711746
-0.2745361 -0.5639840 0.3780433 16711746
0.1827848 -0.5325357 0.0084729 16711746
-0.2070769 -0.7619727 0.1138055 16711746
-0.0265526 -0.4985444 0.2180227 16711746
0.2184628 -0.5956271 -0.0229138 16711746
-0.0581417 -0.7932472 0.0732932 16711746
-0.0826543 -1.0914816 -0.0198412 16711746
0.1418702 -0.6424567 0.0335785 16711746
-0.5707182 -1.1572152 -0.0357727 16711746
-0.4734175 -1.2428951 -0.0368015 16711746
0.1816513 -0.6092398 -0.0118781 16711746
0.0683419 -0.2864809 0.1533057 16711746
-0.1248486 -0.4542793 0.3039298 16711746
0.0757619 -0.4260893 0.1728230 16711746
-0.2640700 -0.4050750 0.4735851 16711746
0.0972529 -0.2763974 0.1252260 16711746
-0.0346456 -0.6279879 0.1656482 16711746
0.1556063 -0.5675380 -0.0036291 16711746
-0.1949270 -0.4836099 0.3904464 16711746
-0.0819930 -0.8030214 0.0128409 16711746
0.1578917 -0.6025976 0.0582323 16711746
0.1018108 -0.2006699 0.1248264 16711746
0.1037467 -0.2980663 0.1271228 16711746
-0.3818292 -0.4416290 0.4649365 16711746
-0.2440403 -0.4252663 0.4708446 16711746
-0.0069755 -0.7588202 0.0167086 16711746
0.0981588 -0.3504774 0.1114558 16711746
-0.1919887 -0.7636343 0.0992727 16711746
0.1899058 -0.6167853 0.0569895 16711746
-0.1057823 -0.7341464 0.1794877 16711746
-0.5487463 -0.8427708 0.5008875 16711746
0.1218151 -0.1472847 0.0836491 16711746
0.1119300 -0.2271238 0.0876459 16711746
-0.0331252 -0.7125902 0.0942525 16711746
0.1232675 -0.6242337 0.0446049 16711746
0.1125626 -0.6409793 0.0058835 16711746
0.1043762 -0.5227398 0.1073857 16711746
-0.2035886 -0.7160800 0.1129238 16711746
0.2665992 -0.4084078 0.0045130 16711746
-0.1629360 -0.7354000 0.1242711 16711746
-0.2161162 -0.7724602 0.1166049 16711746
0.1510373 -0.6086704 -0.0011122 16711746
-0.4547701 -0.7241979 0.4149750 16711746
0.0048751 -0.6406663 0.1503037 16711746
-0.0480319 -0.2811024 0.2776099 16711746
0.0167886 -0.3386982 0.1239397 16711746
-0.0059463 -0.2636873 0.2168834 16711746
-0.2103829 -0.4731395 0.3016848 16711746
0.2822913 -0.8337409 0.0148530 16711746
0.1224080 -0.8208156 0.0165556 16711746
-0.1185139 -0.5130585 0.2218587 16711746
0.3597926 -0.7777208 0.0192413 16711746
0.0645128 -0.8198954 0.0272907 16711746
0.1561684 -0.3778434 0.0426118 16711746
0.1526711 -0.6267765 0.1055313 16711746
-0.1090352 -0.3316039 0.3290558 16711746
-0.0224436 -0.2994224 0.2597249 16711746
-0.2343925 -0.4816306 0.3598595 16711746
-0.3450056 -0.4601556 0.2980076 16711746
-0.1636041 -0.6137566 0.2115468 16711746
0.2720267 -0.3929878 0.1485975 16711746
-0.0376933 -0.8048007 0.0015369 16711746
-0.1826514 -0.4093980 0.2938815 16711746
0.2290800 -0.7247279 0.0953381 16711746
0.1046792 -0.5594859 0.0841788 16711746
-0.4814325 -0.4646316 0.2689942 16711746
-0.4144652 -0.6923015 -0.0452108 16711746
-0.5344326 -0.7809525 -0.0337714 16711746
-0.5040417 -0.4423979 0.3356501 16711746
-0.4404010 -0.4345358 0.2444548 16711746
0.2066128 -0.6481088 0.0326312 16711746
-0.2536477 -0.5489579 0.0891845 16711746
-0.3594744 -0.4748083 0.3093809 16711746
-0.3729532 -0.3866962 -0.0151413 16711746
-0.3286804 -0.4756024 0.0337144 16711746
-0.3307503 -0.5973327 0.1864991 16711746
-0.2775981 -0.5383099 0.1700915 16711746
-0.6390445 -0.5996510 0.0580528 16711746
-0.4528673 -0.5011344 0.0284179 16711746
-0.3413367 -0.4395220 -0.0020497 16711746
-0.3762464 -0.5568963 -0.0440926 16711746
-0.3522331 -0.5584087 0.0428287 16711746
-0.3806829 -0.4599727 0.1905780 16711746
-0.4425806 -0.3758765 0.2711352 16711746
-0.3919534 -0.5753474 -0.0431674 16711746
-0.4283438 -0.5533007 0.2998527 16711746
-0.3347661 -0.5789933 -0.0373836 16711746
-0.1847676 -0.6674073 0.2386136 16711746
-0.1640117 -0.5295643 0.2969747 16711746
-0.1542420 -0.5752783 0.2696202 16711746
0.0123507 -0.4046789 0.1517427 16711746
-0.0845306 -0.5638058 0.2163691 16711746
-0.2529243 -0.5073995 0.3859216 16711746
-0.2532433 -0.4581434 0.4018545 16711746
-0.0746655 -0.5406653 0.2341581 16711746
0.0095641 -0.6997235 0.1371164 16711746
-0.3676966 -0.6194801 0.3453909 16711746
0.1416382 -0.6165859 0.0454510 16711746
0.1000060 -0.4587032 0.1291366 16711746
-0.3431025 -0.6545338 0.2664584 16711746
-0.0242534 -0.3023469 0.2645795 16711746
-0.4023195 -0.7777123 0.1515578 16711746
-0.4380409 -0.5597641 0.3036272 16711746
0.1352378 -0.5448301 0.0966591 16711746
-0.3535807 -0.6405265 0.2155981 16711746
-0.1877541 -0.4780852 -0.0452323 16711746
-0.0338422 -0.2965890 0.2932165 16711746
0.1243962 -0.1913583 0.0920663 16711746
-0.1673833 -0.8676258 -0.0091585 16711746
-0.2136649 -0.7706943 0.1165354 16711746
-0.3133971 -0.8202200 0.1478999 16711746
-0.2327100 -0.5092789 0.3315867 16711746
-0.3394578 -0.5141683 -0.0446267 16711746
-0.3418308 -0.4891412 0.0365675 16711746
-0.4741420 -0.4326022 0.0675884 16711746
-0.4403269 -0.5748017 0.2752735 16711746
-0.3635958 -0.5422406 -0.0436628 16711746
-0.1587642 -0.5009927 0.3073815 16711746
-0.3545975 -0.6147889 0.4215794 16711746
-0.4678099 -0.7333032 0.0116810 16711746
-0.2877298 -0.6415970 -0.0009318 16711746
-0.4325163 -0.4978421 0.2704538 16711746
-0.3847520 -0.6344340 0.1207657 16711746
-0.5423892 -0.5757120 0.1138262 16711746
-0.4905143 -0.5376907 0.0208809 16711746
-0.3260151 -0.6694232 0.1240066 16711746
-0.6149730 -0.5827955 0.1563819 16711746
-0.2195631 -0.4572873 0.1349696 16711746
0.0989569 -0.0346035 -0.0612263 16711746
-0.5357531 -0.4012711 0.2639878 16711746
-0.3489309 -0.5964233 -0.0522789 16711746
-0.3591128 -0.4780516 0.2743714 16711746
-0.4858878 -0.5837424 -0.0139314 16711746
-0.2566292 -0.2204026 0.0270104 16711746
-0.4279842 -0.2226124 0.3217200 16711746
-0.2830392 -0.3511953 0.0412618 16711746
-0.5101585 -0.3152859 0.1854142 16711746
-0.5670820 -0.6589905 0.0289250 16711746
-0.4958782 -0.4386311 0.3936201 16711746
-0.5064926 -0.4310002 0.0433031 16711746
-0.3958267 -0.6041777 0.0046188 16711746
-0.4153470 -0.5713794 -0.0080948 16711746
-0.4322332 -0.4901777 0.0133289 16711746
-0.4712517 -0.5291403 -0.0059053 16711746
-0.5924526 -0.5659410 0.1490207 16711746
-0.3803185 -0.5199680 0.2861258 16711746
-0.3644362 -0.4191521 0.0602366 16711746
-0.5746841 -0.5621181 -0.0071772 16711746
-0.0998636 -0.3451882 -0.0468548 16711746
-0.4238371 -0.4347723 0.2816160 16711746
-0.3770714 -0.4303052 0.2402145 16711746
-0.3465250 -0.5445739 -0.0191157 16711746
-0.4752529 -0.4022398 0.1389689 16711746
-0.4896327 -0.5514443 0.0321538 16711746
-0.3548614 -0.3924637 -0.0009687 16711746
-0.4629851 -0.5679477 0.0149824 16711746
-0.3689035 -0.5401527 -0.0311747 16711746
-0.3735716 -0.4666682 0.1511979 16711746
-0.2017817 -0.6201822 0.0694116 16711746
-0.0520910 -0.2737716 -0.0400979 16711746
-0.3082044 -0.4365740 0.0041654 16711746
-0.6571205 -0.4803238 0.4375419 16711746
-0.4848104 -0.4286422 0.2837318 16711746
-0.4801062 -0.4609446 0.4441235 16711746
-0.5214594 -0.3903881 0.2551425 16711746
-0.7360280 -0.5278036 0.4912846 16711746
-0.4667666 -0.6281679 -0.0018872 16711746
-0.4218662 -0.4005500 0.2822258 16711746
-0.5110993 -0.3221112 0.1896102 16711746
-0.3107871 -0.4912676 -0.0482427 16711746
-0.4647895 -0.3887098 0.1139907 16711746
-0.2590756 -0.4236661 -0.0328546 16711746
-0.3954301 -0.4245179 0.0187798 16711746
-0.5201260 -0.6458786 0.0404117 16711746
-0.4316392 -0.4728549 0.2740358 16711746
-0.6650170 -0.4843321 0.2480107 16711746
-0.7169309 -0.4919770 0.2347067 16711746
-0.4834190 -0.3720146 0.0760931 16711746
-0.2855527 -0.5741830 0.2204892 16711746
-0.2825564 -0.4116742 0.1427815 16711746
-0.4990458 -0.5202639 0.4890070 16711746
-0.4646857 -0.3867492 0.2830071 16711746
-0.4113793 -0.4820711 -0.0141800 16711746
-0.5334210 -0.7009622 0.0412765 16711746
-0.3541771 -0.4868891 -0.0186636 16711746
-0.5479913 -0.5177568 -0.0035873 16711746
-0.4690556 -0.3923691 0.1332534 16711746
-0.3714978 -0.4492494 0.0131565 16711746
-0.6668277 -0.4962267 0.2438311 16711746
-0.3682598 -0.4701817 -0.0248038 16711746
-0.4123832 -0.4326187 -0.0212640 16711746
-0.4892322 -0.4374824 0.2818001 16711746
-0.5265458 -0.5344232 0.0323186 16711746
-0.1932644 -0.6872189 0.2469921 16711746
-0.4042049 -0.6932635 0.3683779 16711746
-0.1385278 -0.7467287 0.1870357 16711746
-0.0731693 -0.5760446 0.2593769 16711746
-0.0632060 -0.5289721 0.1789754 16711746
0.1042130 -0.3405607 0.1397448 16711746
0.0683698 -0.7369767 0.0532011 16711746
-0.0151662 -0.8247886 0.0049465 16711746
0.1034917 -0.5439373 0.1283852 16711746
-0.2194641 -0.7421244 0.2724922 16711746
-0.1727951 -0.5174981 0.3236218 16711746
0.1080883 -0.2440918 0.1267865 16711746
0.1754492 -0.5060578 0.1027526 16711746
0.0561603 -0.6901494 0.0736419 16711746
0.0706951 -0.7058551 0.0472174 16711746
0.1615658 -0.2908150 0.1000874 16711746
0.1152444 -0.2711958 0.1484096 16711746
0.1289052 -0.5729149 0.1231149 16711746
-0.1965555 -0.4135070 0.3909525 16711746
0.2873552 -0.4924481 0.0066241 16711746
-0.1671612 -0.7462515 0.1283846 16711746
0.0310774 -0.7497165 0.1386107 16711746
-0.4397954 -1.0328439 0.1070220 16711746
0.2148438 -0.5560213 0.0750885 16711746
0.2720512 -0.5336099 -0.0082122 16711746
-0.6919283 -1.1305175 0.2095504 16711746
-0.2299973 -0.4767282 0.0087650 16711746
-0.1869350 -0.6053943 -0.0119996 16711746
-0.2840846 -0.4293225 0.0224163 16711746
-0.3333558 -0.4681252 -0.0284938 16711746
-0.6536090 -0.6195151 0.0731376 16711746
-0.3607965 -0.4501549 0.2004443 16711746
-0.5948032 -0.4358578 0.2008075 16711746
-0.1899290 -0.5816689 0.0357322 16711746
-0.1947211 -0.4389402 -0.0494548 16711746
-0.4918191 -0.4003931 0.3050119 16711746
-0.5625486 -0.5378738 0.4352326 16711746
-0.2050368 -0.3215885 0.1840331 16711746
-0.4070531 -0.7126649 0.2505751 16711746
-0.6561243 -0.5561620 0.1002082 16711746
-0.3853981 -0.5039118 0.2914791 16711746
-0.5389815 -0.5654599 0.3389038 16711746
-0.2684190 -0.4082273 0.0133401 16711746
-0.1279942 -0.6648938 0.2068331 16711746
0.0799438 -0.4563045 0.1397220 16711746
-0.3909812 -0.5182999 0.4411166 16711746
-0.5363542 -0.4543701 0.3149531 16711746
-0.4851073 -0.4933071 0.3778731 16711746
0.0638566 -0.4122447 0.1560892 16711746
-0.5077520 -0.4853106 0.2848427 16711746
-0.0569141 -0.7204219 0.0312912 16711746
0.1680938 -0.3550275 0.0994501 16711746
-0.2074509 -0.3907101 0.4184646 16711746
0.1782204 -0.2867914 0.0948801 16711746
-0.1031944 -0.3237155 0.3034417 16711746
-0.5162845 -0.5045706 0.3990410 16711746
-0.3789806 -0.4582856 0.1880110 16711746
-0.2585432 -0.5348200 0.2047943 16711746
-0.2662977 -0.4724157 0.1594984 16711746
-0.4762094 -0.4533810 -0.0266938 16711746
-0.3302119 -0.4760228 0.3572389 16711746
-0.4631382 -0.6027133 0.3492400 16711746
-0.6567196 -0.5394239 0.2099668 16711746
-0.5534490 -0.5407355 0.3706326 16711746
-0.5539845 -0.4136464 0.1808691 16711746
-0.3496304 -0.2906947 0.0280857 16711746
-0.5143890 -0.4386253 0.3625468 16711746
-0.4273532 -0.5667812 0.3224279 16711746
-0.6784605 -0.4591646 0.2286434 16711746
-0.5081254 -0.5471226 0.3217960 16711746
-0.5706449 -0.5309736 0.3215147 16711746
-0.4050365 -0.3328746 0.0984604 16711746
-0.6359857 -0.4343985 0.2618474 16711746
-0.3309019 -0.5647932 0.1235579 16711746
-0.0657155 -0.7399066 0.0571696 16711746
-0.4055888 -0.4549941 0.0878918 16711746
-0.6140139 -0.4211108 0.2266769 16711746
-0.3192870 -0.4432383 0.4383589 16711746
-0.5671270 -0.3974097 0.2072797 16711746
-0.4324151 -0.5177996 0.2389934 16711746
-0.4295498 -0.5027467 0.2172235 16711746
-0.5166619 -0.3649822 0.2078650 16711746
-0.5531906 -0.5423765 0.0526925 16711746
-0.4778037 -0.3714435 0.1873045 16711746
0.1416288 -0.3062862 0.0990530 16711746
0.2347197 -0.4796621 0.0125289 16711746
-0.1775941 -0.3034206 -0.0217435 16711746
-0.3006095 -0.3509789 0.0018780 16711746
-0.1612781 -0.1762652 -0.0119732 16711746
0.1616084 -0.3941540 0.0661973 16711746
0.1419891 -0.3949059 0.0739396 16711746
0.3667363 -0.5524706 0.0074948 16711746
-0.0704060 -0.9091572 0.3501942 16711746
0.1103011 -0.6032833 0.0157064 16711746
0.0255781 -0.7810123 -0.0055828 16711746
0.1672768 -0.3754819 0.0501325 16711746
-0.0289386 -0.5083072 0.2253539 16711746
-0.0052184 -0.7072178 0.0734897 16711746
0.0214379 -0.7399495 -0.0165474 16711746
0.2531303 -0.4040962 -0.0319718 16711746
0.1204820 -0.5153208 0.0615395 16711746
0.0281789 -0.7477655 0.0182942 16711746
0.2408512 -0.4848408 0.0063654 16711746
0.2310974 -0.4456491 -0.0005305 16711746
0.0344201 -0.7682635 0.0952555 16711746
0.0638316 -0.4125833 0.1552176 16711746
0.1101546 -0.7002193 -0.0129717 16711746
0.1324078 -0.6375498 0.0002930 16711746
0.1153016 -0.2626457 0.1189112 16711746
0.1894885 -1.0448828 0.0401691 16711746
0.1414751 -0.9685256 0.1322831 16711746
-0.0644010 -0.6731730 0.4628652 16711746
-0.2452376 -0.8201304 0.1473379 16711746
0.0719881 -0.8871233 0.3992747 16711746
-0.1984623 -0.9404512 0.3005759 16711746
-0.2165233 -0.9807356 0.2710664 16711746
0.4050733 -1.0554821 0.1856628 16711746
-0.5903875 -0.6111731 0.7024316 16711746
-0.1043038 -0.9987583 0.3651221 16711746
-0.1275937 -0.2309315 0.0911105 16711746
-0.5835606 -0.4839061 0.3458573 16711746
-0.7969761 -0.6013018 0.4883533 16711746
-0.7859236 -0.9224237 0.0451382 16711746
-0.0479659 -0.8889699 0.1499587 16711746
-0.7180640 -0.6645800 0.0854259 16711746
0.1849915 -0.6991027 0.0098762 16711746
0.0932434 -1.2921206 0.0569732 16711746
-0.5220473 -0.7875796 0.0071740 16711746
-0.6730090 -0.5359072 0.5495821 16711746
-0.1229863 -0.4051181 0.4465950 16711746
-0.1141662 -0.4061736 0.4288027 16711746
-0.0683786 -0.6544393 0.2419899 16711746
-0.4825965 -0.4987426 0.3194634 16711746
-0.9718227 -0.7061700 0.5953701 16711746
-0.1674952 -1.1991322 0.2404879 16711746
-0.1419287 -1.1173335 0.0871214 16711746
-0.4057971 -0.6199484 0.5738782 16711746
-0.3280571 -1.2304345 -0.0445074 16711746
0.3680124 -1.0645506 0.0369268 16711746
-0.5676598 -0.5078253 0.5077854 16711746
-0.4296604 -1.1431690 -0.0364838 16711746
-0.2432347 -0.9939054 0.1649828 16711746
-0.1933993 -0.4613433 0.5429058 16711746
-0.3405407 -0.6600365 0.4578273 16711746
-0.2574605 -1.1449296 0.0184044 16711746
0.0115621 -1.0667113 0.1288327 16711746
-0.3806598 -0.7101484 0.2937139 16711746
-0.4210769 -0.4655097 0.5191277 16711746
0.4151587 -1.0137824 0.0710155 16711746
-0.0661923 -0.6990731 0.3007928 16711746
0.2199073 -1.0597056 0.0061524 16711746
-0.5958019 -0.9505745 0.2291300 16711746
0.3421051 -1.1987288 -0.0100388 16711746
0.1413104 -0.6710492 0.2207264 16711746
-0.3589635 -1.0236417 0.0043065 16711746
-0.1749618 -1.0404683 0.2350231 16711746
0.2778764 -0.9407701 0.2367736 16711746
0.2977741 -0.8724258 0.1147343 16711746
-0.3400638 -0.8690662 0.1620793 16711746
-0.4254792 -0.6756586 0.0162822 16711746
0.5939537 -1.0402259 0.0791182 16711746
0.3115560 -1.2449814 0.1330859 16711746
-0.7912405 -0.8289831 0.1345678 16711746
-0.4868999 -0.6432700 0.0638041 16711746
-0.5622703 -0.5420274 0.4374167 16711746
0.4605657 -0.7784124 0.3696846 16711746
-0.1819865 -0.4659533 0.3777480 16711746
-0.3353212 -0.6760570 0.1422353 16711746
-0.4140742 -0.7839611 0.1563739 16711746
-0.3259372 -0.4213785 0.3945753 16711746
-0.5724059 -0.4193313 0.2786196 16711746
-0.5587043 -0.7702491 0.5376067 16711746
-0.6296102 -0.6498739 0.7543400 16711746
-0.7313784 -1.3368042 -0.0153857 16711746
-0.1137549 -1.0750681 -0.0262239 16711746
-0.6822193 -0.7861019 0.5734891 16711746
-0.5017236 -0.8799821 0.2767230 16711746
-0.1489690 -0.9195511 0.0731241 16711746
-0.6138340 -1.0170193 0.1890301 16711746
0.0403254 -1.1525970 0.3147291 16711746
-0.6286098 -1.2408901 0.1541243 16711746
-0.5121582 -1.1964977 0.2464410 16711746
-0.3746084 -0.9479128 0.1461925 16711746
-0.6510765 -1.2615299 0.1537472 16711746
-0.4418781 -1.0605577 0.1234772 16711746
-1.4570506 -1.5373429 0.8632630 16711746
-0.8258488 -1.6018269 -0.1170357 16711746
0.0419326 -0.9631974 0.0740198 16711746
-0.0242272 -0.8596006 0.0309106 16711746
-0.6108218 -1.2147112 0.1500459 16711746
-0.5849463 -1.2938632 -0.0226764 16711746
0.1712096 -0.8574268 0.0602076 16711746
-0.5393223 -0.7535324 0.5199272 16711746
0.1382638 -1.0146861 0.1175146 16711746
-0.1721324 -1.0230047 0.0877534 16711746
-0.5908341 -0.6405351 0.4011201 16711746
0.0546497 -1.2251074 0.1825209 16711746
-0.6005296 -0.6109252 0.1570791 16711746
-0.0677190 -1.6528375 0.1233658 16711746
-0.4625112 -0.6606742 0.0042919 16711746
-0.2301916 -0.7304658 0.3898366 16711746
-0.4568109 -0.5769120 0.6045465 16711746
0.5435491 -1.2978320 0.0859456 16711746
0.3510181 -0.9622148 -0.0137295 16711746
-0.4297229 -1.1502985 0.2977192 16711746
-0.3565620 -0.5616585 0.5665925 16711746
0.2412858 -1.2364225 0.0921428 16711746
0.2888559 -0.7236550 0.1400026 16711746
-0.9842738 -0.8072827 0.6548051 16711746
-0.7045009 -0.7196439 0.6987990 16711746
-0.5164021 -0.6259264 0.6860001 16711746
0.0780631 -0.8886147 0.1784425 16711746
-0.5786328 -0.6070142 0.7371320 16711746
-0.6885696 -1.3359710 0.1731440 16711746
0.1354092 -1.1547772 -0.0254803 16711746
-0.7885391 -1.3738693 0.0882704 16711746
0.0720151 -1.0728183 -0.0006156 16711746
-0.2273993 -1.1805331 -0.0498847 16711746
-0.6119746 -1.3514684 -0.0608579 16711746
0.0330175 -0.8596119 0.2245270 16711746
-0.7653943 -0.9001371 0.4777286 16711746
-0.3706592 -1.5981263 -0.0098206 16711746
0.5832431 -1.1498967 0.0649628 16711746
0.1513939 -0.9541172 0.1554627 16711746
0.7511272 -1.1337974 0.0896825 16711746
1.0616933 -1.1113449 0.0105877 16711746
0.4486167 -0.8337744 0.0358281 16711746
-0.7819731 -1.2477274 0.2386046 16711746
-0.5039042 -0.5867405 0.5888793 16711746
0.3182304 -1.4236051 0.1091763 16711746
0.6378428 -0.7814909 0.3906115 16711746
0.3122013 -1.1272286 0.7296910 16711746
-0.3215386 -1.2176515 -0.0448295 16711746
-0.6629447 -1.0539204 -0.0266312 16711746
0.0121281 -1.1194358 0.5396839 16711746
0.0466912 -0.8772974 0.4363028 16711746
0.0817366 -1.0396512 0.7255774 16711746
0.4781845 -1.1215574 0.8205423 16711746
-0.0747416 -1.3380743 0.4594448 16711746
0.0970612 -1.3452204 0.4577538 16711746
-0.0222281 -1.4606674 0.5325531 16711746
0.1833362 -1.1486357 0.5053461 16711746
-0.7707097 -1.0488242 -0.0079318 16711746
0.3678303 -1.4230201 1.2422994 16711746
0.1595736 -0.9419673 0.3421709 16711746
-0.0635466 -1.0674975 0.1431211 16711746
0.0120629 -1.5050359 0.7435361 16711746
0.7349866 -1.0712150 0.5025660 16711746
-0.8296458 -1.1196413 0.0089709 16711746
-1.1092609 -0.9781266 0.1464902 16711746
-0.6288954 -0.7446522 0.8068534 16711746
-0.7228354 -1.2279721 -0.0157343 16711746
0.5536488 -1.2869724 0.4986451 16711746
0.3422482 -1.2753955 0.8445730 16711746
-0.3761570 -0.7073598 0.8187930 16711746
0.5658205 -0.6955704 0.3783321 16711746
-0.5723401 -0.5927750 0.1320716 16711746
0.5788990 -1.3067651 0.5115921 16711746
-1.1926358 -1.1056559 0.1457299 16711746
0.2309455 -1.1455159 0.0526118 16711746
-0.7717933 -0.9426683 0.0251174 16711746
-0.0259203 -1.4078883 0.2765154 16711746
-0.6689293 -1.1991377 -0.0407192 16711746
-0.2426099 -0.9542690 0.1856027 16711746
0.6273474 -1.0383655 0.1031475 16711746
-0.1210450 -1.1035082 0.4232230 16711746
-0.2657966 -1.0760251 0.4846524 16711746
-0.4047017 -1.1173019 0.0087845 16711746
-1.5864416 -1.3241061 0.1026904 16711746
-0.2472092 -0.7284034 0.1755440 16711746
1.9435054 -1.5342748 0.9533864 16711746
-0.3192315 -2.4742243 1.1799166 16711746
0.5708993 -1.4863936 0.9262539 16711746
-0.6296017 -1.2150456 -0.0214079 16711746
0.2328580 -1.1677977 0.0867175 16711746
-0.8695394 -0.7605981 0.1386213 16711746
0.6872637 -1.6930786 1.1890177 16711746
-0.8211337 -0.7862715 0.0436517 16711746
0.2139791 -0.7749389 0.1661597 16711746
-1.0374138 -1.2889866 -0.0335241 16711746
-1.1626049 -1.3026134 0.1257938 16711746
-0.9421889 -1.1613356 -0.0018380 16711746
-0.7968651 -1.2306033 -0.0254208 16711746
0.0927498 -1.1729435 0.2948033 16711746
-1.0778012 -0.9185947 0.1769592 16711746
-0.9499607 -1.4659487 -0.0378855 16711746
0.0732472 -1.0425885 0.2195323 16711746
0.1116208 -0.9800898 0.0898985 16711746
-0.8203760 -1.1857375 0.0027404 16711746
-0.9004132 -1.2573892 0.0840786 16711746
-0.7556077 -1.1104769 0.0083722 16711746
-0.8937891 -1.0722431 0.0789959 16711746
-0.1672758 -2.1696265 0.3756718 16711746
0.2402239 -2.1328845 0.5692971 16711746
-0.3232250 -0.8328506 0.2938628 16711746
-0.2083312 -0.6579264 0.7664209 16711746
-0.7756916 -0.6753748 0.1425010 16711746
-0.6445628 -1.3145204 -0.0502214 16711746
0.1448013 -0.3655527 0.1624507 16711746
-0.8571646 -0.8181369 0.5520088 16711746
-0.8569633 -1.3034934 0.3361585 16711746
-1.1382132 -0.9054330 0.2066427 16711746
0.8114538 -1.2240548 0.1003426 16711746
-0.4273257 -0.6635598 0.1943360 16711746
-0.2406613 -1.1314685 0.0038096 16711746
-0.1887666 -0.8747085 0.2466737 16711746
-0.2262321 -0.7522516 0.3619528 16711746
5.2211905 -3.4676828 2.0209544 16711746
0.2069157 -1.7261842 0.6451067 16711746
-0.3762341 -0.9216163 0.0901051 16711746
-0.1982599 -1.5065413 0.2262607 16711746
1.1900034 -2.3393309 0.1865940 16711746
-0.4229794 -0.6544470 0.6182424 16711746
-1.9198716 -1.9598570 1.1242660 16711746
-0.1098406 -1.4982982 0.3899624 16711746
-0.1174327 -1.8497317 0.5869067 16711746
-0.3632769 -2.0618799 0.9978629 16711746
-0.9358830 -1.1875063 -0.0371870 16711746
-0.9116338 -1.0924767 0.0332274 16711746
-1.9583427 -1.7558202 1.2002655 16711746
-1.4684334 -1.4458488 0.0403489 16711746
-2.4061694 -1.5274379 0.6935968 16711746
-1.4337730 -1.5961570 0.0810232 16711746
-2.0035911 -1.6185697 0.3237435 16711746
-1.8239548 -1.8454382 0.0655205 16711746
-1.7034497 -1.1777308 1.0088348 16711746
0.0183550 -1.1150508 0.2821955 16711746
-2.3041170 -2.2045350 0.2750528 16711746
-1.4470048 -0.9455609 0.7114599 16711746
0.0966829 -1.1876419 0.5326133 16711746
0.1173879 -2.2491028 0.9327139 16711746
0.0381894 -1.4925913 0.7474139 16711746
0.1764810 -1.8460155 0.1824611 16711746
-1.3638387 -0.9961375 1.0989127 16711746
-1.1393677 -1.0905294 0.1320869 16711746
-1.4806975 -1.2237705 0.0783210 16711746
-1.2110525 -1.1712619 0.0504599 16711746
0.0653537 -1.4390413 0.5755476 16711746
0.0896383 -0.7841706 0.2546572 16711746
-0.4870090 -2.6680741 1.3149940 16711746
-0.1008138 -2.1188569 0.5277674 16711746
-0.3718773 -1.8566681 0.9043866 16711746
-0.0363226 -1.5661077 0.5223598 16711746
-0.7266309 -0.5486550 0.1273698 16711746
-1.0374318 -1.2863753 0.0827316 16711746
0.0615661 -2.5717010 0.4110909 16711746
-0.7910162 -0.5978900 0.2227556 16711746
0.0655086 -2.1472948 0.3309388 16711746
-1.0523908 -0.7483822 0.3558101 16711746
0.0362965 -1.0149329 0.5401828 16711746
-0.8701658 -0.5955145 0.3366634 16711746
-0.1888760 -0.8856286 -0.0269870 16711746
0.3337442 -1.1838006 1.3244277 16711746
-1.8702425 -1.2235863 0.2984724 16711746
-1.5434479 -1.0250331 0.4495563 16711746
0.1313312 -0.3515163 0.3501714 16711746
-1.0516895 -0.6756521 0.4361232 16711746
-1.3395995 -1.1067312 0.2195227 16711746
-1.4191229 -0.8615001 0.6145410 16711746
-1.1279663 -0.7350140 0.2003668 16711746
-1.9614559 -1.2579989 0.3697215 16711746
-0.6626275 -1.3744504 -0.0676120 16711746
-1.0504563 -1.1394789 0.6263480 16711746
-0.2398374 -1.6503952 0.7684578 16711746
-0.4069058 -3.5013442 0.9161711 16711746
-0.4949177 -2.8140283 0.4094586 16711746
-0.3447033 -1.7180129 0.7883121 16711746
0.0388809 -1.8044194 0.8383530 16711746
-0.1832934 -4.0782762 0.4659727 16711746
-0.0786065 -3.5146921 0.8598326 16711746
-2.5826259 -2.8858154 0.2384192 16711746
0.6079069 -3.6717393 0.7640742 16711746
-0.0001785 -1.9085553 0.5337420 16711746
-1.7650678 -1.4690862 0.9852715 16711746
0.1825660 -3.1989572 0.5489770 16711746
0.8017763 -7.9216828 1.1937035 16711746
-1.9730581 -1.2522119 0.9547061 16711746
-2.2087071 -1.7104203 1.4371109 16711746
-0.0765798 -2.2933080 0.4677543 16711746
-0.2517381 -2.2193024 0.3294147 16711746
-0.1780518 -2.0626266 0.3555070 16711746
-1.3595138 -1.0692675 0.2709679 16711746
0.2340024 -2.4602075 0.1554248 16711746
0.2131379 -2.9793520 0.7214869 16711746
-2.0715835 -2.3055379 0.2850502 16711746
-0.5481022 -3.0277667 1.4254782 16711746
-6.4914246 -5.0698657 4.3189554 16711746
-1.5067048 -1.0359001 0.3870659 16711746
-1.4886743 -0.9724749 0.4942786 16711746
-1.4240402 -1.6093845 0.1252818 16711746
-2.9278035 -1.9169779 1.0470467 16711746
-2.3810167 -1.8775623 0.5179220 16711746
0.0665570 -1.3270311 0.3218848 16711746
-0.9598528 -0.8157477 0.1324664 16711746
0.1848827 -3.2341373 0.3574521 16711746
-0.2518038 -6.8628740 2.9143195 16711746
0.1320763 -0.1900941 0.0898984 16711746
-2.9957521 -1.7981466 0.5295144 16711746
-7.5121717 -4.1186738 1.8010436 16711746
1.0886197 -5.2374582 2.3884959 16711746
-0.2579883 -6.4121566 0.4535893 16711746
-2.6488171 -3.6641946 0.1137192 16711746
-0.5783660 -3.1932626 0.4000810 16711746
3.2521999 -9.0979700 6.7893543 16711746
-0.5389376 -5.0757689 1.9352525 16711746
-0.5262712 -4.0376658 1.2153900 16711746
1.3718463 -4.5783906 2.5561020 16711746
0.7114879 -3.6157537 2.0812852 16711746
-1.0978677 -4.8778033 0.3913151 16711746
-0.2825764 -5.1111817 1.5240680 16711746
1.3844323 -4.5977459 2.4235566 16711746
0.5122246 -4.7380838 0.8362710 16711746
-0.3561961 -2.9899859 1.2151167 16711746
-3.8460751 -2.7300780 2.5517228 16711746
-0.9093866 -4.6563687 0.7434904 16711746
-2.2283540 -1.8643713 1.5618434 16711746
-0.5403369 -4.0615292 1.1201633 16711746
-2.9136188 -2.2817380 1.9246695 16711746
-1.2872802 -5.3902597 0.4213515 16711746
-3.3871970 -3.4304054 2.0225182 16711746
-0.9982837 -5.1207914 0.7519636 16711746
-3.7852275 -4.9777517 1.6365461 16711746
0.2969931 -4.0444794 2.2324078 16711746
-0.2394259 -5.1430550 0.9345247 16711746
-0.1219109 -3.1361542 0.6672966 16711746
-0.4648014 -3.9359574 0.4915867 16711746
-0.2187321 -2.8523684 0.6873537 16711746
1.0183369 -1.3360012 0.5101770 16711746
0.3248933 -0.5015804 0.5946609 16711746
-0.6259056 -2.5576978 0.1110943 16711746
0.8942818 -1.0797718 0.4485289 16711746
-1.9169470 -2.6289403 0.0032293 16711746
-4.0020580 -3.1467741 2.1507699 16711746
-2.8691893 -2.0953429 0.5578270 16711746
-0.3009284 -3.6481426 0.9196666 16711746
-1.7302144 -2.6849587 0.1450520 16711746
-1.1722351 -4.6479301 0.7428807 16711746
-3.0758817 -2.5987661 1.9653107 16711746
-2.7273443 -3.9642091 0.1304158 16711746
-1.7736777 -3.0311337 0.1010921 16711746
0.1147182 -2.1025031 0.4536183 16711746
-2.6170123 -3.8205070 0.1358977 16711746
-2.8328230 -2.2302623 1.8676773 16711746
-1.0879136 -1.4612578 0.2107846 16711746
-1.8540103 -2.2531240 0.1548949 16711746
-0.9700319 -4.6195598 0.5704483 16711746
-2.0227439 -3.4112322 0.0842248 16711746
-0.5437184 -3.5239131 0.6663135 16711746
-0.8278974 -4.8612022 1.0602723 16711746
-0.0562651 -7.6317267 3.7525866 16711746
0.2734514 -4.2261643 0.8517456 16711746
-0.5611771 -3.2302644 0.6755053 16711746
-1.4010708 -6.2254429 1.6869984 16711746
-2.3551629 -1.6365033 0.5686539 16711746
-1.2603674 -6.3592448 1.5457311 16711746
-1.0735978 -5.3689179 1.0023193 16711746
-3.1382437 -2.1736579 0.9496310 16711746
-1.4951656 -2.2823219 0.0903558 16711746
-0.3967501 -3.7868273 1.2851999 16711746
-0.4778562 -2.7833362 1.2478478 16711746
-0.2621532 -3.5576112 1.1787685 16711746
-0.2235630 -5.8701053 1.5194597 16711746
-0.2910756 -3.7819569 1.3897965 16711746
-3.0140471 -2.4579434 1.0914483 16711746
0.2814750 -3.9142668 0.6225807 16711746
-0.0426444 -3.5184643 0.2384724 16711746
-3.6181579 -3.7221272 1.8893069 16711746
-3.4574676 -2.8073039 1.9756064 16711746
-1.8032069 -1.6815066 0.2081561 16711746
-2.7570896 -2.1980965 1.8377995 16711746
-1.6910448 -2.0825174 0.1772662 16711746
-2.0928581 -2.8178282 0.2730098 16711746
-1.2108117 -1.9232299 0.1771850 16711746
-4.6904426 -3.6379380 2.4787529 16711746
-4.0642962 -2.7009573 2.7473657 16711746
-4.7472806 -4.0663447 2.3567955 16711746
-0.9448904 -1.5577871 0.4359666 16711746
-0.5227605 -2.9129906 0.4256409 16711746
-5.3307915 -19.4851074 9.3925161 16711746
-1.3306731 -6.1951370 1.6185889 16711746
1.1641921 -4.6272817 2.2649944 16711746
1.0287167 -7.4645367 2.2989359 16711746
-1.9821223 -8.1396589 1.2084012 16711746
-0.1764568 -3.8771424 0.6308303 16711746
-1.4377594 -5.4614286 1.5085924 16711746
1.4472392 -5.5042620 2.6082532 16711746
-3.7150781 -2.5439770 2.2606051 16711746
-0.2707220 -3.1743281 0.5839162 16711746
-1.3476704 -3.9223809 0.7589917 16711746
-1.4521732 -6.9917054 1.7999618 16711746
-4.4498982 -5.3776312 0.0849654 16711746
-2.5323956 -3.1941321 0.0769221 16711746
-1.1534944 -5.4655447 0.6297274 16711746
0.8599424 -4.1511321 1.3740321 16711746
-0.8153741 -1.1206075 0.2088781 16711746
-2.2251828 -2.1685596 0.3265728 16711746
1.1553457 -5.2319484 1.8963674 16711746
0.9027219 -5.5621881 2.1855254 16711746
0.4030018 -6.2020869 3.4497137 16711746
1.9079765 -4.4695292 4.2031841 16711746
0.5563660 -3.8726878 1.1532426 16711746
1.0635026 -5.6065168 1.8803517 16711746
1.1648350 -8.4535570 2.7814071 16711746
0.2787841 -3.6537869 1.2171655 16711746
0.6269052 -4.6746340 3.6571939 16711746
1.3169858 -5.0386639 2.7308402 16711746
0.7511451 -4.4053330 1.7965368 16711746
1.3948010 -8.8003588 8.5110264 16711746
1.6120181 -7.6333551 3.1280954 16711746
0.8041542 -3.8470144 1.2319944 16711746
1.5057216 -7.2299967 2.9962614 16711746
-1.2026055 -5.5182371 0.6100261 16711746
0.2813999 -3.3919826 1.2811527 16711746
0.2623638 -4.9125118 2.1383348 16711746
-1.6844362 -6.0325632 1.8190033 16711746
0.1999267 -7.9107547 3.5420699 16711746
2.4161444 -4.9879031 6.0457664 16711746
-1.9667606 -5.8207121 1.3183408 16711746
-0.1951015 -7.5071464 2.0726678 16711746
1.9268984 -6.3816185 3.5957093 16711746
0.5115150 -2.1900768 2.1128831 16711746
-5.2042623 -6.0049477 0.3820701 16711746
1.3259051 -3.4701493 3.0092993 16711746
-0.4900310 -7.5200558 4.1484184 16711746
2.2351527 -5.8961396 5.1039476 16711746
-0.2030579 -5.2353888 3.0116420 16711746
1.2363093 -2.3462157 2.2154398 16711746
0.8148844 -4.0773950 3.9838102 16711746
3.3698614 -5.6824393 4.5201788 16711746
-0.0988817 -5.5746841 3.6435535 16711746
