# .PCD v.7 - Point Cloud Data file format
VERSION .7
FIELDS x y z rgb
SIZE 4 4 4 4
TYPE F F F F
COUNT 1 1 1 1
WIDTH 1195
HEIGHT 1
VIEWPOINT 0 0 0 1 0 0 0
POINTS 1195
DATA ascii
0.0890226 -0.7567807 1.3257260 16711746
0.5104930 -0.6953367 1.4906720 16711746
1.0600965 -1.1229255 1.5078925 16711746
0.8597702 -1.0897748 1.8908988 16711746
1.4655184 -1.3685148 1.7210580 16711746
1.2754956 -1.3708333 2.3996274 16711746
1.9023461 -2.0690703 2.0255830 16711746
1.6814593 -0.8641801 1.7372899 16711746
1.7649860 -1.2259564 1.4063067 16711746
-0.9217566 -1.3372182 1.5030606 16711746
-0.5621959 -1.1813369 1.3411156 16711746
0.7335091 -1.4653881 1.7019097 16711746
-0.6688322 -1.1734952 1.6798806 16711746
1.4402764 -1.0621048 1.5077416 16711746
0.9171141 -1.1100136 1.4002678 16711746
0.8654551 -1.0199558 1.9267128 16711746
1.7755481 -1.4288998 2.0603924 16711746
0.6468477 -1.6994929 1.6565678 16711746
1.3327743 -0.8323160 1.5669457 16711746
1.6661221 -1.4683678 1.4777315 16711746
1.8671302 -1.1963103 1.3900832 16711746
1.3533485 -1.6158159 2.5879722 16711746
-1.0494995 -1.2879095 3.2085624 16711746
1.4541507 -1.0870056 1.4139651 16711746
0.3400888 -0.8929293 1.3696976 16711746
1.1461657 -1.4670445 1.6515179 16711746
1.2988924 -0.9710174 1.5832366 16711746
1.8402346 -1.2133060 1.4657084 16711746
0.2213124 -1.1682409 1.5955318 16711746
0.4849320 -1.1788075 1.5098506 16711746
-1.6264913 -1.0402659 2.4810176 16711746
1.0260468 -0.4353341 1.2717339 16711746
0.6317080 -1.6775911 1.6568303 16711746
1.1508609 -1.4910994 1.7994668 16711746
0.9852181 -1.2946944 1.8950557 16711746
0.2125863 -0.6243683 1.8553820 16711746
1.2088202 -1.0518857 1.5284959 16711746
-0.3762685 -0.8549708 1.6358676 16711746
-0.5654416 -1.0840654 1.3455756 16711746
0.9926459 -1.4422981 2.3080227 16711746
1.1791952 -1.0452729 1.4728795 16711746
0.8152205 -1.0995713 1.7053777 16711746
1.1279992 -1.0786798 1.5382496 16711746
1.3199354 -1.4795268 2.6309021 16711746
0.9466223 -1.2480968 2.3545170 16711746
1.2290003 -1.3426533 2.4754155 16711746
1.2643076 -0.8990834 1.4584273 16711746
1.0572464 -1.4947121 1.7485387 16711746
1.0062063 -1.0035802 1.6839814 16711746
1.2818561 -0.9220461 1.4707934 16711746
1.0162686 -1.1778755 1.6259080 16711746
1.0875821 -1.1219873 1.5015875 16711746
1.5997773 -1.1159616 1.8487066 16711746
1.1375573 -1.4954447 2.0235264 16711746
-0.2946371 -0.9573130 1.7309486 16711746
0.7650185 -0.9350932 1.7537230 16711746
0.6980308 -0.9136890 1.7167588 16711746
-0.7147684 -0.6567678 1.8044711 16711746
1.1408137 -0.9229112 1.5274334 16711746
-0.9535367 -0.8076881 2.0529370 16711746
1.6523246 -1.1096183 2.2673717 16711746
1.1073284 -1.1043020 1.5201279 16711746
1.5105624 -1.7865098 2.9411540 16711746
1.4795313 -1.3635750 2.6676886 16711746
1.1801404 -0.5250016 1.5077301 16711746
0.1550484 -1.0111032 1.5807061 16711746
1.1242934 -1.6557597 1.9572420 16711746
1.8532919 -0.9031016 2.1075499 16711746
0.0896831 -1.3601941 1.6604426 16711746
2.0619040 -1.1684061 2.2220788 16711746
2.2261162 -1.2244997 1.8348944 16711746
1.8407183 -1.1389855 1.8717765 16711746
1.2503530 -1.6335511 2.6542866 16711746
1.0159029 -1.1208488 2.2251885 16711746
1.4165865 -1.1865687 1.7719438 16711746
1.4316846 -1.2414449 1.9217244 16711746
2.2353168 -1.2835299 1.8254691 16711746
0.9820647 -1.0244288 1.5019623 16711746
0.7447367 -0.5630509 1.6898798 16711746
1.4858884 -0.8587987 1.5951972 16711746
1.5468522 -1.4429691 2.4781818 16711746
1.0807925 -1.0878863 1.4804313 16711746
1.3877865 -0.7834849 1.5858020 16711746
-0.2386979 -0.7694856 1.8610750 16711746
-0.5767711 -1.0023354 1.7660947 16711746
1.2437698 -0.7572528 1.5081545 16711746
1.9027711 -1.1602575 2.1068175 16711746
1.1429697 -0.7183761 1.3847934 16711746
0.8891907 -1.2438562 1.6951785 16711746
0.8603541 -0.8903659 2.2288358 16711746
1.5227472 -1.1185586 2.2917941 16711746
0.8871977 -0.9572974 2.1715119 16711746
1.1353662 -1.3522053 2.3798532 16711746
1.3400723 -1.5084571 2.5072227 16711746
0.7780173 -0.8740120 1.7657621 16711746
1.1369371 -0.6733738 2.0633855 16711746
1.2177554 -0.8424615 1.4473958 16711746
1.0772418 -0.7617808 1.4067534 16711746
1.0028450 -1.1989720 1.8308994 16711746
0.5463902 -0.5099154 1.7964623 16711746
1.6259114 -0.9142900 1.7599373 16711746
1.1747108 -0.5090659 1.5175743 16711746
1.1238004 -0.9834048 1.9274099 16711746
-0.0188745 -0.5881866 1.3327765 16711746
-0.0183807 -0.8922824 2.3306715 16711746
1.3592449 -0.7270901 1.5835488 16711746
1.2891991 -1.0989381 2.3306696 16711746
1.0472248 -0.7967070 1.5665373 16711746
1.2756577 -1.0991172 1.6544031 16711746
1.1643358 -0.7782968 1.4166918 16711746
1.2934762 -1.6991216 2.0348012 16711746
0.7646050 -0.4053500 1.3336978 16711746
0.4547479 -0.6266804 1.8277158 16711746
0.8260955 -1.2234790 1.8492762 16711746
1.3273841 -0.8545419 1.8666118 16711746
1.0426975 -0.5935383 1.6729791 16711746
1.3884131 -0.6948229 1.5753779 16711746
1.4610319 -0.9435007 2.0711572 16711746
1.3408331 -0.6546588 1.5465878 16711746
0.7395203 -0.7365797 1.6498153 16711746
1.5691247 -1.0558283 2.1870120 16711746
0.5903807 -0.1664127 1.2294555 16711746
1.2924491 -1.4616730 2.5370436 16711746
0.8870354 -1.1069483 2.1759140 16711746
1.0326523 -1.4331251 2.3308516 16711746
2.4454482 -1.7662928 3.5676370 16711746
1.1263787 -0.6307954 1.9325576 16711746
1.5756665 -0.9788254 1.8574688 16711746
1.1913184 -0.7244385 1.5937669 16711746
0.5915502 -0.8812786 1.5547407 16711746
1.2484822 -0.7512874 1.6403394 16711746
1.9702413 -1.5676754 2.4480677 16711746
0.7947348 -3.3155825 2.5479577 16711746
1.3573580 -0.6617370 2.0156686 16711746
1.0876085 -0.5885258 1.6805606 16711746
1.5456865 -1.1326549 2.3544624 16711746
1.1451018 -0.7021490 1.9579318 16711746
0.8310495 -1.0534105 2.4844868 16711746
0.2712290 -0.4368739 1.5479293 16711746
1.5194783 -1.1499430 2.8068347 16711746
1.2548442 -0.5701292 1.9110872 16711746
1.2192928 -0.8524256 1.9132040 16711746
1.1301328 -0.4565991 1.4967889 16711746
0.8183051 -0.9689171 1.6051143 16711746
0.7579880 -0.5725392 1.6851604 16711746
0.9064265 -0.6475998 1.7650311 16711746
0.8330225 -0.9860103 1.6188554 16711746
1.0432962 -0.6900280 1.5757751 16711746
0.3278656 -0.7925335 2.5883131 16711746
1.0168277 -0.6829393 2.3020887 16711746
0.9823998 -0.6823310 1.7431248 16711746
0.7532538 -0.5596297 1.6731088 16711746
0.8602921 -0.5681042 1.8104087 16711746
0.9704323 -0.5768116 1.7024597 16711746
0.5794744 -0.4883787 1.6809052 16711746
0.9088173 -0.5675840 1.7883592 16711746
0.7682923 -0.5595850 1.6526527 16711746
1.3604039 -0.8939592 1.9145088 16711746
0.5378433 -0.6597115 1.6008530 16711746
0.5846511 -0.5239562 1.5661126 16711746
0.9392227 -0.6523348 1.5266023 16711746
0.6381689 -0.7480886 1.6185405 16711746
0.6918524 -0.4861055 1.6652237 16711746
1.0954025 -0.3859274 2.1731184 16711746
0.9622995 -0.5222533 2.5330875 16711746
1.1212374 -0.3497619 1.7197583 16711746
0.6106343 -0.4214161 1.5891426 16711746
0.5821210 -0.5689355 1.7765883 16711746
0.8219495 -0.6170592 1.6657213 16711746
0.8313286 -0.6962940 1.7287552 16711746
0.7051699 -0.3891799 1.4570192 16711746
0.5589848 -0.6213973 1.7521601 16711746
0.8598878 -0.5795406 1.6961120 16711746
0.7335280 -0.5130202 1.6398201 16711746
2.2766140 -1.9005282 4.3187919 16711746
1.3309456 -0.8107852 2.4345934 16711746
1.1714227 -0.4891744 1.5796415 16711746
0.9378141 -1.0071745 1.6350484 16711746
0.6193228 -0.2435944 1.3388447 16711746
0.9068382 -0.5243938 1.8509188 16711746
1.1911229 -0.5619191 1.8278464 16711746
0.5036806 -0.4852708 1.6730515 16711746
0.6697333 -0.6844496 1.7820666 16711746
0.8079594 -1.0613818 1.6417590 16711746
0.9578272 -0.6166777 1.9379729 16711746
0.8702400 -0.5980201 1.7615362 16711746
1.0576330 -0.7248905 1.8145567 16711746
0.7049589 -0.6159838 1.8461616 16711746
0.3395360 -0.7401426 1.9403303 16711746
0.9506727 -0.6280186 1.7663602 16711746
0.7274880 -0.5919806 1.6851991 16711746
0.7298940 -0.6153653 2.0641778 16711746
0.7636463 -0.5933930 1.7200669 16711746
0.8948107 -0.4833280 1.8340372 16711746
0.7012320 -0.5429226 1.6204442 16711746
0.9521164 -0.7478650 1.6151935 16711746
0.8512525 -0.5419433 1.8055123 16711746
0.8554000 -0.8072419 1.7378563 16711746
0.2603107 -0.8053080 2.4294639 16711746
1.2577959 -0.5806268 1.9106627 16711746
0.5596058 -0.7341341 1.8258446 16711746
1.2434868 -0.6762944 1.8678226 16711746
0.1993895 -0.6431028 2.3526721 16711746
0.4807427 -0.6678376 2.3378308 16711746
0.7650394 -0.4830836 1.7514167 16711746
0.9937402 -0.5596254 1.7004061 16711746
1.1607587 -0.4243158 1.9351794 16711746
0.9338635 -0.5032754 1.7895271 16711746
1.0505303 -0.6703493 1.7234714 16711746
0.8614135 -0.5681171 1.8363318 16711746
0.8591322 -0.4543280 2.0358560 16711746
0.9892368 -0.6052395 1.8853307 16711746
0.7471250 -0.5528210 1.7332869 16711746
0.9113914 -0.5098467 2.1536925 16711746
1.1611958 -0.4882489 1.5619297 16711746
0.7616207 -0.8755971 1.5886155 16711746
0.8523101 -0.9478608 1.6513666 16711746
0.5087209 -0.6044846 1.8018388 16711746
0.9276846 -0.5626934 1.7062086 16711746
1.1579213 -0.8099976 3.1994891 16711746
1.4114417 -0.9908261 2.3447165 16711746
0.7977029 -1.3277904 1.8207011 16711746
0.9802375 -0.6014657 1.8105959 16711746
1.0543998 -0.7525141 1.7106333 16711746
0.9661327 -0.6104798 1.6317588 16711746
0.9455386 -0.4038289 1.7729199 16711746
0.9392083 -0.6723594 1.6949173 16711746
1.1842992 -0.6486923 1.6403457 16711746
0.6947435 -0.5728044 1.7049516 16711746
0.9623954 -0.6064340 1.6315632 16711746
0.8700950 -0.5784838 1.8157452 16711746
1.1648669 -0.4983586 2.2343884 16711746
0.7691553 -0.6335512 1.6928724 16711746
0.9687559 -0.7025495 1.7201853 16711746
0.4641720 -0.4769470 1.4747161 16711746
0.8680299 -0.5963584 1.7086805 16711746
0.8470453 -0.7818864 1.6399101 16711746
0.8787002 -0.7000486 1.6144947 16711746
1.1238130 -0.5900895 1.5985268 16711746
0.1940756 -0.6660079 2.3998427 16711746
-0.6615544 -0.6112500 2.3891635 16711746
0.8518463 -0.5592128 1.9395659 16711746
0.6726285 -0.5185971 1.6239481 16711746
1.2327802 -0.6448136 1.5165287 16711746
0.6891670 -0.5406416 1.7889963 16711746
0.9069793 -0.9860931 2.7215989 16711746
0.7763938 -0.6427265 2.1902063 16711746
0.4695390 -0.4790268 1.5988051 16711746
0.8164561 -0.6595680 2.1754241 16711746
0.9455612 -0.5808972 1.6877598 16711746
0.7724278 -0.5589992 1.9776855 16711746
0.9777135 -0.6202061 1.6389846 16711746
1.2115303 -0.6213146 1.9661034 16711746
1.0006877 -0.5536031 1.5905342 16711746
0.9517376 -0.6267167 1.7107764 16711746
0.9297418 -0.5464878 2.2155907 16711746
0.9457452 -0.6220147 1.7045699 16711746
0.9773260 -0.6905056 1.7231965 16711746
0.8470539 -0.7811514 1.7217535 16711746
0.1069958 -1.0903611 2.5359933 16711746
1.0059376 -0.5665914 1.6374056 16711746
0.7101373 -0.6182144 1.8881477 16711746
0.7346483 -0.6869056 1.6138543 16711746
1.2111032 -0.5857964 1.8455237 16711746
1.1392691 -0.5272108 2.0390360 16711746
0.8878363 -0.6315243 1.7984793 16711746
0.6800020 -0.4866638 1.7110803 16711746
0.5530774 -0.6219715 1.8116875 16711746
0.6084673 -2.3129766 2.9513378 16711746
0.6586314 -0.5986319 1.8779862 16711746
1.0413594 -0.5927777 1.5907831 16711746
0.7452154 -0.6111837 1.6027435 16711746
0.7403325 -0.6309570 1.5947156 16711746
0.7004064 -0.4699721 1.7808300 16711746
1.2464217 -0.5245095 1.6493059 16711746
0.9522563 -0.5463907 1.7856157 16711746
0.1133740 -0.6516808 1.8292632 16711746
1.4902129 -0.5846154 1.9658452 16711746
0.7278739 -0.6026546 1.6897808 16711746
1.2923312 -0.6494199 2.1550117 16711746
1.1229326 -0.5899756 1.6003747 16711746
0.5573230 -0.4603313 1.9848001 16711746
1.0959557 -0.6000116 1.5830753 16711746
-0.0493223 -0.7466978 1.9379314 16711746
1.3428881 -0.5721589 1.8851300 16711746
0.7294487 -0.6046499 1.6669085 16711746
0.4845871 -0.6618854 2.3872106 16711746
0.8075480 -0.4518124 1.8976854 16711746
0.7174693 -0.5942839 2.5074627 16711746
-0.3567656 -0.9073842 1.8573271 16711746
1.1929641 -0.7335823 1.7733752 16711746
1.2013031 -0.5985086 1.8318210 16711746
0.9233240 -0.5992369 1.6847204 16711746
0.7737475 -0.7922419 2.3135824 16711746
1.0544162 -0.6561175 1.6205394 16711746
-0.0982338 -0.6650978 1.6255350 16711746
0.8753713 -0.4596673 1.6798851 16711746
-0.5205072 -0.8696339 1.8848668 16711746
1.6511091 -0.9778146 2.7187526 16711746
1.1500959 -0.9719266 3.2579136 16711746
0.7407342 -0.5990304 1.9169323 16711746
0.7445925 -0.6103466 1.9751482 16711746
0.5943415 -0.3078308 1.6386770 16711746
0.0985216 -0.5376232 1.5873861 16711746
0.7935436 -0.6607758 1.6509733 16711746
0.8845538 -0.4366775 1.7758623 16711746
0.7031781 -0.5465226 1.6484956 16711746
0.1608481 -0.7022377 1.7565107 16711746
1.2262262 -0.3807098 1.7423124 16711746
0.8315750 -0.4731279 1.7737372 16711746
0.0727167 -0.5713630 1.6046221 16711746
0.7910366 -0.5807700 1.9727864 16711746
-0.3610419 -0.7039784 1.8092742 16711746
1.2006369 -0.6772764 1.5734792 16711746
1.0116463 -0.4759241 1.9346616 16711746
0.9305128 -0.5850552 1.5791171 16711746
-0.7998941 -0.6765416 2.5031636 16711746
0.6018940 -0.6667077 1.8483120 16711746
2.1137145 -1.6193291 3.7683275 16711746
1.0112375 -0.6033342 1.7160019 16711746
0.9938654 -0.6332213 1.7891970 16711746
0.8256468 -0.5578040 1.8666290 16711746
0.5218788 -0.6223357 2.2159276 16711746
0.7894346 -0.5678639 2.0625017 16711746
1.0050207 -0.5205919 1.7777673 16711746
0.7074748 -0.8240983 2.0862973 16711746
-0.0365072 -0.6103495 1.6371100 16711746
0.7413154 -0.5465926 1.8049983 16711746
1.0778790 -0.6149634 1.6144441 16711746
0.8933432 -0.4764183 2.1799688 16711746
1.0116529 -0.5328807 1.6325797 16711746
0.6735882 -0.5280827 1.6578921 16711746
1.3377022 -1.0278928 3.4877026 16711746
0.4335350 -0.8422859 2.7259743 16711746
0.4557579 -0.5326674 2.0169771 16711746
0.1168573 -0.4496160 2.2860873 16711746
0.6357421 -0.4987786 1.6456656 16711746
0.4916514 -0.7273237 2.3679502 16711746
0.5900690 -0.4929438 1.7692848 16711746
0.5616443 -0.5438560 1.7898064 16711746
0.5578007 -0.4022662 1.6642150 16711746
1.2588375 -0.6158720 2.1686854 16711746
0.3506707 -0.7492488 2.8686368 16711746
1.1587679 -0.6176188 2.3337638 16711746
1.1639867 -0.4577570 1.5605789 16711746
1.0490614 -0.6551145 1.7642725 16711746
0.6355825 -0.7513875 1.7839808 16711746
1.1290557 -0.4749042 2.0653949 16711746
1.3985277 -0.3809534 2.3665817 16711746
0.9210296 -0.4942250 1.7146169 16711746
0.8669312 -0.4030216 1.7079097 16711746
0.8954690 -0.7169797 2.3106172 16711746
0.2704622 -0.5960310 2.8876476 16711746
-0.3778201 -2.3494704 4.2032852 16711746
0.6132799 -0.2499947 1.6491636 16711746
0.1392107 -1.0264461 2.4467113 16711746
-0.3073937 -2.5241241 4.2759714 16711746
0.7000279 -0.5355385 1.9415238 16711746
0.8108849 -0.5976071 1.9864000 16711746
0.9139699 -0.3972294 1.8969945 16711746
0.8968768 -0.4477735 1.9098737 16711746
0.5489528 -0.4652263 1.7907600 16711746
0.5639722 -0.5506073 1.6763597 16711746
0.7630390 -0.8964744 2.1639328 16711746
1.0128620 -0.4797592 1.8434423 16711746
0.7789903 -0.4127871 1.8051084 16711746
0.4723316 -0.3075839 1.6271315 16711746
-0.3083815 -2.1999617 3.6862001 16711746
1.0188023 -0.6770674 1.7362847 16711746
0.3878132 -0.5662993 2.0123017 16711746
0.4536438 -0.2930204 1.6376383 16711746
0.2874473 -0.6946437 1.9064540 16711746
1.1910298 -1.6236680 2.9963174 16711746
1.0957029 -0.3108200 2.2914062 16711746
1.1263783 -0.4757156 2.0023913 16711746
0.8352244 -0.3409469 1.8436325 16711746
0.7995248 -0.4567035 1.8918813 16711746
0.7844327 -0.4174068 1.9974921 16711746
0.6881193 -0.4696851 1.9048644 16711746
0.9660304 -0.3940704 1.9754422 16711746
0.7771734 -0.5008436 2.0426495 16711746
0.8342727 -0.5132861 2.0130253 16711746
0.6938400 -0.6334530 1.9887908 16711746
0.7364289 -0.7871999 2.1235344 16711746
1.2234082 -0.6337656 1.8343720 16711746
0.7267329 -0.5177413 1.7388859 16711746
0.3212538 -0.5153702 1.7922373 16711746
0.5864195 -0.8700322 2.0906935 16711746
0.9266145 -0.3848424 2.0370760 16711746
0.6835085 -0.3516865 1.8291241 16711746
1.2757415 -0.1772943 2.0616517 16711746
1.2623372 -0.6641102 2.0811653 16711746
0.3474184 -0.5230795 2.1450908 16711746
0.7721509 -0.1774198 1.6397440 16711746
0.5730935 -0.4089543 1.7630292 16711746
0.6006292 -0.1481464 1.5896924 16711746
0.7613288 -0.6067913 1.7290889 16711746
1.1990424 -0.5771850 2.0297172 16711746
-1.4273793 -0.7897652 2.6437900 16711746
0.4154708 -0.6963489 1.8237154 16711746
0.4132708 -0.7031499 1.8282006 16711746
1.0585473 -0.3007262 2.1797173 16711746
0.8648828 -0.1740724 1.9263818 16711746
0.6855963 -0.6301001 2.6673710 16711746
0.5396090 0.0393759 1.5209889 16711746
0.6656029 -0.4686154 2.3557711 16711746
1.0266986 -0.4133000 1.9197350 16711746
1.0694009 -0.3086174 2.2620995 16711746
0.5252743 -0.6459999 1.8420024 16711746
1.2843769 -0.5056998 3.1258128 16711746
0.5871953 -0.3795921 1.7407515 16711746
0.9003888 -0.3115909 1.7819781 16711746
0.7182374 -0.1194438 1.7623987 16711746
0.8732871 -0.1518026 1.8162223 16711746
0.9833046 -0.2470268 2.1346557 16711746
0.8744732 -0.1469985 2.0289221 16711746
0.8499659 -0.2409354 2.1605453 16711746
1.1379353 -0.3645849 2.3500612 16711746
0.5966270 -0.0572871 1.5707983 16711746
0.5394735 -0.1714763 1.9117472 16711746
0.5235514 -0.1598719 1.6896324 16711746
0.9103962 -0.2034565 1.9683231 16711746
0.8018052 -0.1185221 1.7531989 16711746
0.5576684 -0.1219893 1.8195562 16711746
0.8235048 -0.1880050 2.1505730 16711746
0.6930463 -0.1627795 1.9560857 16711746
0.7838547 -0.1459565 2.0387294 16711746
0.9942906 -0.2333669 2.1591411 16711746
0.8216061 -0.1845523 2.1189868 16711746
0.7786605 -0.1645570 1.9990399 16711746
0.5403101 -0.0358789 1.6940665 16711746
0.5286385 -0.1566753 1.6664292 16711746
1.0443730 -0.5605891 1.7900863 16711746
0.7344871 -0.4884782 1.9741261 16711746
0.7116569 -0.1105929 1.7527111 16711746
0.7202470 -0.0992780 1.7454536 16711746
0.8171340 -0.1391399 1.8938004 16711746
0.4853404 -0.0151086 1.6824691 16711746
0.3761294 -0.1854746 2.0267880 16711746
0.4735318 -0.3084124 1.9264050 16711746
0.9581999 -0.1783388 1.8993962 16711746
0.8167769 -0.1381155 1.7539206 16711746
0.5171911 -0.1106932 1.6823206 16711746
0.8614660 -0.1741630 1.9242512 16711746
0.4477412 -0.1261365 1.8381333 16711746
0.3875857 -0.1449586 1.8892467 16711746
0.3880573 -0.1352049 1.8443606 16711746
0.4974889 -0.0915553 1.7735021 16711746
0.4028648 -0.1317462 1.8056557 16711746
0.4420103 -0.1912457 1.9970797 16711746
0.4166384 -0.1297706 1.7947166 16711746
0.2766402 -0.1826457 1.9888792 16711746
0.7242319 -0.1694111 1.9552376 16711746
1.1417750 -0.2734351 2.3761537 16711746
0.4172545 -0.1954557 1.8600296 16711746
0.4412704 -0.1872166 1.9369107 16711746
0.4124341 -0.2092500 1.8754891 16711746
0.4360015 -0.2116327 1.9697181 16711746
0.4315828 -0.1089603 1.7998070 16711746
0.4076860 -0.1878133 1.9808334 16711746
0.9487207 -0.1688532 1.8850275 16711746
0.3826775 -0.1506121 1.8703513 16711746
0.7466812 -0.1445304 1.6937009 16711746
0.7428103 -0.1242693 1.7949786 16711746
0.4100837 -0.1393438 1.9497410 16711746
0.9153327 -0.4134979 2.2311556 16711746
0.8026766 -0.1792934 2.0406835 16711746
0.6492181 -0.1093239 1.8362976 16711746
0.3812359 -0.1504295 1.8140378 16711746
0.8638440 -0.2142943 2.2831445 16711746
0.4110072 -0.1544429 1.8733795 16711746
1.1322374 -0.2233859 2.0801268 16711746
0.8182919 -0.1930944 1.9098212 16711746
0.3455824 -0.2072414 1.9944682 16711746
0.3923422 -0.1390398 1.8534201 16711746
0.7208679 -0.1401426 1.8630055 16711746
0.2271167 -0.2676716 1.6965147 16711746
0.7200090 -0.1327337 1.8711743 16711746
0.7307640 -0.1693038 1.9304404 16711746
0.8026719 -0.2273840 2.0489156 16711746
0.7957281 -0.1657574 2.0840549 16711746
0.6507270 -0.1125149 1.8275458 16711746
0.7117137 -0.1702886 1.9569216 16711746
0.6860231 -0.1445850 1.8399262 16711746
0.6744261 -0.1590374 1.9866099 16711746
0.9450722 -0.1275836 1.8895050 16711746
0.4465770 -0.0926674 1.8142307 16711746
0.4013407 -0.1286377 1.8514552 16711746
0.3963484 -0.1947487 1.8195263 16711746
0.7336992 -0.1783527 1.8112346 16711746
0.8436871 -0.1470498 1.9481030 16711746
0.7566037 -0.1249101 1.8020700 16711746
0.4122353 -0.1785453 1.8130351 16711746
0.6609447 -0.0965662 1.8976735 16711746
0.8712054 -0.1961716 1.9522060 16711746
0.5518950 -0.1879032 1.9701768 16711746
0.7416652 -0.1447839 1.8130275 16711746
0.7161089 -0.1986481 1.9272255 16711746
0.5903128 -0.2372786 1.9883661 16711746
0.6488691 -0.1258232 1.9501418 16711746
0.6943107 -0.1657127 1.8745399 16711746
0.8756050 -0.1961266 1.9495918 16711746
0.8879333 -0.2070016 1.9688359 16711746
0.5913366 -0.1773917 1.9353871 16711746
0.8069664 -0.1085113 1.9096584 16711746
0.6109532 -0.1792816 2.1014047 16711746
0.7899877 -0.1813518 2.0288150 16711746
0.8585854 -0.1685984 1.9954816 16711746
0.8609689 -0.2347361 2.1568592 16711746
0.4668296 -0.6746259 2.3363273 16711746
0.7038496 -0.1628684 1.8586867 16711746
0.6770728 -0.1357828 1.9322084 16711746
0.6514862 -0.1464142 1.7606015 16711746
0.6174768 -0.1468362 1.7915517 16711746
0.2346690 -0.1586733 2.0380173 16711746
0.6629934 -0.1400183 1.9145125 16711746
0.4292467 -0.1864874 2.0347202 16711746
0.8514439 -0.1891156 2.2155488 16711746
0.6318809 -0.1336137 1.8228773 16711746
0.6607993 -0.1478358 1.7681402 16711746
0.6312442 -0.1698339 1.8558369 16711746
0.7315192 -0.1308439 1.8006790 16711746
0.6267167 -0.1562123 1.8921901 16711746
0.5921551 -0.2134064 1.9308470 16711746
0.3218968 -0.1900022 1.9649376 16711746
0.5358721 -0.1586667 1.8918554 16711746
0.6567288 -0.1586731 1.7683825 16711746
0.6364073 -0.2355387 1.7794607 16711746
0.7425576 -0.1964536 1.7925566 16711746
0.6160966 -0.1046514 1.7722311 16711746
0.3779580 -0.1584409 1.8344468 16711746
0.6363461 -0.1405552 1.7925019 16711746
0.3583380 -0.1583040 1.9406281 16711746
0.7014244 -0.1592739 1.8554795 16711746
0.3549310 -0.2210135 2.0112710 16711746
0.6982256 -0.1562623 1.9592010 16711746
0.6584610 -0.2151656 1.9651077 16711746
0.6196970 -0.1566080 1.7727581 16711746
0.7286640 -0.1771167 1.8057669 16711746
0.6932040 -0.2248925 2.0290239 16711746
0.6600190 -0.1126707 1.7366774 16711746
0.5843392 -0.1387523 2.0403130 16711746
0.7825377 -0.1863589 2.0448651 16711746
1.0350118 -0.1756673 1.9772695 16711746
0.5891736 -0.1689063 1.8441831 16711746
0.7288193 -0.1525158 1.8734878 16711746
0.7026432 -0.1386888 1.8641204 16711746
0.6958488 -0.2214322 1.8097378 16711746
0.6216973 -0.1531866 1.7809349 16711746
0.6884238 -0.1273160 1.7789713 16711746
0.6957076 -0.1413604 1.8553939 16711746
0.7663615 -0.1760600 1.7482100 16711746
0.5887806 -0.1850961 1.8028399 16711746
0.4991521 -0.1431534 1.7651554 16711746
0.5493528 -0.0604300 1.7225564 16711746
0.8517202 -0.1566524 1.7675699 16711746
0.8279947 -0.1443222 1.8042839 16711746
0.8377378 -0.2377864 1.8043677 16711746
0.5830027 -0.1465842 2.0577424 16711746
0.9033074 -0.1438359 1.8540570 16711746
0.2120923 -0.1674651 1.9920923 16711746
0.2935092 -0.2009568 1.9761320 16711746
0.7432154 -0.1761239 1.9857579 16711746
0.6445601 -0.1333227 1.9159219 16711746
0.7908351 -0.1634165 2.0695083 16711746
0.6231049 -0.1454217 1.7932202 16711746
0.3213572 -0.1640384 1.9286333 16711746
0.8990719 -0.1782592 1.9282813 16711746
0.3365502 -0.1711371 1.7730536 16711746
0.6279016 -0.1303721 1.8263702 16711746
0.5901882 -0.1805237 1.8565369 16711746
0.4388475 -0.2561983 2.1014466 16711746
0.5372887 -0.1126327 1.7471023 16711746
0.9301808 -0.2191907 1.9667157 16711746
0.5908174 -0.2239105 2.2646768 16711746
0.9510189 -0.1248099 1.9225475 16711746
0.9537943 -0.2213838 2.0159488 16711746
0.6559780 -0.2347384 1.7668529 16711746
0.7670078 -0.0760618 2.0749040 16711746
0.9734551 -0.1163930 1.9550980 16711746
0.6132480 -0.1736079 1.8535293 16711746
0.6885949 -0.1406291 1.9695725 16711746
0.6575906 -0.1239969 1.8949959 16711746
0.6554838 -0.1173079 1.9057921 16711746
0.8314469 -0.2070472 1.7389823 16711746
0.7609974 -0.2100645 1.9943119 16711746
0.6583773 -0.2553219 1.7787492 16711746
0.6658740 -0.0993470 1.8991557 16711746
0.6408404 -0.2125869 1.7511805 16711746
0.5458276 -0.1253068 1.7212491 16711746
0.6374426 -0.2089588 1.7907588 16711746
0.4837828 -0.1950232 1.8125185 16711746
0.5057315 -0.1648325 1.9371713 16711746
0.5685840 -0.1092697 1.7206860 16711746
0.5732217 -0.1409105 1.7749186 16711746
0.4573378 -0.1241593 1.7090629 16711746
0.3303658 -0.1452184 1.8741621 16711746
0.6936185 -0.1309739 1.8348619 16711746
0.5663564 -0.0881131 1.7371166 16711746
0.6238756 -0.1500482 1.7404454 16711746
0.6560893 -0.2708538 1.7572925 16711746
0.7036126 -0.1790850 1.8189671 16711746
0.3352125 -0.2170446 1.9621376 16711746
0.5825481 -0.2820974 1.9631304 16711746
0.4654673 -0.2662950 2.0027184 16711746
0.6429083 -0.1514202 1.7791456 16711746
0.6982076 -0.1920295 1.8596604 16711746
0.6963416 -0.1600686 2.0531538 16711746
0.6189319 -0.1977808 1.7571800 16711746
0.8142327 -0.1809486 2.0947621 16711746
0.6153996 -0.1689285 2.1433110 16711746
0.5491980 -0.1313315 1.8896240 16711746
0.5223857 -0.1777506 1.8889507 16711746
0.5589409 -0.1157718 1.7452775 16711746
0.3989992 -0.1220609 1.8345191 16711746
0.7551721 -0.1164641 2.0240552 16711746
0.3169378 -0.2022591 2.0063970 16711746
0.5145829 -0.0852123 1.9818839 16711746
0.5563846 -0.1735981 1.9652152 16711746
0.6257324 -0.2008294 1.7625192 16711746
0.7837270 -0.1582237 2.0287774 16711746
0.7686048 -0.1638997 1.7782919 16711746
0.6692697 -0.1850844 1.7523448 16711746
0.4844880 -0.1189203 1.9022913 16711746
0.4861000 -0.1377527 2.1017621 16711746
0.5465764 -0.0784788 1.7351328 16711746
0.6383118 -0.1345509 1.7719369 16711746
0.7495018 -0.1705249 1.7866365 16711746
0.6849034 -0.2353831 1.7749159 16711746
0.5375524 -0.1252629 1.7283068 16711746
0.2553550 -0.3141519 1.7553134 16711746
0.5150047 -0.2142624 1.9580785 16711746
0.5017337 -0.0385507 1.7630378 16711746
0.6055374 -0.2180931 1.8410251 16711746
0.5032461 -0.1504764 1.8110358 16711746
0.5363456 -0.1263397 1.7288537 16711746
0.5824286 -0.1703046 1.8407276 16711746
0.3724438 -0.2427917 2.1071799 16711746
0.6825175 -0.1455099 1.9357988 16711746
0.6292536 -0.1551985 1.8175651 16711746
0.6970329 -0.1892918 1.7965392 16711746
0.4647936 -0.1880838 2.0526302 16711746
0.8216670 -0.1873692 2.0805390 16711746
0.6716639 -0.2032409 2.2819719 16711746
0.4935538 -0.1170184 2.0602589 16711746
0.6893653 -0.1781514 2.0444703 16711746
0.8855010 -0.1434274 1.8420354 16711746
0.8311083 -0.2403921 2.1396961 16711746
0.9892716 -0.2229815 1.9573743 16711746
0.8246876 -0.2282851 2.1188755 16711746
0.7149023 -0.1655070 1.8765142 16711746
0.6411011 -0.1807196 1.7933502 16711746
0.6461257 -0.1249470 1.8906178 16711746
0.4472057 -0.0851722 1.8880254 16711746
0.6504448 -0.1387557 1.9079461 16711746
0.9148374 -0.2808864 1.8258520 16711746
0.6141711 -0.1722397 2.1492226 16711746
0.8194410 -0.2104680 1.7921964 16711746
0.6245136 -0.2043262 1.7941146 16711746
0.6372461 -0.1349612 1.7793930 16711746
0.4521177 -0.1092195 1.7733376 16711746
0.7095063 -0.1807981 1.8374494 16711746
0.8137857 -0.1621642 1.7997359 16711746
0.6345330 -0.2093028 1.8818767 16711746
0.7001415 -0.1295479 1.8146662 16711746
0.6921390 -0.1706259 1.8557611 16711746
0.8325297 -0.1452689 1.9573153 16711746
0.5668290 -0.1373456 2.0511725 16711746
0.6202326 -0.1679561 1.8837496 16711746
0.6973847 -0.1753256 1.8826811 16711746
0.7604715 -0.1302185 1.8532717 16711746
0.9107931 -0.1413638 1.8971932 16711746
0.4018074 -0.1493097 1.8641911 16711746
0.8245557 -0.1696215 2.1840293 16711746
0.6374303 -0.0350953 1.8414685 16711746
0.7261456 -0.1657249 1.9233032 16711746
0.7559428 -0.2481712 2.0326586 16711746
0.8042393 -0.1888979 2.0749462 16711746
0.6923849 -0.1556822 1.8522247 16711746
0.7735786 -0.1717331 1.7877378 16711746
0.4396852 -0.1285498 1.9951149 16711746
0.6224672 -0.1517526 2.0453761 16711746
0.7738302 -0.1852938 1.9715166 16711746
0.7912623 -0.1652470 1.8726399 16711746
0.9085525 -0.0815547 1.9021447 16711746
0.7106304 -0.1636055 1.9034889 16711746
0.7603856 -0.1587965 1.8554977 16711746
0.4441829 -0.1196324 1.9836903 16711746
0.7315877 -0.2203900 1.9097184 16711746
0.7537185 -0.1719559 1.9352545 16711746
0.6740202 -0.1003562 1.8913130 16711746
0.5819198 -0.1538906 2.0784917 16711746
0.5843300 -0.2298152 1.7919545 16711746
0.7037752 -0.1932826 1.8190055 16711746
0.8394416 -0.1536948 1.8010250 16711746
0.6973829 -0.1110244 1.8989452 16711746
0.8591158 -0.1623143 1.7704388 16711746
0.7765371 -0.1553692 2.1115301 16711746
0.8062546 -0.1170734 1.9710963 16711746
0.7520647 -0.2899196 2.3255615 16711746
0.5732862 -0.1448869 2.1145499 16711746
0.2355870 -0.1978437 2.0564077 16711746
0.8915569 -0.3207201 2.1746666 16711746
0.7533509 -0.1784682 1.8642545 16711746
0.7339738 -0.1478563 1.8075757 16711746
0.7306593 -0.1416342 1.8042017 16711746
0.3090908 -0.2405269 2.0684052 16711746
0.6334916 -0.1465821 1.9198927 16711746
0.6190588 -0.1055673 1.7703234 16711746
0.1974614 -0.1402944 1.9852771 16711746
0.7176828 -0.1264491 1.8725512 16711746
0.9600706 -0.1574892 2.1343701 16711746
0.7626377 -0.1295991 2.0258045 16711746
0.7082542 -0.1538840 1.8639864 16711746
0.6505779 -0.1041703 1.8889625 16711746
0.6188080 -0.1375067 1.8497386 16711746
0.7191947 -0.2016370 2.2207270 16711746
1.1565058 -0.1561421 2.1148555 16711746
0.4688163 -0.1165214 1.9077535 16711746
0.5336888 -0.1266516 2.0175080 16711746
0.7813357 -0.2107601 1.7452978 16711746
0.5449075 -0.1750709 1.9859499 16711746
0.6703940 -0.1391958 1.9245615 16711746
0.7076559 -0.2015899 2.1271582 16711746
0.7378994 -0.2120421 1.9958041 16711746
0.4643846 -0.1909619 1.8145051 16711746
0.7954704 -0.1558019 2.0960374 16711746
1.1874560 -0.2951681 2.4283016 16711746
0.6485010 -0.1691877 1.8862939 16711746
0.6177025 -0.1551505 1.8706523 16711746
0.9219792 -0.1880981 2.0241377 16711746
0.4815403 -0.1285155 1.8812574 16711746
0.8936764 -0.1675711 1.9236199 16711746
0.7001651 -0.1981083 2.0931325 16711746
0.8694340 -0.0755725 1.8735530 16711746
0.6734996 -0.1182506 1.8439746 16711746
0.7740259 -0.1063898 1.8639548 16711746
0.7130564 -0.0947352 1.7714130 16711746
0.8060753 -0.1268583 1.8231859 16711746
0.5644056 -0.1957050 1.9215003 16711746
0.5489824 -0.3269425 2.0218160 16711746
0.8712996 -0.1358232 1.9788311 16711746
0.7800745 -0.0884284 2.0770626 16711746
0.6103488 -0.1164409 1.9064411 16711746
0.7669476 -0.1789264 2.0110257 16711746
0.7618541 -0.1027703 2.0676417 16711746
0.7862560 -0.0772926 2.1080806 16711746
0.7036735 -0.0611031 1.8787214 16711746
0.7329240 -0.2320841 1.8018551 16711746
0.4131511 -0.1484493 1.9183640 16711746
0.6987072 -0.1650385 2.1113679 16711746
0.9414554 -0.1394642 1.8955966 16711746
0.8001898 -0.1529963 2.0530207 16711746
0.4699111 -0.0635586 1.8055123 16711746
0.7049348 -0.1427771 1.8619939 16711746
0.8518690 -0.1273689 1.9988430 16711746
0.7005728 -0.0658646 1.7696530 16711746
0.5489519 -0.1139615 1.8114508 16711746
0.8176808 -0.1575520 1.8660413 16711746
0.6761627 -0.1516932 2.0508115 16711746
0.8370709 -0.1402016 1.8490598 16711746
0.7389908 -0.2457252 1.8797226 16711746
0.5523638 -0.1351028 1.9157404 16711746
0.5258653 -0.2207193 2.1186030 16711746
0.6640550 -0.1867815 2.0565085 16711746
0.6393492 -0.0589866 1.8610148 16711746
0.6827949 -0.1391117 1.9316629 16711746
0.8147174 -0.1233567 1.9678142 16711746
0.4872762 -0.1395248 2.0802240 16711746
0.6723664 -0.1197768 1.9112616 16711746
0.3289892 -0.1972960 1.9679961 16711746
0.6815003 -0.1352025 1.7955971 16711746
0.4877318 -0.0765781 1.7907842 16711746
0.5244758 -0.0730817 1.8231173 16711746
0.7556404 -0.1165518 1.8201629 16711746
0.4632391 -0.0958130 1.8911461 16711746
0.4967683 -0.1296231 1.8800001 16711746
0.8667875 -0.0774171 1.8630910 16711746
0.8906428 -0.1675427 2.0978274 16711746
0.8671599 -0.1187627 1.8934164 16711746
0.6428898 -0.0986927 1.8136723 16711746
0.7576934 -0.1274640 2.0223148 16711746
0.7714490 -0.1485312 1.9644177 16711746
0.9233032 -0.1923490 2.1836863 16711746
0.6922155 -0.1452484 1.9381943 16711746
0.9017181 -0.1702920 1.9378452 16711746
0.7294715 -0.1762125 1.8767542 16711746
0.9799202 -0.2030258 2.1305125 16711746
0.9529734 -0.1653317 1.9237974 16711746
0.7346131 -0.1362128 1.9686029 16711746
0.5801905 -0.1545272 1.9077278 16711746
0.2947362 -0.1662777 1.9605649 16711746
0.6494980 -0.1320706 1.8745385 16711746
0.5967816 -0.2204513 2.1446717 16711746
0.8686657 -0.1736503 2.2143528 16711746
0.8868918 -0.1255914 1.8815025 16711746
0.8197604 -0.1299085 1.9507920 16711746
0.8159295 -0.1756268 2.0805788 16711746
0.5812681 -0.1271414 1.8958153 16711746
0.7348645 -0.1006066 1.9074963 16711746
0.7625509 -0.1710174 2.0056684 16711746
0.8265879 -0.1313021 1.8249714 16711746
0.8476706 -0.1248844 1.8532885 16711746
0.6829561 -0.1158065 1.8566185 16711746
0.9936509 -0.1176023 1.9343596 16711746
0.4822928 -0.0452194 1.8698776 16711746
0.5945157 -0.1701383 1.8105967 16711746
0.8723511 -0.1127076 1.8677969 16711746
0.6360371 -0.1610027 1.8619289 16711746
0.8824880 -0.1581620 2.0844970 16711746
0.7917542 -0.1861281 2.1707497 16711746
0.7567808 -0.1231184 1.8325459 16711746
0.7026306 -0.2018896 1.8425187 16711746
0.7733237 -0.1598191 2.1198742 16711746
0.8767955 -0.1520242 1.8816817 16711746
1.0779338 -0.5749608 2.0682287 16711746
0.6775098 -0.1201843 1.9313302 16711746
0.9054605 -0.1703114 2.0144269 16711746
1.3136042 -0.4961215 2.5146668 16711746
0.3474444 -0.1478143 1.9376417 16711746
0.6559540 -0.0835092 1.8626593 16711746
0.6882669 -0.1330968 1.8446306 16711746
0.5844691 -0.2417580 2.3645842 16711746
0.7854745 -0.0823362 1.8633256 16711746
0.7032849 -0.0994853 1.9136450 16711746
0.4624004 -0.0927039 1.9014109 16711746
0.6680318 -0.1239343 1.9401171 16711746
0.6541401 -0.0808053 1.8749605 16711746
0.6215706 -0.0994610 1.8708779 16711746
0.7045259 -0.1550751 1.8928324 16711746
0.4865256 -0.1487298 1.9429595 16711746
0.5492250 -0.0994757 1.8306884 16711746
0.4912142 -0.0881139 1.9218954 16711746
0.4782327 -0.0569992 1.8656625 16711746
0.8857208 -0.1916039 1.9962940 16711746
0.8801479 -0.1595973 1.9459735 16711746
0.8164095 -0.0929161 1.8341695 16711746
0.6429373 -0.0847823 1.8707615 16711746
0.2171025 -0.1031070 2.0695541 16711746
0.4785613 -0.1071744 1.8710352 16711746
0.4688466 -0.1089441 1.8395317 16711746
0.8588962 -0.1947934 2.2526464 16711746
0.9786052 -0.0432297 2.1730721 16711746
0.6022656 -0.1335103 1.8263066 16711746
0.5110362 -2.4835646 2.8334715 16711746
0.7340991 -0.3172646 2.3460698 16711746
0.6387505 -0.2770590 2.1863415 16711746
0.7426739 -0.2034764 2.1235161 16711746
0.6625472 -0.1143798 1.9549932 16711746
0.4370678 -0.1593437 2.0201492 16711746
0.6864699 -0.3472655 2.2953582 16711746
0.6918473 -0.1068769 1.8577929 16711746
0.4475513 -0.1420747 1.9386516 16711746
0.7922468 -0.1193337 1.8230072 16711746
0.7779382 -0.0798241 1.7872937 16711746
0.8309451 -0.1137215 1.8996242 16711746
0.7212241 -0.1381367 1.8948187 16711746
0.8031934 -0.0906627 1.8757062 16711746
0.5883488 -0.1654235 1.8177513 16711746
0.7434916 -0.1178227 1.8269771 16711746
0.8485207 -0.1467069 2.0205379 16711746
0.7908506 -0.0939335 1.7945908 16711746
0.8457989 -0.1196351 1.8540400 16711746
0.5883509 -0.0800480 1.7750430 16711746
0.8240463 -0.0860389 1.8094240 16711746
0.6816163 -0.1452214 1.7942985 16711746
0.7082266 -0.1181971 1.8454678 16711746
0.7269599 -0.1908625 1.8595524 16711746
0.6696444 -0.0940609 1.8862009 16711746
0.6252805 -0.0751111 1.8647864 16711746
0.6304031 -0.0666678 1.8070985 16711746
0.7032182 -0.1038461 1.8903633 16711746
0.5397934 -0.0618744 1.8007510 16711746
1.0840975 -0.1956876 2.0654190 16711746
0.7367100 -0.3115404 2.3396866 16711746
0.8772236 -0.1773745 1.9917701 16711746
-0.0809661 -2.5337694 3.2789583 16711746
0.8032062 -0.1472676 1.9725586 16711746
0.7458794 -0.0937327 1.7963861 16711746
0.7731035 -0.0773835 1.7848048 16711746
0.7263108 -0.0875348 1.8130692 16711746
0.7573649 -0.0789456 1.8583691 16711746
0.7777482 -0.0944466 1.8001416 16711746
0.6840708 -0.1747875 1.9867787 16711746
0.8088096 -0.0997683 1.8544136 16711746
0.4327663 -0.0525054 1.8391198 16711746
0.6713217 -0.1236096 1.9110259 16711746
1.2074950 -0.4826757 3.1179035 16711746
0.6699594 0.0018450 1.8310198 16711746
0.5441893 -0.1674949 1.8153729 16711746
0.6035406 -0.1078963 1.8274018 16711746
0.8245770 -0.0812055 1.8151996 16711746
1.0343316 -0.2923723 2.0866122 16711746
0.8177342 -0.1798140 1.8501667 16711746
0.7400111 -0.0940707 1.9213121 16711746
0.7989408 -0.0869235 1.8173268 16711746
0.7961610 -0.1475614 2.0965538 16711746
0.6929141 -0.0955781 1.8844098 16711746
0.6632758 -0.0885313 1.9653845 16711746
0.6162093 -0.1480357 2.0199890 16711746
0.6883320 -0.2091724 1.8615956 16711746
0.6787053 -0.1830249 1.8429110 16711746
0.5944088 -0.0737388 1.9686935 16711746
0.8149545 -0.1231100 2.1445038 16711746
0.8057963 -0.0371209 2.1685076 16711746
0.6081610 -0.1020992 2.0459225 16711746
0.6071050 -0.1235146 2.0315950 16711746
0.6162999 -0.1197812 1.9805351 16711746
0.6690728 -0.1297391 1.9632007 16711746
0.7132799 -0.0453074 1.9575350 16711746
0.7632041 -0.1003507 1.9730216 16711746
0.6274410 -0.1168092 1.9848095 16711746
0.6109343 -0.0825831 1.8722267 16711746
0.6557211 -0.0908766 1.9435376 16711746
0.5760459 -0.1350383 2.1695611 16711746
0.6764084 -0.1190439 1.9607066 16711746
0.6824598 -0.1472020 1.9641349 16711746
0.6726583 -0.1482982 2.0793920 16711746
0.7406641 -0.1951314 1.8558676 16711746
0.6698665 -0.1513252 1.8254272 16711746
0.7297260 -0.1027855 1.9447302 16711746
0.6519866 -0.0544128 1.8610134 16711746
0.6327657 -0.1802913 2.0218782 16711746
0.6178597 -0.0416044 1.7816341 16711746
0.9600058 -0.2551688 1.8750370 16711746
0.8356950 -0.1425793 1.8515797 16711746
0.5183583 -0.1026486 2.1304028 16711746
0.5689239 -0.0340782 1.8568606 16711746
0.6601309 -0.0077082 1.8869785 16711746
0.6095539 -0.1544711 1.9395134 16711746
0.6415887 -0.1365982 1.9006717 16711746
0.5498338 -0.1373116 2.1248751 16711746
0.7374889 -0.0752603 1.9908961 16711746
0.6811885 -0.0513478 1.8898138 16711746
0.8032185 -0.1359518 2.0520928 16711746
0.7193329 -0.0893160 1.9094305 16711746
0.8027014 -0.1674454 2.1319780 16711746
0.8199729 -0.1242452 1.9943961 16711746
0.6620420 -0.0494476 1.8605984 16711746
0.6307629 -0.0581901 1.8357635 16711746
0.7683880 -0.0678675 1.9534657 16711746
0.7015933 -0.0672646 1.8933964 16711746
0.7402959 -0.0926191 1.9224997 16711746
0.7580742 -0.0927278 1.9191991 16711746
0.6673535 -0.0622200 1.8766065 16711746
0.8382860 -0.1228108 2.0277443 16711746
0.8169928 -0.1228528 1.9915458 16711746
0.6829534 -0.0715864 1.8228790 16711746
0.7090307 -0.0954626 1.8980334 16711746
0.6582741 -0.1201233 1.8862393 16711746
0.7517325 -0.1120845 2.2525687 16711746
0.6711723 -0.1266545 2.0099261 16711746
0.6535072 -0.0946027 1.9355648 16711746
0.6272181 -0.0655764 1.8262992 16711746
0.6817809 -0.0664700 1.8183146 16711746
0.8389044 -0.1044311 2.2194645 16711746
0.6389621 -0.0602682 1.8313446 16711746
0.6384143 -0.0948433 1.8505390 16711746
0.7240874 -0.0937434 1.8103262 16711746
0.7060322 -0.1090340 1.8705854 16711746
0.6265069 -0.1075127 1.8365881 16711746
0.7600716 -0.1028424 1.9726927 16711746
0.6165147 -0.0440749 1.7804245 16711746
0.5211446 -0.2277912 2.2191045 16711746
0.5616143 -0.1607864 2.0411704 16711746
0.7361342 -0.1110084 1.9105692 16711746
0.7703612 -0.1048040 1.8622516 16711746
0.7971493 -0.0982296 1.8209319 16711746
0.7804683 -0.0800582 1.7945336 16711746
0.7220381 -0.0868335 1.9227363 16711746
0.7321937 -0.1039336 1.8097258 16711746
0.7416717 -0.0477563 1.9881649 16711746
0.8445241 -0.1240787 1.9760579 16711746
0.8042033 -0.1115100 1.8601055 16711746
0.8138737 -0.0748261 1.9446719 16711746
0.7959586 -0.0827435 1.7941782 16711746
0.7462417 -0.0645889 1.8583143 16711746
0.4654027 -0.0592493 1.7999544 16711746
0.7620428 -0.0933446 1.8567806 16711746
0.6339298 -0.0481286 1.8276881 16711746
0.7673868 -0.1361055 1.8280722 16711746
0.7304594 -0.2004030 1.8845880 16711746
0.6730884 -0.0626049 1.8099730 16711746
0.6645919 -0.0741405 1.8050276 16711746
0.6139432 -0.0895760 1.8378789 16711746
0.6047186 -0.1626678 1.8301510 16711746
0.6854309 -0.1118426 1.8560977 16711746
0.5926075 0.0580988 1.7395096 16711746
0.7655672 -0.0648044 1.8827329 16711746
0.7399202 -0.1261016 1.9532704 16711746
0.6754180 -0.2146673 2.0741079 16711746
0.8554040 -0.1428047 1.8184775 16711746
0.6959516 -0.1176219 1.8565848 16711746
0.7381303 -0.0887098 1.8632036 16711746
0.7528710 -0.1085199 1.8823256 16711746
0.8310310 -0.1052252 1.8125470 16711746
0.7923101 -0.1608825 2.0406599 16711746
0.6653551 -0.1630301 1.9229735 16711746
0.6478631 -0.1030297 1.9753031 16711746
0.8186532 -0.0906408 1.8134786 16711746
0.8203461 -0.1411650 1.8760926 16711746
0.6648498 -0.1085889 1.8952234 16711746
0.7826385 -0.1026337 2.0952866 16711746
0.8099319 -0.1098187 1.9038306 16711746
0.7876143 -0.1316310 2.0172975 16711746
0.4144707 -0.0930588 1.8538607 16711746
0.6890157 -0.0857511 1.8744752 16711746
0.7017809 -0.1019130 1.9544905 16711746
0.7149909 -0.0175857 1.8790900 16711746
0.7898088 -0.0722886 1.8946869 16711746
0.7739282 -0.0819327 1.8128366 16711746
0.8790070 -0.0520907 1.9067925 16711746
0.7246595 -0.0861857 1.9030663 16711746
0.6959973 -0.0667579 1.8638690 16711746
0.6790494 -0.0754717 1.8304693 16711746
0.6970821 -0.0781886 1.8964378 16711746
0.7007009 -0.0856101 1.8884196 16711746
0.6055578 -0.0387999 1.9304935 16711746
0.7748038 -0.0607114 1.8824471 16711746
0.6448385 -0.0584715 1.8810890 16711746
0.5544516 -0.0770630 1.7914437 16711746
0.9640079 -0.2207761 2.0525630 16711746
0.7511508 -0.0304135 2.0756240 16711746
0.7673978 -0.0510169 1.8297390 16711746
0.7997046 -0.0466417 1.9820231 16711746
0.7147155 -0.1028750 1.8775772 16711746
0.8614925 -0.0894337 2.0635064 16711746
0.8181119 -0.1054329 2.0484712 16711746
0.8655613 -0.0896260 2.0655844 16711746
0.7121194 -0.0706286 1.9226980 16711746
0.8031868 -0.0485955 1.9210935 16711746
0.8281390 -0.0458302 1.8762330 16711746
0.7902912 -0.0752141 1.9909638 16711746
0.7375263 -0.0528356 1.8478730 16711746
0.7533057 -0.0393286 1.8206173 16711746
0.6728720 -0.0579978 1.8870014 16711746
0.6199621 -0.0457271 1.8161850 16711746
0.8116692 -0.0223651 1.9015683 16711746
0.7045783 -0.0662064 1.9283637 16711746
0.5943379 -0.0257861 1.9026157 16711746
0.7828701 -0.0405485 1.8552746 16711746
0.5508058 -0.1098453 2.0154703 16711746
0.8218216 -0.0865815 2.2573624 16711746
0.7639444 -0.0395556 1.8310595 16711746
0.7707895 -0.0697821 1.8905357 16711746
0.6067457 0.0323580 1.7528696 16711746
0.6740027 -0.0885836 1.8693435 16711746
0.7824179 -0.0910332 1.8132838 16711746
0.7414104 -0.0254925 1.8757288 16711746
0.7300332 -0.0189447 1.8214457 16711746
0.7605312 -0.0366730 1.8429964 16711746
0.7536075 -0.0363894 1.8389521 16711746
0.6367491 0.0580038 1.7552601 16711746
0.6863940 -0.0008233 1.9002496 16711746
0.6894215 -0.0654450 1.8369403 16711746
0.6047345 -0.0859716 1.9741261 16711746
0.8081868 -0.0909872 1.8316669 16711746
0.6547279 -0.1232263 1.8397690 16711746
0.7739189 -0.0418459 1.8099185 16711746
0.5877017 -0.1293175 2.0969231 16711746
0.5728689 -0.1280825 2.0352752 16711746
0.7600195 -0.0522013 1.9198271 16711746
0.6908591 -0.0054165 1.8893080 16711746
0.7046526 -0.0209347 1.8187339 16711746
0.7080553 -0.0920706 1.9290968 16711746
0.6759421 -0.0485923 1.8643115 16711746
0.6381884 -0.0717207 1.9003205 16711746
0.7535027 -0.0338535 1.8251169 16711746
0.7195991 -0.0134992 1.8936281 16711746
0.6739775 -0.0461576 1.9070275 16711746
0.6211325 -0.0572403 1.8291994 16711746
0.7379396 -0.0266254 1.8567338 16711746
0.5727477 -0.0665252 1.9901247 16711746
0.6635426 0.0315161 1.7622418 16711746
0.5787476 -0.1084573 2.0980330 16711746
0.6822498 -0.0969646 1.8757689 16711746
0.5805604 -0.1043911 2.0903411 16711746
0.6654164 -0.0599163 1.8469589 16711746
0.5405748 -0.1099617 2.0617175 16711746
0.7384443 -0.0447427 1.8918935 16711746
0.5593405 -0.0993994 2.0741372 16711746
0.6116910 -0.1091579 1.9327017 16711746
0.7478223 -0.0398143 1.9190859 16711746
0.5677026 -0.1606866 2.1283023 16711746
0.5789912 -0.0810025 1.9668564 16711746
0.6964563 -0.0188838 1.9351180 16711746
0.7519879 -0.0439259 2.0616646 16711746
0.6499495 -0.0743290 1.9307815 16711746
0.5924340 -0.0969498 2.0403941 16711746
0.5706285 -0.1295455 2.0773008 16711746
0.5717425 -0.0934424 2.0710568 16711746
0.7374858 -0.0812962 1.8831581 16711746
0.5404876 -0.0587053 2.0391045 16711746
0.7537786 -0.0609758 1.9084772 16711746
0.5639572 -0.0603260 1.9403679 16711746
0.6951486 -0.0875623 1.8537902 16711746
0.5054436 -0.1318909 1.9978603 16711746
0.5753294 -0.1189241 2.0057266 16711746
0.7410269 -0.0703374 1.8328229 16711746
0.6458213 -0.1435225 1.9722270 16711746
0.7227815 -0.0507416 1.9223936 16711746
0.6173298 -0.1949852 2.0164537 16711746
0.7653756 -0.0509788 1.8302188 16711746
0.6391978 -0.0608681 1.8496492 16711746
0.4300828 -0.1162363 2.0444205 16711746
0.5594375 -0.0574170 2.0025890 16711746
0.5510289 -0.0937778 1.9930233 16711746
0.6259714 0.0015399 1.8123693 16711746
0.7787555 -0.0617213 1.9737968 16711746
0.7187136 -0.0544979 1.8779767 16711746
0.6060938 -0.0860645 1.8414030 16711746
0.5748131 -0.0892032 2.0569835 16711746
0.5802879 -0.1325998 2.0092721 16711746
0.4240484 -0.0834137 2.0390823 16711746
0.5880542 -0.1077232 2.0108428 16711746
0.6079108 -0.0242536 1.8934939 16711746
0.7700779 -0.0556319 1.8745495 16711746
0.8178449 -0.1015516 1.8202598 16711746
0.8151076 -0.0992575 1.9196950 16711746
0.6903161 -0.0696751 2.0737405 16711746
0.8253562 -0.1244239 2.2304399 16711746
0.6125580 -0.0635210 1.8271600 16711746
0.5680895 -0.0818302 1.9662496 16711746
0.8758925 0.0044981 2.0446365 16711746
0.4957503 -0.0757480 2.0326071 16711746
0.4686276 -0.1163772 2.1090686 16711746
0.6676434 -0.1512525 2.0521083 16711746
0.7721758 -0.0230749 1.9689084 16711746
0.5788912 -0.0453967 1.9667753 16711746
0.6724311 -0.0666563 1.8542290 16711746
0.6585403 -0.0565252 1.8442270 16711746
0.6894221 -0.0435917 1.8511736 16711746
0.6386944 -0.0421939 1.8447114 16711746
0.5258846 -0.1082835 1.9543161 16711746
0.6908743 -0.0253158 1.8393996 16711746
0.6652864 -0.0347562 1.8442693 16711746
0.6037297 -0.0487453 1.8173511 16711746
0.6780162 -0.0404191 1.8619874 16711746
0.5380979 -0.0528707 1.8717062 16711746
0.6741377 -0.0326557 1.8652761 16711746
0.7532486 -0.0252025 1.8761934 16711746
0.6777920 -0.0428117 1.8172735 16711746
0.5388432 -0.0768915 1.9201212 16711746
0.4997671 -0.0684990 1.9345367 16711746
0.6632503 -0.0259437 1.8810511 16711746
0.6946848 -0.0301146 1.8435717 16711746
0.7582849 -0.0343565 1.9180878 16711746
0.7275108 -0.0274715 1.8983679 16711746
0.5735734 -0.0625360 1.8505465 16711746
0.6749405 -0.0450464 1.8584117 16711746
0.6655009 -0.0426009 1.8577669 16711746
0.6677783 -0.0002930 1.8650182 16711746
0.7211982 -0.0061082 1.8568852 16711746
0.5867301 -0.0543070 1.8292136 16711746
0.6993238 -0.0460525 1.8992475 16711746
0.7400510 -0.0414802 1.9173794 16711746
0.4471126 -0.0641088 1.8898664 16711746
0.3296582 -0.1716046 1.9823101 16711746
0.7043600 -0.0167627 1.8725687 16711746
0.7321401 -0.0310789 1.8826846 16711746
0.6886345 -0.0352618 1.8706892 16711746
0.5989198 -0.1010562 1.8940289 16711746
0.6388808 -0.0620393 1.8507669 16711746
0.6230860 -0.0278790 1.8579686 16711746
0.6645186 -0.0425898 1.8575761 16711746
0.6464903 -0.0453283 1.8116621 16711746
0.6540295 -0.0590467 1.8447038 16711746
0.5448339 -0.0488303 1.9350971 16711746
0.6757432 0.0009157 1.8699272 16711746
0.6382350 -0.0582094 1.8675013 16711746
0.6189285 0.0083823 1.8096429 16711746
0.6974801 -0.0946111 1.8396264 16711746
0.5923097 -0.0410923 1.8485769 16711746
0.5661614 -0.0275484 1.9313456 16711746
0.6508191 -0.0677154 1.9634252 16711746
0.6470825 -0.0169899 1.9050646 16711746
0.5804155 -0.1342043 2.0660639 16711746
0.7186244 -0.0962416 2.1718657 16711746
0.7929535 -0.0692623 2.1619740 16711746
0.8369336 -0.1377480 1.9354098 16711746
0.6045457 -0.2865406 1.9334503 16711746
0.6211737 -0.1169733 1.9852571 16711746
0.6795667 -0.0421185 1.8136191 16711746
0.5017755 -0.0651804 2.0155132 16711746
0.7205474 -0.0351564 1.8446401 16711746
0.6218721 -0.0402747 1.8634108 16711746
0.6219858 -0.0667736 1.9172816 16711746
0.5800706 -0.0758308 1.9057208 16711746
0.6830506 -0.0096738 1.8366469 16711746
0.6493177 -0.0105985 1.8321427 16711746
0.6919352 -0.0219392 1.8477522 16711746
0.5833714 -0.0713061 1.9294411 16711746
0.6906643 -0.0042473 1.8161814 16711746
0.6398614 -0.0011353 1.8803149 16711746
0.7077126 -0.0240888 1.8159497 16711746
