# .PCD v.7 - Point Cloud Data file format
VERSION .7
FIELDS x y z rgb
SIZE 4 4 4 4
TYPE F F F F
COUNT 1 1 1 1
WIDTH 1194
HEIGHT 1
VIEWPOINT 0 0 0 1 0 0 0
POINTS 1194
DATA ascii
0.1479820 -0.3424069 1.1508704 16711746
0.0724477 -0.3249575 1.1833308 16711746
-0.0832210 -0.2443126 1.0657699 16711746
0.6496992 -0.1779523 1.6226205 16711746
-0.0876257 -0.1472511 1.1162000 16711746
2.4573319 -1.7378254 2.9026847 16711746
1.0126363 -0.6135484 1.3844165 16711746
0.3714435 -0.3124736 1.4962149 16711746
0.3910941 -0.2439738 1.6347423 16711746
0.3423292 -0.3697226 1.4364234 16711746
0.4498818 -0.4069234 1.3313372 16711746
0.3855363 -0.3550700 1.4685475 16711746
0.3979978 -0.4325930 1.3634740 16711746
0.3998027 -0.2540774 1.5015897 16711746
0.4580294 -0.5281390 1.4570744 16711746
1.1648929 -0.4823715 1.3171064 16711746
0.3856221 -0.3821002 1.6043417 16711746
0.7068223 -0.2545509 1.1771278 16711746
0.6398087 -0.2095663 1.1286606 16711746
0.2450966 -0.2673207 1.5327345 16711746
1.0911957 -0.3222919 1.3645575 16711746
0.3695424 -0.4837904 1.3989236 16711746
0.4643517 -0.4452112 1.3635864 16711746
0.4344101 -0.3299491 1.7229180 16711746
0.5789718 -0.2768658 1.9022037 16711746
0.3407683 -0.3693835 1.5580817 16711746
0.3316544 -0.3223260 1.3821815 16711746
0.7625841 -0.2334221 1.4712837 16711746
0.6254569 -0.1390467 1.2880913 16711746
0.8365335 -0.4053535 1.3794442 16711746
0.3598037 -0.3817366 1.3087265 16711746
0.3244676 -0.4891433 1.5611787 16711746
0.3259743 -0.4428956 1.5878361 16711746
0.3207972 -0.3517619 1.4606255 16711746
0.3453665 -0.1549999 1.2849426 16711746
0.3412684 -0.0784819 1.1409689 16711746
0.3161906 -0.0851658 1.1342249 16711746
0.3447975 -0.4648152 1.5326064 16711746
-0.7087728 -0.8630837 2.4328010 16711746
0.0152661 -1.6686720 2.3542750 16711746
1.0824203 -1.8704114 2.5541022 16711746
1.0621152 -0.5099211 1.5424201 16711746
-0.2996039 -0.2913835 1.5590932 16711746
0.3376528 -0.3529059 1.3908578 16711746
0.3363051 -0.4007668 1.4437970 16711746
0.3276543 -0.2362897 1.3643873 16711746
0.3859213 -0.1960975 1.4481151 16711746
0.3761578 -0.1165651 1.3350393 16711746
0.3594945 -0.2795825 1.5366415 16711746
1.4464005 -0.6864260 1.7872860 16711746
0.2584143 -0.3902718 1.3905365 16711746
0.3672105 -0.0939382 1.2674067 16711746
0.2986647 -0.4040909 1.4318519 16711746
1.1110197 -0.4580091 1.5460941 16711746
0.3280841 -0.4013851 1.4054132 16711746
0.3006527 -0.3578450 1.3831087 16711746
1.0582019 -0.4178788 1.4982989 16711746
1.5148560 -0.6354501 1.9348018 16711746
0.3721817 -0.1767672 1.4041727 16711746
0.4255338 -0.1319028 1.1298633 16711746
0.4098565 -0.1966029 1.1364174 16711746
1.2375331 -0.5898795 2.0737331 16711746
1.2081493 -0.5771455 2.0457864 16711746
1.5692661 -0.7887568 2.5207653 16711746
0.4152112 -0.2755721 1.7757581 16711746
0.3396516 -0.2838863 1.2451887 16711746
0.0849692 -0.3294480 1.2593901 16711746
1.7974250 -0.8730140 2.9796281 16711746
0.2687821 -1.8020349 3.0313387 16711746
0.2126931 -0.1527005 1.1513211 16711746
0.2100576 -0.2617418 1.5692905 16711746
0.3318847 -0.1225783 1.2332649 16711746
0.3803540 -0.1735356 1.3614713 16711746
0.3571840 -0.1010025 1.2230976 16711746
0.0711776 -0.5384063 2.1730478 16711746
0.4331143 -0.1596076 1.1051277 16711746
0.3428889 -0.2514931 1.2044913 16711746
0.6763566 -0.3071797 1.2556139 16711746
0.5593185 -0.2529863 1.1703858 16711746
0.2765557 -0.1850812 1.1048167 16711746
0.6003685 -0.2021098 1.1773629 16711746
0.6690931 -0.3358764 1.2874578 16711746
0.4173006 -0.0690944 1.1702126 16711746
0.6170874 -0.2040990 1.1990411 16711746
0.3304267 -0.3113143 1.3175080 16711746
0.5553502 -0.2380057 1.1135451 16711746
0.1924753 -0.2538394 1.1257062 16711746
0.2657185 -0.3669993 1.3673406 16711746
0.3323738 -0.3314053 1.3389729 16711746
0.6211787 -0.2624914 1.1501778 16711746
0.2401574 -0.5093683 1.5094786 16711746
0.8068311 -0.5441229 1.3886932 16711746
0.3329966 -0.3466681 1.3542624 16711746
0.6351339 -0.2996366 1.1261779 16711746
0.7364580 -0.3290369 1.2540009 16711746
0.2695879 -0.3406956 1.3446844 16711746
0.5883128 -0.1883017 1.1928777 16711746
0.7140838 -0.3026520 1.2896801 16711746
0.8438623 -0.4342425 1.3822858 16711746
0.7865211 -0.3631418 1.1648675 16711746
0.6638657 -0.3527189 1.2491487 16711746
0.4512831 -0.2179544 1.1138602 16711746
0.7050364 -0.3920772 1.2774912 16711746
0.2879648 -0.2261991 1.2280918 16711746
1.1180351 -0.4671622 1.5209585 16711746
0.3372869 -0.3516175 1.3907282 16711746
1.0932389 -0.4424452 1.5299420 16711746
1.3837552 -0.4991855 1.5801650 16711746
1.1904941 -0.4602742 1.5320654 16711746
0.1991490 -0.2399953 1.5679379 16711746
1.0309434 -0.4869819 1.5173508 16711746
0.1926344 -0.2626184 1.6094913 16711746
1.4776909 -0.6642132 2.5586317 16711746
0.2365875 -0.2574478 1.5201761 16711746
0.3055876 -0.3161469 1.3484704 16711746
1.0633799 -0.3029352 1.4526849 16711746
0.3696141 -0.1989406 1.4910076 16711746
0.3675207 0.0306247 1.0169641 16711746
0.3908181 -0.2692682 1.7074592 16711746
1.1272682 -0.4733529 1.4539146 16711746
0.2343419 -0.1902197 1.3961585 16711746
0.2860086 -0.1429431 1.1786883 16711746
2.5531526 -1.3648868 3.6797652 16711746
1.3736736 -0.7530121 1.7905861 16711746
1.2053018 -0.6356512 1.6013924 16711746
0.2835974 -0.2360457 1.2380658 16711746
0.5638607 -0.2095187 1.1377032 16711746
0.2570576 -0.1424290 1.1001451 16711746
0.2599067 -0.1866174 1.1138046 16711746
0.4598135 -0.0189565 1.1174800 16711746
1.2193248 -0.4096317 1.4787327 16711746
0.4152686 -0.0551362 1.1055328 16711746
0.9735005 -0.4491278 1.1676557 16711746
1.0902853 -0.4532055 1.5012161 16711746
1.2083223 -0.3874081 1.4576832 16711746
1.1432464 -0.3358129 1.3691956 16711746
1.0260676 -1.1171215 2.4627194 16711746
1.1041093 -0.3130821 1.3487468 16711746
0.7962852 -0.2957747 1.2962863 16711746
0.6562923 -0.1868138 1.1979737 16711746
0.3644914 -1.2170426 2.8792300 16711746
0.3469003 -0.0746293 1.2165375 16711746
1.1220727 -0.6365642 1.6098841 16711746
0.7553852 -0.7788842 1.8114117 16711746
0.0866867 -0.2254177 1.3152716 16711746
0.4934104 -0.2708473 1.2568836 16711746
0.5314448 -0.2154235 1.4415851 16711746
0.3789973 -0.0171884 1.0867668 16711746
0.4004485 -0.5057310 2.1208055 16711746
0.2213383 -0.2378018 1.5623872 16711746
0.2357624 -0.2012678 1.4852067 16711746
0.6500725 -0.2510964 1.6401983 16711746
0.6560149 -0.2230198 1.7590871 16711746
0.7809855 -0.3095282 1.3101757 16711746
0.9430295 -0.3922475 1.4383025 16711746
0.4095047 -0.2499025 1.7107460 16711746
0.4088548 -0.6927402 2.1960609 16711746
0.3564706 -0.3203034 1.7442982 16711746
0.7867788 -0.3571042 1.3237951 16711746
1.9736900 -2.8934484 3.5213859 16711746
0.2275257 -0.1800988 1.3394845 16711746
0.3500024 -0.2602186 1.5398002 16711746
1.4908819 -1.7981490 3.4205356 16711746
-0.0267254 -0.3062523 1.2860129 16711746
0.1496275 -0.4949266 1.5958923 16711746
0.2280482 -0.4580895 1.6000431 16711746
0.2209830 -0.2193504 1.3592637 16711746
0.2010354 -0.2523397 1.3473945 16711746
0.2160691 -0.2120304 1.3101707 16711746
0.2085239 -0.2288126 1.3918523 16711746
0.0490279 -0.2685073 1.3598567 16711746
0.2359798 -0.1724598 1.3258159 16711746
0.2433056 -0.1913240 1.3123454 16711746
0.5076326 -0.0936718 1.3583488 16711746
0.2199118 -0.1432855 1.2731960 16711746
0.9192408 -0.2238724 1.6908839 16711746
0.9503048 -0.3204107 1.8047976 16711746
0.4753144 -0.0223345 1.1219598 16711746
0.7549515 -0.2470777 1.5318556 16711746
0.8876551 -0.2473926 1.6033676 16711746
0.4740070 -0.0217325 1.1208929 16711746
0.4292523 -0.3970701 1.9761928 16711746
0.4198098 0.0049864 1.0892076 16711746
1.0281727 -0.2827524 1.8260584 16711746
0.8623745 -0.2312097 1.5752702 16711746
0.8383775 -0.2622493 2.0999162 16711746
0.2233142 -0.1956477 1.3233777 16711746
0.2066795 -0.3018144 1.3460797 16711746
0.1335126 -0.4758903 1.9868474 16711746
0.5459441 -0.3018000 1.3404576 16711746
-0.0210580 -0.3545553 1.3661554 16711746
1.1547316 -0.6065897 1.6199974 16711746
1.6538615 -1.0305502 1.9431567 16711746
-0.9466540 -1.3532574 2.2094901 16711746
0.3625571 -1.3614751 2.7371116 16711746
0.5977295 -0.2059466 1.2223287 16711746
0.4547011 -0.1246214 1.3020231 16711746
0.5884514 -0.2030504 1.2562072 16711746
-0.5855439 -1.0594099 1.8121855 16711746
1.4583240 -0.6698253 1.6735990 16711746
0.4130715 -0.0068409 1.2788202 16711746
0.8330235 -0.1800622 2.1187398 16711746
0.4902742 -0.0620720 1.3183215 16711746
0.3479805 -0.0405617 1.3438786 16711746
0.5505368 -0.1361279 1.4175304 16711746
0.3304266 -0.0324311 1.3316474 16711746
0.4374390 -0.0172837 1.2467562 16711746
0.4267382 0.0339506 1.2111205 16711746
0.4848896 -0.0625074 1.2281923 16711746
0.3309531 -0.0300350 1.3166963 16711746
0.2471213 -0.2747795 1.3648317 16711746
0.2044036 -0.2058397 1.3881232 16711746
0.4231749 -0.0443181 1.3321491 16711746
0.8650712 -0.2188077 1.6099913 16711746
0.5077530 -0.2537539 1.2044230 16711746
0.4155916 -0.2886059 1.3736980 16711746
0.2415503 -0.1669330 1.5155029 16711746
0.4112231 -0.2543071 1.6381069 16711746
0.5179463 -0.0562040 1.1489058 16711746
-0.0735434 -0.3383926 1.3750743 16711746
0.3482203 -0.0374801 1.3340248 16711746
0.2597519 -0.1152413 1.2185014 16711746
0.2417397 -0.1989087 1.3101587 16711746
0.2402963 -0.2379093 1.2923422 16711746
0.2918424 -0.0674125 1.2436939 16711746
0.2798380 -0.1733326 1.2842987 16711746
0.2145530 -0.1979250 1.2823666 16711746
0.2545593 -0.0900161 1.2296747 16711746
0.4948705 -0.1763002 1.2088516 16711746
0.6397794 -0.0924797 1.2093363 16711746
0.1391619 -0.1158740 1.1975411 16711746
0.3914542 -0.1532553 1.2374970 16711746
0.1335565 -0.1359029 1.2029406 16711746
0.2528532 -0.1667352 1.3428968 16711746
0.3826023 -0.0815192 1.1561848 16711746
0.3589718 0.0528226 1.0647818 16711746
0.2749553 -0.1735733 1.2954085 16711746
0.4828910 -0.1256476 1.2284291 16711746
0.3004957 -0.0686394 1.2764006 16711746
0.3653274 0.0558972 1.0761651 16711746
0.0282265 -0.2101960 1.5453721 16711746
0.2402079 -0.2805449 1.5902741 16711746
-0.1339557 -0.2436382 1.6205630 16711746
0.7291600 -0.5480697 1.9198706 16711746
0.2214243 -0.5313679 1.4109069 16711746
1.5284616 -2.0945382 3.6404951 16711746
0.3492855 -0.1513421 1.2923101 16711746
0.4346411 -0.0048879 1.1425461 16711746
-0.0225256 -0.2902450 1.3167197 16711746
1.1744978 -1.9384290 2.1990037 16711746
0.1324509 -0.2421710 1.2865820 16711746
0.5587699 -0.1166123 1.4528384 16711746
0.4263340 -0.0048478 1.2206336 16711746
0.1493980 -0.2455394 1.2466474 16711746
0.4247953 -0.0324974 1.1589701 16711746
0.2486380 -0.1465263 1.2970741 16711746
0.0899334 -0.2183920 1.3091894 16711746
0.1867567 -0.2276043 1.2751281 16711746
0.3010939 -0.2227381 1.8283181 16711746
0.9760900 -0.8016442 2.3932190 16711746
0.8572001 -0.3751450 1.3594431 16711746
0.5324507 -0.0420046 1.4517606 16711746
0.0096611 -0.6892138 1.6650404 16711746
1.4028724 -0.5917881 1.6245784 16711746
-0.6063235 -0.8615658 1.7710783 16711746
0.6406842 -0.2079916 1.6145234 16711746
0.7092950 -0.4504481 1.3113596 16711746
0.5191117 -0.0474350 1.4177487 16711746
0.5594136 -0.0885743 1.4629962 16711746
0.5441484 -0.1296809 1.4241188 16711746
0.1450535 -0.3040487 1.3521221 16711746
0.1557724 -0.2843320 1.3087637 16711746
0.6589857 -0.0973865 1.4147145 16711746
0.5691822 -0.1619678 1.4516912 16711746
0.4804733 -0.1603036 1.3586038 16711746
0.7561057 -0.3384779 1.3416030 16711746
0.9839577 -0.3406286 1.4490715 16711746
0.2245365 -0.2006235 1.5837500 16711746
0.6247531 -0.2307534 1.6100093 16711746
0.5115911 -0.1596176 1.4411606 16711746
0.5618239 -0.1693297 1.3405581 16711746
0.3337071 -0.0938201 1.4529452 16711746
0.8153709 -0.3088835 1.5561811 16711746
0.2676479 -0.1203643 1.4307956 16711746
0.6379794 -0.2070934 1.4034238 16711746
0.6522614 -0.2745333 1.3200519 16711746
0.0223583 -0.3072596 1.3030256 16711746
0.6177049 -0.2083114 1.3093686 16711746
0.6104198 -0.2463565 1.4270332 16711746
0.8893761 -0.2740371 1.4162577 16711746
0.9211734 -0.4215623 1.3545357 16711746
0.1449373 -0.1791553 1.5454398 16711746
0.2567337 -0.2222564 1.4999881 16711746
0.1058899 -0.1967793 1.5155613 16711746
0.2791234 -0.0736898 1.2223197 16711746
0.7458981 -0.2040114 1.5306123 16711746
0.3439417 -0.1372078 1.5291418 16711746
0.7192723 -0.1541739 1.2637278 16711746
0.7514560 -0.2466749 1.3123192 16711746
0.7779260 -0.2692460 1.5117780 16711746
0.8146833 -0.2814667 1.3448088 16711746
0.7571411 -0.1826653 1.2533910 16711746
0.7756936 -0.1935120 1.2964847 16711746
0.2573177 -0.2378528 1.7880973 16711746
0.5550427 -0.0651171 1.3041382 16711746
0.1882723 -0.2452026 1.7179656 16711746
0.8973615 -0.3629259 1.3629340 16711746
0.7162184 -0.1824266 1.4932665 16711746
0.7572682 -0.1982409 1.4924359 16711746
0.6666561 -0.1268073 1.2527614 16711746
0.6169241 -0.2294029 1.5456769 16711746
0.2833875 -0.1659043 1.6136322 16711746
0.6895871 -0.1672155 1.4175880 16711746
0.5440559 -0.2824429 1.5245247 16711746
0.4510504 -0.1470264 1.2987536 16711746
0.6600163 -0.0819867 1.4580467 16711746
0.1270604 -0.2626643 1.9040637 16711746
0.4400476 -0.0424140 1.3845600 16711746
0.3630912 0.0034045 1.1595885 16711746
0.7659568 -0.2377914 1.2666156 16711746
0.3732105 -0.2003539 1.2082744 16711746
0.5895267 -0.2686365 1.2344465 16711746
1.2484330 -0.5434271 2.0155106 16711746
1.3627505 -0.5577482 2.1465960 16711746
0.7366937 -0.1930774 1.2168996 16711746
1.8611720 -1.1593260 1.9882466 16711746
0.5915423 -0.1140255 1.5574337 16711746
0.9667391 -0.4884965 1.3732171 16711746
0.5181105 -0.0640216 1.3643479 16711746
0.2467523 -0.0365021 1.2740000 16711746
0.5873207 -0.1133446 1.3458132 16711746
0.2202973 -0.1028914 1.3166808 16711746
0.6109883 -0.1893538 1.5182207 16711746
0.6015994 -0.2256991 1.4095185 16711746
0.5375441 -0.1334548 1.3577229 16711746
0.5190331 -0.1364954 1.2559679 16711746
0.5801034 -0.1723689 1.2739189 16711746
0.2963480 -0.0883056 1.3376573 16711746
0.2702106 -0.0948401 1.3049185 16711746
0.3793100 -0.2283415 1.3927500 16711746
0.5212200 -0.0875263 1.3839478 16711746
0.6084855 -0.2192034 1.3124639 16711746
0.2714700 -0.0962148 1.1561726 16711746
0.6093692 -0.1747426 1.3109624 16711746
0.5573786 -0.2172944 1.2120745 16711746
0.4602590 -0.0903633 1.4441786 16711746
0.5588776 -0.1739478 1.3522372 16711746
0.7450753 -0.2239736 1.2587730 16711746
0.2270170 -0.0823028 1.1756784 16711746
0.4942473 -0.0613317 1.2214578 16711746
0.1459401 -0.1678038 1.4555197 16711746
0.6476005 -0.2112912 1.5926818 16711746
0.6897992 -0.2365525 1.5853480 16711746
0.4693218 -0.0731637 1.4967819 16711746
0.3773880 -0.2431868 1.6807766 16711746
0.6057070 -0.1800917 1.4113659 16711746
0.1877571 -0.1020913 1.1657263 16711746
0.1623240 -0.1566286 1.5045651 16711746
0.6462247 -0.1351750 1.6548450 16711746
0.6031728 -0.2063796 1.5154728 16711746
0.6682137 -0.2021601 1.4465094 16711746
0.4193469 -0.0116115 1.2942054 16711746
0.7814305 -0.2048805 1.4418055 16711746
0.6304331 -0.2128630 1.6933777 16711746
0.6508079 -0.2138977 1.4137614 16711746
0.7407249 -0.2745958 1.4790978 16711746
0.4766943 -0.0446679 1.4480342 16711746
0.6916402 -0.2384598 1.5893828 16711746
0.6291901 -0.3665369 1.7017422 16711746
0.5635006 -0.2423348 1.3406554 16711746
0.5316337 -0.2328136 1.7112638 16711746
0.6158293 -0.2053607 1.5108213 16711746
0.8432944 -0.2279433 1.5342313 16711746
0.6217026 -0.1585487 1.3745952 16711746
0.5826515 -0.1625106 1.3660289 16711746
0.8315001 -0.2064189 1.5374573 16711746
0.8293210 -0.2447196 1.4859183 16711746
0.0522782 -0.2571681 1.3080274 16711746
0.6878116 -0.2476428 1.5596645 16711746
0.0743791 -0.2042296 1.5402498 16711746
0.2904913 -0.0727279 1.1992085 16711746
0.4369001 -0.0741152 1.2202265 16711746
0.2718702 -0.1122777 1.2067488 16711746
0.6057531 0.0035588 1.2751215 16711746
1.1722462 -1.4744260 2.7038822 16711746
1.1719248 -0.7220950 1.4804295 16711746
0.4955985 -0.1778886 1.6611325 16711746
0.3891626 -0.1400928 1.2945079 16711746
0.5729376 -0.1648955 1.2687111 16711746
0.6246261 -0.1990820 1.6687788 16711746
0.6148325 -0.1928813 1.6897674 16711746
0.6320932 -0.2137725 1.4165599 16711746
0.3538581 -0.0781937 1.4624584 16711746
0.1568069 -0.1475577 1.4365594 16711746
0.6091834 -0.1117265 1.6157277 16711746
0.4697099 -0.1307319 1.3022981 16711746
1.0551703 -0.5359918 1.4941876 16711746
0.4944516 -0.1743175 1.6422486 16711746
0.4739372 -0.0151132 1.3207451 16711746
0.5880294 -0.2099762 1.3245023 16711746
0.4096379 -0.0185991 1.1656359 16711746
0.6248620 -0.1630321 1.3213819 16711746
0.8107805 -0.2531630 1.3331403 16711746
0.7924689 -0.2360803 1.3388163 16711746
0.8118640 -0.2250594 1.5449758 16711746
0.6543947 -0.1532455 1.4234468 16711746
0.4233263 -0.0219761 1.2014797 16711746
1.0397738 -0.1803535 1.5990318 16711746
0.5500003 -0.2145577 1.5018364 16711746
0.6288815 -0.2385643 1.3224586 16711746
0.6696241 -0.1697032 1.4304888 16711746
0.5614754 -0.2383934 1.4795252 16711746
0.0941515 -0.2146804 1.2433726 16711746
0.9595451 -0.1960134 1.4426854 16711746
0.2214152 -0.2334502 1.5791092 16711746
0.2058219 -0.2447218 1.3262035 16711746
-0.3572695 -0.9108400 1.5306555 16711746
0.2926069 -5.6285291 7.0041738 16711746
0.7493299 -0.8925189 1.6609143 16711746
0.8479120 -0.3827115 1.4037762 16711746
0.6059780 -0.1944805 1.3382502 16711746
0.1739749 -0.0914735 1.3496284 16711746
0.7097058 -0.2560150 1.5418041 16711746
0.6683900 -0.1951965 1.2390512 16711746
0.5037265 -0.2131352 1.6540842 16711746
0.9769793 -0.1936334 1.4763008 16711746
0.0579950 -0.2474791 1.5586693 16711746
0.7615288 -0.2314672 1.2630502 16711746
0.4592158 -0.0639875 1.4522521 16711746
0.2385547 -0.1618599 1.3238353 16711746
0.9476060 -0.2331764 1.7381648 16711746
0.6812708 -0.2140561 1.4216030 16711746
0.6846265 -0.2195773 1.4155346 16711746
0.7854478 -0.2661677 1.4880574 16711746
0.5856354 -0.3152702 1.5981895 16711746
0.7075502 -0.2952390 1.3144852 16711746
0.6143133 -0.2176350 1.5913758 16711746
0.7841452 -0.2100761 1.5277592 16711746
0.7867879 -0.1703408 1.5614494 16711746
0.3609718 -0.0051852 1.1723965 16711746
0.1712465 -0.1631226 1.4216099 16711746
0.7628213 -0.2561254 1.3186301 16711746
0.1011416 -0.2036725 1.2687852 16711746
0.6725325 -0.2072780 1.4351343 16711746
0.6118710 -0.2521605 1.2749289 16711746
0.5572776 -0.2180063 1.4030349 16711746
0.5593740 -0.3115805 1.3027645 16711746
0.7832991 -0.2171504 1.5189943 16711746
0.5751320 -0.2206389 1.5726668 16711746
0.4298267 -0.0996616 1.3668832 16711746
0.4306681 -0.1207368 1.2316697 16711746
0.4647298 -0.1667543 1.2616295 16711746
0.3305163 -0.2377559 1.7495589 16711746
0.2061175 -0.2630194 1.4681162 16711746
0.7200840 -0.1803553 1.4940875 16711746
0.4728927 -0.0046189 1.1944526 16711746
0.2783485 -0.2070816 1.7720740 16711746
0.6977221 -0.1316051 1.1837751 16711746
0.8352256 -0.3022589 1.5301698 16711746
0.6694929 -0.2070455 1.4230741 16711746
0.6273394 -0.2355916 1.2697647 16711746
0.8159727 -0.2574168 1.3547970 16711746
0.5931467 -0.2468971 1.2853281 16711746
0.8340237 -0.2706841 1.3636855 16711746
0.6774290 -0.2249057 1.4151872 16711746
0.5379251 -0.2132332 1.2951510 16711746
0.2881625 -0.2400863 1.7229036 16711746
0.6392517 -0.2912040 1.3191406 16711746
0.5691019 -0.2416484 1.4719374 16711746
0.0773874 -0.2499629 1.5308024 16711746
0.3137400 -0.3303080 1.8506508 16711746
0.5929832 -0.2204869 1.3979962 16711746
0.5972768 -0.2517110 1.2882421 16711746
0.2707270 -0.1956995 1.4751031 16711746
0.7685858 -0.2870196 1.4707129 16711746
0.4312844 -0.2130326 1.4938447 16711746
0.3992804 -0.2037851 1.5207515 16711746
0.7013559 -0.2715047 1.3940456 16711746
0.6284876 -0.2346801 1.3503063 16711746
0.6270707 -0.2268067 1.3963450 16711746
0.7862403 -0.2306054 1.3359511 16711746
0.6367826 -0.2194521 1.4218768 16711746
0.4827874 -0.1407505 1.3338786 16711746
0.5408962 -0.2189985 1.2991499 16711746
0.7982568 -0.2508929 1.5061504 16711746
0.4802094 -0.1900976 1.5961223 16711746
0.6430222 -0.2064005 1.6167566 16711746
0.5229176 -0.1877274 1.2781991 16711746
0.4049226 -0.2556270 1.5994705 16711746
0.6605344 -0.1233427 1.4438708 16711746
0.2576011 -0.2915323 1.9064127 16711746
0.1526674 -0.1701761 1.4335401 16711746
0.7928964 -0.2012726 1.5313298 16711746
0.1389924 -0.1720763 1.2404900 16711746
0.8013875 -0.1803773 1.5451754 16711746
0.1332056 -0.1767797 1.2422585 16711746
0.2068394 -0.1727043 1.3139876 16711746
0.7041886 -0.1726482 1.4872872 16711746
0.6178371 -0.1753341 1.3365126 16711746
0.1603022 -0.1574656 1.4153972 16711746
0.8306906 -0.1917650 1.7387952 16711746
0.6067573 -0.1682500 1.3253266 16711746
0.6847222 -0.1805468 1.4445775 16711746
0.5836968 -0.2034371 1.5926844 16711746
0.7849537 -0.1683512 1.5311093 16711746
0.6531377 -0.2062453 1.4066175 16711746
0.6376433 -0.2224372 1.4496164 16711746
0.7102884 -0.2116994 1.5125182 16711746
0.5573993 -0.2039831 1.7628598 16711746
0.6836337 -0.2354548 1.5839783 16711746
0.6850151 -0.2203170 1.4797577 16711746
-0.0035686 -0.2607945 1.7000341 16711746
0.4959960 -0.2123795 1.6466955 16711746
0.8121418 -0.1914844 1.5459648 16711746
0.8160325 -0.2624058 1.5203960 16711746
0.7872785 -0.1988304 1.5235813 16711746
0.6484339 -0.1545504 1.4075798 16711746
0.6004769 -0.2433437 1.6169519 16711746
0.6318092 -0.2229216 1.5347593 16711746
0.1367126 -0.1912202 1.4943851 16711746
0.8951036 -0.1754270 1.4651140 16711746
0.1214957 -0.1869160 1.2474164 16711746
0.1597898 -0.1427922 1.4041594 16711746
0.8815573 -0.1704943 1.4578934 16711746
-0.2075762 -4.1115003 6.2788987 16711746
0.8225487 -0.1663361 2.1162291 16711746
0.1621221 -0.2853203 1.4344878 16711746
0.7188436 -0.2331988 1.2442050 16711746
0.6453825 -0.2303322 1.6210691 16711746
0.1368438 -0.1595007 1.4362171 16711746
0.1287555 -0.2603478 1.8951125 16711746
0.1644221 -0.3224193 1.3574758 16711746
0.3606121 -0.3140372 1.7603184 16711746
0.1495900 -0.2362744 1.8439323 16711746
0.3561148 -0.2947322 1.7306762 16711746
-1.0820420 -1.1037502 2.9269595 16711746
0.9298290 -0.3331427 1.7835584 16711746
0.8449599 -0.1986463 1.5735852 16711746
0.7165185 -0.2135133 1.5095389 16711746
0.3608514 -0.0477023 1.2215259 16711746
0.2860498 -0.3155878 1.3408962 16711746
0.2900756 -0.3121742 1.3370413 16711746
0.2397610 -0.1802127 1.3679385 16711746
0.5502692 -0.2322304 1.5045241 16711746
0.5577182 -0.3207980 1.3148588 16711746
0.4787411 -0.1258877 1.3251346 16711746
0.5621523 -0.2486935 1.4238394 16711746
0.6080885 -0.2189264 1.6647251 16711746
0.6123933 -0.2177352 1.5891773 16711746
0.2119596 -0.2324074 1.5859377 16711746
0.4907886 -0.1459813 1.3483795 16711746
0.5543687 -0.2264176 1.4254184 16711746
0.2561522 -0.1518742 1.3641958 16711746
0.2434665 -0.2225110 1.4214739 16711746
0.2161699 -0.1978049 1.3983823 16711746
0.8299201 -0.3021849 1.3315620 16711746
0.5529577 -0.2407078 1.5337459 16711746
0.6024944 -0.2812467 1.5727686 16711746
0.6135842 -0.2209864 1.2913815 16711746
0.6206784 -0.2139144 1.4202626 16711746
0.5422699 -0.2223468 1.5123286 16711746
0.6408646 -0.2013711 1.6119815 16711746
0.6019235 -0.2122202 1.4683516 16711746
0.6731110 -0.2234879 1.5054215 16711746
0.6381928 -0.1628031 1.4075509 16711746
0.5334743 -0.2663474 1.3555954 16711746
0.7015853 -0.1974296 1.4438430 16711746
0.2595240 -0.2222866 1.4518856 16711746
0.2021358 -0.2356947 1.4450276 16711746
0.1878544 -0.2220597 1.3764449 16711746
0.4669155 -0.0997246 1.2984495 16711746
0.5523107 -0.2889452 1.3723511 16711746
0.1745919 -0.2339186 1.4818165 16711746
0.5945583 -0.2748861 1.4236242 16711746
0.1982907 -0.2200595 1.5513597 16711746
0.4303174 -0.2050280 1.4810264 16711746
0.0433339 -0.3987676 1.5513643 16711746
0.6281503 -0.2243849 1.3932829 16711746
0.1587810 -0.2572252 1.5059321 16711746
0.0474959 -0.2144018 1.6180190 16711746
0.8136873 -0.1914180 1.5326602 16711746
0.5333794 -0.1642080 1.6672236 16711746
0.6440948 -0.2064864 1.5847504 16711746
0.7005249 -0.2513376 1.5416707 16711746
0.1625393 -0.2139480 1.8002781 16711746
0.5805379 -0.2294611 1.8927214 16711746
0.6109673 -0.2034642 1.3098781 16711746
0.8217416 -0.3134724 1.3538476 16711746
0.8080228 -0.2555579 1.3358889 16711746
0.5625023 -0.2706066 1.7978553 16711746
0.5112733 -0.2269746 1.7817626 16711746
0.3323684 -0.2289203 1.7313203 16711746
0.8017496 -0.2315146 1.5210787 16711746
0.2476676 -0.3078582 1.9400953 16711746
0.7000926 -0.2058639 1.7300539 16711746
0.7771882 -0.2796722 1.3038958 16711746
0.6754918 -0.0792534 1.7605889 16711746
-1.1477925 -10.2332792 9.5303726 16711746
0.6617571 -0.2044995 1.4536355 16711746
0.7584043 -0.1560281 1.4654022 16711746
0.4940591 -0.2062981 1.6590022 16711746
0.3715744 -0.2509919 1.6409836 16711746
0.3697528 -0.1437432 1.3088590 16711746
0.5434819 -0.2411136 1.7400478 16711746
0.7986902 -0.1811460 1.5222270 16711746
0.7665811 -0.1945937 1.9772673 16711746
0.4685791 -0.1008397 1.4670347 16711746
0.6630483 -0.2072506 1.4783775 16711746
0.1044692 -0.2321053 1.4841279 16711746
0.3814335 -0.2187757 1.3796804 16711746
0.4626485 -0.0895026 1.2853251 16711746
0.1082644 -0.2434144 1.6529617 16711746
0.3042717 -0.1835186 1.6107816 16711746
0.3247359 -0.2130611 1.7556921 16711746
0.8422258 -0.3104445 2.0385227 16711746
0.6789215 -0.2018014 1.4808611 16711746
0.7401447 -0.1910597 1.4626064 16711746
0.5998136 -0.2036458 1.6423671 16711746
0.7120935 -0.2016923 1.5336645 16711746
0.5893102 -0.1508977 1.6227103 16711746
0.6143274 -0.2373171 1.5253394 16711746
0.7171506 -0.1693558 1.5136510 16711746
0.7066061 -0.1965237 1.5264919 16711746
0.1135771 -0.2583270 1.3852049 16711746
0.6798229 -0.2229522 1.4998044 16711746
0.7092876 -0.1565153 1.5338005 16711746
0.9489014 -0.1415494 1.5275440 16711746
-0.0251295 -0.2711111 1.6890934 16711746
0.6263221 -0.1995671 1.4282606 16711746
0.5615732 -0.2597046 1.3267418 16711746
0.4373181 -0.1972013 1.3936518 16711746
0.6508054 -0.2893142 1.5534285 16711746
0.4348245 0.0392472 1.1726046 16711746
0.5791523 -0.2970170 1.3467268 16711746
0.6481719 -0.2204930 1.3911597 16711746
0.6382079 -0.1306475 1.3644596 16711746
0.6181253 -0.2285420 1.4028726 16711746
0.4842015 -0.1414836 1.3622342 16711746
0.5363461 -0.2267211 1.4884385 16711746
0.5726773 -0.2588014 1.4561383 16711746
0.6252167 -0.2862310 1.5235727 16711746
0.1937480 -0.1631382 1.3187695 16711746
0.6155481 -0.2232974 1.2934364 16711746
0.3193702 -0.2732639 1.8134766 16711746
0.3077479 -0.2741497 1.5875728 16711746
0.6460230 -0.2206051 1.5762894 16711746
0.4328469 -0.2162661 1.5008109 16711746
0.2719985 -0.1525125 1.3733573 16711746
0.6985906 -0.2506272 1.5399642 16711746
0.6540961 -0.2721997 1.3988906 16711746
0.2336424 -0.2747257 1.4149259 16711746
0.2124778 -0.1967701 1.3572009 16711746
0.5075055 -0.2539396 1.4955498 16711746
0.5685753 -0.2744133 1.3600111 16711746
0.5372666 -0.2796035 1.3459759 16711746
0.2524733 -0.1586010 1.3996158 16711746
0.4395432 -0.2213645 1.5423647 16711746
0.3933662 -0.1696508 1.4488000 16711746
0.3890275 -0.2322008 1.5180006 16711746
0.8526385 -0.2273229 2.1750650 16711746
0.7490372 -0.2340759 1.4428395 16711746
-0.1960711 -0.3458479 1.7412469 16711746
-0.0951573 -0.3020322 1.6802806 16711746
0.3741739 -0.2374030 1.4414713 16711746
0.6693748 -0.2114190 1.3518356 16711746
0.2702236 -0.2474895 1.8107232 16711746
0.5898856 -0.2202643 1.3377080 16711746
0.6404196 -0.2194399 1.2880855 16711746
0.5786663 -0.2331298 1.5917983 16711746
0.1916515 -0.2052993 1.4489002 16711746
0.6383260 -0.2196875 1.3463830 16711746
0.6665879 -0.2526838 1.4397813 16711746
0.1472348 -0.1539616 1.4735681 16711746
0.6800804 -0.2203297 1.4131913 16711746
0.5399418 -0.2138506 1.3932620 16711746
0.5748893 -0.3771203 1.3934880 16711746
0.5473554 -0.3291520 1.3380889 16711746
0.2621635 -0.3181543 1.7686479 16711746
0.4546328 -0.2404300 1.5429080 16711746
0.6302769 -0.1827145 1.4748166 16711746
0.3839395 -0.1937328 1.4010345 16711746
0.7540623 -0.2160245 1.2779207 16711746
0.3347886 -0.2210280 1.4865777 16711746
0.2637399 -0.3026263 1.7467246 16711746
0.1189190 -0.2046768 1.5153615 16711746
0.3477880 -0.1867159 1.3286904 16711746
0.5659344 -0.1586394 1.3317518 16711746
0.5054097 -0.2010174 1.3644511 16711746
0.2764226 -0.2734185 1.4611862 16711746
0.3382454 -0.0470450 1.2616361 16711746
0.3798236 -0.2766280 1.5344259 16711746
0.3817977 -0.2201874 1.4255722 16711746
-0.0530582 -0.3108363 1.4299821 16711746
0.4286524 -0.1499293 1.3490328 16711746
0.3248144 -0.2673256 1.7439944 16711746
0.2621713 -0.3136489 1.7598979 16711746
-0.0579894 -0.3299246 1.6538061 16711746
0.5290870 -0.1880926 1.4899315 16711746
0.0615733 -0.2078758 1.5855998 16711746
0.7368850 -0.2480492 1.9402465 16711746
0.6356164 -0.2657408 1.5617046 16711746
0.6388385 -0.2161189 1.3847468 16711746
0.5855995 -0.2133881 1.6176631 16711746
0.1964033 -0.2585023 1.4869223 16711746
0.6701800 -0.1979990 1.4433743 16711746
0.2952996 -0.2593885 1.9166334 16711746
0.5454196 -0.2181896 1.5099055 16711746
0.6834792 -0.2397011 2.1160636 16711746
0.2310897 -0.1882961 1.4342406 16711746
-0.2544479 -0.2469649 1.6534182 16711746
0.1674607 -0.2565527 1.3040562 16711746
0.7042592 -0.2221597 1.5083257 16711746
0.2282995 -0.2075690 1.4046956 16711746
0.2110186 -0.4241765 1.6516834 16711746
-0.0725720 -0.2005249 1.5466011 16711746
0.6376117 -0.1845375 1.3422576 16711746
0.3931915 -0.2004735 1.4828262 16711746
0.5555829 -0.2424856 1.5367358 16711746
0.6846206 -0.1399851 1.4667813 16711746
0.6568405 -0.2137347 1.4568474 16711746
0.7088873 -0.1674945 1.7895813 16711746
0.3290921 -0.3379262 1.7460577 16711746
0.6267726 -0.2297532 1.3685416 16711746
0.1167102 -0.2215631 1.4753940 16711746
0.8646877 -0.2153124 1.6562871 16711746
0.2810097 -0.5401866 1.4619572 16711746
0.2971409 -0.3357043 1.3557642 16711746
0.3706454 -0.1198514 1.2976626 16711746
0.2698769 -0.3532616 1.3627055 16711746
0.4742358 -0.1114919 1.3352475 16711746
0.5461668 -0.3119868 1.3959877 16711746
0.3596418 -0.2416699 1.3750644 16711746
0.2164638 -0.1887524 1.3917170 16711746
0.4677908 -0.0962769 1.3164965 16711746
0.6068677 -0.2355632 1.4711100 16711746
0.4395303 -0.2678033 1.3949062 16711746
0.3847744 -0.1498305 1.3173308 16711746
0.4618837 -0.1767070 1.3463579 16711746
0.6548296 -0.2357220 1.3908832 16711746
0.4023038 -0.2345764 1.4090583 16711746
0.7954600 -0.2100077 1.3445880 16711746
0.3807333 -0.2140262 1.3776906 16711746
0.4007874 -0.2322498 1.4078684 16711746
0.3836508 -0.2930732 1.4021392 16711746
0.3243018 -0.1461225 1.3240716 16711746
0.4321433 -0.2735351 1.3720876 16711746
0.2196378 -0.2126423 1.3590677 16711746
0.4622294 -0.1719775 1.3388754 16711746
0.3805363 -0.0445698 1.3153030 16711746
0.2094292 -0.0849412 1.3913807 16711746
0.3166899 -0.1704450 1.3437266 16711746
0.6717957 -0.2075702 1.5057541 16711746
0.7684752 -0.2054907 1.5043494 16711746
0.8193140 -0.2178063 1.5360380 16711746
0.6642165 -0.2547989 1.5480539 16711746
0.1918823 -0.2233890 1.3974011 16711746
0.7139803 -0.2064092 1.5368820 16711746
0.7842502 -0.2094547 1.5276166 16711746
0.0869686 -0.2810331 1.3892771 16711746
0.8926085 -0.2557073 1.5337981 16711746
0.2813439 -0.2400583 1.7267700 16711746
0.4603654 -0.2080183 1.4603988 16711746
-0.2071719 -0.3266994 1.6790167 16711746
0.1192667 -0.2409208 1.8160142 16711746
0.5224842 -0.0035955 1.4273207 16711746
0.7698883 -0.2319774 1.4890149 16711746
0.1074589 -0.2349917 1.5136735 16711746
0.6042764 -0.2591232 1.5680406 16711746
0.4516959 -0.0120227 1.3693742 16711746
0.5967432 -0.1527198 1.3462912 16711746
-1.7853570 -2.9730773 2.8051534 16711746
0.3533072 -0.2435250 1.8735166 16711746
0.8599615 -0.2026149 1.5058401 16711746
0.5100532 -0.2234053 1.6705551 16711746
0.5185151 -0.2573967 1.7286346 16711746
0.7578202 -0.1757237 1.6452687 16711746
0.4611205 -0.1723722 1.3208923 16711746
0.7793901 -0.2110635 1.4725599 16711746
0.6081945 -0.2177071 1.6594445 16711746
0.2012463 -0.2322917 1.3349799 16711746
1.1780058 -0.1601863 1.7555060 16711746
0.2080115 -0.2559695 1.6102006 16711746
0.6083028 -0.2728763 2.0866985 16711746
0.3954904 0.0044000 1.2082773 16711746
0.1372464 -0.1066484 1.2082702 16711746
0.2715386 -0.2724643 1.3395489 16711746
0.5783771 -0.0629810 1.3637214 16711746
0.2286709 -0.1683688 1.2847070 16711746
0.5511235 -1.0765935 1.6804096 16711746
0.4885467 -0.1742552 1.5736487 16711746
0.5401679 -0.2358991 1.4981931 16711746
0.4755048 -0.1214841 1.3522638 16711746
0.3233280 -0.2574044 1.3065411 16711746
0.6431051 -0.3694946 1.4909575 16711746
0.2153982 -0.2239267 1.3387309 16711746
0.6079338 -0.1747580 1.6750660 16711746
0.4878519 -0.1727582 1.5695722 16711746
0.2521405 -0.2125430 1.5308859 16711746
0.3221986 -0.2162302 1.2865750 16711746
0.2421284 -0.2800311 1.7872099 16711746
0.2384584 -0.2611168 1.3190235 16711746
0.3104879 -0.2794351 1.5399480 16711746
0.2823435 -0.2910946 1.3203741 16711746
0.6236411 -0.2195062 1.5705961 16711746
0.2882372 -0.2363746 1.6634543 16711746
0.4165274 -0.2505063 1.3511999 16711746
0.4495852 -0.4004221 1.4004807 16711746
0.2976060 -0.2871999 1.5629969 16711746
0.2409688 -0.2577167 1.8646260 16711746
0.2224936 -0.2920390 1.3327249 16711746
0.5116941 -0.2207103 1.7474937 16711746
0.2633134 -0.2102366 1.8162466 16711746
0.2857686 -0.3823576 1.6536860 16711746
0.2033305 -0.2664192 1.3686461 16711746
0.5893877 -0.3277833 1.3851955 16711746
0.4807999 -0.1780557 1.3312060 16711746
0.4108568 -0.3326337 1.4240088 16711746
0.3859724 -0.2773632 1.3920840 16711746
0.4328014 -0.2778747 1.3748565 16711746
0.6723433 -0.2247716 1.3950768 16711746
0.2670759 -0.3031101 1.3194668 16711746
0.2598732 -0.1846913 1.3661467 16711746
0.4841244 -0.3014051 1.4616953 16711746
0.2888313 -0.2959100 1.3360875 16711746
0.4833427 -0.1859802 1.3358123 16711746
0.4068731 -0.2509887 1.3423719 16711746
0.3856634 -0.2574652 1.3400785 16711746
0.3333576 -0.2167021 1.3545409 16711746
0.1603304 -0.2431148 1.8231667 16711746
0.2932588 -0.2600317 1.5950136 16711746
0.4555174 -0.2400014 1.5403734 16711746
0.6532331 -0.2179860 1.4206971 16711746
0.3354954 -0.2572960 1.3554335 16711746
0.2631898 -0.2054826 1.8001966 16711746
0.3226867 -0.2571416 1.3168757 16711746
0.4322163 -0.2365112 1.3315589 16711746
0.5728022 -0.2723739 1.3593496 16711746
0.5307153 -0.3378212 1.4328669 16711746
0.6017293 -0.3012625 1.4387860 16711746
0.2714085 -0.1944630 1.5287483 16711746
0.4234565 -0.2245414 1.4948064 16711746
0.4275352 -0.2943370 1.4217691 16711746
0.4660980 -0.2754994 1.6278208 16711746
0.3884850 -0.1163029 1.3501890 16711746
0.0857973 -0.2278983 1.3462894 16711746
0.5003973 -0.3421226 1.5212752 16711746
0.3011136 -0.2284144 1.5539573 16711746
0.4465241 -0.0712475 1.4472971 16711746
0.4959091 -0.2303779 1.5715348 16711746
0.4702603 -0.1929566 1.5639914 16711746
0.7711379 -0.2680990 1.3242371 16711746
0.3188500 -0.2083427 1.3427273 16711746
0.4526327 -0.3636464 1.4375914 16711746
0.4346210 -0.1904944 1.3217757 16711746
0.4748340 -0.4178259 1.4513904 16711746
0.4238752 -0.2319045 1.3425926 16711746
0.4497724 -0.4141764 1.4258677 16711746
0.6474642 -0.4401488 1.5847828 16711746
0.2937412 -0.1342475 1.2757586 16711746
0.0835105 -0.2825481 1.3919383 16711746
0.2218970 -0.2216269 1.3340521 16711746
-0.0425168 -0.2453518 1.5425429 16711746
0.7026595 -0.2503735 1.6461990 16711746
0.6865468 -0.2718286 1.3857840 16711746
0.1564535 -0.2610322 1.4294702 16711746
0.6360865 -0.2642825 1.4401356 16711746
0.6984489 -0.3301004 1.5525885 16711746
0.8375008 -0.2156309 1.4353517 16711746
0.2634484 -0.2542947 1.8284829 16711746
0.3166756 -0.2447354 1.5414622 16711746
0.2699474 -0.3012065 1.3259109 16711746
0.6901083 -0.2433651 1.3099384 16711746
0.2555892 -0.2794774 1.8816111 16711746
0.3718380 -0.3227849 1.5010469 16711746
0.8518388 -0.2612471 2.1012604 16711746
0.2899521 -0.2755068 1.8641411 16711746
0.5584885 -0.2695877 1.3727939 16711746
0.8722847 -0.1640147 1.4490695 16711746
0.5991149 -0.2193256 1.6305604 16711746
0.3127105 -0.3275205 1.9519786 16711746
0.2575410 -0.2197039 1.8354037 16711746
-0.2984045 -0.2339426 1.7452354 16711746
0.6233462 -0.2225290 1.6074262 16711746
0.4773315 -0.1136260 1.3400379 16711746
0.4319898 -0.2663925 1.3852625 16711746
0.4865933 -0.2127255 1.8066556 16711746
0.6392145 -0.2524491 1.6449956 16711746
0.5517190 -0.1941845 1.7378263 16711746
0.5986947 -0.3056592 1.5297523 16711746
0.3313223 -0.2247293 1.7196579 16711746
0.2106410 -0.3364087 1.9720160 16711746
0.4012684 -0.2252454 1.4004115 16711746
0.3111830 -0.2803775 1.9331936 16711746
0.6659076 -0.1854695 1.6670454 16711746
0.8508129 -0.3300472 1.5379938 16711746
0.6010271 -0.2129945 1.3964776 16711746
0.6403148 -0.1830484 1.5432440 16711746
0.6283554 -0.2270561 1.3966349 16711746
0.2908872 -0.3307344 1.3405160 16711746
0.5770826 -0.2630531 1.4891808 16711746
0.2681926 -0.1963238 1.7802706 16711746
0.2337486 -0.2340857 1.9040773 16711746
0.5248504 -0.2574905 1.4212223 16711746
0.6192654 -0.2642137 1.7135141 16711746
0.8379646 -0.1646762 1.8605086 16711746
0.6557049 -0.2155069 1.4627703 16711746
0.3405461 -0.3032688 1.6982907 16711746
0.1314674 -0.2440660 1.9357214 16711746
0.6204450 -0.2498808 1.4295962 16711746
0.4100690 -0.2142948 1.6022888 16711746
1.4337953 -0.1843787 1.9712824 16711746
0.9715658 -0.2516630 2.4751780 16711746
0.6820336 -0.2036469 1.6727632 16711746
0.1889266 -0.2351642 1.3429259 16711746
0.7670501 -0.2157451 1.3208551 16711746
0.3402515 -0.1738134 1.3326041 16711746
0.1046000 -0.1732825 1.5200030 16711746
0.3491189 -0.2733506 1.4559227 16711746
0.4390510 -0.2089123 1.5180001 16711746
0.5832656 -0.3022511 1.3865931 16711746
0.1851245 -0.1623242 1.5478144 16711746
0.4457445 -0.2109159 1.3313404 16711746
0.2735505 -0.2293998 1.5289172 16711746
0.5657316 -0.2635733 1.3651819 16711746
0.2564072 -0.2013972 1.4685295 16711746
0.4547006 -0.2215605 1.5204031 16711746
0.3408094 -0.1788418 1.3208778 16711746
0.4754342 -0.1219926 1.3513702 16711746
0.4353082 -0.1791811 1.3534560 16711746
0.3991063 -0.3375696 1.4078950 16711746
0.5829182 -0.1804973 1.3049405 16711746
0.6233005 -0.1305111 1.4129987 16711746
0.6668096 -0.1301989 1.4445200 16711746
0.4468675 -0.2290610 1.3711079 16711746
0.4334768 -0.3146164 1.3953105 16711746
0.4365791 -0.1891961 1.3606790 16711746
0.4285424 -0.2339941 1.3794404 16711746
0.4502985 -0.2448865 1.3501624 16711746
0.3638056 -0.2450822 1.3845079 16711746
0.2513714 -0.2131868 1.4787536 16711746
0.3424143 -0.1612201 1.3465500 16711746
0.2826067 -0.2675507 1.5976386 16711746
0.2956741 -0.2866547 1.5619031 16711746
0.4566849 -0.2135926 1.5110973 16711746
0.3897856 -0.2400828 1.3686231 16711746
0.3092614 -0.2427001 1.4734718 16711746
0.2810875 -0.1954976 1.4354262 16711746
0.5103266 -0.2158022 1.4606413 16711746
0.1346971 -0.1657054 1.4675112 16711746
0.4087804 -0.2601404 1.4645689 16711746
0.6682585 -0.2215784 1.3921751 16711746
0.4572914 -0.2717479 1.4196531 16711746
0.4297173 -0.2736481 1.4061754 16711746
0.6492279 -0.1818870 1.4122113 16711746
0.0666303 -0.2776116 1.3909234 16711746
0.1378464 -0.2785516 1.5508890 16711746
0.3529112 -0.1238330 1.3102403 16711746
0.4565048 -0.1264347 1.3428973 16711746
0.2353432 -0.2327605 1.4796957 16711746
0.2045145 -0.2232078 1.4704717 16711746
0.3053676 -0.3195862 1.4019268 16711746
0.5090014 -0.2101909 1.4552295 16711746
0.3683294 -0.0749124 1.2931976 16711746
0.0103452 -0.3370270 1.4265571 16711746
0.3413432 -0.1605370 1.3453797 16711746
0.4569198 -0.1558050 1.3366779 16711746
0.3533716 -0.1256756 1.4221365 16711746
0.6450879 -0.2496068 1.4327693 16711746
0.4345027 -0.3186203 1.4412770 16711746
0.4293304 -0.1842004 1.4941703 16711746
0.0214650 -0.3111034 1.4136858 16711746
0.5839964 -0.1558883 1.3239378 16711746
0.1419092 -0.2713730 1.5472119 16711746
0.6259055 -0.2181457 1.6830155 16711746
0.5109433 -0.1909125 1.6196182 16711746
0.4586393 -0.2089182 1.5395863 16711746
0.3165790 -0.2633610 1.5239198 16711746
0.5139409 -0.2438645 1.8192012 16711746
0.4995079 -0.1930957 1.6220344 16711746
0.4974183 -0.1782087 1.3294128 16711746
0.5874342 -0.2737965 1.5693144 16711746
0.1120475 -0.2754541 1.9517726 16711746
0.6144768 -0.2303926 1.5522035 16711746
0.8786788 -0.1784141 1.4355674 16711746
0.2923880 -0.2406925 1.5673655 16711746
0.1889098 -0.2896519 1.3580534 16711746
0.6467156 -0.3415733 1.7442206 16711746
0.3016044 -0.2758466 1.5515312 16711746
0.7139084 -0.2061055 1.5248346 16711746
0.4390508 -0.2220026 1.5336658 16711746
0.5818483 -0.1475912 1.6166233 16711746
0.9363243 -0.2347253 1.5875539 16711746
0.8702547 -0.2124432 1.5162365 16711746
0.4274693 -0.2945240 1.4293340 16711746
0.6823937 -0.2706161 1.5164229 16711746
0.6278068 -0.2855400 1.5651780 16711746
0.6892701 -0.1068769 1.5613402 16711746
0.7068564 -0.3329959 1.5275813 16711746
0.5677798 -0.2714131 1.3681343 16711746
0.3206466 -0.2272616 1.3144929 16711746
0.2966085 -0.2655737 1.3211627 16711746
0.6888731 -0.2134786 1.6903447 16711746
0.5634578 -0.2785969 1.6046287 16711746
0.9574457 -0.4510898 1.6118448 16711746
0.1573681 -0.1868077 1.3544711 16711746
0.6464771 -0.2437838 1.5556145 16711746
0.2453440 -0.1733994 1.3955749 16711746
0.2221660 -0.1997041 1.6048856 16711746
0.3034019 -0.3582092 1.6372761 16711746
0.3418014 -0.2675513 1.3757941 16711746
0.4752591 -0.2441196 1.6374503 16711746
0.8542815 -0.2300322 2.1735873 16711746
0.4120859 -0.1048071 1.2965395 16711746
0.8062835 -0.2906089 2.0805609 16711746
0.7264458 -0.3042887 2.3036792 16711746
0.6052864 -0.3016989 2.0523136 16711746
0.6626160 -0.2080921 1.6302204 16711746
0.3628823 -0.2322412 1.3748713 16711746
0.3723343 -0.1879375 1.5052456 16711746
0.8312572 -0.3098743 1.4931651 16711746
0.5518225 -0.1445841 1.3650421 16711746
0.2183678 -0.2508946 1.4662749 16711746
0.3596514 -0.1549330 1.3982280 16711746
0.5009264 -0.2161900 1.3756273 16711746
0.7836622 -0.2536376 2.0244679 16711746
0.5730877 -0.3346897 1.3553513 16711746
0.8320639 -0.3305740 2.1163979 16711746
0.5857871 -0.2608476 1.5299400 16711746
0.8188785 -0.1913596 1.7383629 16711746
0.2272465 -0.2889823 1.3195226 16711746
0.3971146 -0.3605550 1.5625764 16711746
0.2608688 -0.1544321 1.3665377 16711746
0.3527103 -0.3001623 1.4933487 16711746
0.6050760 -0.2378145 1.4225264 16711746
0.6310856 -0.2965240 1.5970292 16711746
0.2481447 -0.1820011 1.4799107 16711746
0.4368040 -0.2332176 1.3715242 16711746
0.4804633 -0.2619852 1.6566794 16711746
0.6257772 -0.2782567 1.5583346 16711746
0.1339015 -0.2969182 1.6486230 16711746
0.6461229 -0.2537755 1.5639024 16711746
0.6656286 -0.1906342 1.4668722 16711746
0.8448378 -0.2085447 1.5304995 16711746
0.8257611 -0.2348571 1.5316684 16711746
0.5719056 -0.2391729 1.4789392 16711746
0.3757248 -0.2601234 1.3757538 16711746
0.2237579 -0.2235822 1.5755199 16711746
0.3501700 -0.1338957 1.3197477 16711746
0.2925295 -0.2563038 1.4606228 16711746
0.7423119 -0.1091587 1.5240752 16711746
0.7226302 -0.3464243 1.6111166 16711746
0.6164119 -0.2899344 1.5633204 16711746
0.6917433 -0.2301689 1.5808634 16711746
0.3069175 -0.2112776 1.3461992 16711746
0.2640360 -0.2865899 1.6133258 16711746
0.6008872 -0.2163470 1.6362569 16711746
0.6384448 -0.3076563 1.6093608 16711746
0.6382170 -0.2992817 1.5823524 16711746
0.6584125 -0.2331254 1.4557302 16711746
0.6229556 -0.1891151 1.5391104 16711746
0.4961850 -0.2432701 1.8735068 16711746
0.5209926 -0.2431134 1.7468938 16711746
0.6731530 -0.2706212 1.5199220 16711746
0.6266018 -0.1885896 1.7465538 16711746
0.2387462 -0.2312524 1.4779345 16711746
0.2388071 -0.1727659 1.4271690 16711746
0.6178809 -0.1918900 1.4443158 16711746
0.6244445 -0.2077436 1.4455789 16711746
0.7185389 -0.2524818 1.4842283 16711746
0.3360952 -0.1975090 1.3497639 16711746
0.4075048 -0.2106031 1.4321457 16711746
0.5401259 -0.2611465 1.6838834 16711746
0.7026808 -0.2265292 1.4686012 16711746
0.3635794 -0.1729567 1.3369750 16711746
0.3147319 -0.1408646 1.3177066 16711746
0.6777285 -0.2604379 1.4770935 16711746
0.4854913 -0.2514783 1.5949337 16711746
0.2067040 -0.2236758 1.4843918 16711746
0.4692026 -0.3298996 1.4688455 16711746
0.5784488 -0.1350953 1.3311017 16711746
0.5820076 -0.2788917 1.4844645 16711746
0.8102744 -0.2697285 1.3941342 16711746
0.4869235 -0.2406442 1.8669574 16711746
0.3232312 -0.1125721 1.3397508 16711746
0.1239140 -0.2667144 1.6409267 16711746
0.4046353 -0.2302318 1.4501106 16711746
0.7870428 -0.2444529 1.3791095 16711746
0.2056368 -0.2234795 1.6413703 16711746
0.6931427 -0.2301591 1.5805871 16711746
0.5267847 -0.1970796 1.4855198 16711746
0.6737592 -0.2911761 1.6084332 16711746
0.2739772 -0.2282024 1.5282003 16711746
0.5448009 -0.2661456 1.7699648 16711746
0.5724993 -0.1719977 1.8389703 16711746
0.6127750 -0.2363308 1.8626288 16711746
0.5722123 -0.2688436 1.4907365 16711746
0.5675519 -0.2421584 1.4558812 16711746
0.5524260 -0.2425065 1.4580681 16711746
0.7821366 -0.1317107 1.5703434 16711746
0.4873777 -0.2122821 1.5716847 16711746
0.8820169 -0.3004300 1.5315464 16711746
0.6818942 -0.1581612 1.4882343 16711746
0.5121012 -0.2071474 1.4852142 16711746
0.2836204 -0.1563002 1.4216098 16711746
0.7278736 -0.3718834 1.5866054 16711746
0.4097528 -0.1509994 1.3879434 16711746
-0.1968633 -0.2430704 1.5402335 16711746
0.2054915 -0.2273733 1.4729198 16711746
0.1451859 -0.1841733 1.4641800 16711746
0.7878774 -0.2568972 2.0327859 16711746
0.8051267 -0.3119949 2.0196352 16711746
0.6633047 -0.3630424 1.7771298 16711746
0.9656398 -0.2294249 2.0608187 16711746
0.6115866 -0.2496658 1.4480546 16711746
0.9262379 -0.2056629 1.9925730 16711746
0.6358554 -0.1880583 1.5979154 16711746
0.5396276 -0.2434215 1.6626494 16711746
0.6468385 -0.1889710 1.9986655 16711746
0.3970450 -0.2574867 1.6917084 16711746
0.4855208 -0.2428686 1.5850716 16711746
0.5944881 -0.2354946 1.5124757 16711746
0.1843764 -0.2149343 1.3730589 16711746
0.8850120 -0.2149187 1.5317806 16711746
0.6243084 -0.1696564 1.7276973 16711746
-0.4402823 -0.2258444 1.8099877 16711746
0.7409126 -0.3398727 2.0339837 16711746
0.4461275 -0.5489898 1.5972253 16711746
0.3765196 -0.4550929 1.5435138 16711746
0.7107725 -0.2494701 1.5569304 16711746
0.7780053 -0.2901830 1.4645327 16711746
0.2670470 -0.1999183 1.4955013 16711746
0.2738056 -0.2033115 1.5221095 16711746
0.2271554 -0.2079472 1.4713240 16711746
0.8036439 -0.2873422 1.4765348 16711746
0.5180689 -0.2374049 1.4785076 16711746
0.4057904 -0.3473318 1.4298813 16711746
0.7821071 -0.2474866 1.5034579 16711746
0.8179794 -0.2998684 1.4841290 16711746
0.2210235 -0.3057919 1.4940436 16711746
0.1756084 -0.2851524 1.5508063 16711746
0.6983207 -0.1610619 1.5035161 16711746
0.8037603 -0.2870085 1.4775288 16711746
0.4366755 -0.3310699 1.4059786 16711746
0.5129985 -0.2179033 1.4602618 16711746
0.8065991 -0.2706993 1.5075650 16711746
0.5568751 -0.2447348 1.5184494 16711746
0.4144391 -0.3299744 1.3872018 16711746
0.6372480 -0.2162303 1.7199907 16711746
0.7301025 -0.2433078 1.5281810 16711746
0.6785728 -0.1793359 1.4745803 16711746
0.6520188 -0.1627269 1.4685124 16711746
0.1607519 -0.3037709 1.5022824 16711746
0.5435448 -0.1841589 1.4396731 16711746
0.0875812 -0.3247143 1.4912623 16711746
0.2217204 -0.1232509 1.4949251 16711746
0.6296768 -0.2085606 1.7633275 16711746
-0.0068878 -0.2213808 1.6807626 16711746
0.5643988 -0.2957824 1.8485399 16711746
0.5077663 -0.2060310 1.6853555 16711746
0.5123372 -0.2185708 1.4605330 16711746
0.6272478 -0.2072520 1.7612270 16711746
0.6233177 -0.2027597 1.7534621 16711746
0.0469892 -0.1875490 1.6220956 16711746
0.5171465 -0.1830303 1.4544674 16711746
0.7060050 -0.3865128 1.7164481 16711746
0.2540897 -0.2031490 1.4539167 16711746
0.1945039 -0.2332057 1.6557698 16711746
0.0813083 -0.3158575 1.4338973 16711746
0.7480596 -0.3899555 1.6017857 16711746
0.1155834 -0.1961684 1.6348985 16711746
0.7293243 -0.2047553 1.5446535 16711746
0.1895583 -0.2346722 1.3040074 16711746
0.1908209 -0.2294173 1.3989089 16711746
0.2295410 -0.2043662 1.3616995 16711746
0.2231618 -0.2186178 1.3517970 16711746
0.3015705 -0.5165157 2.0040197 16711746
0.6520540 -0.2718304 1.6098822 16711746
0.3382068 -0.5329099 1.8140503 16711746
0.2893625 -0.1540795 1.3519156 16711746
-0.9633281 -2.7780206 7.3010850 16711746
0.7833822 -0.2009452 2.0137620 16711746
0.8149469 -0.2709725 1.9832267 16711746
0.8350659 -0.2489167 2.1021349 16711746
0.1931568 -0.2941340 1.6842366 16711746
0.2045188 -0.2282139 1.6439061 16711746
0.5015323 -0.2132307 1.7795670 16711746
-0.3250826 -0.2504253 1.7028068 16711746
0.9134238 -0.2697660 2.3159504 16711746
0.2207156 -0.2203847 1.3720269 16711746
-0.3580669 -0.2141940 1.7464879 16711746
0.5100908 -0.1944198 1.6291463 16711746
0.6897408 -0.3301827 2.2838528 16711746
0.8240471 -1.4639506 2.4489264 16711746
0.7293600 -0.2453197 1.3684988 16711746
