# .PCD v.7 - Point Cloud Data file format
VERSION .7
FIELDS x y z rgb
SIZE 4 4 4 4
TYPE F F F F
COUNT 1 1 1 1
WIDTH 241
HEIGHT 1
VIEWPOINT 0 0 0 1 0 0 0
POINTS 241
DATA ascii

 0.0000000 0.0000000 0.0000000 16777215
 0.0017176 -0.0065872 0.0603806 16777215
 0.0016065 -0.0069687 0.0606667 16777215
 0.0003008 -0.0074225 0.0613519 16777215
 -0.0010397 -0.0087296 0.0613958 16777215
 -0.0024580 -0.0119441 0.0622135 16777215
 -0.0037268 -0.0187677 0.0616071 16777215
 -0.0071904 -0.0319133 0.0583773 16777215
 -0.0090015 -0.0393079 0.0494479 16777215
 -0.0108764 -0.0566491 0.0419952 16777215
 -0.0101638 -0.0690318 0.0396086 16777215
 -0.0292420 -0.0867221 0.0351222 16777215
 -0.0369144 -0.1094436 0.0342315 16777215
 -0.0325213 -0.1230678 0.0246492 16777215
 -0.0251783 -0.1263240 0.0272433 16777215
 -0.0253798 -0.1313046 0.0283821 16777215
 -0.0272631 -0.1336030 0.0284666 16777215
 -0.0356341 -0.1258058 0.0295780 16777215
 -0.0615983 -0.1248521 0.0319765 16777215
 -0.0738576 -0.1241430 0.0271155 16777215
 -0.0917071 -0.1246887 0.0235044 16777215
 -0.1012575 -0.1325245 0.0174738 16777215
 -0.1065658 -0.1444948 0.0130198 16777215
 -0.0982343 -0.1646150 0.0067147 16777215
 -0.0918886 -0.1656490 0.0034146 16777215
 -0.0763670 -0.1575982 0.0058832 16777215
 -0.0668202 -0.1481325 0.0139440 16777215
 -0.0508614 -0.1368625 0.0248581 16777215
 -0.0401302 -0.1269352 0.0347213 16777215
 -0.0436496 -0.1360258 0.0547589 16777215
 -0.0268527 -0.1420012 0.0630124 16777215
 -0.0181488 -0.1460859 0.0724386 16777215
 -0.0084679 -0.1737881 0.1032902 16777215
 0.0076834 -0.2259847 0.1515367 16777215
 0.0401040 -0.2875577 0.1994362 16777215
 0.0705215 -0.2925246 0.2280456 16777215
 0.0764697 -0.2963383 0.2465128 16777215
 0.0738423 -0.3171868 0.2880235 16777215
 0.0686316 -0.3590420 0.3503295 16777215
 0.0567660 -0.4112211 0.4267492 16777215
 0.0440563 -0.4661072 0.5023758 16777215
 0.0547714 -0.5019996 0.5461178 16777215
 0.0538410 -0.5386209 0.6055837 16777215
 0.0946657 -0.5841298 0.6664817 16777215
 0.1066438 -0.6360747 0.7460020 16777215
 0.1074799 -0.6671911 0.8294411 16777215
 0.0893736 -0.7045578 0.9236066 16777215
 0.0933538 -0.7207230 0.9523700 16777215
 0.1005678 -0.7467624 1.0036936 16777215
 0.1017413 -0.7756413 1.0680261 16777215
 0.1047463 -0.7934065 1.1171472 16777215
 0.1184392 -0.8198723 1.1686749 16777215
 0.1384862 -0.8446593 1.2156023 16777215
 0.1495864 -0.8710691 1.2500825 16777215
 0.1615987 -0.8866484 1.2812973 16777215
 0.1655863 -0.9026608 1.3170191 16777215
 0.1630886 -0.9084900 1.3574421 16777215
 0.1557092 -0.9269203 1.4264681 16777215
 0.1396670 -0.9686308 1.4988694 16777215
 0.1360526 -0.9939948 1.5367837 16777215
 0.1319804 -1.0055988 1.5803444 16777215
 0.1318930 -1.0173646 1.6340778 16777215
 0.1372317 -1.0323735 1.6928164 16777215
 0.1475979 -1.0545890 1.7405200 16777215
 0.1609050 -1.0891340 1.7932394 16777215
 0.1695156 -1.1272130 1.8407307 16777215
 0.1742011 -1.1473151 1.8778012 16777215
 0.1642647 -1.1723969 1.9368309 16777215
 0.1560647 -1.1915765 2.0006194 16777215
 0.1354492 -1.2263393 2.0640173 16777215
 0.1417211 -1.2478119 2.1140046 16777215
 0.1398751 -1.2733631 2.1664248 16777215
 0.1572439 -1.2986221 2.2255876 16777215
 0.1712943 -1.3196337 2.2668707 16777215
 0.1875205 -1.3564527 2.3256612 16777215
 0.1959087 -1.3752301 2.3823533 16777215
 0.1878208 -1.3917415 2.4305725 16777215
 0.1785970 -1.4133770 2.4936738 16777215
 0.1789306 -1.4327867 2.5516853 16777215
 0.1850113 -1.4525113 2.6231713 16777215
 0.1905353 -1.4729645 2.6697273 16777215
 0.1978399 -1.4996221 2.7318211 16777215
 0.2147410 -1.5221516 2.7839680 16777215
 0.2177064 -1.5493479 2.8354986 16777215
 0.2136865 -1.5675848 2.8928630 16777215
 0.1985292 -1.5868688 2.9569311 16777215
 0.1840004 -1.6017613 2.9956691 16777215
 0.1857147 -1.6287044 3.0500731 16777215
 0.1901018 -1.6493084 3.1021967 16777215
 0.2078042 -1.6717818 3.1619873 16777215
 0.2172240 -1.6921734 3.2037511 16777215
 0.2387706 -1.7177181 3.2571077 16777215
 0.2412888 -1.7455895 3.3241425 16777215
 0.2418263 -1.7578545 3.3718884 16777215
 0.2460623 -1.7715212 3.4384680 16777215
 0.2429073 -1.7832661 3.4960771 16777215
 0.2442597 -1.8062050 3.5512557 16777215
 0.2460656 -1.8236421 3.6046298 16777215
 0.2520099 -1.8458755 3.6662664 16777215
 0.2479300 -1.8683684 3.7049286 16777215
 0.2543694 -1.8947213 3.7553251 16777215
 0.2436652 -1.9131863 3.8266664 16777215
 0.2347527 -1.9189262 3.8597217 16777215
 0.2200153 -1.9408624 3.9227576 16777215
 0.2109070 -1.9510562 3.9635897 16777215
 0.2057639 -1.9686581 4.0125189 16777215
 0.2096710 -1.9838034 4.0756269 16777215
 0.2100851 -1.9986662 4.1255450 16777215
 0.2160884 -2.0113175 4.1559286 16777215
 0.2297827 -2.0398369 4.2122812 16777215
 0.2293010 -2.0631385 4.2783313 16777215
 0.2282888 -2.0690808 4.3093376 16777215
 0.2195463 -2.0777869 4.3580999 16777215
 0.2126618 -2.0960810 4.4075766 16777215
 0.2056952 -2.1178522 4.4601545 16777215
 0.2057855 -2.1337752 4.5011339 16777215
 0.2035270 -2.1496084 4.5633273 16777215
 0.2155370 -2.1697571 4.6272779 16777215
 0.2231540 -2.1979985 4.6700964 16777215
 0.2326423 -2.2143631 4.7184954 16777215
 0.2315030 -2.2275138 4.7726936 16777215
 0.2237519 -2.2403131 4.8336062 16777215
 0.2155905 -2.2590404 4.8954716 16777215
 0.2172225 -2.2762871 4.9480181 16777215
 0.2192109 -2.2854919 4.9893160 16777215
 0.2307360 -2.2968247 5.0463152 16777215
 0.2471882 -2.3014059 5.0911083 16777215
 0.2590224 -2.3094165 5.1456861 16777215
 0.2624107 -2.3209529 5.1837959 16777215
 0.2613392 -2.3295019 5.2245469 16777215
 0.2550099 -2.3334770 5.2860050 16777215
 0.2458058 -2.3501410 5.3635888 16777215
 0.2488471 -2.3523648 5.3885121 16777215
 0.2509512 -2.3699603 5.4495111 16777215
 0.2528223 -2.3776565 5.5059681 16777215
 0.2597844 -2.3897138 5.5525880 16777215
 0.2716143 -2.4037485 5.6049566 16777215
 0.2704361 -2.4144664 5.6449709 16777215
 0.2678722 -2.4215236 5.6862111 16777215
 0.2593603 -2.4288158 5.7476869 16777215
 0.2491506 -2.4327540 5.8044477 16777215
 0.2510527 -2.4459269 5.8616567 16777215
 0.2551732 -2.4521322 5.9007277 16777215
 0.2639835 -2.4571135 5.9417334 16777215
 0.2737855 -2.4721603 6.0106907 16777215
 0.2826107 -2.4820733 6.0605783 16777215
 0.2821927 -2.4869833 6.0844517 16777215
 0.2784801 -2.4918988 6.1382642 16777215
 0.2598135 -2.4960070 6.1925073 16777215
 0.2504390 -2.5086687 6.2441082 16777215
 0.2504749 -2.5150466 6.2699733 16777215
 0.2508228 -2.5197573 6.3241057 16777215
 0.2614792 -2.5242016 6.3654327 16777215
 0.2684473 -2.5354702 6.4177265 16777215
 0.2695521 -2.5473404 6.4675322 16777215
 0.2674620 -2.5632496 6.5302100 16777215
 0.2553002 -2.5606575 6.5657310 16777215
 0.2514592 -2.5716472 6.6091986 16777215
 0.2458446 -2.5825729 6.6694555 16777215
 0.2487484 -2.5854430 6.7057657 16777215
 0.2522364 -2.5922582 6.7464724 16777215
 0.2617279 -2.6028099 6.7950563 16777215
 0.2708639 -2.6166987 6.8480902 16777215
 0.2693119 -2.6205330 6.8824878 16777215
 0.2570874 -2.6186283 6.9212847 16777215
 0.2473059 -2.6166737 6.9594669 16777215
 0.2365729 -2.6183500 7.0048189 16777215
 0.2316322 -2.6213379 7.0313053 16777215
 0.2292729 -2.6213424 7.0793886 16777215
 0.2349215 -2.6239719 7.1275306 16777215
 0.2462167 -2.6244180 7.1572418 16777215
 0.2434809 -2.6302500 7.1997995 16777215
 0.2392969 -2.6314678 7.2557940 16777215
 0.2335979 -2.6303294 7.3193398 16777215
 0.2271670 -2.6278107 7.3477173 16777215
 0.2276991 -2.6334865 7.4057493 16777215
 0.2292126 -2.6322298 7.4621115 16777215
 0.2408531 -2.6405964 7.5044165 16777215
 0.2400466 -2.6455083 7.5224895 16777215
 0.2422783 -2.6540053 7.5704117 16777215
 0.2396757 -2.6549306 7.6175699 16777215
 0.2358192 -2.6527047 7.6742239 16777215
 0.2341407 -2.6498349 7.6938591 16777215
 0.2266951 -2.6489210 7.7498331 16777215
 0.2321060 -2.6414223 7.7981615 16777215
 0.2249447 -2.6459191 7.8547521 16777215
 0.2306882 -2.6495705 7.8821297 16777215
 0.2318656 -2.6532233 7.9132056 16777215
 0.2232473 -2.6478555 7.9586763 16777215
 0.2121175 -2.6474941 7.9901962 16777215
 0.2103351 -2.6524653 8.0222569 16777215
 0.2077551 -2.6512122 8.0656347 16777215
 0.2164685 -2.6514287 8.0939903 16777215
 0.2153700 -2.6457314 8.1388836 16777215
 0.2187283 -2.6486020 8.1713591 16777215
 0.2214786 -2.6528485 8.2116060 16777215
 0.2158147 -2.6478362 8.2601261 16777215
 0.2053053 -2.6408818 8.2969341 16777215
 0.1984985 -2.6461079 8.3512363 16777215
 0.1965471 -2.6434090 8.3679657 16777215
 0.2034042 -2.6401243 8.4178848 16777215
 0.2039744 -2.6490259 8.4626904 16777215
 0.2088655 -2.6445327 8.4924164 16777215
 0.2073983 -2.6434407 8.5139141 16777215
 0.1896936 -2.6350460 8.5643663 16777215
 0.1751325 -2.6279683 8.5913725 16777215
 0.1694068 -2.6267972 8.6394463 16777215
 0.1676022 -2.6258643 8.6828880 16777215
 0.1709656 -2.6233852 8.7269077 16777215
 0.1728853 -2.6218507 8.7473993 16777215
 0.1737757 -2.6194654 8.7774334 16777215
 0.1696376 -2.6163180 8.8083210 16777215
 0.1717700 -2.6112630 8.8486519 16777215
 0.1702384 -2.6079440 8.8879261 16777215
 0.1704108 -2.6077080 8.9179564 16777215
 0.1801723 -2.6024241 8.9498844 16777215
 0.1908910 -2.6023407 8.9742546 16777215
 0.1959936 -2.6017206 8.9885988 16777215
 0.1983212 -2.5954814 9.0129557 16777215
 0.2065889 -2.5948222 9.0394840 16777215
 0.2073220 -2.5901909 9.0712929 16777215
 0.2100453 -2.5897689 9.0922089 16777215
 0.2187863 -2.5920339 9.1161251 16777215
 0.2237630 -2.5891869 9.1320724 16777215
 0.2314950 -2.5862958 9.1480713 16777215
 0.2414600 -2.5808184 9.1686678 16777215
 0.2473286 -2.5796800 9.1782055 16777215
 0.2606876 -2.5886025 9.1996059 16777215
 0.2589278 -2.5828824 9.2272034 16777215
 0.2475801 -2.5667660 9.2455158 16777215
 0.2332797 -2.5578480 9.2762060 16777215
 0.2342514 -2.5525212 9.2985725 16777215
 0.2291577 -2.5478916 9.3080254 16777215
 0.2262496 -2.5454192 9.3391199 16777215
 0.2265759 -2.5404131 9.3689022 16777215
 0.2291558 -2.5352306 9.3993587 16777215
 0.2386933 -2.5282602 9.4330292 16777215
 0.2397593 -2.5257187 9.4701366 16777215
 0.2358367 -2.5133693 9.4995356 16777215
 0.2235818 -2.4962208 9.5355663 16777215
 0.2166551 -2.4868932 9.5631590 16777215
