# .PCD v0.7 - Point Cloud Data file format
VERSION 0.7
FIELDS x y z rgb
SIZE 4 4 4 4
TYPE F F F F
COUNT 1 1 1 1
WIDTH 1180
HEIGHT 1
VIEWPOINT 0 0 0 1 0 0 0
POINTS 1180
DATA ascii
9.8503714 -11.508272 -3.0997176 16711746
18.608091 -18.542065 1.5862887 16711746
36.370716 -33.966042 2.8843489 16711746
23.394745 -21.219667 -0.83278543 16711746
9.4522095 -12.942936 1.2755209 16711746
27.226179 -19.774385 -1.6154642 16711746
4.3755198 -17.109943 -0.49781176 16711746
3.1965885 -9.3089609 -1.3415654 16711746
30.556162 -32.645607 4.9725919 16711746
17.455851 -23.427708 6.3356986 16711746
31.65024 -30.312536 4.1678529 16711746
4.2664857 -13.212286 -1.5828437 16711746
11.809486 -16.144562 -4.0415463 16711746
10.471273 -22.92087 -8.52491 16711746
16.815342 -15.580967 -4.1347342 16711746
3.5112205 -17.151611 -0.52350575 16711746
18.286222 -16.02084 -1.7996716 16711746
30.789448 -21.914402 0.42820305 16711746
12.45296 -13.199841 -3.1250536 16711746
11.572697 -6.8633604 -4.8361592 16711746
15.104324 -15.627629 -3.9277394 16711746
13.193419 -17.269886 -2.5607445 16711746
15.817825 -12.151961 -2.8341467 16711746
18.248253 -14.349784 -3.4323158 16711746
30.521482 -32.017933 6.7439818 16711746
12.636427 -10.858348 -5.9731879 16711746
14.158551 -26.203724 3.3194129 16711746
17.732906 -12.655473 -3.7499247 16711746
6.2891717 -31.002699 7.4121895 16711746
20.338293 -18.273741 0.72389299 16711746
21.152367 -13.859858 -1.9507322 16711746
15.286646 -10.422382 -2.6618876 16711746
18.831583 -16.404249 -3.675107 16711746
9.2044077 -8.6244268 -5.0625238 16711746
49.415245 -47.700569 2.3092549 16711746
14.956202 -9.3474197 -2.481931 16711746
21.530256 -13.453665 -3.2575078 16711746
12.043073 -8.2067194 -5.0453844 16711746
15.554145 -7.8408203 -4.8236012 16711746
25.170027 -18.230556 -1.3602041 16711746
21.358717 -20.350697 1.8998321 16711746
10.842105 -15.28896 -7.5501542 16711746
17.609426 -22.596159 1.7315172 16711746
26.447161 -27.767799 5.2944345 16711746
18.483948 -24.493887 1.8077008 16711746
20.800224 -21.242729 2.3588214 16711746
22.795292 -16.202368 0.19418754 16711746
19.047714 -25.046696 3.1202347 16711746
17.219225 -27.95092 4.5075598 16711746
33.709244 -32.65781 8.9468279 16711746
9.141839 -43.154125 13.469678 16711746
11.800113 -56.005844 16.998627 16711746
18.252924 -8.1559076 -4.5740418 16711746
22.015533 -47.112713 11.121007 16711746
13.908406 -29.753851 10.523726 16711746
7.0192952 -34.987972 8.193676 16711746
18.569809 -24.997704 8.0886765 16711746
19.077976 -19.253136 1.6557101 16711746
17.176283 -22.914686 7.4435973 16711746
27.4667 -28.842318 5.6570253 16711746
37.175739 -28.559319 8.2974806 16711746
26.785418 -35.273552 11.205386 16711746
21.680769 -35.088207 5.4847522 16711746
-5.4276543 -10.891287 -2.7061841 16711746
21.692425 -13.805365 -1.9963009 16711746
3.0100543 -58.502754 0.0090954565 16711746
9.568716 -7.6105766 -6.0210633 16711746
24.028263 -25.46303 5.42348 16711746
20.486923 -20.737329 1.7448684 16711746
21.252497 -21.562372 1.7300938 16711746
20.844681 -23.056236 2.1467125 16711746
14.86034 -7.3449526 -5.7680068 16711746
28.281303 -28.780006 4.4629235 16711746
12.528115 -8.4474945 -5.511651 16711746
26.380629 -26.783764 4.3261485 16711746
14.615089 -13.844086 -4.299984 16711746
17.004015 -10.867231 -6.6494832 16711746
15.969581 -14.560452 -4.4345627 16711746
13.084602 -11.219249 -4.2353759 16711746
23.731192 -30.065737 8.1774693 16711746
18.431711 -7.8370576 -4.0826287 16711746
10.989641 -4.9517212 -6.9472456 16711746
18.557829 -8.7828693 -5.1757402 16711746
16.352678 -11.314221 -4.083292 16711746
18.026606 -18.326202 -4.4505773 16711746
2.893446 -5.2318153 -1.1975616 16711746
13.662936 -40.228619 3.9295812 16711746
3.0340419 -6.1128893 -0.66068542 16711746
6.2262807 -49.084267 6.7508802 16711746
4.006907 -35.548313 4.010313 16711746
-10.519996 -27.34473 8.6593676 16711746
21.39418 -25.632042 8.8849869 16711746
22.635353 -26.914711 9.2584305 16711746
13.399582 -19.99279 2.2399731 16711746
21.411592 -29.908669 2.9738216 16711746
11.954528 -56.162617 13.773967 16711746
26.180618 -25.812292 -16.565548 16711746
27.547445 -46.880436 2.0537815 16711746
7.100853 -11.362178 -3.9141116 16711746
5.9969034 -11.038176 -3.5098717 16711746
3.1180196 -6.0771489 -1.1648732 16711746
-2.4818618 -8.4064627 -1.0618253 16711746
-5.1731911 -10.043715 -0.82920843 16711746
6.0916591 -10.727601 -3.5475562 16711746
0.80123127 -49.02137 -1.7903352 16711746
10.380819 -52.030834 12.490059 16711746
12.822685 -5.2825065 -6.786962 16711746
20.125778 -19.442539 2.7515564 16711746
-5.6186156 -10.214639 -2.2816021 16711746
7.6395082 -18.287632 -8.318119 16711746
1.4960477 -6.6209583 2.2237844 16711746
0.47616634 -12.147263 -3.3100607 16711746
8.172555 -20.061953 -8.2731409 16711746
22.306219 -28.411982 7.8152442 16711746
7.699152 -39.134163 7.0730724 16711746
16.740854 -23.382734 -7.6309652 16711746
19.14872 -16.526592 -5.1567783 16711746
13.527622 -23.186245 3.040596 16711746
24.705404 -31.927813 -6.8590422 16711746
5.6624403 -30.676353 7.7583103 16711746
8.0654707 -16.928736 -1.932704 16711746
4.1657014 -21.392509 -1.3429043 16711746
21.822861 -19.811131 -0.87527829 16711746
19.538513 -12.947778 -3.1744812 16711746
25.174976 -25.106623 2.0886784 16711746
9.3388309 -46.76741 10.763048 16711746
10.08887 -13.472798 -6.2479777 16711746
18.686573 -25.597366 0.047521926 16711746
21.412073 -21.080236 2.6143425 16711746
29.241312 -29.149942 1.8722805 16711746
35.988983 -36.087841 4.2151732 16711746
29.568924 -34.78862 11.810263 16711746
41.351044 -39.91531 11.252396 16711746
19.940035 -17.052761 -2.5221064 16711746
20.576513 -20.485422 0.18280531 16711746
43.836819 -33.879963 9.9789228 16711746
16.045174 -22.310436 0.23472844 16711746
3.1465271 -17.321346 5.0950351 16711746
0.67964488 -13.567709 1.0382059 16711746
0.20409772 -11.738661 1.0527233 16711746
10.592025 -19.396152 -0.18744357 16711746
10.470955 -18.294138 -2.0917137 16711746
15.485837 -22.606775 -7.2533588 16711746
0.59260076 -12.359283 1.1066697 16711746
12.190153 -16.138138 -3.2003615 16711746
5.7433066 -13.150133 1.9056069 16711746
9.7620506 -16.04879 -6.1590972 16711746
0.72166002 -14.72371 1.4048969 16711746
5.414073 -14.226528 1.0034124 16711746
11.031606 -20.501417 0.54513121 16711746
6.9686337 -16.880585 -2.8651965 16711746
15.616099 -18.95507 -6.0731273 16711746
10.253273 -19.563282 -3.9360111 16711746
-5.9528399 -9.9366417 -1.1817769 16711746
8.4128752 -18.391562 -3.8639972 16711746
2.4762945 -13.35877 -0.024898894 16711746
9.9235497 -14.828132 -4.7153549 16711746
3.2074163 -13.08567 -0.088356957 16711746
1.7563477 -11.158315 2.9739647 16711746
-4.8196731 -10.836177 -1.5149301 16711746
-5.6320744 -12.182525 -0.27005997 16711746
3.4163556 -14.018119 -2.6318736 16711746
12.446136 -13.234046 -7.9659948 16711746
16.215586 -16.314243 -4.9673343 16711746
4.5602651 -13.429292 -2.8089488 16711746
10.560022 -16.242126 -8.2437334 16711746
4.329896 -13.974422 3.4996047 16711746
3.9661298 -13.356986 -1.5634017 16711746
6.682415 -12.503457 -4.5207396 16711746
0.39788607 -10.872825 1.4480928 16711746
0.31111348 -15.736862 1.0709045 16711746
0.091543533 -13.79856 2.6756978 16711746
1.8039427 -6.7373943 -1.1364049 16711746
-0.084374197 -12.897996 2.5618358 16711746
-0.33547071 -11.897037 -1.6071008 16711746
2.2895393 -12.924613 -2.4726217 16711746
0.24010617 -8.1651964 1.5122751 16711746
-0.498757 -14.264678 2.0539494 16711746
-0.52833629 -16.169161 2.0630479 16711746
3.9934001 -5.3713741 1.5300734 16711746
11.558578 -19.002144 -3.1931005 16711746
17.434633 -14.984779 -8.6250257 16711746
15.941689 -15.266759 -2.9572341 16711746
19.203316 -15.874349 -4.770278 16711746
29.822351 -27.794493 2.8424349 16711746
-8.8333797 -15.248395 3.6145999 16711746
14.675262 -8.4359837 -7.1710558 16711746
3.7678597 -12.319475 -0.11232478 16711746
-0.093279511 -8.8778543 0.54247904 16711746
2.525939 -6.9492054 -1.5278925 16711746
7.9155426 -13.281631 -3.2760696 16711746
2.5157411 -6.9559155 -1.5266495 16711746
3.2201958 -9.0870895 -2.6398087 16711746
2.6164007 -8.6032619 -2.1830511 16711746
0.40461734 -10.913382 -3.0160677 16711746
2.0235479 -7.2854209 -1.4708838 16711746
2.6430113 -7.0777555 -1.8211175 16711746
-0.183764 -11.194449 0.25397259 16711746
-3.692874 -7.9953294 -0.23261873 16711746
4.9911151 -13.073433 -2.8024523 16711746
1.870522 -8.3263302 0.60948032 16711746
3.3647776 -11.328679 -0.41670376 16711746
-2.5418618 -5.9916019 0.78934771 16711746
2.7859168 -5.9778094 -0.14326526 16711746
1.6843629 -7.1096659 -0.50562096 16711746
3.9694915 -7.4432654 0.76790261 16711746
-2.8598907 -15.558583 1.760036 16711746
0.30191842 -10.4381 0.16683426 16711746
1.3109019 -4.8939071 0.43597114 16711746
1.517903 -5.5867009 0.078375146 16711746
-4.5772319 -8.9395056 0.68398833 16711746
-0.06827046 -7.3485436 0.86495113 16711746
2.9171174 -10.159811 -0.1580202 16711746
2.2212601 -5.5022492 0.78678322 16711746
2.5566397 -6.0763373 0.47685966 16711746
2.4204357 -9.0528765 -0.34978098 16711746
1.3190303 -8.4930344 -0.30598333 16711746
2.5978277 -9.3727818 -0.0059710522 16711746
3.072629 -6.7245436 -0.57734591 16711746
4.0589614 -8.281415 1.1301191 16711746
5.2810578 -9.5921764 1.4269532 16711746
3.8841252 -6.5851021 -0.12581345 16711746
1.6237957 -9.7487679 -0.65955877 16711746
4.6681943 -9.4232473 -0.6141215 16711746
3.0136628 -7.3287239 0.77187049 16711746
1.8648627 -8.3987617 -1.8519177 16711746
2.1627688 -7.5592761 -1.1143153 16711746
5.1935873 -12.31004 1.9089451 16711746
4.1162128 -6.9771924 0.37047645 16711746
2.5192337 -5.3515015 -0.34598473 16711746
4.3887329 -9.8689909 1.9738693 16711746
-5.3481679 -11.171713 0.69274241 16711746
2.9413044 -14.400649 0.58964723 16711746
6.2069979 -17.332539 -3.6638801 16711746
3.5583701 -16.89448 0.3175979 16711746
6.1124382 -19.415079 1.0662156 16711746
2.4802632 -11.293567 -0.12939268 16711746
3.3218613 -18.720362 4.1323466 16711746
0.60137337 -13.636702 1.0626644 16711746
7.0208364 -11.621881 -2.8825927 16711746
12.11764 -12.940391 -7.3842545 16711746
6.9809537 -11.810822 -3.688765 16711746
0.13578835 -15.525224 2.8684435 16711746
3.4027269 -15.520871 1.2652901 16711746
11.215768 -16.582817 -4.4656134 16711746
29.042858 -21.137575 -1.0883536 16711746
20.780704 -13.223603 -4.0730095 16711746
29.063007 -25.565344 -5.1074162 16711746
47.368587 -41.330997 -3.6675963 16711746
-1.4973631 -62.870777 1.6707891 16711746
23.131584 -19.131657 -5.2271023 16711746
25.709028 -16.507538 -2.5856359 16711746
6.1650124 -11.527158 -3.6797636 16711746
8.4137878 -9.983552 -4.4159122 16711746
1.9995986 -8.2965984 -1.0419592 16711746
5.3158646 -10.476624 -2.5206876 16711746
4.6387448 -9.8182154 -2.7740355 16711746
0.29435644 -3.2730982 1.8835931 16711746
-0.5473721 -9.5710115 1.3047891 16711746
-0.50600815 -13.280901 2.2897983 16711746
11.157249 -21.634344 -4.5475221 16711746
17.100273 -16.727747 -3.6648686 16711746
16.535524 -14.810664 -9.2169323 16711746
1.3870765 -10.832167 2.5015447 16711746
2.5989068 -13.47884 0.71179491 16711746
8.7423849 -13.992755 -3.6283092 16711746
17.348423 -16.885355 -3.7232554 16711746
-5.74793 -12.825023 -0.30660829 16711746
2.3869052 -14.546307 4.5208673 16711746
15.832503 -15.371498 -8.8677073 16711746
-0.22673638 -5.8864164 0.2976248 16711746
31.449949 -33.97319 6.259954 16711746
24.303478 -15.642516 -2.4225063 16711746
12.994215 -15.195913 -6.859942 16711746
25.03253 -16.768543 -2.6932821 16711746
13.479812 -12.668794 -6.7787809 16711746
20.240948 -22.493031 -8.0285063 16711746
13.13142 -14.653736 -7.9105587 16711746
5.2102094 -32.60733 -10.664812 16711746
12.739711 -11.93995 -6.2394514 16711746
6.5413194 -12.816989 -4.6513505 16711746
-0.86475521 -35.672684 -5.04002 16711746
15.169301 -16.887844 -10.156263 16711746
1.7005622 -8.3330555 2.7694438 16711746
14.768435 -20.087309 -4.1304798 16711746
27.878719 -21.08197 -1.5915276 16711746
20.992558 -9.606163 -5.4785938 16711746
5.2056746 -23.542688 5.4560819 16711746
11.025868 -32.765652 3.8973505 16711746
4.8534636 -8.758812 0.33702379 16711746
16.762014 -24.045933 4.7220302 16711746
2.6149623 -14.297491 5.0927839 16711746
4.6712451 -10.426865 -1.5067502 16711746
1.1416682 -14.993196 5.8406315 16711746
1.184314 -18.880634 6.1663976 16711746
1.1807588 -11.650946 1.0143536 16711746
1.2090889 -8.3386745 0.50204468 16711746
1.3019544 -13.184086 -0.93367165 16711746
1.3343593 -15.460409 2.3880422 16711746
1.1476996 -11.063366 -1.19424 16711746
0.54264408 -11.820827 -1.3677236 16711746
1.6355822 -12.388717 2.0508413 16711746
1.9720396 -14.410772 1.5990546 16711746
1.7597309 -9.5531836 -0.025044318 16711746
1.5002505 -10.303477 -1.2447499 16711746
1.5981156 -9.4766903 0.49341235 16711746
0.57656389 -10.052543 -0.56215072 16711746
-1.5384021 -9.7119837 3.1575236 16711746
1.3300503 -9.4556503 -0.54641128 16711746
-0.91083992 -8.3865261 0.74219954 16711746
1.6485859 -9.6278353 0.44702873 16711746
1.7474446 -9.9032478 0.14074036 16711746
-1.9502789 -14.290782 0.24552754 16711746
-1.1681194 -12.991338 1.2965599 16711746
1.5908284 -10.923081 0.62019801 16711746
1.8516195 -15.213954 1.5508957 16711746
1.5443448 -12.238309 2.7204733 16711746
2.3873417 -16.554443 1.8244753 16711746
1.3837517 -11.882881 2.0010228 16711746
1.5205613 -9.718976 0.24889296 16711746
1.6639717 -10.424483 -0.40127513 16711746
2.7468262 -14.692169 1.0939066 16711746
1.4948208 -12.87806 1.7421777 16711746
0.96459794 -10.93454 1.6338732 16711746
-0.9445852 -9.8069401 1.5939109 16711746
-2.5616529 -12.981267 2.0747221 16711746
-0.90931958 -9.3699703 2.4139392 16711746
0.65707099 -12.464006 1.5733312 16711746
-1.0565164 -12.348927 -0.55900234 16711746
-1.142333 -10.499237 0.87263995 16711746
1.8222506 -11.738377 0.72272855 16711746
1.5989932 -10.547232 -0.67202842 16711746
1.0531254 -9.5950918 -0.59566373 16711746
3.3868725 -12.370094 -0.4662216 16711746
1.3015246 -19.222979 3.4439619 16711746
1.465906 -14.530479 2.7422962 16711746
4.5905676 -14.206835 2.1224377 16711746
2.0571289 -10.047196 -0.45410717 16711746
6.3829694 -18.850765 6.8479681 16711746
2.176405 -9.4567575 0.4122498 16711746
5.9400558 -11.486684 0.92053962 16711746
10.77448 -12.256276 1.3743814 16711746
4.1822786 -11.087284 0.75440091 16711746
8.9073305 -17.085526 4.7551537 16711746
-0.91804671 -10.491136 -0.41400617 16711746
5.7133942 -15.110271 1.4530637 16711746
11.076965 -14.673785 2.8328226 16711746
5.6289034 -10.477697 -0.9747597 16711746
5.6285024 -15.32005 2.2510254 16711746
9.5644569 -16.322309 4.3576756 16711746
2.8662398 -8.8816719 -0.062296864 16711746
4.708827 -10.448919 -1.5139366 16711746
-2.4911342 -11.325289 2.1883988 16711746
4.4691925 -15.231243 6.3890915 16711746
10.56444 -14.484965 5.3711305 16711746
1.3161048 -11.966722 -0.85029292 16711746
3.8528235 -11.901974 -2.6276484 16711746
4.1882548 -11.267701 -2.3526185 16711746
5.6115198 -11.976686 -0.85883975 16711746
11.237742 -18.281441 7.5529799 16711746
5.7367997 -14.53089 3.4379361 16711746
4.0800338 -13.126302 3.7479818 16711746
-0.32333335 -12.319945 -0.52467966 16711746
0.74661571 -17.662687 5.1798635 16711746
6.0749536 -10.72191 -0.87488854 16711746
7.3505878 -11.206727 -0.62125772 16711746
5.9071808 -14.410669 0.81566596 16711746
5.6976995 -12.519719 0.85663837 16711746
14.577854 -16.71504 3.0904791 16711746
5.4962111 -8.7184048 -1.5796494 16711746
1.7632254 -10.065735 -0.52531987 16711746
8.814744 -15.341064 0.78364569 16711746
5.7848263 -12.194016 -0.95009893 16711746
2.6066096 -10.377021 0.17550544 16711746
1.7998396 -10.524325 2.1250808 16711746
8.4660425 -10.269501 -2.5965953 16711746
-3.2647688 -10.992688 2.9363108 16711746
5.4671397 -8.6686754 -1.5508165 16711746
2.5587628 -10.996714 0.32127744 16711746
1.352127 -12.751908 1.2462096 16711746
18.84309 -20.661324 4.655014 16711746
1.4729103 -10.766452 -0.19366728 16711746
5.9134288 -10.871168 -1.1748523 16711746
-2.1031177 -11.236504 -0.14020556 16711746
-1.8130898 -12.253329 0.68497682 16711746
1.8083144 -11.524364 0.81975704 16711746
1.7980386 -13.164178 -0.13160165 16711746
4.3457351 -12.320428 0.088315517 16711746
2.8332679 -8.7071705 -0.025017777 16711746
7.1948738 -20.565769 7.3206549 16711746
3.6756649 -11.9568 3.6172693 16711746
10.263839 -12.851148 -1.136305 16711746
6.3742514 -14.732687 2.3027828 16711746
3.3906252 -9.1590824 -0.56202382 16711746
-1.6058979 -10.615935 2.357373 16711746
6.6411448 -18.022635 3.275094 16711746
7.9972396 -15.258256 3.8514848 16711746
1.939581 -11.713233 2.2057989 16711746
1.80952 -10.549376 2.1516969 16711746
2.0080967 -12.091793 -1.340614 16711746
8.0600767 -10.049298 -2.4392042 16711746
-6.7010455 -13.204666 -0.72570211 16711746
5.8525195 -7.8875508 0.84724879 16711746
9.2435017 -11.535047 0.55473816 16711746
-2.9988675 -14.400853 1.627516 16711746
0.32065213 -11.165841 -0.41401926 16711746
2.4206531 -10.041628 0.31919825 16711746
2.71 -8.5959778 0.0427128 16711746
-2.410516 -14.447024 3.8793194 16711746
-1.4919156 -12.875936 3.9909155 16711746
7.9613152 -15.557826 2.0905657 16711746
15.640129 -25.107986 5.0962486 16711746
10.068771 -17.505091 3.452666 16711746
23.427984 -18.845278 3.3416743 16711746
2.8542075 -12.954471 3.6713288 16711746
7.2054925 -14.520171 4.5984998 16711746
4.3371024 -10.620155 -1.0878065 16711746
5.1882811 -9.7761707 -0.43321612 16711746
1.548825 -10.401233 -0.60691285 16711746
6.0926456 -13.328223 -1.8034261 16711746
7.826149 -15.579394 -3.7399976 16711746
-1.0039111 -8.9552555 1.1093621 16711746
-1.3861338 -8.7011099 1.3461808 16711746
-4.6281404 -16.687143 1.556429 16711746
-7.2947979 -13.632327 1.7928851 16711746
-5.628468 -9.7732191 1.3248901 16711746
6.0018167 -16.387165 -0.96675676 16711746
4.8223052 -12.849731 0.77184576 16711746
4.1173639 -9.6403627 -1.0963392 16711746
-1.2669334 -10.41756 3.275182 16711746
-2.787009 -17.36248 5.4753056 16711746
-2.5683999 -17.968004 4.9410229 16711746
14.738375 -18.951691 6.4276414 16711746
10.983296 -14.577958 3.3330975 16711746
8.1594276 -14.861169 3.3368304 16711746
8.4439564 -16.493391 4.7585659 16711746
5.0175166 -10.235499 1.0695498 16711746
10.051079 -16.701229 -1.204245 16711746
10.604527 -11.716374 -4.337615 16711746
10.671542 -17.423176 0.89767849 16711746
8.489975 -15.056428 0.83906698 16711746
2.7028384 -8.2256994 1.5150567 16711746
7.2266974 -15.550335 2.8383162 16711746
5.2949433 -13.981432 3.0681088 16711746
-5.2444391 -18.36322 1.4266034 16711746
-3.6536605 -12.144437 1.6803516 16711746
7.8339815 -14.893214 -3.8182511 16711746
-4.0412521 -12.470039 1.3853513 16711746
9.8934584 -12.363222 -1.4065254 16711746
0.91939849 -12.437541 1.150551 16711746
6.6980977 -17.648489 1.0174682 16711746
6.1539736 -11.252018 -0.59024125 16711746
3.0578287 -9.1905317 -0.26990727 16711746
1.9181634 -9.9017057 -0.33837259 16711746
-0.20461543 -21.136271 7.8545089 16711746
16.281494 -16.573294 0.68708438 16711746
4.6726437 -14.016726 2.2204046 16711746
8.5439434 -17.136776 3.4221938 16711746
1.6275455 -9.6481514 -0.45905229 16711746
1.0598011 -10.770412 -0.93240577 16711746
1.4588941 -13.034274 -2.227525 16711746
0.97640806 -13.820154 5.5417032 16711746
1.8078015 -11.273283 1.6134641 16711746
-2.7753134 -10.260562 2.1431799 16711746
-1.3828861 -9.7058935 1.6502801 16711746
1.8181217 -9.5978317 -0.18689205 16711746
-2.5152969 -14.904317 6.4431138 16711746
-1.740163 -13.065838 1.1775846 16711746
1.0083139 -11.717916 0.95530367 16711746
-1.4813837 -9.6126537 2.3842185 16711746
-1.7064722 -13.04568 1.2124475 16711746
-1.5421999 -16.266047 2.7432721 16711746
1.2271817 -10.580021 -0.67086941 16711746
3.8332489 -9.1918516 -0.59549177 16711746
144.68152 -109.18 -7.3843412 16711746
47.302582 -44.671898 1.6536084 16711746
5.9695535 -6.2912111 1.1622065 16711746
40.962029 -26.973211 -7.9500208 16711746
3.0948117 -9.2362347 -0.23007528 16711746
5.0257931 -7.2713819 2.1070473 16711746
6.9644318 -15.660311 2.2201216 16711746
2.0023794 -11.00635 -0.060605962 16711746
4.9496331 -9.5548706 0.6816572 16711746
2.9026549 -9.9704065 0.76592231 16711746
4.1046448 -9.4202738 -1.0845833 16711746
1.9987974 -9.9626894 -0.31021985 16711746
4.3213453 -10.666243 1.0100538 16711746
2.7651205 -11.395376 0.46361598 16711746
2.4060488 -12.575441 2.4035068 16711746
1.2341501 -12.594996 -0.75258815 16711746
7.008687 -9.826519 0.63293296 16711746
4.8713713 -8.3978186 0.48129976 16711746
3.6747777 -11.10343 2.617759 16711746
1.7039338 -9.9495649 0.3302311 16711746
7.2232866 -13.802365 2.6015613 16711746
0.74740785 -13.636816 1.3863068 16711746
3.7653587 -8.7028389 0.41387749 16711746
4.5306277 -12.383174 3.3280895 16711746
6.0026631 -12.182392 -1.1521789 16711746
6.2054048 -9.9378109 -0.14322564 16711746
6.1369543 -10.085634 -0.43984559 16711746
-6.3608046 -10.823253 1.1692672 16711746
4.3661709 -9.0807581 0.87948209 16711746
0.83190274 -10.074287 0.27465788 16711746
1.3333319 -12.10243 -0.91219383 16711746
1.5165894 -14.449454 1.3351369 16711746
1.2234066 -13.13912 0.73801863 16711746
3.8958559 -13.567179 3.0707755 16711746
2.5815623 -18.415554 2.6024604 16711746
6.787137 -12.192269 -1.8175725 16711746
4.5197854 -14.45016 5.862268 16711746
6.1013112 -12.623444 2.4527445 16711746
2.0498836 -13.16189 -0.70835245 16711746
1.3494785 -13.301378 1.5933369 16711746
-4.855114 -13.371624 2.2929811 16711746
3.434025 -17.529587 1.3538281 16711746
2.9522483 -19.740829 2.5701168 16711746
6.0894637 -13.6254 4.8331938 16711746
5.4021425 -11.046172 -0.28992143 16711746
9.2982712 -15.31609 0.16944425 16711746
10.689726 -12.196054 1.3681977 16711746
12.608051 -18.290915 5.0166397 16711746
9.2721806 -15.739097 2.0213895 16711746
7.2790699 -15.472713 1.20192 16711746
10.533448 -13.017379 1.3584183 16711746
4.398602 -12.508619 0.038882006 16711746
-8.7429867 -18.309847 6.9605026 16711746
18.752932 -23.235287 7.3088598 16711746
7.5457683 -15.792835 1.1693054 16711746
1.958231 -12.069636 0.69260097 16711746
9.7009706 -9.7529535 -2.664063 16711746
1.8121406 -11.302 -1.0273943 16711746
4.4798498 -11.801508 0.52680683 16711746
12.222773 -15.411876 4.7610936 16711746
11.764453 -21.210382 5.624033 16711746
15.358184 -19.880213 5.9649529 16711746
10.73428 -15.929713 4.6349611 16711746
9.2403355 -12.093854 0.24863629 16711746
12.201799 -10.84701 -0.57696235 16711746
8.167737 -16.507059 2.8377807 16711746
14.300622 -15.10637 0.90158015 16711746
9.3171806 -15.381063 0.14378297 16711746
4.3448505 -13.206796 2.1960602 16711746
9.2066326 -8.0838938 -1.4600455 16711746
11.200047 -14.830923 3.3567603 16711746
11.308844 -10.35936 -0.32715833 16711746
16.306419 -16.865993 0.64697099 16711746
1.2555974 -11.511235 -0.6979987 16711746
20.588846 -17.177433 1.8455321 16711746
7.3000765 -10.734182 4.264493 16711746
11.468675 -24.257433 6.2299628 16711746
-13.881206 -28.154078 10.646205 16711746
5.5032778 -14.727117 2.6967826 16711746
4.2758574 -14.48142 2.6789362 16711746
12.205701 -18.264555 4.8838167 16711746
6.0923758 -23.773262 8.1976986 16711746
7.0672259 -19.217405 3.2586172 16711746
20.810638 -17.449188 1.58928 16711746
8.6847887 -18.836544 1.9755589 16711746
8.355197 -10.8209 0.62903601 16711746
13.094805 -15.127693 -0.45216978 16711746
10.40032 -11.820263 -1.9030154 16711746
-2.256386 -10.333075 1.6360381 16711746
11.511744 -18.988638 -3.0127606 16711746
8.0591211 -34.010082 6.6905084 16711746
-1.373062 -9.186758 1.9541659 16711746
6.1984844 -6.4391818 1.3108871 16711746
9.4841366 -11.10853 -3.3871663 16711746
0.30755609 -6.9891376 4.104413 16711746
5.3232512 -11.491897 -0.61724079 16711746
15.193071 -13.424463 1.1698915 16711746
3.6266775 -9.0389223 -0.47591004 16711746
-1.9618869 -20.528257 2.3244174 16711746
10.888414 -10.873076 0.50449651 16711746
2.4204357 -16.851503 -2.1496389 16711746
2.8244421 -8.8179026 1.7923226 16711746
10.952389 -17.80364 0.88174528 16711746
5.303637 -11.347072 0.197036 16711746
5.3559594 -10.996089 -0.26788625 16711746
8.7283926 -15.424003 -0.23274089 16711746
10.730078 -18.195841 -0.96249259 16711746
3.7610242 -19.475002 5.584166 16711746
14.260891 -16.718138 0.75404859 16711746
12.473657 -16.13414 -1.3948474 16711746
3.9603152 -12.788502 2.2923956 16711746
13.362897 -11.363017 3.4690824 16711746
8.9906549 -8.1700163 0.39674231 16711746
7.2842455 -14.938618 -2.534018 16711746
2.1100824 -12.336214 1.4900848 16711746
2.1177735 -11.270016 2.3249586 16711746
2.1559186 -11.384624 2.3040826 16711746
-3.9277279 -38.021187 -1.7016485 16711746
-4.4147887 -18.546988 1.6953512 16711746
1.1495616 -11.717087 0.053005815 16711746
8.302002 -11.429499 5.7881064 16711746
8.0908079 -11.681053 4.3797388 16711746
1.6531765 -11.542803 -0.10550556 16711746
8.710947 -8.1043873 -1.2012256 16711746
1.1693883 -9.4704571 0.6324473 16711746
10.389853 -13.439837 6.5173306 16711746
16.653757 -14.495175 4.8859229 16711746
7.7810817 -8.2381277 1.3140521 16711746
3.8876648 -8.3041811 4.8897996 16711746
-0.66167468 -11.150236 2.9177229 16711746
1.8202775 -10.57357 4.6211991 16711746
3.7833366 -9.592618 -0.30120221 16711746
-1.2575601 -13.171232 2.0308349 16711746
-1.0435945 -12.161008 1.1669848 16711746
11.082843 -18.618713 -0.61097163 16711746
1.0818108 -9.3167973 0.69930899 16711746
0.20083989 -9.5389328 4.0200586 16711746
11.637794 -13.678937 1.7773439 16711746
10.935818 -12.646209 0.80249214 16711746
11.401421 -22.715071 -1.7551761 16711746
-4.0898147 -19.488138 2.4092574 16711746
-2.8726022 -20.125605 5.4062567 16711746
-1.7540013 -12.160532 2.4441259 16711746
8.7836103 -9.0852175 2.6392381 16711746
-1.9764179 -14.324463 1.2564077 16711746
-3.4616492 -14.86841 0.40165433 16711746
18.212719 -15.396263 1.9930648 16711746
5.9618683 -14.573275 0.76998216 16711746
6.1897173 -16.041187 0.97560024 16711746
8.7663727 -12.027653 4.8926091 16711746
13.415118 -14.919368 3.5679066 16711746
13.85124 -16.334677 2.5143983 16711746
12.682568 -14.243299 0.23164877 16711746
-11.376841 -25.84943 3.615555 16711746
8.623312 -13.850554 3.9255364 16711746
-3.612494 -15.670632 0.24965282 16711746
0.31020606 -14.264436 -0.44166699 16711746
9.0107775 -17.17548 4.5173063 16711746
13.33599 -11.942284 2.0084257 16711746
6.2257562 -14.453568 0.97173643 16711746
11.917458 -23.006155 6.6241045 16711746
12.949076 -16.37748 3.3955593 16711746
-2.022202 -17.59387 2.8462477 16711746
7.9600329 -15.708448 -2.6243236 16711746
10.105056 -11.754095 -0.50525665 16711746
7.2558804 -9.8955345 1.5998034 16711746
12.270092 -11.431499 -1.6055299 16711746
11.414814 -14.292229 2.5939095 16711746
10.071566 -16.251099 3.0512426 16711746
11.239542 -13.197797 -1.517454 16711746
10.460867 -11.799028 -0.3355965 16711746
6.0455956 -17.608156 2.7021592 16711746
10.666209 -12.929319 1.9831502 16711746
-0.94246244 -16.314907 2.3919933 16711746
9.3279495 -15.809876 3.8717232 16711746
-1.6714052 -17.174913 0.68223709 16711746
3.8972242 -13.180902 0.59954834 16711746
-1.0255821 -10.992207 1.6784917 16711746
-1.6082287 -13.788295 2.9358592 16711746
7.2898088 -9.4335184 0.41052002 16711746
6.1094913 -11.382922 1.0512258 16711746
9.8273811 -13.902753 1.9037535 16711746
1.8525134 -24.540375 7.5343742 16711746
21.319605 -23.985216 5.3458481 16711746
14.147944 -27.660606 7.8881693 16711746
9.235486 -8.4581604 0.27948189 16711746
-2.3785911 -22.138777 4.6651726 16711746
17.538588 -20.03569 2.3698068 16711746
10.682269 -13.492435 -0.36507982 16711746
-5.4231777 -19.950863 4.5567403 16711746
8.4041309 -10.675537 1.2470415 16711746
-10.687908 -28.102722 12.346261 16711746
-3.0047975 -14.722552 1.1210639 16711746
10.138707 -9.9979677 -0.34064338 16711746
11.870177 -9.6358242 -0.64044154 16711746
7.8904381 -15.210738 4.2893248 16711746
7.5395255 -19.332628 5.2652864 16711746
6.9932919 -16.192486 1.856397 16711746
2.2818344 -12.788276 2.2924247 16711746
5.3728352 -12.195901 -1.2757064 16711746
3.5297053 -12.661968 3.5226839 16711746
5.9137406 -10.195686 -0.0518228 16711746
10.980853 -11.989172 -0.44412756 16711746
16.770077 -14.42528 -0.54022068 16711746
4.0428391 -15.304603 3.4887698 16711746
9.9243031 -10.445457 1.9529555 16711746
-1.2577362 -13.91901 1.2548338 16711746
7.6838045 -16.598806 -0.31325883 16711746
3.3185875 -17.9408 1.80454 16711746
-3.4211805 -23.088758 5.9020767 16711746
-3.911572 -24.12645 6.780838 16711746
9.1531754 -14.556977 6.7380056 16711746
14.961317 -11.551477 1.3507652 16711746
11.583104 -23.803225 -2.4569366 16711746
7.740202 -10.478963 -0.36613888 16711746
-1.7607409 -17.816654 2.6990983 16711746
-1.0165426 -16.609522 1.7191024 16711746
8.2917128 -20.647493 -1.2349136 16711746
1.3773158 -8.8470707 1.2787247 16711746
3.7650335 -17.272419 -0.33324245 16711746
13.643295 -13.12287 1.7843455 16711746
1.9502966 -12.951506 0.2888642 16711746
9.566844 -16.181829 4.3785563 16711746
7.7477751 -10.805277 -0.21088968 16711746
-2.785311 -19.396524 3.700155 16711746
1.7077068 -22.500349 -0.3746748 16711746
7.8285007 -14.537632 2.1074834 16711746
3.3463488 -13.852785 2.5282497 16711746
8.5326118 -9.0677166 -0.032202017 16711746
9.3730059 -10.166188 -0.82289052 16711746
1.6494628 -16.231432 -1.6052697 16711746
16.668625 -20.626539 7.6519804 16711746
6.1682105 -12.988543 -0.37547642 16711746
-5.0547748 -31.220789 12.443227 16711746
11.676117 -20.243309 3.6766837 16711746
7.2670536 -14.069371 -2.1599543 16711746
12.185417 -14.192451 1.6794021 16711746
6.8202953 -23.363422 -4.055388 16711746
6.3998752 -22.561106 -3.8631628 16711746
11.607386 -14.103589 -0.54403508 16711746
7.4184985 -16.617115 -4.5261726 16711746
14.257461 -27.421778 4.8156223 16711746
18.305748 -19.355703 -0.24535884 16711746
6.4793496 -12.225383 -0.35290614 16711746
15.127102 -18.390442 6.4624295 16711746
-0.5484156 -23.763311 -2.6051903 16711746
2.5803893 -31.541739 -4.9001184 16711746
-1.2108079 -16.955444 -0.25582454 16711746
3.4544396 -20.950859 0.29130402 16711746
-5.1732359 -18.703547 3.1747689 16711746
7.6386547 -14.605927 -2.2611096 16711746
6.2312512 -20.852921 -2.9886229 16711746
5.4576459 -13.720893 0.023892935 16711746
10.901754 -12.444987 1.3528421 16711746
11.211655 -17.983196 -1.6105902 16711746
15.211669 -20.887316 5.8972797 16711746
10.403206 -10.100901 1.8231937 16711746
5.4067011 -17.533657 0.26272702 16711746
2.3749607 -33.901611 10.899561 16711746
13.289779 -36.710522 11.492083 16711746
13.259239 -21.5606 4.8323207 16711746
5.0329719 -15.142888 1.6420997 16711746
21.571236 -31.586451 10.49195 16711746
25.141294 -28.901814 6.188036 16711746
13.006439 -10.959691 1.0746465 16711746
11.071502 -13.419374 3.0231302 16711746
7.7196126 -15.840421 1.1150136 16711746
15.589919 -17.647783 3.1845555 16711746
20.195879 -38.495872 8.2136002 16711746
-6.3534093 -22.138315 2.5049274 16711746
-9.7768278 -26.326578 11.321191 16711746
14.476726 -38.319447 11.952466 16711746
19.140446 -22.125048 4.7931232 16711746
35.170597 -39.656754 11.959782 16711746
28.873968 -34.245205 9.3888302 16711746
15.715117 -11.884312 0.98406571 16711746
33.132149 -58.002087 14.477339 16711746
29.09339 -31.556704 7.9593558 16711746
35.015175 -25.975693 2.4994256 16711746
13.573476 -29.319025 5.2413955 16711746
25.804398 -36.655182 11.953039 16711746
32.493767 -42.448727 18.568815 16711746
-17.361364 -66.495064 -1.0898846 16711746
-10.71304 -57.115459 -11.851281 16711746
56.796291 -57.103256 11.88702 16711746
27.27824 -36.467438 16.383299 16711746
41.078327 -43.668018 16.644567 16711746
16.393307 -14.809113 -1.2569523 16711746
28.578007 -51.375408 12.329576 16711746
34.053226 -50.217384 20.051126 16711746
31.48155 -33.442085 0.12856886 16711746
-4.5849013 -51.173309 0.71948451 16711746
18.074425 -28.733017 5.5637212 16711746
15.995636 -24.806959 1.7322178 16711746
14.98943 -24.335649 1.1712613 16711746
14.986632 -18.144583 -2.1419976 16711746
15.021421 -24.660891 5.413209 16711746
10.641246 -22.570898 -0.053632222 16711746
11.461173 -20.231592 4.2751622 16711746
12.145384 -24.25688 -1.5096972 16711746
20.937027 -18.751575 -3.7540002 16711746
20.381662 -22.279333 -1.1217598 16711746
16.884378 -25.616877 9.4681034 16711746
15.467835 -22.017492 6.3581758 16711746
9.5079517 -21.062233 7.2575369 16711746
12.251869 -23.367018 5.2144146 16711746
10.062641 -20.638687 -0.93014336 16711746
2.0479209 -20.743311 2.7530603 16711746
25.724287 -17.36343 -0.47349089 16711746
-5.9996514 -16.645815 1.9551132 16711746
18.221794 -20.061369 -1.7009823 16711746
9.1114998 -20.986874 -0.15588431 16711746
9.4395409 -23.312916 5.8066516 16711746
10.497835 -21.678423 0.24426053 16711746
10.728951 -14.254686 6.1104693 16711746
21.171116 -17.481306 3.3727214 16711746
11.832248 -23.721691 8.1231756 16711746
14.631327 -23.92465 1.2340068 16711746
13.983458 -23.08116 0.23755109 16711746
19.996269 -20.414602 -2.8385215 16711746
20.989571 -25.119959 2.126121 16711746
13.52524 -17.17058 -2.9687865 16711746
2.4398935 -20.329752 2.3024442 16711746
19.516811 -19.193047 -3.9685657 16711746
13.236183 -17.331619 -1.9246441 16711746
14.546052 -23.589424 4.8093843 16711746
16.82959 -25.826235 4.0346951 16711746
1.0975171 -20.323566 2.3843727 16711746
4.6265063 -15.760579 5.1479311 16711746
8.5296316 -25.548059 5.2894292 16711746
2.1200163 -21.558704 4.2438288 16711746
10.205286 -23.236376 6.254128 16711746
-6.9622407 -26.099972 -1.2263234 16711746
8.1860018 -20.359961 -0.18759844 16711746
14.540599 -20.35103 4.4574389 16711746
-6.6019216 -26.038528 3.5594347 16711746
4.9129167 -16.338694 5.1468859 16711746
6.6478701 -21.340582 5.1564851 16711746
9.1687899 -19.563478 3.5203512 16711746
20.652393 -16.638186 -2.2828429 16711746
14.302755 -23.40028 -0.18897995 16711746
13.32244 -16.309837 -3.1615748 16711746
14.465161 -17.880606 -4.591496 16711746
1.2653396 -16.283873 2.1951885 16711746
0.56295675 -20.333145 0.93833613 16711746
18.318216 -30.296499 3.4342942 16711746
-3.870008 -16.028254 1.314103 16711746
-2.3106289 -16.391794 0.50706351 16711746
16.437365 -19.168863 -2.6251478 16711746
14.980593 -19.564865 -2.9635811 16711746
2.6785433 -18.572071 2.9876068 16711746
1.027804 -21.569103 4.6700354 16711746
16.090424 -17.437626 -3.7999134 16711746
10.122086 -15.467489 -2.6711402 16711746
11.138598 -23.333696 -0.29153413 16711746
12.218016 -22.4179 -0.9882164 16711746
1.5069897 -22.025864 4.1825843 16711746
-3.802031 -18.249853 1.0156071 16711746
-2.6758714 -17.065409 3.8106339 16711746
13.204691 -15.641937 3.3257954 16711746
0.97624415 -19.713047 2.4802878 16711746
-4.3211355 -28.627237 2.1926088 16711746
-4.3365993 -17.241489 1.8865529 16711746
12.010669 -15.32781 -2.364701 16711746
3.0979838 -26.526564 -2.2029872 16711746
19.94949 -17.849417 -1.0899137 16711746
5.4620819 -18.154646 4.8350692 16711746
-2.0047071 -18.832687 2.6425769 16711746
-0.051132407 -19.55369 1.1916015 16711746
13.792686 -16.883627 -1.5340205 16711746
15.292697 -24.820169 -0.41611552 16711746
25.229002 -21.547832 -11.836988 16711746
1.2421701 -21.869131 7.7231932 16711746
0.27094522 -19.983847 6.5685582 16711746
8.7370071 -19.016909 3.5505831 16711746
10.626292 -27.978148 6.3320742 16711746
13.976397 -23.48267 5.1964126 16711746
6.0957627 -19.027697 -1.0176318 16711746
-7.1220737 -23.80242 2.1482775 16711746
-4.7363033 -18.292629 1.4724177 16711746
12.241616 -24.83988 -0.63321877 16711746
-6.9606814 -22.788893 4.6598911 16711746
-4.8897486 -18.546957 4.2009177 16711746
8.4355202 -20.872841 -0.47685018 16711746
3.1971855 -21.250059 2.6713412 16711746
9.7773256 -22.852221 1.5464615 16711746
-4.9244022 -18.571344 1.7088065 16711746
1.1022463 -24.325075 1.0255307 16711746
1.7214859 -20.039597 2.9134293 16711746
-9.2745752 -19.663126 4.4106131 16711746
-0.067911625 -14.406419 0.61393428 16711746
12.2894 -15.318354 1.991215 16711746
15.109486 -24.469339 -0.43720397 16711746
2.5974381 -18.940041 2.004235 16711746
10.644874 -27.35828 -1.2529132 16711746
6.5749469 -21.525772 1.7055669 16711746
9.1163139 -18.471218 -4.0137305 16711746
17.75606 -23.305109 6.9577599 16711746
4.4192452 -14.61777 1.803153 16711746
1.0386831 -19.642136 2.4595625 16711746
5.5299625 -17.353317 4.1293554 16711746
5.0844975 -18.994061 2.7448397 16711746
9.2241364 -27.282333 0.74982041 16711746
-6.9230289 -21.118809 2.1700606 16711746
0.9833622 -14.391801 2.6240616 16711746
-3.3173933 -16.740683 3.0927989 16711746
-3.4223809 -18.018684 2.766531 16711746
-2.9668338 -20.18292 3.5991502 16711746
-4.2693944 -16.89127 0.95759946 16711746
-2.7883039 -16.116562 2.2325261 16711746
-4.8061962 -18.352974 1.7178274 16711746
17.522411 -17.64176 -1.3879501 16711746
3.6412163 -17.38438 3.572438 16711746
29.488447 -20.446138 -11.801585 16711746
19.504374 -17.233093 -3.5917847 16711746
3.9558482 -14.108034 -0.31699401 16711746
1.0068941 -21.631559 4.8011222 16711746
25.714539 -20.024632 2.8185198 16711746
4.9670181 -16.669701 4.8652978 16711746
25.236494 -33.853054 15.504934 16711746
23.389421 -25.61624 3.3166289 16711746
21.67197 -27.066687 6.9848032 16711746
21.555349 -22.963675 0.081726782 16711746
-8.5233383 -18.285564 7.8829646 16711746
33.493359 -36.924843 14.965913 16711746
-10.638614 -27.781937 12.057668 16711746
17.555595 -35.804962 7.4699078 16711746
29.472935 -30.73472 7.3192101 16711746
24.163097 -19.733593 2.6296017 16711746
25.141132 -33.580093 15.464352 16711746
22.985415 -42.727795 8.4348364 16711746
12.100155 -34.873093 11.672482 16711746
4.8701315 -60.786003 13.643364 16711746
21.750759 -15.822986 -0.95549202 16711746
3.2178493 -29.09453 12.864458 16711746
12.030997 -14.773223 4.7628403 16711746
22.149229 -18.489412 2.8199246 16711746
21.00403 -27.866474 6.9657245 16711746
23.23423 -18.584261 1.3853371 16711746
12.994371 -42.364662 -8.1566 16711746
22.964359 -18.047192 -0.25545117 16711746
10.809907 -21.865206 -1.3533756 16711746
13.426576 -23.403955 -0.88669544 16711746
-4.151576 -15.357066 4.8205233 16711746
11.135761 -13.505223 -1.2821892 16711746
9.1784029 -16.58952 2.916559 16711746
2.2157524 -18.732681 2.5564375 16711746
10.942985 -23.009542 -0.18007863 16711746
1.3653842 -20.902401 3.9875212 16711746
5.3847198 -14.423554 -1.7028518 16711746
8.2014771 -22.959585 -1.7350273 16711746
1.7413077 -13.664108 -0.13082872 16711746
0.0069577447 -20.18161 1.0857317 16711746
1.4751618 -24.15344 2.3402772 16711746
5.7210221 -15.0674 -2.1325533 16711746
11.291553 -12.955706 -0.77340215 16711746
2.0252907 -13.419592 2.6094892 16711746
0.8269518 -13.70345 1.9934236 16711746
2.0954099 -16.81529 2.6074877 16711746
0.65675354 -19.900164 2.4649525 16711746
2.2462747 -18.950056 2.5160608 16711746
8.9672756 -16.793447 -2.0237114 16711746
7.1081309 -22.736126 0.69344187 16711746
-6.9775524 -18.430897 0.027781535 16711746
6.226613 -17.436508 0.5646978 16711746
-4.5873265 -17.690077 1.1155829 16711746
1.3286929 -20.680031 3.2365746 16711746
11.023636 -13.377933 -2.2053664 16711746
9.4795656 -21.420752 3.9065976 16711746
7.3299356 -10.282983 2.5753114 16711746
9.4714575 -22.042917 1.2270722 16711746
0.96333826 -18.669138 2.6335657 16711746
5.0260458 -17.68956 1.8387707 16711746
1.9768755 -13.176128 2.654335 16711746
10.87862 -15.077362 4.2419353 16711746
6.1233287 -28.098518 -3.2748535 16711746
10.323678 -16.013813 -3.6814044 16711746
0.7103309 -18.373209 1.8117719 16711746
-5.8917079 -21.648964 3.9692481 16711746
3.578882 -14.631747 3.4078939 16711746
16.052853 -17.26037 0.63047242 16711746
1.70803 -17.772442 2.5157025 16711746
2.6524065 -18.416428 3.0415189 16711746
7.9174113 -13.351653 -1.093932 16711746
7.5062642 -12.873055 -1.317083 16711746
1.9714452 -15.153063 0.11923163 16711746
1.0898224 -13.687985 1.8380487 16711746
-4.5297637 -17.471273 2.5594747 16711746
0.049689814 -28.015047 -1.6519791 16711746
-6.4220238 -18.08606 0.73438638 16711746
12.358109 -12.803208 1.1884862 16711746
8.879982 -23.045406 -2.6541066 16711746
10.071136 -17.013393 4.1509275 16711746
8.9332561 -15.5361 5.5446286 16711746
4.2660241 -17.165415 2.6479115 16711746
1.3396152 -14.776775 0.96560979 16711746
0.1997703 -17.241776 2.8130589 16711746
0.6968506 -13.717834 1.7408129 16711746
12.654307 -21.259312 1.8218573 16711746
11.407022 -22.099415 -1.0261513 16711746
2.7461092 -18.382292 6.2192364 16711746
11.029523 -23.203249 -2.3470936 16711746
10.099483 -22.613222 -0.77723807 16711746
13.932426 -28.629124 8.4709587 16711746
11.014793 -22.140345 -1.4273698 16711746
13.073216 -22.297661 -0.61015832 16711746
19.778559 -26.575418 7.0092463 16711746
21.115974 -27.548088 4.4169173 16711746
17.894329 -28.351152 5.4047713 16711746
15.931012 -25.658913 4.8275104 16711746
11.066906 -21.40007 -0.58392483 16711746
14.538872 -24.365595 -1.2023333 16711746
1.0840991 -19.891945 2.4268997 16711746
28.573587 -31.904608 13.250664 16711746
2.2358053 -17.1614 2.4573991 16711746
-1.8954269 -20.849802 3.5581291 16711746
17.092962 -20.134314 -3.1130481 16711746
14.577641 -24.609459 -2.9031703 16711746
30.37303 -32.320656 8.4023504 16711746
35.461739 -22.706995 -4.3179131 16711746
26.511662 -26.369362 4.2128963 16711746
12.028383 -23.624804 -1.3672026 16711746
29.077753 -31.006439 0.62369794 16711746
1.7489672 -21.98251 1.5314538 16711746
2.8087218 -20.332829 1.8270255 16711746
1.9731779 -25.162592 9.7570019 16711746
-4.2427912 -21.765972 6.1099906 16711746
14.446191 -27.10638 3.9723568 16711746
-5.2029972 -19.158785 0.63380879 16711746
16.696064 -18.089874 -4.1651955 16711746
-4.6219544 -28.064102 11.91535 16711746
32.319023 -24.914497 1.756038 16711746
1.996608 -15.946846 2.4733317 16711746
1.2754725 -22.566687 7.7353783 16711746
12.067578 -24.67116 6.8467054 16711746
35.47419 -36.849754 9.1732922 16711746
-8.2010975 -17.675219 7.7729483 16711746
51.541378 -33.39249 12.240128 16711746
21.14123 -24.708445 11.090241 16711746
14.005098 -18.96023 -2.3847897 16711746
26.332115 -37.969204 13.70256 16711746
4.3642287 -47.292507 17.188135 16711746
8.3856678 -24.353559 3.8431911 16711746
11.448056 -17.606426 -1.6204495 16711746
11.62723 -11.533992 -0.56803632 16711746
0.44183752 -13.600084 3.1043444 16711746
-0.22826405 -8.7475252 6.0581021 16711746
-0.22785577 -8.7359848 6.0500498 16711746
4.2239771 -9.3972597 2.6256983 16711746
-1.6474822 -10.167027 6.9937963 16711746
-0.026914451 -7.5239067 5.6046338 16711746
-0.1230348 -7.8619013 5.2750974 16711746
-5.4041386 -19.40559 5.2854395 16711746
4.9696341 -17.764654 1.8322803 16711746
19.575739 -15.934862 -4.584919 16711746
3.6924107 -18.482176 2.7180829 16711746
4.7375674 -13.30102 4.4136634 16711746
0.42265591 -13.330941 4.841259 16711746
10.851891 -14.732891 -2.8324783 16711746
15.869605 -16.607927 -2.6595504 16711746
28.720396 -19.335417 -2.3512206 16711746
20.785236 -29.311945 4.7535701 16711746
28.115824 -17.969397 -3.0029085 16711746
6.1581025 -22.519016 -1.2393457 16711746
17.134109 -14.241097 -3.7269425 16711746
4.683394 -23.321445 -2.0760937 16711746
19.740046 -20.437372 -2.8170075 16711746
-4.1987171 -22.159254 4.7923083 16711746
3.4201503 -19.55949 -0.68929076 16711746
28.626392 -33.077999 2.7141957 16711746
-5.4447832 -43.973915 -7.3366523 16711746
28.688393 -32.130226 4.4703069 16711746
61.58506 -63.106625 22.876823 16711746
21.981194 -22.142162 3.5725598 16711746
-17.336105 -36.964218 11.480935 16711746
27.41062 -21.260271 3.2883034 16711746
0.2067077 -8.6232138 5.8512931 16711746
31.549938 -36.872665 2.3509841 16711746
16.39856 -60.791939 14.428541 16711746
-1.9829303 -13.390059 3.2537336 16711746
31.084784 -59.27697 12.874991 16711746
-5.5016131 -55.521015 0.10013001 16711746
40.167038 -72.525223 14.376526 16711746
23.755817 -29.932844 4.7714872 16711746
-7.6008143 -69.372383 -1.1394829 16711746
21.970163 -14.047539 0.98131722 16711746
20.102608 -15.396352 0.091594793 16711746
17.41534 -27.231232 4.0751004 16711746
-18.887215 -58.96376 26.106459 16711746
-18.414473 -57.57494 25.591021 16711746
-4.5459065 -51.413361 21.292694 16711746
16.414478 -15.360708 -0.2741107 16711746
-32.600559 -59.151203 22.487076 16711746
17.124645 -47.431736 21.32267 16711746
28.616577 -26.220707 -1.777216 16711746
26.024988 -31.85969 8.3477373 16711746
18.340837 -20.340586 -1.7079798 16711746
34.66058 -41.680069 11.596502 16711746
22.417236 -18.545523 2.6955924 16711746
48.160843 -85.705482 17.614508 16711746
11.490216 -10.691367 2.6310873 16711746
-12.872807 -52.312565 22.250298 16711746
45.240093 -31.255426 1.8363862 16711746
0.039542586 -22.633026 2.163527 16711746
-6.3003459 -42.210548 1.8984592 16711746
0.68789476 -24.915871 0.3632955 16711746
24.019474 -26.925219 5.4107013 16711746
29.681196 -34.266445 7.2318845 16711746
45.625496 -46.239586 10.831666 16711746
20.565863 -39.891834 8.7072763 16711746
37.770439 -59.930222 17.523548 16711746
36.415565 -48.393669 7.1240969 16711746
29.099209 -34.527252 5.277432 16711746
21.25201 -45.90276 7.9599705 16711746
28.89929 -42.091087 15.963944 16711746
5.0946441 -13.304813 6.4777422 16711746
44.499752 -53.505596 14.017241 16711746
45.397823 -63.481491 21.579039 16711746
33.317848 -37.27787 -2.0365 16711746
12.541523 -41.662632 -11.232887 16711746
12.038831 -40.238724 -11.422088 16711746
42.994656 -48.951725 4.4018722 16711746
13.350178 -42.899292 -11.583842 16711746
30.794603 -19.798136 -1.2008588 16711746
38.731358 -37.791653 6.574677 16711746
5.5710196 -22.508064 -0.34701797 16711746
14.926587 -33.585903 8.5837021 16711746
3.5476968 -17.296299 1.6442345 16711746
33.837757 -43.585033 20.634197 16711746
34.285152 -39.158558 2.4751112 16711746
32.551151 -41.749523 8.0208693 16711746
48.678993 -67.65889 22.48447 16711746
28.286999 -40.862247 15.27154 16711746
31.028429 -39.054394 7.1821351 16711746
48.00127 -44.391098 4.0741987 16711746
49.34964 -80.359589 6.0978298 16711746
-6.4403501 -45.730759 1.043866 16711746
25.067766 -25.402401 2.4736097 16711746
27.544912 -21.250734 3.2973824 16711746
27.339046 -26.973658 4.1288323 16711746
8.0128603 -35.413807 15.705936 16711746
25.915367 -21.012522 2.8620954 16711746
7.7006369 -20.011669 4.8731112 16711746
21.267389 -60.031406 -9.4435358 16711746
-0.76164472 -13.671761 4.6188951 16711746
-0.68378401 -24.528877 2.4211802 16711746
-1.1523204 -28.062227 -0.50021559 16711746
-5.1002979 -23.046186 4.8906822 16711746
7.5986767 -19.003389 2.1714413 16711746
8.6426754 -19.815643 1.1064311 16711746
2.2767742 -17.836775 0.80304581 16711746
13.412587 -13.716599 -0.49790376 16711746
4.0431414 -20.890987 -0.017820813 16711746
6.5357614 -16.416061 5.306644 16711746
6.8337398 -17.447411 1.9031897 16711746
5.1350317 -18.209446 0.64288896 16711746
-3.2460828 -19.993715 4.724319 16711746
9.2908878 -20.104521 2.1265185 16711746
-6.1385984 -22.128061 1.1418332 16711746
-3.7411964 -24.067526 -0.6915521 16711746
11.630266 -21.399744 -0.044245556 16711746
7.4568291 -16.861364 -0.56376058 16711746
6.3960161 -20.072367 0.89435887 16711746
-9.5461559 -23.578102 2.8608654 16711746
8.9954424 -21.441015 0.30634797 16711746
6.7447433 -21.592113 5.4922729 16711746
6.5380964 -16.548908 4.1434283 16711746
-4.0645823 -24.939474 0.79877114 16711746
4.1896195 -12.220147 2.2751517 16711746
7.2990289 -21.116884 -0.27680537 16711746
9.9488087 -21.101484 2.3377614 16711746
-2.4810131 -28.121815 3.7407115 16711746
-10.785407 -27.490986 1.6008989 16711746
2.9029112 -15.834331 4.5458655 16711746
5.5586329 -19.164068 0.64227676 16711746
-4.2071552 -24.680998 0.97796237 16711746
-11.472055 -24.1315 2.6979671 16711746
-10.396659 -27.290199 5.3317418 16711746
-6.9735956 -28.390797 -2.4850583 16711746
-5.1448703 -21.476871 1.3260568 16711746
-4.2567787 -20.637516 3.7723665 16711746
-8.8215504 -32.347748 1.7903061 16711746
-9.3985386 -23.10471 3.0180919 16711746
6.7701793 -14.5873 1.3147265 16711746
-8.025485 -26.807642 8.4258051 16711746
7.8790112 -17.042931 6.2902484 16711746
7.8497753 -24.532476 -1.5764349 16711746
-6.493361 -24.738691 5.6713996 16711746
4.3333535 -20.097664 3.0148282 16711746
4.0356035 -21.676451 3.0927572 16711746
-8.6446953 -21.566994 3.3322048 16711746
-4.2034187 -21.056341 4.1973891 16711746
-5.3977079 -21.253897 4.0900707 16711746
-11.952765 -29.000669 4.2639699 16711746
-12.463065 -26.956198 2.6686866 16711746
-7.9689693 -29.580414 2.2777133 16711746
-0.46360654 -19.245516 0.57423967 16711746
-4.147892 -20.556789 2.5172029 16711746
10.005253 -21.42808 2.3810482 16711746
3.1278307 -14.754878 4.7421861 16711746
3.1799984 -16.424377 5.3842258 16711746
6.2901607 -15.160356 0.48125833 16711746
-16.563526 -38.313896 3.0518184 16711746
3.6011252 -18.941458 5.1778803 16711746
-4.8721561 -24.605413 4.2343593 16711746
-4.7681651 -20.697723 4.9643493 16711746
