# .PCD v.7 - Point Cloud Data file format
VERSION .7
FIELDS x y z rgb
SIZE 4 4 4 4
TYPE F F F F
COUNT 1 1 1 1
WIDTH 1218
HEIGHT 1
VIEWPOINT 0 0 0 1 0 0 0
POINTS 1218
DATA ascii
-0.5126020 0.0773767 1.2818346 16711746
0.3360172 0.2313405 1.5003073 16711746
0.5748737 0.3288246 1.2766898 16711746
0.9370604 0.3207784 1.2727687 16711746
0.6330910 0.2821448 1.1142024 16711746
-0.2657012 0.1876343 1.3888971 16711746
0.2033527 0.3544201 4.0190158 16711746
0.7204226 0.1679645 1.9092318 16711746
-0.0630645 0.2068601 1.7584288 16711746
0.0445838 0.2070583 0.9565049 16711746
-0.2882380 0.1931285 1.4921570 16711746
0.6537061 0.2950353 1.1407672 16711746
-0.3912941 0.1912990 2.0733452 16711746
0.4992509 0.2845391 1.6042933 16711746
0.4839910 -0.1611039 1.0618173 16711746
0.0369205 0.2303524 0.9495787 16711746
0.0370120 0.2291071 0.9488742 16711746
-0.0717624 0.2305689 0.9142663 16711746
0.0323467 0.2233866 0.9915966 16711746
-0.2874319 0.1149582 1.0101647 16711746
0.1871722 0.2576569 1.1449269 16711746
-0.0119516 0.2354156 1.1080154 16711746
0.4466216 0.2466464 1.4933752 16711746
-0.2542168 0.2180799 1.2368612 16711746
0.2576435 0.2130265 1.2864187 16711746
-0.3354234 0.2022314 1.2247362 16711746
0.4972155 0.2739669 1.2078760 16711746
0.0124383 0.2150719 1.1143702 16711746
0.0136617 0.2140236 1.1079055 16711746
-0.1966366 0.1894131 0.9573194 16711746
0.2942400 0.2353260 1.2511277 16711746
-0.3548677 0.2098833 1.2515012 16711746
0.4818898 0.2685029 1.3421468 16711746
1.6981333 -0.7141443 2.8546312 16711746
1.0184696 -0.7733503 3.4456511 16711746
1.0473449 0.1684456 1.5905288 16711746
1.9494039 -0.9964775 3.0449462 16711746
0.9186258 0.2894259 1.4749266 16711746
-0.3933949 0.2014014 1.2699897 16711746
0.1067701 0.2327621 1.0541083 16711746
0.5074604 0.3106562 1.0884935 16711746
0.3971503 0.2784003 1.0600594 16711746
-0.1008570 0.2348695 1.0458356 16711746
0.5072888 0.3114659 1.0937396 16711746
0.4202745 0.3030550 1.1902530 16711746
0.3863052 0.2800703 1.2241278 16711746
0.3354900 0.2605259 1.1996291 16711746
0.4450249 0.2556135 1.1199877 16711746
0.2685605 0.2434393 1.1250880 16711746
-0.4574269 0.1603227 1.0718169 16711746
0.0876024 0.2208813 1.0298325 16711746
0.5995666 0.2577050 1.4813374 16711746
0.6814029 0.3168986 1.4856633 16711746
-0.2764444 0.1693913 1.5221500 16711746
-0.1817521 0.1460938 0.9587310 16711746
-0.0672432 0.2247589 0.9892044 16711746
0.1013988 0.2282430 1.0230216 16711746
-0.0091263 0.2347845 1.1050868 16711746
0.1797535 0.2483193 1.1537033 16711746
0.6469598 0.2874115 1.0266151 16711746
0.6770019 0.3287197 1.0341247 16711746
0.4765474 0.2834616 1.1261544 16711746
0.4214195 0.3068964 1.1382124 16711746
0.3816187 -0.1835931 1.1933415 16711746
0.2894980 0.2448234 1.1518891 16711746
0.2169977 0.2628800 1.1601561 16711746
0.1699800 0.2697907 1.4803891 16711746
0.1897731 0.1197468 1.0464872 16711746
0.1146651 0.2244537 1.1476817 16711746
-0.3301286 0.1703066 1.4504827 16711746
0.6050972 0.2815893 1.2199951 16711746
0.4964972 0.3403805 1.2880049 16711746
0.8033022 0.2748797 1.2006589 16711746
0.1766384 0.1792957 1.1531727 16711746
0.0279782 0.1851573 1.0941983 16711746
0.9617160 0.1900962 1.3399614 16711746
0.6657289 0.2991264 1.2649077 16711746
0.2479107 0.1306871 2.9250741 16711746
1.0612524 0.2007088 1.4252814 16711746
0.3616114 0.1702754 3.1002131 16711746
-1.1430988 0.0444043 4.0381012 16711746
1.4067186 -0.6578890 2.2118671 16711746
-0.4578295 0.1744917 1.0568777 16711746
0.3084228 -0.1045125 1.3498091 16711746
-0.2360996 0.1470479 1.7914433 16711746
-0.3414618 0.1736378 1.4647124 16711746
0.6616449 0.2564607 1.7289830 16711746
0.3453759 0.2270176 1.4857100 16711746
-0.1776068 0.2083715 1.4441625 16711746
0.3138410 0.2728064 1.1163573 16711746
-0.1536443 0.2284074 1.0655652 16711746
0.6556256 0.4471435 2.3878388 16711746
0.2098362 0.1751781 0.9923825 16711746
-0.4096431 -0.1025291 1.2089672 16711746
0.7187911 0.3039950 1.1094110 16711746
0.2836823 0.2059172 1.3786247 16711746
-0.0051089 0.1984293 0.9200353 16711746
-0.0917354 0.2325835 1.0030440 16711746
-0.2284625 0.1639526 1.0209749 16711746
0.0504101 0.1665637 1.0731825 16711746
0.1641824 0.2317926 1.0549105 16711746
0.7012779 0.2238889 1.0920227 16711746
-0.5140838 -0.1790952 1.2962097 16711746
0.2275970 0.2480723 1.1742271 16711746
0.7373880 0.3119733 1.3380227 16711746
-0.1859864 0.1950038 1.3961380 16711746
0.6252201 0.2997945 1.1116405 16711746
0.7035055 0.3017077 1.1230656 16711746
-0.0500949 0.2014066 1.3615769 16711746
0.2790197 0.2378087 1.2735107 16711746
0.0023845 0.2251245 1.1411489 16711746
-0.4428666 0.1701139 1.1201193 16711746
0.3475693 0.2264022 1.4811924 16711746
-0.3458914 0.1625514 1.0642306 16711746
-0.3304728 0.0962334 1.1699686 16711746
0.5815765 0.3040848 1.1009034 16711746
0.2761896 0.2615007 1.1061194 16711746
0.1569161 0.2379042 1.0875937 16711746
-0.2764240 0.2057979 1.3078463 16711746
0.5872728 0.3116313 1.1129529 16711746
0.2612048 0.2756302 1.1661711 16711746
-0.1828851 0.2075247 1.4377139 16711746
0.2787415 0.2258516 1.1608372 16711746
0.1643223 0.2154114 1.6467766 16711746
0.6673890 0.3001366 1.2733641 16711746
0.3945928 0.2176795 1.4323955 16711746
0.4494710 0.2329115 1.7503881 16711746
0.4936508 0.2370149 1.5545424 16711746
0.7055672 0.2387143 0.9767164 16711746
0.4341168 0.3153667 3.6028962 16711746
0.6582408 0.3089564 1.0525550 16711746
0.2733376 0.2436268 1.1450108 16711746
0.2024623 0.2633480 1.1475029 16711746
0.1850152 0.2426037 1.2118922 16711746
0.1589362 0.1519435 1.1348027 16711746
0.1501756 0.2503240 1.0880659 16711746
0.3441965 0.2652024 1.1483903 16711746
0.3131917 -0.0500900 0.8544875 16711746
0.2284832 0.2487183 1.2070171 16711746
0.7833229 0.3034406 1.1427525 16711746
0.1200584 0.1721506 1.0889218 16711746
0.1339653 0.1087950 1.2171824 16711746
-0.6927931 0.1014687 1.8055269 16711746
0.4804720 0.1053237 2.0723047 16711746
0.2543216 0.2085986 1.3234326 16711746
-0.4720985 0.1699054 1.3754534 16711746
-0.2723012 0.1780308 1.4900666 16711746
0.4694076 0.2658783 1.4346418 16711746
0.4854502 0.2848419 1.4835235 16711746
0.8487603 0.2148893 1.3764862 16711746
0.6689729 0.2642134 1.3171799 16711746
0.5696294 -0.3669599 1.8177423 16711746
1.7573503 -0.7328802 2.9617407 16711746
1.4318768 -0.2595648 2.1298187 16711746
2.3076358 -0.7594348 2.8272924 16711746
0.6999206 -0.6851562 2.3896265 16711746
1.0451473 0.2799659 1.4901621 16711746
0.6932339 0.2996821 1.0775846 16711746
0.7445210 0.2703559 1.2747653 16711746
0.5226418 0.2754282 1.1257609 16711746
0.1549287 0.2295793 1.2707496 16711746
0.8226750 0.2884760 1.1250995 16711746
0.9329376 0.3124374 1.2585558 16711746
-0.0525819 0.2106286 1.4203020 16711746
0.7031874 0.2990457 1.2432803 16711746
0.2275342 0.2454591 1.2012496 16711746
-0.1761198 0.2388852 1.0844878 16711746
-0.2387203 0.1697208 1.4442563 16711746
0.3299418 0.2364157 1.2826152 16711746
0.7469802 0.2743737 1.1266491 16711746
0.6559019 0.2574607 1.2966740 16711746
0.8794425 0.2546606 1.2996836 16711746
0.9086342 0.3030024 1.2413881 16711746
0.2850958 0.1874585 1.3205082 16711746
-0.1057366 0.2345662 1.0976497 16711746
0.1506243 0.2220560 1.6893829 16711746
0.9517664 0.2901034 1.3760285 16711746
0.1091568 0.1888135 1.6109991 16711746
0.7496735 0.2718748 1.1535368 16711746
0.7552995 0.2740784 1.2841618 16711746
0.8610343 0.2189517 1.3949087 16711746
0.9226180 0.2943486 1.4795291 16711746
0.1782267 0.1408666 1.0015966 16711746
0.5712693 0.2816226 1.5100100 16711746
0.7373706 0.2996622 1.1124947 16711746
0.3411007 0.0898229 1.4072285 16711746
0.3074531 0.2192255 1.8072885 16711746
0.7736071 0.2901856 1.1255019 16711746
0.2528921 0.2297501 1.2778546 16711746
0.6744212 0.3092682 1.0566957 16711746
-0.1384838 0.1570604 1.5026416 16711746
0.2170073 0.2368577 1.2997018 16711746
0.2733096 0.2411228 1.1413906 16711746
0.1803903 0.2468754 1.1510055 16711746
0.0365437 0.2086821 0.9877935 16711746
0.2178175 0.2574929 1.1446196 16711746
0.7180538 0.3167597 1.1003884 16711746
0.4333783 0.2543509 1.2113622 16711746
0.2772824 0.2180035 1.3336118 16711746
0.2242999 0.2491715 1.2056118 16711746
0.6834327 0.2761986 1.1360803 16711746
0.2835348 0.1403608 1.3947873 16711746
0.9960688 0.2060688 1.3259963 16711746
-0.2311480 0.1442165 1.0258449 16711746
0.1926070 0.2324101 1.4159958 16711746
0.7575436 0.2693699 1.3557487 16711746
0.7573881 0.2394823 1.0204083 16711746
0.9202997 0.2442197 1.4747638 16711746
-1.2676474 0.0366624 2.8035758 16711746
1.1564587 -0.1976658 2.5645165 16711746
0.6663900 -0.2493320 1.6345307 16711746
0.2367673 0.2460216 2.3606682 16711746
0.7349467 0.2808585 1.4576347 16711746
-0.0837747 0.2327438 1.0948168 16711746
0.1662967 0.2147080 1.6406738 16711746
0.5271960 0.2767250 1.2993879 16711746
0.7124469 0.3010876 1.2486607 16711746
0.3565732 0.2462122 1.3743631 16711746
0.5582923 0.2539437 1.3859868 16711746
0.7877250 0.3221247 1.1193936 16711746
0.7683470 0.2882038 1.1213309 16711746
-1.2739465 0.0552152 2.1698494 16711746
0.1491850 0.2590609 1.2775090 16711746
0.0617323 0.1622896 1.0808735 16711746
-0.2247594 0.1686814 1.4267863 16711746
-0.3037543 0.1832656 1.4004719 16711746
-0.0022294 0.2298995 1.0955137 16711746
0.1696834 0.2315025 1.2453556 16711746
0.2787788 0.2656491 1.1678611 16711746
0.2593867 0.2465162 1.2379047 16711746
0.1565568 0.2276901 1.1896467 16711746
0.2062010 0.1244500 1.1372541 16711746
0.1510799 0.2345314 1.2051141 16711746
-0.6848788 0.1480121 1.6968194 16711746
0.6830830 0.2699533 1.1523416 16711746
0.3444082 0.2733454 1.2040665 16711746
-0.6851723 0.1849324 1.7278570 16711746
0.6565242 0.3011522 1.1884466 16711746
0.2818785 0.2143955 1.1366186 16711746
0.2367296 0.2615669 1.1308613 16711746
0.2312497 0.1670220 1.5385066 16711746
0.4314416 0.2817595 1.1677814 16711746
-0.1250718 0.2268745 1.1182845 16711746
0.4361754 0.2974553 1.1929716 16711746
0.6814479 0.2919714 1.0667874 16711746
0.1736722 0.2001431 1.5912980 16711746
0.2626535 0.2691717 1.2018840 16711746
0.1900730 0.1678740 1.1248946 16711746
0.2095897 0.2288355 1.2772657 16711746
0.3490757 0.1023308 1.5433356 16711746
0.8303286 0.2755560 1.5635329 16711746
0.9906040 0.2600017 1.4269540 16711746
0.8884687 0.2835031 1.6473978 16711746
1.0155120 0.2747957 1.7434052 16711746
0.4013289 0.2806005 1.2706472 16711746
1.5157666 -0.3003002 3.1983843 16711746
0.3951364 0.3076207 3.4776816 16711746
-0.4992852 0.4669822 7.0057058 16711746
1.3236654 -0.2361955 1.9591107 16711746
0.6568232 0.2953492 1.1389588 16711746
-0.5428826 0.0891385 2.0726366 16711746
0.0097532 0.2404408 1.1085143 16711746
0.1212581 0.1998575 1.7323658 16711746
-0.7226929 0.1528186 1.7311302 16711746
0.5277137 0.2699054 1.3298508 16711746
-0.0268541 0.1748804 2.1447561 16711746
-0.3444437 0.1553850 1.5471956 16711746
0.8515429 0.2708986 1.5756272 16711746
0.4803565 0.2581559 1.4806421 16711746
0.7328240 0.2664821 1.2656403 16711746
0.2794342 0.1438100 1.4168872 16711746
1.4009815 -0.7721105 3.0985088 16711746
0.0508292 0.1993990 0.9741893 16711746
0.4304927 0.2695240 1.1461939 16711746
0.0493308 0.1680263 1.0746714 16711746
0.0682564 0.1881443 0.9591504 16711746
-0.3501056 0.1358454 1.1922315 16711746
0.1779211 0.2537469 1.2210327 16711746
0.1431728 0.2464847 1.1556852 16711746
-0.3097218 0.1606789 1.4883252 16711746
0.2880651 0.1681201 1.2581279 16711746
0.1686769 0.2334947 1.2492106 16711746
0.1640101 0.2169899 1.1152172 16711746
0.1669905 0.2363995 1.2561470 16711746
0.2535902 0.2608749 1.2599243 16711746
-0.2689736 0.0627375 1.4377122 16711746
0.4708819 0.2348111 1.3402412 16711746
-0.3300743 0.0640112 1.1750542 16711746
0.3165713 0.2253882 1.4009532 16711746
0.4447324 0.2224469 1.7178576 16711746
0.1929608 0.0323553 0.9908246 16711746
0.3963701 0.2622585 1.2378141 16711746
-0.3093682 0.1465968 2.2030964 16711746
0.5416240 0.2052541 2.0335567 16711746
0.7921090 -0.6790329 2.7806456 16711746
-3.4369967 -1.3141582 4.1144505 16711746
0.3253023 -1.0158976 3.4369764 16711746
0.0334979 -1.2069391 4.3217292 16711746
-0.1450580 0.1455199 2.0221846 16711746
0.7580739 -0.7964715 3.1387441 16711746
1.4130837 -0.5723712 2.4109323 16711746
0.3693444 0.2215338 1.5673143 16711746
0.3378664 0.2111135 1.6224436 16711746
0.3573513 0.2357428 1.3418590 16711746
0.4468007 0.2488099 1.4707354 16711746
0.7707009 0.2950881 1.1306996 16711746
0.5279375 0.2700147 1.3324747 16711746
0.8632192 0.2385022 1.2637770 16711746
-0.8876185 0.1700515 1.8806946 16711746
0.0288308 0.1672814 1.9671524 16711746
-0.7381839 0.0986632 1.9683025 16711746
0.7083212 0.3009597 1.1849551 16711746
-0.6369590 -0.3793992 1.8546777 16711746
0.6300991 0.3053867 1.1652681 16711746
0.0187412 0.2013852 1.8394858 16711746
0.7674266 0.2827899 1.1403154 16711746
-0.8218318 -0.6743155 2.1652167 16711746
0.0470956 0.1993734 1.1226969 16711746
0.5137712 0.1239172 1.1064634 16711746
0.2847297 0.1397164 1.3940102 16711746
0.2535130 0.0458647 1.4173141 16711746
0.1813140 0.4573275 1.6803144 16711746
-0.6795118 0.0858193 1.6141716 16711746
0.5228260 0.2641124 1.5946931 16711746
0.6980677 0.2980974 1.1371140 16711746
0.3577593 0.2353410 1.3417314 16711746
0.2205152 0.2560422 1.1416596 16711746
0.1962580 0.1324028 1.1607441 16711746
-0.1602798 0.2424580 1.1459081 16711746
0.0829698 0.2117618 1.0887847 16711746
0.1834563 0.1405418 1.1909509 16711746
0.2894888 0.1559175 1.2950194 16711746
0.2009638 0.2446666 1.2388886 16711746
-0.2624912 0.1836203 1.3848209 16711746
0.8384293 0.3030866 1.2437640 16711746
0.2485481 0.2506909 1.2498304 16711746
-0.2989388 0.1946213 1.2159888 16711746
-0.7174585 -0.4094076 1.9406365 16711746
0.3542806 0.2337115 1.3403106 16711746
0.2977212 -0.3064758 1.5978091 16711746
0.2111143 0.2305960 1.2743769 16711746
0.1000491 0.2018291 1.8144182 16711746
0.6207533 0.2972115 1.1522682 16711746
0.4447300 0.2477241 1.4664887 16711746
0.4964738 0.1068059 1.5864301 16711746
0.4331516 0.2582268 1.2656558 16711746
-0.8052451 0.1628970 1.6058565 16711746
0.4371414 0.1999483 1.5841517 16711746
1.1593828 0.2944684 1.8303770 16711746
0.1911240 0.1247351 0.9866001 16711746
0.7022087 0.3013559 1.1237371 16711746
0.3935011 0.1274336 1.8898259 16711746
0.6944247 -0.4527231 2.1793220 16711746
-0.0040664 0.1016664 2.1735694 16711746
0.3665058 0.2197412 1.5575911 16711746
0.1878494 0.2357239 1.2960057 16711746
0.2676566 0.2498419 1.2274750 16711746
0.3500897 0.2662668 1.2012897 16711746
0.2891461 0.2425015 1.2223480 16711746
0.1840833 0.2422226 1.2118356 16711746
0.0526047 0.1663907 1.0722255 16711746
0.3804567 0.2636494 1.2803295 16711746
0.0983970 0.1975507 1.0262512 16711746
0.3803385 0.2663752 1.2862235 16711746
0.0542691 0.2098676 1.0632284 16711746
0.2509117 0.2435712 1.2463503 16711746
0.1313044 0.2332277 1.2741882 16711746
-0.2633334 0.1831151 1.1660490 16711746
0.2268378 0.2449292 1.1971303 16711746
0.1778608 0.1445364 1.2055382 16711746
-0.1479958 0.2234043 1.1921231 16711746
0.1076547 0.1916591 1.2389100 16711746
0.2461679 0.2150997 1.3436066 16711746
0.6812984 0.3141513 1.2781680 16711746
-1.2541972 0.0477234 2.1508293 16711746
0.3298664 0.2415649 1.2978086 16711746
-1.2555633 0.0344677 2.1559088 16711746
-0.5419446 0.1829086 1.4450300 16711746
0.3294853 0.2417314 1.3030473 16711746
0.6424072 0.2317965 1.3330628 16711746
-0.9236410 0.1746014 1.9050262 16711746
0.4695679 0.2309304 1.5987114 16711746
0.5990734 0.2568339 1.4797550 16711746
-1.2587961 0.0272623 2.1504970 16711746
-0.0337781 0.1345438 2.4412665 16711746
-1.2745618 -0.5150483 2.5779853 16711746
0.4839081 0.2345829 1.5981964 16711746
0.2801657 0.2340954 1.2633524 16711746
-0.0755553 0.1093731 2.3840437 16711746
0.7144740 0.2612377 1.5344073 16711746
0.4222865 0.2523647 1.9802593 16711746
0.9482970 0.2564817 1.5513232 16711746
1.5659093 -0.7305145 2.7205417 16711746
1.2253305 -0.6353305 2.6628489 16711746
0.7639655 0.2462145 1.6084503 16711746
-0.2752752 0.1699098 1.1755203 16711746
0.4297927 0.2814617 1.2072225 16711746
0.5549011 0.2413540 1.4596848 16711746
0.2287495 0.2224594 1.3762630 16711746
0.2010289 0.2443801 1.1596731 16711746
0.2796887 0.2398048 1.2778522 16711746
0.2330827 0.2418946 1.2555041 16711746
-0.6827603 0.1792947 1.5352564 16711746
0.5740711 0.3102128 1.2582916 16711746
0.1442923 0.2431237 1.1491839 16711746
0.5668133 0.2995682 1.2428695 16711746
0.2652855 0.1660918 1.5266392 16711746
0.1899429 0.2316139 1.2904865 16711746
-0.3651071 0.0716613 1.5533867 16711746
0.2060153 -0.0175579 1.0305558 16711746
-0.5786080 0.0844498 1.3435643 16711746
-0.2609201 0.1844264 1.1872065 16711746
0.2506338 0.2150016 1.3388892 16711746
0.3148968 0.2178128 1.5915694 16711746
0.6088622 0.2703981 1.5070556 16711746
-3.0513964 -0.5056391 4.1252155 16711746
0.4894319 0.2744883 1.5346811 16711746
0.6530908 0.1967454 2.2402425 16711746
1.3355895 0.1925719 2.2675555 16711746
-0.3232639 0.1991036 1.2197171 16711746
0.0494218 0.1746430 3.8594773 16711746
0.1388203 0.2164481 2.7441707 16711746
0.2132242 0.2359260 1.2044202 16711746
0.2788004 0.2539653 1.1885446 16711746
0.2253802 0.2393340 1.2744150 16711746
0.1743428 0.2343766 1.2377523 16711746
0.4852428 0.2753260 1.2520175 16711746
0.1277879 0.1781301 1.2149845 16711746
0.2754457 0.1221963 1.5034769 16711746
0.2135718 0.1832890 1.1809018 16711746
0.1730986 0.2323196 1.2307340 16711746
0.0717334 0.1624221 1.0743728 16711746
0.4025905 0.2306057 1.3789186 16711746
-0.1864265 0.0964867 2.3009477 16711746
0.9360023 0.1602831 1.3000262 16711746
-0.6359725 0.1879627 1.3728168 16711746
-0.1131097 0.1353810 1.9587095 16711746
0.7123947 0.2369768 1.2132591 16711746
0.9519148 0.1762434 1.3836347 16711746
0.9107490 0.2305902 1.7420818 16711746
-0.1603824 0.1498223 2.0991149 16711746
-0.5683374 0.1751465 1.3344631 16711746
0.3391119 0.1959872 1.6669455 16711746
0.2756403 0.2327514 1.3695530 16711746
-0.2846361 0.1896349 1.4057459 16711746
0.5936014 0.2630959 1.3647058 16711746
0.3078295 0.2225971 1.4762726 16711746
0.6427307 0.2720122 1.3257684 16711746
0.7265398 0.2662245 1.4745703 16711746
0.6870175 0.2555109 1.3927610 16711746
-0.5837036 0.1629157 1.4576972 16711746
0.5502517 0.2895070 1.4003580 16711746
0.3090725 0.2630806 1.2845795 16711746
0.2642172 0.0145545 1.4094131 16711746
-0.0846435 0.1601408 1.7825068 16711746
0.2141187 0.1899119 1.9510460 16711746
0.4425079 0.2192455 1.7058060 16711746
0.3177904 0.1960256 1.6982175 16711746
-0.6944975 0.1994345 1.4088700 16711746
0.3363453 0.2324395 1.5087504 16711746
0.2789607 0.2396445 1.2778963 16711746
0.2570394 0.1788507 1.3329060 16711746
0.0221713 0.2129350 2.1024005 16711746
0.2676332 0.2543516 1.2271150 16711746
0.6588113 0.2929476 1.2433302 16711746
1.2163485 0.3545387 1.6004426 16711746
-0.5191658 0.1568124 1.5846361 16711746
0.7820542 0.2579397 1.6369225 16711746
0.8700799 0.2652842 1.5667536 16711746
0.4991038 0.1952104 1.9883401 16711746
-0.5345097 0.1256476 1.3817575 16711746
0.2406726 0.2421088 1.2091310 16711746
0.7501985 0.2902221 1.1728852 16711746
0.2004264 0.2245513 1.3020599 16711746
0.3174249 0.2481218 1.2471553 16711746
0.6548830 0.2811233 1.3460332 16711746
0.3283578 0.2452340 1.3051368 16711746
0.3732127 0.2262039 1.4414575 16711746
0.7701086 0.2852496 1.2817670 16711746
0.0097251 0.1872519 1.1093827 16711746
0.1669109 0.2392306 1.2454540 16711746
0.5103257 0.2407681 1.2728177 16711746
0.4023107 0.2305549 1.3803849 16711746
0.2831990 0.2253773 1.4263618 16711746
0.2332117 0.2420367 1.2547681 16711746
0.2044362 0.2255485 1.3121492 16711746
-0.0897645 0.2205511 1.8208711 16711746
-0.0103208 0.1027693 1.2140311 16711746
0.0997510 0.2485478 1.2890275 16711746
0.1322768 0.2170515 1.4417847 16711746
0.2928685 0.1558049 1.3144413 16711746
1.0948478 0.2719607 1.7409158 16711746
0.3959584 0.1864102 1.6467898 16711746
0.3804756 0.2636719 1.2789624 16711746
0.8466644 0.2698634 1.7893897 16711746
1.0942512 0.2711204 1.7428029 16711746
0.5913965 0.2453294 1.6952395 16711746
1.1012377 0.2023599 1.4632673 16711746
0.9510785 0.3092705 1.4127961 16711746
0.2599913 0.1352933 1.5927128 16711746
0.8256511 0.2583013 1.7461245 16711746
0.4048974 0.2176820 1.8124942 16711746
0.7148538 0.2598048 1.5329597 16711746
0.6712648 0.2677263 1.5731204 16711746
-0.1246023 0.0906678 2.1523757 16711746
-0.2439617 0.2283408 1.2225195 16711746
-0.1337150 0.2019971 1.5483965 16711746
1.3457216 0.0813023 3.6030118 16711746
1.5152211 0.3066487 2.5595434 16711746
1.0506607 0.3049506 1.9055568 16711746
0.3335901 0.2382661 1.5409595 16711746
0.1651609 0.2495955 1.4043577 16711746
0.0041809 0.1928427 1.9212575 16711746
-0.6511560 0.1403190 1.6992717 16711746
0.7036880 0.2926588 1.2294648 16711746
0.5289065 0.2695850 1.3279500 16711746
0.3501234 0.1292465 1.6944479 16711746
-0.1977896 0.1805240 1.2983732 16711746
-0.1146882 0.1375437 1.9802539 16711746
-0.0641767 0.1280072 1.0495865 16711746
0.5424579 0.2691881 1.2719651 16711746
0.7809805 0.2646909 1.1835860 16711746
0.7919829 0.3002263 1.3104345 16711746
-0.1147244 0.2092360 1.1643416 16711746
1.0591142 0.2867934 1.4449862 16711746
-0.1409678 0.0174339 2.0516403 16711746
0.3235578 0.1791942 2.0528159 16711746
-0.1051367 0.0198645 1.9443876 16711746
0.1734181 0.2220833 1.5469985 16711746
0.8646353 0.2616481 1.7887456 16711746
0.0356651 0.2165135 1.0460323 16711746
0.3365599 0.2076937 1.5644219 16711746
0.4410848 0.2235292 1.5492103 16711746
0.5475069 0.2781262 1.2891442 16711746
0.7439350 0.2470318 2.0657670 16711746
0.5208705 0.2629959 1.3178506 16711746
-0.1814983 0.1374074 1.7447199 16711746
0.0976229 0.2106113 1.5927570 16711746
0.7951909 0.3357472 1.2479317 16711746
0.7788593 0.2921970 1.2912126 16711746
-0.0415603 0.1957284 1.7171226 16711746
-0.1239149 0.1590164 2.0781693 16711746
0.3071930 0.2363060 1.3314625 16711746
0.5083288 0.2621102 1.5211157 16711746
0.2508789 0.2295930 1.2779409 16711746
0.2224104 0.2207010 1.3614066 16711746
0.1769059 0.1767954 1.2362822 16711746
0.0734499 0.1515695 1.8683026 16711746
0.7463187 0.2693154 1.5604057 16711746
-0.1453960 0.1716474 1.9791932 16711746
1.1994644 0.2547356 1.6130673 16711746
-0.1520129 0.1383784 1.9922732 16711746
0.5346203 0.2009982 2.0048211 16711746
0.9187482 0.2976592 1.7660685 16711746
-0.1794496 0.1065908 1.0754782 16711746
-0.0952587 0.1370389 1.0504391 16711746
0.6014376 0.1091496 2.2726576 16711746
0.3412464 0.2199716 1.5132619 16711746
0.6529234 0.2530550 1.7157518 16711746
0.7358074 0.1264305 2.7447667 16711746
-0.7094947 0.1095792 1.5795112 16711746
1.0031606 0.1935013 1.3746632 16711746
0.4048067 0.2336054 1.3823733 16711746
0.3083713 0.2212850 1.4989173 16711746
-0.0248255 -0.4276387 2.0527964 16711746
0.6796340 0.2702049 1.2444283 16711746
0.1530019 0.2382668 1.2465401 16711746
0.2381491 0.2066942 1.3354502 16711746
0.1711923 0.2364384 1.2381760 16711746
0.2394529 0.2038229 1.3257717 16711746
0.9441373 0.2950844 1.3455220 16711746
0.2319317 0.2093093 1.3884565 16711746
0.5434876 0.2555057 1.5766410 16711746
1.2699574 -0.7950603 2.8584454 16711746
0.4845797 0.2336540 1.5942146 16711746
0.7378540 0.2417201 1.7459446 16711746
0.3695016 0.2238608 1.5741625 16711746
0.4245047 0.2735489 1.3189818 16711746
-0.0981565 0.1128999 1.9818517 16711746
0.6546614 0.2681250 1.4336452 16711746
-0.1505607 0.1622207 2.2165904 16711746
0.2011637 0.2382889 1.2376856 16711746
0.2053351 0.2381748 1.2730299 16711746
0.1560434 0.2349728 1.2407269 16711746
0.1881328 0.2343423 1.2932187 16711746
0.1305230 0.2224006 1.2352732 16711746
0.3301740 0.0086974 1.2439275 16711746
0.2276436 0.2302467 1.3126217 16711746
0.8532004 0.2812268 1.3540930 16711746
0.7186713 0.2729480 1.2586061 16711746
0.3583551 0.2370161 1.3440393 16711746
1.0092142 0.2689257 1.3987184 16711746
0.2467377 0.1964079 1.3477197 16711746
0.2628514 0.0561776 1.6827081 16711746
0.5333658 0.2444802 1.5479708 16711746
0.9948823 0.1735967 1.3544813 16711746
0.4607116 0.0824615 1.7859434 16711746
0.2448235 0.2278672 1.2751950 16711746
0.1074642 0.1904248 1.4187213 16711746
0.7736135 0.2550617 1.1847473 16711746
-0.1182188 0.1614759 1.7723992 16711746
0.8584086 0.2805933 1.4587026 16711746
0.9294025 0.2854564 1.2952249 16711746
0.1205775 0.2240165 1.4562917 16711746
0.0277099 0.2238409 1.3594429 16711746
0.2388404 0.2039874 1.2252985 16711746
0.9406909 0.3034906 1.4049871 16711746
-0.0476777 -0.4443454 2.1157827 16711746
1.0169001 0.1669512 1.6083757 16711746
1.0521370 0.2602991 1.7968529 16711746
1.0336479 0.2746655 1.4764240 16711746
0.9447176 0.3015696 1.4579152 16711746
0.3665345 0.2268612 1.4936349 16711746
0.2801831 0.2260323 1.3514898 16711746
0.6610363 0.2950054 1.2457155 16711746
0.9719822 0.2829619 1.5917168 16711746
0.9157349 0.1492541 1.3166771 16711746
0.4062726 0.2387460 1.3951643 16711746
0.6359020 0.2644197 1.3815010 16711746
0.9344238 0.1546659 1.3346703 16711746
1.0321687 0.1819309 1.4274235 16711746
0.8912197 0.2906300 1.3325814 16711746
0.2862795 0.1611060 1.2809364 16711746
0.6284341 0.2560749 1.3644280 16711746
0.5606827 0.2541870 1.3821044 16711746
0.1268388 0.2272853 1.2394520 16711746
0.9137309 0.1484348 1.3156984 16711746
0.8570666 0.2864901 1.5047799 16711746
0.2418080 0.1634023 1.5260149 16711746
-0.0566869 0.2077644 1.5024914 16711746
0.0366453 0.1098920 1.7123595 16711746
0.4865423 0.2674369 1.4485372 16711746
0.0844312 0.2564548 1.4089451 16711746
-0.0281574 0.1377472 1.3335582 16711746
0.1474335 0.1529077 1.1929489 16711746
0.3316764 0.2412325 1.3028197 16711746
0.8761294 0.2737292 1.6266484 16711746
0.7791375 0.2766471 1.4623165 16711746
0.6746324 0.2525451 1.6499474 16711746
0.6044241 -0.1572769 2.1701825 16711746
-0.0006467 0.2100685 1.8203199 16711746
0.1105269 0.1896799 1.4797128 16711746
1.0527940 0.2609990 1.2829574 16711746
1.0754449 0.2679000 1.3051890 16711746
-0.1760642 0.1405132 1.7503077 16711746
0.6389481 0.2707804 1.3249012 16711746
0.0896296 -1.6388496 5.1386685 16711746
1.5939318 -0.7455052 2.7754059 16711746
0.6990772 0.2880878 1.2224729 16711746
0.2200313 0.2295421 1.2855605 16711746
0.3261482 0.2271238 1.3215444 16711746
0.3896976 0.2364411 1.2944959 16711746
0.8696199 0.2805439 1.2114837 16711746
0.2304556 0.1822601 1.4047644 16711746
0.9950590 0.2597835 2.3475914 16711746
0.7262474 0.2429365 1.1409090 16711746
-0.1569099 0.2206481 1.4488068 16711746
0.1397791 0.1665513 1.1683550 16711746
0.7175843 0.2737789 1.2636275 16711746
0.8570480 0.2008099 1.1641760 16711746
0.9453812 0.2958348 1.3129420 16711746
-0.0911191 0.2060562 1.4342628 16711746
0.9366407 0.2964481 1.3809509 16711746
0.0096384 0.2043090 1.7989162 16711746
0.8033692 0.2804462 1.3969517 16711746
0.8898067 0.2930510 1.4908410 16711746
0.2029646 0.2426314 1.2803023 16711746
0.7568828 0.2538316 1.1666154 16711746
0.2630559 0.2207495 1.3984203 16711746
0.7410665 0.2930019 1.1872253 16711746
-0.2400374 0.0960153 1.8453896 16711746
0.4483162 0.2456716 1.4621763 16711746
0.4229479 0.2706832 1.3135923 16711746
-0.0692251 0.2093233 1.7668999 16711746
0.6168336 0.2609418 1.4675143 16711746
1.0232069 0.1823429 1.3802226 16711746
0.9691084 0.0127612 1.3395027 16711746
0.7419131 0.2920304 1.2334850 16711746
0.9804121 0.2861810 1.4160037 16711746
0.0491849 0.1175254 1.9228212 16711746
-0.0488249 0.1155788 1.5585060 16711746
0.9064822 0.2592022 1.4472435 16711746
-0.0633088 0.1444535 2.2218413 16711746
0.8128106 0.2829248 1.4066743 16711746
-2.8390510 -1.0332577 4.3677664 16711746
1.1108347 0.2327816 2.3228238 16711746
0.3957535 -0.8983134 3.1811523 16711746
-1.2784795 0.0485119 2.2004459 16711746
0.4952695 0.2391890 1.5453562 16711746
0.9261567 0.2648120 1.6741172 16711746
0.1675687 0.2338535 1.2961122 16711746
0.4467674 0.2655008 1.2882649 16711746
-0.1601686 0.1539201 2.1739721 16711746
0.2853521 0.1630303 1.2844198 16711746
1.0619057 0.3092231 1.6591729 16711746
0.9025246 0.2972675 1.2255290 16711746
0.5875076 0.2571195 1.3512892 16711746
0.4533070 0.2343233 1.5610870 16711746
1.2586031 0.2585548 2.5415719 16711746
0.5898998 0.2335713 1.6655059 16711746
0.4440569 0.2436385 1.4481777 16711746
-0.2482733 -0.4101014 2.5249465 16711746
0.2796191 0.2248679 1.3504217 16711746
0.4326599 0.2584808 1.3821156 16711746
1.3742226 0.3960208 1.5331190 16711746
-0.0686841 0.1980192 1.4097632 16711746
0.1661892 0.1503731 1.1399647 16711746
0.1530914 0.1576959 1.1530963 16711746
0.9105773 0.2899055 1.4805152 16711746
1.0057368 0.2845743 1.6093813 16711746
0.5081633 0.2588346 1.5051916 16711746
-1.0572401 0.0271403 2.5322487 16711746
0.6821254 0.2777131 1.6086452 16711746
0.9231026 0.1676303 1.3325838 16711746
0.6722128 0.2697736 1.5834776 16711746
0.7284197 0.2522783 1.5867307 16711746
0.4806248 0.2119326 1.6603656 16711746
0.4585465 0.2386341 1.6531218 16711746
0.4381193 0.2261784 1.5633340 16711746
1.1116946 0.2640668 2.0118175 16711746
0.7979770 0.2638351 1.6205593 16711746
-2.4746633 -0.7297618 3.5951056 16711746
0.8916358 -0.4556104 2.0800405 16711746
1.3687589 0.2014759 2.2935033 16711746
0.7898585 0.2989746 1.3000256 16711746
-0.0726140 0.2029419 1.4110374 16711746
0.2128845 0.2460426 1.3452121 16711746
0.4830613 0.2242250 1.6958704 16711746
-9.0149183 -2.6571853 11.8054867 16711746
-0.2508104 0.1459753 2.9203260 16711746
-0.2618426 0.1594577 2.9700463 16711746
-0.5266930 -0.2211991 3.9249709 16711746
0.8972932 0.1604832 1.3044330 16711746
-0.0949085 0.1654918 1.2611105 16711746
0.9355321 0.1714244 1.3378360 16711746
0.9282892 0.3045618 1.3507924 16711746
0.7455785 0.2970322 1.3307226 16711746
0.7173549 0.2374272 1.1351343 16711746
0.2618644 0.2300646 1.3578624 16711746
-0.0684789 0.2302526 1.3424408 16711746
0.8000602 0.2740237 1.3894532 16711746
0.2163474 0.2347074 1.2948598 16711746
0.7404250 0.2917738 1.3211615 16711746
0.7503458 0.2856615 1.2265537 16711746
0.5130132 0.2688561 1.4808660 16711746
-0.1502341 0.1350945 1.7315755 16711746
0.6834223 0.2794435 1.3534820 16711746
0.3317911 0.1637421 1.6076248 16711746
0.6586292 0.2247473 1.3716749 16711746
0.8597422 0.2740758 1.5922879 16711746
0.3615394 0.1901659 1.4434977 16711746
0.8157542 0.2891789 1.3366532 16711746
0.3097716 0.2042182 1.5353124 16711746
-2.7698493 -0.8105628 3.8465996 16711746
0.4595290 0.2284318 1.6314789 16711746
0.4397365 0.2058889 1.7858546 16711746
0.2418321 -1.2918032 4.6481481 16711746
0.4371905 0.2065803 1.7915252 16711746
0.7835215 0.2730137 1.4848852 16711746
0.2832306 0.1749207 1.2870090 16711746
-0.3556373 0.1576737 1.6053607 16711746
0.2913941 0.2243374 1.4795842 16711746
0.2415790 0.2135090 1.5998260 16711746
0.7658920 0.2726216 1.4641888 16711746
0.3454052 0.2211875 1.3428912 16711746
0.8450681 0.2967916 1.3707054 16711746
0.7670684 0.2771071 1.2191974 16711746
-0.1013601 0.2152022 1.7163361 16711746
0.6628705 0.2299250 1.2070638 16711746
-0.3980482 0.0746180 1.7013420 16711746
-0.1774654 0.0599221 1.7604158 16711746
0.9919642 0.1744226 1.3920780 16711746
0.7954169 0.2664775 1.3793207 16711746
1.3413564 0.3519514 1.5001746 16711746
1.1566192 0.2622668 1.9646863 16711746
0.9261421 0.2553500 1.8363924 16711746
0.9093748 0.1636779 1.3259639 16711746
0.6254959 0.2661587 1.4825761 16711746
-0.4894955 0.0804428 1.8041023 16711746
0.4613379 0.2435359 1.5010102 16711746
1.4925812 -0.8494075 3.3361604 16711746
0.7965691 0.2926792 1.3422711 16711746
0.2654377 0.2223168 1.3420200 16711746
-0.1484148 0.0934327 1.4778436 16711746
0.2783190 0.2157907 1.4491718 16711746
-0.0497678 0.2285681 1.5645138 16711746
0.2576875 0.0350704 1.3147309 16711746
-0.3105772 0.0313699 1.4758005 16711746
0.2341932 0.1004812 1.3417934 16711746
0.3066946 0.2044057 1.4201399 16711746
0.6709280 0.2574953 1.4671813 16711746
-0.3021163 0.0947250 1.8125259 16711746
0.3720308 0.2285371 1.4488207 16711746
0.4841706 0.2269187 1.7034473 16711746
0.8857878 0.2354802 2.0089045 16711746
1.7886891 -0.6721608 2.9600532 16711746
-1.2536029 -0.6524924 2.2402124 16711746
0.6364229 0.2491437 1.3711505 16711746
1.1794262 0.2790531 2.3361545 16711746
0.0878338 0.1432221 2.4931562 16711746
1.6688989 -0.6612633 2.7810130 16711746
0.0111274 0.2223347 1.8828236 16711746
0.6485858 0.2082839 2.3425753 16711746
0.4806241 0.2589657 1.4832476 16711746
0.4532574 0.2343082 1.5049804 16711746
0.5196177 0.2462012 1.3189460 16711746
-0.0773145 0.2078739 1.6783391 16711746
0.4226151 0.2474677 1.4554409 16711746
0.4200997 0.2232529 1.3995579 16711746
0.9149283 0.3091634 1.3744472 16711746
0.7481761 0.2923690 1.2030542 16711746
0.7226247 0.2826349 1.4386275 16711746
0.2694097 0.2203067 1.4370657 16711746
0.0296919 0.0862208 2.6549613 16711746
-0.0392300 0.2053237 1.7196288 16711746
0.2719803 0.2178899 1.4304515 16711746
0.5054503 0.2465741 1.5586046 16711746
0.5151103 0.2476322 1.5507430 16711746
0.6199226 0.2688639 1.3946369 16711746
0.6167071 0.2535951 1.5283780 16711746
0.2961690 0.1565340 1.8117385 16711746
0.4560756 0.2207891 1.5945116 16711746
-0.0377441 0.2260623 1.5557929 16711746
0.2828274 0.0930928 2.2627032 16711746
-0.9282078 -0.5436705 2.7165229 16711746
-2.0885842 -0.6285367 3.2724135 16711746
1.1358159 0.2538916 1.9414545 16711746
0.9936349 0.2952294 1.7615285 16711746
0.3215235 0.1964072 1.5952610 16711746
0.3165724 0.1955216 1.7313763 16711746
0.7920097 0.2786823 1.4619926 16711746
0.9252087 0.2811276 1.3375963 16711746
0.8384241 0.2647973 1.7451800 16711746
0.5734420 0.2736047 1.4539592 16711746
1.9803214 0.3909500 2.8614795 16711746
0.6509165 0.0675453 1.5546294 16711746
2.1715906 -0.8386081 5.5551109 16711746
0.2656037 0.1580480 2.1470902 16711746
1.6162925 -0.6575547 3.9222500 16711746
0.2165242 0.2010768 1.7130218 16711746
-0.2131478 0.1786789 1.6763991 16711746
0.4909847 0.2481732 1.4812214 16711746
0.3678965 0.2264542 1.4933461 16711746
0.5390944 0.2514277 1.5101347 16711746
-0.0597964 0.2016120 1.6522268 16711746
-0.1278643 0.0617237 1.6842189 16711746
-0.0064705 0.2135734 1.5218542 16711746
-0.2981386 0.1468171 1.5570045 16711746
0.2804348 0.2124952 1.4425023 16711746
0.2769587 0.2136415 1.3581927 16711746
0.3892724 0.2105281 1.3581289 16711746
0.3769029 0.2106574 1.4123591 16711746
0.4857404 0.2570494 1.5327681 16711746
-0.4154607 0.1775559 1.6789067 16711746
0.3105504 0.2008153 1.4128764 16711746
0.2352148 0.2045687 1.4805043 16711746
0.4684453 0.2118051 1.8011041 16711746
0.4177681 0.2247969 1.4093976 16711746
0.7436535 0.2710084 1.4403841 16711746
0.7424883 0.2690377 1.5078427 16711746
0.8456938 0.2205133 1.8433585 16711746
0.5301624 0.1061415 2.2025888 16711746
0.3023034 0.2285986 1.3432543 16711746
0.0655121 0.2210999 1.3816514 16711746
0.8280846 0.2899517 1.3496188 16711746
0.6196827 0.2680416 1.3916301 16711746
0.7941333 0.2912870 1.3405591 16711746
0.1132470 0.2220046 1.3699789 16711746
0.1395977 0.2024814 1.3319118 16711746
0.2624725 0.1346217 1.2764584 16711746
0.2299893 0.1804025 1.3362324 16711746
0.7541876 0.2817908 1.4542723 16711746
0.9317775 0.3051098 1.4891279 16711746
0.2135401 0.2021313 1.7202106 16711746
0.6263738 0.2635645 1.5504539 16711746
0.3225577 0.0613621 1.8516505 16711746
-0.2790247 0.0953878 1.7890120 16711746
0.2993020 -0.0171827 1.2342402 16711746
0.5852391 0.2043380 2.0732002 16711746
0.9279737 0.2893173 1.5745645 16711746
0.5060762 0.2099374 1.9300730 16711746
-1.7295291 -0.8807169 3.4287102 16711746
0.2483448 -0.9466289 3.3705578 16711746
0.1700595 0.2130475 2.6455154 16711746
0.2955395 0.0414087 1.2299987 16711746
0.5286596 -0.1114395 1.7273618 16711746
0.0857436 0.0853548 2.5556378 16711746
1.1181308 0.2828434 1.7636993 16711746
0.3030123 0.2024910 1.5848894 16711746
-0.1727869 0.1338334 1.7470019 16711746
-1.3475027 0.0080218 2.8430839 16711746
0.3617316 0.1423688 1.7979645 16711746
0.9019547 -0.1074107 1.5439993 16711746
1.0094091 0.2608606 1.8159770 16711746
0.5060643 0.2616358 2.2524877 16711746
0.9655938 0.2964777 1.4912081 16711746
2.0035808 0.0570131 2.4049020 16711746
-0.0700050 0.1715925 1.7474728 16711746
0.2766536 0.2170314 1.4558172 16711746
-0.0026157 0.1788456 1.3452842 16711746
0.2768273 0.2041214 1.4990306 16711746
0.4387547 0.2334113 1.4872861 16711746
0.0862377 0.2306123 1.3939476 16711746
0.4477518 0.2538660 1.4781959 16711746
0.2780281 0.2026032 1.4967799 16711746
0.2805192 0.2257411 1.3505871 16711746
0.2686851 0.2142830 1.3830274 16711746
0.4002223 0.2300692 1.3675722 16711746
0.0059325 0.1742354 1.3407296 16711746
0.3417526 0.2056618 1.3625332 16711746
0.3677144 0.2311155 1.4722691 16711746
0.2784210 0.2042387 1.4984107 16711746
0.0607886 0.1644015 1.5835382 16711746
0.2738933 0.0458433 1.2697928 16711746
-0.0394473 0.1867310 1.3939323 16711746
0.3291037 0.1914242 1.4407884 16711746
0.2233823 0.2075963 1.6013355 16711746
0.9347763 0.2615743 1.3819078 16711746
-0.2941341 0.1656071 1.7569239 16711746
0.9254551 0.2515627 1.6614095 16711746
1.1436902 -0.2143029 1.5697479 16711746
0.4654940 0.2228923 1.5884243 16711746
1.0414401 0.2514502 1.7916180 16711746
0.2426624 0.2009561 1.5172292 16711746
0.3872575 0.2345885 1.6262220 16711746
0.8809363 0.2276337 1.2843568 16711746
0.6473567 0.1946591 2.2477281 16711746
0.7719505 0.2692989 1.3800350 16711746
0.2199616 0.1613166 2.5738513 16711746
1.9329923 -0.8009447 2.7407014 16711746
0.5996234 0.2567695 1.4825267 16711746
0.9670209 0.2979586 1.4916403 16711746
0.8024777 0.2723434 1.3840518 16711746
0.4852522 0.2263454 1.6973351 16711746
0.8047519 0.2992166 1.3495965 16711746
0.6251032 0.2619071 1.5494082 16711746
0.5443316 0.2642844 1.4736392 16711746
0.3350619 0.1648010 1.6166024 16711746
0.5038841 0.2423034 1.5487927 16711746
0.4817557 0.2530271 1.5280923 16711746
0.9567049 0.2937408 1.4863217 16711746
0.8506410 0.2557326 1.5995785 16711746
0.6044078 0.2394784 1.5982181 16711746
0.2499620 0.2083240 1.4708935 16711746
0.9127179 0.3015326 1.7062849 16711746
0.6884856 0.2486946 1.6228719 16711746
-0.2996837 0.1018983 1.8303678 16711746
0.4960895 0.2301815 1.5780967 16711746
-2.5514901 -1.3914832 3.8654702 16711746
0.7661178 0.2009425 2.9525702 16711746
0.0324566 0.0185960 1.8671204 16711746
1.0057074 0.2955163 1.5655912 16711746
0.8918815 0.3047596 1.4922128 16711746
-0.2775106 0.1783784 1.6448698 16711746
0.9256020 0.2910378 1.4408585 16711746
0.4738711 0.2331829 1.5332624 16711746
1.0485352 0.3004922 1.4668307 16711746
1.1295009 0.2819881 1.6428065 16711746
1.0017422 0.2897359 1.3655742 16711746
0.7538761 0.2693427 1.3058704 16711746
0.6522467 0.2781420 1.4319108 16711746
0.3615181 0.0973363 1.4704480 16711746
0.1278789 0.1533655 1.2390018 16711746
0.3655301 0.0409337 1.5211912 16711746
0.6696419 0.2354865 1.3868752 16711746
1.0414504 0.1783418 1.5710235 16711746
0.1390489 0.0944469 1.1733402 16711746
0.5512949 0.2914616 1.5370569 16711746
0.7254900 0.2675412 1.5304204 16711746
1.0127063 0.2286418 1.5791843 16711746
0.4837503 0.2462315 1.5102761 16711746
0.8551511 0.2593661 1.6441591 16711746
0.8550072 0.2664763 1.5280747 16711746
0.4985902 0.2171384 1.8151491 16711746
1.5944377 0.1928451 3.1047049 16711746
-0.0760413 0.1336275 1.5047128 16711746
1.3543464 0.1804628 3.2251086 16711746
-0.0355413 0.2046002 1.7384158 16711746
0.5525219 0.2142746 1.9294736 16711746
0.9300060 0.2648982 1.6742707 16711746
0.6670372 0.2553822 1.7312722 16711746
1.0881913 0.1872232 1.6268502 16711746
0.5195574 0.2219853 1.7019235 16711746
0.5437792 0.2635205 1.4725571 16711746
0.0515036 0.1566845 1.2998257 16711746
0.0646568 0.2257093 1.3274338 16711746
0.7125705 0.2798698 1.4523391 16711746
-0.1330678 0.1167280 1.4288862 16711746
0.6431262 0.2634723 1.4398750 16711746
0.9135118 0.2908397 1.4748702 16711746
0.6601549 0.2527614 1.7195085 16711746
0.5067978 0.2470248 1.5596025 16711746
0.2197057 0.1957316 1.7154416 16711746
-0.1289530 0.1230172 1.6303998 16711746
-0.2147800 0.2377253 1.5868050 16711746
0.2761243 -0.3184945 2.1729789 16711746
1.2238265 0.2280771 2.1478856 16711746
0.9257895 -0.4852718 2.1546450 16711746
0.6821230 0.2818742 1.4169959 16711746
0.4885496 0.2417436 1.4700841 16711746
0.3420573 0.2188106 1.5100118 16711746
0.9439769 0.2501592 1.8487430 16711746
0.3935096 0.2239408 1.5499737 16711746
0.5407479 0.1896065 1.9653152 16711746
-0.2929069 0.1868390 1.8120412 16711746
0.8847523 0.2551459 1.8180752 16711746
0.9913245 0.2726189 1.4224219 16711746
-0.1103253 0.2313540 1.5391701 16711746
0.3163772 0.2270509 1.4619871 16711746
1.0355201 0.2780284 1.4816377 16711746
1.1003525 0.2710111 1.6198990 16711746
0.3709809 0.2183808 1.4500791 16711746
0.3913055 0.2225037 1.5126528 16711746
1.1225591 0.2766455 1.6362182 16711746
0.0271090 0.2246950 1.4720752 16711746
0.6943424 0.2675138 1.5159568 16711746
0.9331343 0.1457981 1.4789810 16711746
1.1433866 0.1764181 1.8314419 16711746
0.3950929 0.2213664 1.5430114 16711746
0.9042174 0.2651163 1.8506001 16711746
1.6858238 -0.3273412 4.0934052 16711746
0.7840933 0.2580480 1.6289183 16711746
-0.1844922 0.1338178 1.6923895 16711746
1.5051655 0.1471916 3.0904377 16711746
0.8704422 0.2634120 1.3336636 16711746
0.6468418 0.2723671 1.4224026 16711746
0.1984096 0.2158267 1.4880046 16711746
0.7459201 0.2715253 1.5108672 16711746
0.8060380 0.2505663 1.3329554 16711746
0.9010769 0.2920185 1.4222715 16711746
0.7248860 0.2567039 1.4180138 16711746
0.6448178 0.2702164 1.4189976 16711746
0.2717399 0.1838232 1.4193412 16711746
-0.0585966 0.2325941 1.5221329 16711746
0.7913330 0.2117280 1.2729980 16711746
0.7074099 0.2493500 1.5014359 16711746
-0.0129172 0.1636830 1.4074148 16711746
1.0386411 0.2755432 1.7128260 16711746
0.8127996 0.2624428 1.7171295 16711746
0.3928927 0.2251730 1.5151557 16711746
0.6890215 0.2556338 1.6384596 16711746
-0.1270766 0.1879763 1.6760908 16711746
-0.7578433 -0.0323671 2.0279529 16711746
1.2388008 0.2290461 2.1766703 16711746
0.3433008 0.2095339 1.6904490 16711746
0.4937983 0.2375697 1.5444434 16711746
0.3706471 0.2255814 1.4712666 16711746
0.1908190 0.2489291 1.6319953 16711746
-0.2010184 0.1844716 1.5871426 16711746
0.6622725 0.2345863 1.9655741 16711746
0.4235128 0.2165349 1.6333745 16711746
0.9795377 0.2250621 1.9923106 16711746
0.2340988 0.1951760 1.5667732 16711746
0.5923079 0.2328683 1.7945327 16711746
0.5498807 0.2422718 1.6307026 16711746
0.6161207 0.2586849 1.6371319 16711746
0.4023374 0.2205665 1.5173118 16711746
0.3497328 0.2249380 1.4717207 16711746
0.1693039 0.2046800 1.5740803 16711746
0.4728636 0.2302891 1.5297804 16711746
-0.6193319 -0.0250589 1.9068907 16711746
1.0797886 0.1601597 1.7770009 16711746
0.7846718 0.2360082 1.6987190 16711746
0.5891663 0.2348195 1.7922583 16711746
1.3730954 -0.7327587 2.7254150 16711746
-0.2782556 0.0906335 1.7993191 16711746
1.0217752 0.2484276 1.8442233 16711746
0.7839937 0.1669284 1.8564528 16711746
0.5950449 -0.1515916 2.1293797 16711746
2.0875313 -1.0859071 5.6836939 16711746
-0.2000643 0.1371595 1.7173160 16711746
1.4921062 -0.8475577 3.8045247 16711746
0.4979316 0.2252736 1.6773345 16711746
1.0331326 0.2696616 1.4757526 16711746
0.7536423 0.2776765 1.5195425 16711746
0.9760551 0.2852598 1.5947744 16711746
0.0227825 0.1800705 1.3823949 16711746
0.7891086 0.2748656 1.4583342 16711746
0.3959665 0.2180496 1.6107014 16711746
-0.0444563 0.1764686 1.7414790 16711746
0.3699911 0.2120339 1.5315400 16711746
0.1622573 0.2082367 1.5857135 16711746
0.8006214 0.2660509 1.6234301 16711746
0.3217430 0.2131451 1.5302683 16711746
0.0818053 0.2040477 1.3860157 16711746
0.4230255 0.2231453 1.6518105 16711746
1.2564192 0.1771886 2.2353683 16711746
0.3444947 0.2112419 1.4954125 16711746
-0.0761460 0.2184905 1.6000667 16711746
0.7615566 0.2900576 1.5033213 16711746
0.1877525 0.1937998 1.5811571 16711746
0.9212409 0.2462576 1.4926283 16711746
0.3435331 0.1064736 1.5747901 16711746
0.9587072 0.2202994 1.9689896 16711746
0.0514101 0.1508473 2.0986245 16711746
0.9365425 0.2577763 1.8127123 16711746
0.8260560 0.2368684 1.3003242 16711746
0.1287227 0.1916470 1.8705388 16711746
-0.0062553 0.1435178 2.1835153 16711746
1.1575243 0.2677839 2.0556962 16711746
0.6461709 0.2209396 1.9116876 16711746
0.6587018 0.2314875 1.9658927 16711746
0.4172678 0.1501204 1.9555160 16711746
-2.2784207 -0.7493669 3.7468636 16711746
1.3519236 0.2096235 2.7515264 16711746
0.4110842 0.1826713 2.1513360 16711746
0.9191964 0.2540594 1.8282806 16711746
-0.1188237 0.1012242 2.0682373 16711746
0.4381339 0.2321360 1.4830202 16711746
0.0440360 0.1008193 1.3708704 16711746
0.3427478 0.2200710 1.5156811 16711746
0.3052556 0.2148035 1.4526713 16711746
0.4301513 0.2316804 1.4686086 16711746
0.1663032 0.2052562 1.5770828 16711746
0.3868597 -0.0053749 1.4923987 16711746
0.3246336 0.1994885 1.5495433 16711746
0.0658827 0.2060155 1.4310749 16711746
0.3601298 0.0612173 1.4753996 16711746
0.4307473 0.2198078 1.5494226 16711746
0.9181150 0.2842230 1.5546436 16711746
0.7710500 0.2888916 1.5067225 16711746
0.3479790 0.2111497 1.4994223 16711746
0.1049431 0.1423302 1.3448168 16711746
0.8334368 0.2672688 1.6395657 16711746
0.2545139 0.2011307 1.5619590 16711746
1.6957471 0.3603393 1.9154131 16711746
0.7643123 0.2146318 1.2577257 16711746
0.5866349 0.2493799 1.7083224 16711746
0.5940384 0.2493595 1.4694021 16711746
0.2870871 0.0148446 1.7429104 16711746
0.8473214 0.2106323 1.9102865 16711746
0.7912217 0.2145338 1.2741988 16711746
-0.0516313 0.2241725 1.5676137 16711746
0.9326701 0.2535770 1.4844531 16711746
0.3515694 0.1410884 1.7093735 16711746
1.2386923 0.2989313 1.7200751 16711746
0.2926733 0.1952531 1.4863610 16711746
-1.0639840 -0.9154975 2.6397076 16711746
0.3504852 0.1917461 1.6341962 16711746
1.2619824 0.2539316 2.2412689 16711746
0.8441342 0.2744142 1.6528924 16711746
-0.1358130 0.1503402 1.9371419 16711746
-0.1367874 0.1501259 1.9372095 16711746
0.5995069 0.2359682 1.5849775 16711746
0.4475771 0.1618543 1.7310925 16711746
0.5391347 0.2118273 2.0666127 16711746
0.3596619 0.1743298 1.7620546 16711746
0.8243966 0.3031656 1.5544657 16711746
0.3987420 -0.0758863 1.5066820 16711746
-0.8012226 -1.3165131 4.1929512 16711746
-0.1313218 0.1414580 2.0105853 16711746
0.2603370 0.2278661 1.4366846 16711746
0.3920719 0.2245692 1.5153838 16711746
0.8836021 0.3046452 1.5128808 16711746
0.1268106 0.1810517 1.3414814 16711746
1.1147529 0.2572252 1.5256362 16711746
0.6102698 0.2701577 1.7147906 16711746
0.2088674 0.1927752 1.4747170 16711746
0.7676573 0.2592720 1.4378616 16711746
0.0531582 0.0986359 1.3601769 16711746
0.7542434 0.2812109 1.4517013 16711746
0.5830998 0.2471918 1.7025863 16711746
0.0833545 0.1473354 2.1858878 16711746
0.5211108 0.2554982 1.5379249 16711746
0.5135974 -0.1704376 1.6789488 16711746
0.8251684 0.2979470 1.3675890 16711746
0.7793258 0.2407784 1.6636873 16711746
0.0282677 0.2649449 1.9280934 16711746
0.5048205 -0.1197937 1.6845493 16711746
0.5041751 0.2327746 1.6215136 16711746
0.9372340 0.2093379 1.9173217 16711746
0.8532860 0.2855997 1.5013616 16711746
0.7405031 0.2635002 1.5510768 16711746
0.8498039 0.1950692 2.2054162 16711746
0.4779567 0.2433185 1.5602489 16711746
0.8315517 0.2268954 1.6024398 16711746
1.1087919 0.2727075 1.6215357 16711746
0.4613957 0.2274802 1.5451407 16711746
0.3802758 0.2155793 1.6976163 16711746
0.3948367 0.2190972 1.5412008 16711746
0.4076518 0.2235989 1.6177485 16711746
0.6080204 0.2484104 1.6070615 16711746
0.1689646 0.1783606 1.6451572 16711746
0.0773579 0.1115893 1.9350483 16711746
0.1594428 0.1679116 1.7751831 16711746
0.1687670 0.1849475 1.6588550 16711746
0.7193770 0.2429814 1.6859750 16711746
0.4221883 0.2186833 1.6409883 16711746
1.0659076 0.3090124 2.0325775 16711746
0.4144383 0.2291569 1.5191824 16711746
0.6855077 0.2525283 1.6332788 16711746
-0.0025557 0.1436416 2.1752388 16711746
0.6350294 0.2534343 1.7123747 16711746
1.0014732 0.2345757 1.9769155 16711746
1.1436015 0.2772388 1.7843702 16711746
0.5567671 0.2519115 1.5177075 16711746
0.8057569 0.2834539 1.5267779 16711746
0.4798055 0.2263775 1.5816944 16711746
0.2551880 0.2011788 1.5611961 16711746
0.3339454 0.2074431 1.5499802 16711746
0.0824343 0.1874392 1.6947556 16711746
0.6236106 0.2521634 1.4813359 16711746
0.2195537 0.1970073 1.4818851 16711746
-0.0256248 0.1852857 1.7124908 16711746
0.6647552 0.2495296 1.4291177 16711746
0.6205444 0.2490560 1.4769455 16711746
0.3523929 0.1999986 1.4768615 16711746
0.2201665 0.1968151 1.4804680 16711746
0.3437389 0.1693187 1.6891224 16711746
0.6210577 0.2513351 1.4816418 16711746
0.2462246 0.2040490 1.5552137 16711746
0.2008129 0.1817904 1.4844841 16711746
0.0736033 0.1898606 1.7138332 16711746
0.1878093 0.1676814 1.6054866 16711746
0.3237471 0.1988005 1.5427302 16711746
0.1531328 0.1783204 1.5441982 16711746
0.0904805 0.1688888 1.7119231 16711746
0.8175187 0.2384056 1.5396197 16711746
