# .PCD v.7 - Point Cloud Data file format
VERSION .7
FIELDS x y z rgb
SIZE 4 4 4 4
TYPE F F F F
COUNT 1 1 1 1
WIDTH 65
HEIGHT 1
VIEWPOINT 0 0 0 1 0 0 0
POINTS 65
DATA ascii

 0.0000000 0.0000000 0.0000000 16777215
 -0.0367288 0.0066633 0.0107462 16777215
0.5189083 0.3289144 1.1421564 16711746
0.6061294 0.2800109 0.6654537 16711746
0.7671130 0.3321045 0.9936476 16711746
0.0682143 0.2502195 0.9604750 16711746
0.0440759 0.3232032 0.9232535 16711746
0.0665701 0.3125519 0.9233859 16711746
0.8027117 0.3524089 0.9666798 16711746
0.4985836 0.3247991 0.8892971 16711746
0.4716966 0.2999226 1.1483526 16711746
0.6104566 0.3464254 1.4070954 16711746
0.4870686 0.3138780 1.2903928 16711746
0.1031706 0.3172835 1.0000000 16711746
0.1019951 0.3000074 0.9914877 16711746
-0.5530250 0.4185170 2.7870767 16711746
-0.4955728 0.3169543 2.1907616 16711746
-1.1169872 0.3082595 3.3874471 16711746
0.2709078 0.2482719 1.7435364 16711746
-2.1482959 0.4811057 1.7379353 16711746
0.1595309 0.2899433 1.0568109 16711746
0.2540008 0.2901099 0.8720276 16711746
0.2441727 0.2758331 0.8751134 16711746
0.2122542 0.2768848 0.8909228 16711746
0.0632050 0.2905595 0.9229485 16711746
0.0401300 0.2984875 0.9112731 16711746
0.0437555 0.3043808 0.9933841 16711746
2.2639320 0.4677927 3.9820952 16711746
-0.8447182 0.2735259 2.3115196 16711746
0.4791405 0.3214555 0.7991871 16711746
0.7352319 0.3254058 1.0474075 16711746
-0.0142323 0.3019963 0.6335039 16711746
0.1875109 0.2852777 0.9662319 16711746
0.2273178 0.3169304 1.1348648 16711746
-0.3048617 0.3528217 0.7884848 16711746
-0.2594152 0.3076506 0.7298936 16711746
0.3537873 0.3044454 0.8245525 16711746
0.7466325 0.3453078 1.5336270 16711746
0.3475148 0.3234953 1.3558285 16711746
0.4431842 0.3338214 1.1905943 16711746
0.1129354 0.2706467 1.0691211 16711746
4.8008246 0.8951962 13.6966877 16711746
1.9474505 0.4581219 4.3227897 16711746
2.8389363 0.6917777 7.5067286 16711746
7.1157560 0.7427160 13.9975681 16711746
1.0088851 0.3385337 2.0898724 16711746
0.7417681 0.3203832 1.2699536 16711746
0.9878333 0.3420152 1.6101928 16711746
1.2461228 0.3542946 1.7567946 16711746
0.5558356 0.3054028 0.9291582 16711746
0.7279470 0.3023587 1.0247823 16711746
0.8014835 0.3315547 0.9329267 16711746
1.4274237 0.3494464 2.1338041 16711746
1.6255177 0.3840075 1.9331315 16711746
0.2732046 0.2740417 0.7892644 16711746
0.4768179 0.3043435 0.9005185 16711746
0.0770800 0.2701808 0.6636846 16711746
0.6854079 0.3065757 0.7031779 16711746
0.5421575 0.3009708 0.6786957 16711746
0.7390893 0.3234580 0.8098855 16711746
0.4553572 0.3013424 0.7143177 16711746
-2.6750343 0.5064213 2.8795242 16711746
-0.5481579 0.3309418 2.1163573 16711746
-0.2826035 0.3114088 0.4775352 16711746
-0.2250576 0.3152027 0.7726674 16711746
