# .PCD v.7 - Point Cloud Data file format
VERSION .7
FIELDS x y z rgb
SIZE 4 4 4 4
TYPE F F F F
COUNT 1 1 1 1
WIDTH 285
HEIGHT 1
VIEWPOINT 0 0 0 1 0 0 0
POINTS 285
DATA ascii

 0.0000000 0.0000000 0.0000000 16777215
 -0.0279414 0.0016454 -0.0043902 16777215
 -0.0280494 0.0014340 -0.0048227 16777215
 -0.0285658 0.0015658 -0.0045551 16777215
 -0.0297227 0.0017013 -0.0049918 16777215
 -0.0296546 0.0017883 -0.0054076 16777215
 -0.0297900 0.0016142 -0.0054580 16777215
 -0.0298955 0.0017386 -0.0055230 16777215
 -0.0301731 0.0020008 -0.0058445 16777215
 -0.0304082 0.0020431 -0.0059519 16777215
 -0.0303620 0.0012487 -0.0065044 16777215
 -0.0286107 0.0011734 -0.0076317 16777215
 -0.0267549 0.0016163 -0.0093328 16777215
 -0.0263007 0.0014972 -0.0089821 16777215
 -0.0227308 0.0018422 -0.0105884 16777215
 -0.0187160 0.0025818 -0.0128335 16777215
 -0.0136192 0.0029723 -0.0160379 16777215
 -0.0107910 0.0031511 -0.0171194 16777215
 -0.0113821 0.0028848 -0.0202449 16777215
 -0.0114946 0.0028441 -0.0198452 16777215
 -0.0147938 0.0016842 -0.0177943 16777215
 -0.0176123 0.0017843 -0.0165044 16777215
 -0.0227034 0.0016476 -0.0127198 16777215
 -0.0259252 0.0029772 -0.0073819 16777215
 -0.0249962 0.0035360 -0.0015972 16777215
 -0.0223003 0.0033936 0.0063843 16777215
 -0.0163347 0.0027681 0.0165730 16777215
 -0.0046415 0.0027650 0.0255468 16777215
 0.0050754 -0.0002097 0.0365840 16777215
 0.0106509 0.0000883 0.0480255 16777215
 0.0134354 -0.0002066 0.0648075 16777215
 0.0176443 -0.0005786 0.0848556 16777215
 0.0219101 -0.0016844 0.1034828 16777215
 0.0265443 -0.0019564 0.1177054 16777215
 0.0318784 -0.0018767 0.1288245 16777215
 0.0367841 -0.0036319 0.1339848 16777215
 0.0394340 -0.0051413 0.1429176 16777215
 0.0392740 -0.0049932 0.1596297 16777215
 0.0428904 -0.0065214 0.1807117 16777215
 0.0455749 -0.0071240 0.1954240 16777215
 0.0539944 -0.0076650 0.2090759 16777215
 0.0660879 -0.0112036 0.2209332 16777215
 0.0722953 -0.0146004 0.2352158 16777215
 0.0772687 -0.0160484 0.2529564 16777215
 0.0722129 -0.0163055 0.2692997 16777215
 0.0765568 -0.0182858 0.2827955 16777215
 0.0858799 -0.0195923 0.2961869 16777215
 0.0951019 -0.0211619 0.3053277 16777215
 0.1051315 -0.0279776 0.3134062 16777215
 0.1119268 -0.0341037 0.3227467 16777215
 0.1114272 -0.0324901 0.3378558 16777215
 0.1105024 -0.0348312 0.3502248 16777215
 0.1134189 -0.0345019 0.3617100 16777215
 0.1194028 -0.0320242 0.3768984 16777215
 0.1366218 -0.0344131 0.3900596 16777215
 0.1412310 -0.0334173 0.4027041 16777215
 0.1449332 -0.0330408 0.4138521 16777215
 0.1457277 -0.0320202 0.4334680 16777215
 0.1486816 -0.0316969 0.4510674 16777215
 0.1534895 -0.0323382 0.4623578 16777215
 0.1614265 -0.0333767 0.4729985 16777215
 0.1669733 -0.0318961 0.4817852 16777215
 0.1724361 -0.0342428 0.4945236 16777215
 0.1734400 -0.0340915 0.5076433 16777215
 0.1753038 -0.0354200 0.5244631 16777215
 0.1735183 -0.0365868 0.5402735 16777215
 0.1772781 -0.0367017 0.5512305 16777215
 0.1858625 -0.0379087 0.5651433 16777215
 0.1971786 -0.0381305 0.5762866 16777215
 0.2029022 -0.0398133 0.5952234 16777215
 0.1997474 -0.0388972 0.6096025 16777215
 0.2018583 -0.0408115 0.6243860 16777215
 0.2011184 -0.0416402 0.6385567 16777215
 0.2060778 -0.0401233 0.6564877 16777215
 0.2164714 -0.0397943 0.6717023 16777215
 0.2208876 -0.0400669 0.6894942 16777215
 0.2186364 -0.0399950 0.7088747 16777215
 0.2200144 -0.0389397 0.7216434 16777215
 0.2224890 -0.0409853 0.7337414 16777215
 0.2264964 -0.0395331 0.7461068 16777215
 0.2348112 -0.0423118 0.7534565 16777215
 0.2384491 -0.0428233 0.7618532 16777215
 0.2393213 -0.0430452 0.7696778 16777215
 0.2408015 -0.0450107 0.7783574 16777215
 0.2441297 -0.0451533 0.7849782 16777215
 0.2467801 -0.0459239 0.7900997 16777215
 0.2562362 -0.0476698 0.7958348 16777215
 0.2583558 -0.0487447 0.8036959 16777215
 0.2570282 -0.0494708 0.8123885 16777215
 0.2607136 -0.0491865 0.8247635 16777215
 0.2616337 -0.0502386 0.8333135 16777215
 0.2662655 -0.0509567 0.8385279 16777215
 0.2711754 -0.0525630 0.8434638 16777215
 0.2729128 -0.0513605 0.8517848 16777215
 0.2737876 -0.0514852 0.8580538 16777215
 0.2735230 -0.0513654 0.8627605 16777215
 0.2738707 -0.0513127 0.8665877 16777215
 0.2772451 -0.0528872 0.8724613 16777215
 0.2814729 -0.0526371 0.8762314 16777215
 0.2824965 -0.0528526 0.8808445 16777215
 0.2833228 -0.0529893 0.8861332 16777215
 0.2832147 -0.0529738 0.8896982 16777215
 0.2841969 -0.0531683 0.8951316 16777215
 0.2863946 -0.0534274 0.8992931 16777215
 0.2891575 -0.0548144 0.9033844 16777215
 0.2906762 -0.0545460 0.9078192 16777215
 0.2909283 -0.0543098 0.9133931 16777215
 0.2915729 -0.0549511 0.9172881 16777215
 0.2920894 -0.0552349 0.9197896 16777215
 0.2940602 -0.0561253 0.9241695 16777215
 0.2972765 -0.0558514 0.9266337 16777215
 0.2980854 -0.0565558 0.9306630 16777215
 0.2983420 -0.0568234 0.9360719 16777215
 0.2992008 -0.0566950 0.9407104 16777215
 0.3014622 -0.0567998 0.9445882 16777215
 0.3037573 -0.0567281 0.9478213 16777215
 0.3058209 -0.0572571 0.9526367 16777215
 0.3060710 -0.0576435 0.9567726 16777215
 0.3064356 -0.0575660 0.9602932 16777215
 0.3087366 -0.0574314 0.9641931 16777215
 0.3102807 -0.0581353 0.9664290 16777215
 0.3111629 -0.0583646 0.9695396 16777215
 0.3112483 -0.0585575 0.9735971 16777215
 0.3108808 -0.0586458 0.9761626 16777215
 0.3110209 -0.0589654 0.9788270 16777215
 0.3119835 -0.0589519 0.9820396 16777215
 0.3128772 -0.0592612 0.9854398 16777215
 0.3132190 -0.0596188 0.9878541 16777215
 0.3136782 -0.0597391 0.9915141 16777215
 0.3137863 -0.0597996 0.9945341 16777215
 0.3150305 -0.0598437 0.9975184 16777215
 0.3165743 -0.0602370 0.9997936 16777215
 0.3179866 -0.0602007 1.0023366 16777215
 0.3182838 -0.0602410 1.0054864 16777215
 0.3182266 -0.0606563 1.0079970 16777215
 0.3184497 -0.0606619 1.0100379 16777215
 0.3202399 -0.0606793 1.0124236 16777215
 0.3219795 -0.0606662 1.0145500 16777215
 0.3231592 -0.0609044 1.0168549 16777215
 0.3236821 -0.0609481 1.0192289 16777215
 0.3241750 -0.0607648 1.0212837 16777215
 0.3249401 -0.0610824 1.0235556 16777215
 0.3259813 -0.0612115 1.0254310 16777215
 0.3270623 -0.0615288 1.0281382 16777215
 0.3272685 -0.0615004 1.0305134 16777215
 0.3269954 -0.0614084 1.0326132 16777215
 0.3276446 -0.0613372 1.0348932 16777215
 0.3291013 -0.0616353 1.0373830 16777215
 0.3303442 -0.0616299 1.0392020 16777215
 0.3308507 -0.0616946 1.0419878 16777215
 0.3307577 -0.0618177 1.0439010 16777215
 0.3314590 -0.0620369 1.0460105 16777215
 0.3329080 -0.0621819 1.0486945 16777215
 0.3333731 -0.0624521 1.0511492 16777215
 0.3327620 -0.0626197 1.0537573 16777215
 0.3329501 -0.0630883 1.0559297 16777215
 0.3347296 -0.0628894 1.0582740 16777215
 0.3357714 -0.0632507 1.0602205 16777215
 0.3359303 -0.0634282 1.0630769 16777215
 0.3360749 -0.0635804 1.0650727 16777215
 0.3375330 -0.0634699 1.0672188 16777215
 0.3390939 -0.0636199 1.0696368 16777215
 0.3393232 -0.0635959 1.0718032 16777215
 0.3392258 -0.0639057 1.0738322 16777215
 0.3397548 -0.0639464 1.0753306 16777215
 0.3410946 -0.0639405 1.0770124 16777215
 0.3416184 -0.0639264 1.0784404 16777215
 0.3416173 -0.0636408 1.0806642 16777215
 0.3421859 -0.0638455 1.0823292 16777215
 0.3431225 -0.0638563 1.0838088 16777215
 0.3438904 -0.0642317 1.0847605 16777215
 0.3443278 -0.0643602 1.0861712 16777215
 0.3442934 -0.0643479 1.0878689 16777215
 0.3449698 -0.0645099 1.0890203 16777215
 0.3462101 -0.0646525 1.0905031 16777215
 0.3469185 -0.0647408 1.0921291 16777215
 0.3470211 -0.0647208 1.0937688 16777215
 0.3476650 -0.0648013 1.0951362 16777215
 0.3488388 -0.0647686 1.0961560 16777215
 0.3491270 -0.0649033 1.0976099 16777215
 0.3492501 -0.0649521 1.0987594 16777215
 0.3495897 -0.0649919 1.1001145 16777215
 0.3504720 -0.0649856 1.1013130 16777215
 0.3509867 -0.0650604 1.1029845 16777215
 0.3511962 -0.0651533 1.1045529 16777215
 0.3517435 -0.0652404 1.1062796 16777215
 0.3526499 -0.0652349 1.1074922 16777215
 0.3532938 -0.0653254 1.1088755 16777215
 0.3536519 -0.0652021 1.1103263 16777215
 0.3542807 -0.0651878 1.1115551 16777215
 0.3551323 -0.0652464 1.1127419 16777215
 0.3556108 -0.0651490 1.1142721 16777215
 0.3559913 -0.0652385 1.1159860 16777215
 0.3562956 -0.0652490 1.1172906 16777215
 0.3567603 -0.0655890 1.1184253 16777215
 0.3566540 -0.0657517 1.1201432 16777215
 0.3571050 -0.0658955 1.1218871 16777215
 0.3580709 -0.0659210 1.1232711 16777215
 0.3582940 -0.0659989 1.1247168 16777215
 0.3583630 -0.0662030 1.1258081 16777215
 0.3591071 -0.0661056 1.1269826 16777215
 0.3596209 -0.0663846 1.1281389 16777215
 0.3595018 -0.0663639 1.1291002 16777215
 0.3595937 -0.0666233 1.1299368 16777215
 0.3600166 -0.0665876 1.1306479 16777215
 0.3607197 -0.0667604 1.1312646 16777215
 0.3610278 -0.0668427 1.1320789 16777215
 0.3611543 -0.0667568 1.1329198 16777215
 0.3614208 -0.0669245 1.1334406 16777215
 0.3623366 -0.0668145 1.1341696 16777215
 0.3629324 -0.0669296 1.1347375 16777215
 0.3632421 -0.0669436 1.1356949 16777215
 0.3632384 -0.0670271 1.1364657 16777215
 0.3635641 -0.0670489 1.1372570 16777215
 0.3640110 -0.0671777 1.1378790 16777215
 0.3642012 -0.0673310 1.1384857 16777215
 0.3641217 -0.0674170 1.1394279 16777215
 0.3640653 -0.0675791 1.1402748 16777215
 0.3639482 -0.0675722 1.1410720 16777215
 0.3643305 -0.0676447 1.1417084 16777215
 0.3646956 -0.0677714 1.1425319 16777215
 0.3648920 -0.0678301 1.1432589 16777215
 0.3649309 -0.0679012 1.1439760 16777215
 0.3654114 -0.0680513 1.1447737 16777215
 0.3658231 -0.0680514 1.1451877 16777215
 0.3663882 -0.0681414 1.1458986 16777215
 0.3665237 -0.0682528 1.1465449 16777215
 0.3665987 -0.0683627 1.1473578 16777215
 0.3667382 -0.0684335 1.1479168 16777215
 0.3670368 -0.0685044 1.1484072 16777215
 0.3674212 -0.0685612 1.1490657 16777215
 0.3675447 -0.0686298 1.1497537 16777215
 0.3676820 -0.0687607 1.1505969 16777215
 0.3680334 -0.0688156 1.1512668 16777215
 0.3683513 -0.0688925 1.1518513 16777215
 0.3684199 -0.0689990 1.1523727 16777215
 0.3684350 -0.0690344 1.1530888 16777215
 0.3689022 -0.0690491 1.1537052 16777215
 0.3692752 -0.0691413 1.1542183 16777215
 0.3694524 -0.0692162 1.1547544 16777215
 0.3693480 -0.0691793 1.1554512 16777215
 0.3696741 -0.0692362 1.1560761 16777215
 0.3699838 -0.0693003 1.1566861 16777215
 0.3702703 -0.0692872 1.1572082 16777215
 0.3703923 -0.0693201 1.1579320 16777215
 0.3704023 -0.0694416 1.1584723 16777215
 0.3708542 -0.0694224 1.1588677 16777215
 0.3711032 -0.0694452 1.1592638 16777215
 0.3712849 -0.0695444 1.1598574 16777215
 0.3713671 -0.0695177 1.1603730 16777215
 0.3717361 -0.0695558 1.1608785 16777215
 0.3721757 -0.0696920 1.1613277 16777215
 0.3721812 -0.0697192 1.1619349 16777215
 0.3722706 -0.0697069 1.1625963 16777215
 0.3727345 -0.0697779 1.1631979 16777215
 0.3729247 -0.0698932 1.1637250 16777215
 0.3729232 -0.0699047 1.1643964 16777215
 0.3731868 -0.0699345 1.1649027 16777215
 0.3735381 -0.0700333 1.1654361 16777215
 0.3736911 -0.0700571 1.1660351 16777215
 0.3737784 -0.0701119 1.1664855 16777215
 0.3741642 -0.0701493 1.1669259 16777215
 0.3743673 -0.0702378 1.1674528 16777215
 0.3743439 -0.0702034 1.1679400 16777215
 0.3743929 -0.0702823 1.1683950 16777215
 0.3747808 -0.0702597 1.1687990 16777215
 0.3749469 -0.0704076 1.1690955 16777215
 0.3749492 -0.0704014 1.1696172 16777215
 0.3751362 -0.0703686 1.1699938 16777215
 0.3754557 -0.0704054 1.1703221 16777215
 0.3755960 -0.0704682 1.1706798 16777215
 0.3756922 -0.0704897 1.1711065 16777215
 0.3758317 -0.0705429 1.1714571 16777215
 0.3760309 -0.0705824 1.1716846 16777215
 0.3761134 -0.0706225 1.1720103 16777215
 0.3761484 -0.0706397 1.1723778 16777215
 0.3763764 -0.0706849 1.1726221 16777215
 0.3765407 -0.0706902 1.1728965 16777215
 0.3765278 -0.0707561 1.1732336 16777215
 0.3765806 -0.0707623 1.1734984 16777215
 0.3768321 -0.0707822 1.1737525 16777215
 0.3770090 -0.0707822 1.1739821 16777215
 0.3770376 -0.0708268 1.1742469 16777215
 0.3770942 -0.0708047 1.1743822 16777215
 0.3771387 -0.0708109 1.1744301 16777215
