# .PCD v.7 - Point Cloud Data file format
VERSION .7
FIELDS x y z rgb
SIZE 4 4 4 4
TYPE F F F F
COUNT 1 1 1 1
WIDTH 219
HEIGHT 1
VIEWPOINT 0 0 0 1 0 0 0
POINTS 219
DATA ascii

 0.0000000 0.0000000 0.0000000 16777215
 0.0224682 -0.0140062 0.0632772 16777215
 0.0252496 -0.0143110 0.0677910 16777215
 0.0270983 -0.0162926 0.0741723 16777215
 0.0302627 -0.0181426 0.0796214 16777215
 0.0311443 -0.0203314 0.0866971 16777215
 0.0336424 -0.0223064 0.0933148 16777215
 0.0402935 -0.0234427 0.1152221 16777215
 0.0414852 -0.0236857 0.1233299 16777215
 0.0399540 -0.0238118 0.1482166 16777215
 0.0467142 -0.0301845 0.1670878 16777215
 0.0419351 -0.0331479 0.1840383 16777215
 0.0446483 -0.0331885 0.2034558 16777215
 0.0450041 -0.0368858 0.2104212 16777215
 0.0487756 -0.0375995 0.2270855 16777215
 0.0465200 -0.0432009 0.2494620 16777215
 0.0454872 -0.0441567 0.2689569 16777215
 0.0472868 -0.0464799 0.2820013 16777215
 0.0500790 -0.0515491 0.3007077 16777215
 0.0469263 -0.0573904 0.3180781 16777215
 0.0464159 -0.0603691 0.3353820 16777215
 0.0456247 -0.0630531 0.3596318 16777215
 0.0425800 -0.0633967 0.3733630 16777215
 0.0353598 -0.0686422 0.4034850 16777215
 0.0276423 -0.0706225 0.4276394 16777215
 0.0255594 -0.0739476 0.4450166 16777215
 0.0207607 -0.0750039 0.4618615 16777215
 0.0156460 -0.0764712 0.4865388 16777215
 0.0170845 -0.0783532 0.5086327 16777215
 0.0153426 -0.0830547 0.5338180 16777215
 0.0165564 -0.0879947 0.5532109 16777215
 0.0158615 -0.0900048 0.5706146 16777215
 0.0144603 -0.0932650 0.5972663 16777215
 0.0116691 -0.0938784 0.6170100 16777215
 0.0060064 -0.0982977 0.6506419 16777215
 0.0053182 -0.1013825 0.6690067 16777215
 0.0064652 -0.1061069 0.6878234 16777215
 0.0082793 -0.1076126 0.7126489 16777215
 0.0178007 -0.1093381 0.7403649 16777215
 0.0219638 -0.1151276 0.7643886 16777215
 0.0317701 -0.1163622 0.7813747 16777215
 0.0340119 -0.1216090 0.8060420 16777215
 0.0362933 -0.1222906 0.8374410 16777215
 0.0364404 -0.1267784 0.8573034 16777215
 0.0359024 -0.1325088 0.8798670 16777215
 0.0391524 -0.1355628 0.8954627 16777215
 0.0401983 -0.1367032 0.9237179 16777215
 0.0433028 -0.1415420 0.9486477 16777215
 0.0485078 -0.1434213 0.9656249 16777215
 0.0445559 -0.1465377 0.9863667 16777215
 0.0554084 -0.1532990 1.0089036 16777215
 0.0551889 -0.1600420 1.0393641 16777215
 0.0522355 -0.1661870 1.0631181 16777215
 0.0606650 -0.1630878 1.0785638 16777215
 0.0579980 -0.1686595 1.1024162 16777215
 0.0628048 -0.1764807 1.1294432 16777215
 0.0856237 -0.1800308 1.1553910 16777215
 0.0899071 -0.1813992 1.1712929 16777215
 0.0897714 -0.1874102 1.1822788 16777215
 0.0969254 -0.1905748 1.2025936 16777215
 0.1005096 -0.1922030 1.2271957 16777215
 0.0971736 -0.1929177 1.2491207 16777215
 0.1012897 -0.2008477 1.2680025 16777215
 0.1098219 -0.1986967 1.2894365 16777215
 0.1186333 -0.2040098 1.3135011 16777215
 0.1249679 -0.2074432 1.3334618 16777215
 0.1282481 -0.2093238 1.3499484 16777215
 0.1246486 -0.2118583 1.3664049 16777215
 0.1222148 -0.2131098 1.3900225 16777215
 0.1136097 -0.2189497 1.4136822 16777215
 0.1078905 -0.2192836 1.4326057 16777215
 0.1105493 -0.2217825 1.4483958 16777215
 0.1095787 -0.2245198 1.4744638 16777215
 0.1115061 -0.2262523 1.4911810 16777215
 0.1114688 -0.2282588 1.5094228 16777215
 0.1143500 -0.2297955 1.5210623 16777215
 0.1138573 -0.2348486 1.5424360 16777215
 0.1100264 -0.2369260 1.5621972 16777215
 0.1071082 -0.2382644 1.5749745 16777215
 0.0942358 -0.2417050 1.5983057 16777215
 0.0883646 -0.2407951 1.6189845 16777215
 0.0898326 -0.2451567 1.6421907 16777215
 0.0840178 -0.2436849 1.6591250 16777215
 0.0885283 -0.2468128 1.6796371 16777215
 0.0897776 -0.2483873 1.6984265 16777215
 0.0866541 -0.2513908 1.7175723 16777215
 0.0885025 -0.2544003 1.7375801 16777215
 0.0842196 -0.2521584 1.7541761 16777215
 0.0711014 -0.2594789 1.7848314 16777215
 0.0692751 -0.2601311 1.7989613 16777215
 0.0702913 -0.2591518 1.8194391 16777215
 0.0699651 -0.2613220 1.8369950 16777215
 0.0765473 -0.2619735 1.8667332 16777215
 0.0815030 -0.2643457 1.8895310 16777215
 0.0807412 -0.2669141 1.9065605 16777215
 0.0833302 -0.2715027 1.9303147 16777215
 0.0844140 -0.2725276 1.9537604 16777215
 0.0835629 -0.2775232 1.9765888 16777215
 0.0785288 -0.2812932 1.9977552 16777215
 0.0791500 -0.2844873 2.0136037 16777215
 0.0800612 -0.2866593 2.0413666 16777215
 0.0804199 -0.2916776 2.0644557 16777215
 0.0839583 -0.2951428 2.0844741 16777215
 0.0847821 -0.2961667 2.0991356 16777215
 0.0864966 -0.2987686 2.1211221 16777215
 0.0841823 -0.3002120 2.1491365 16777215
 0.0805294 -0.3036477 2.1709323 16777215
 0.0808177 -0.3042866 2.1977735 16777215
 0.0803714 -0.3075882 2.2269268 16777215
 0.0802974 -0.3104421 2.2510903 16777215
 0.0800835 -0.3128496 2.2669389 16777215
 0.0804963 -0.3155861 2.2868941 16777215
 0.0811291 -0.3165965 2.3105886 16777215
 0.0770237 -0.3190454 2.3341730 16777215
 0.0722520 -0.3195119 2.3600533 16777215
 0.0725109 -0.3226940 2.3775029 16777215
 0.0739449 -0.3222140 2.4002450 16777215
 0.0814175 -0.3242070 2.4257107 16777215
 0.0840421 -0.3248343 2.4468858 16777215
 0.0847405 -0.3259692 2.4689598 16777215
 0.0874225 -0.3275761 2.4946346 16777215
 0.0829506 -0.3275702 2.5134592 16777215
 0.0828776 -0.3301767 2.5411098 16777215
 0.0840038 -0.3326572 2.5573053 16777215
 0.0878661 -0.3363748 2.5866137 16777215
 0.0937439 -0.3396292 2.6077609 16777215
 0.0949679 -0.3420086 2.6371207 16777215
 0.1006740 -0.3434514 2.6521831 16777215
 0.0935255 -0.3441471 2.6822245 16777215
 0.0925937 -0.3459397 2.7088385 16777215
 0.0931180 -0.3486555 2.7350893 16777215
 0.0971914 -0.3491957 2.7567797 16777215
 0.1011315 -0.3522255 2.7839971 16777215
 0.1026476 -0.3561162 2.8029244 16777215
 0.1062502 -0.3571646 2.8228323 16777215
 0.1012254 -0.3568078 2.8509841 16777215
 0.0962090 -0.3585221 2.8720200 16777215
 0.0989488 -0.3600044 2.8864892 16777215
 0.0996111 -0.3616555 2.9168253 16777215
 0.1053555 -0.3632893 2.9459414 16777215
 0.1094033 -0.3670665 2.9718523 16777215
 0.1120945 -0.3676246 2.9957364 16777215
 0.1070433 -0.3683220 3.0180287 16777215
 0.1039270 -0.3706192 3.0404119 16777215
 0.1039880 -0.3708917 3.0667582 16777215
 0.1029134 -0.3727096 3.0824492 16777215
 0.1055113 -0.3745434 3.1016788 16777215
 0.1096987 -0.3763981 3.1213644 16777215
 0.1082307 -0.3839028 3.1445515 16777215
 0.1089660 -0.3845308 3.1696129 16777215
 0.1053892 -0.3860282 3.1917176 16777215
 0.1015822 -0.3876106 3.2117414 16777215
 0.1029425 -0.3898661 3.2208536 16777215
 0.1072873 -0.3901833 3.2421477 16777215
 0.1112575 -0.3925695 3.2598317 16777215
 0.1169246 -0.3941681 3.2780452 16777215
 0.1193461 -0.3947637 3.2977991 16777215
 0.1192534 -0.3938855 3.3169808 16777215
 0.1156871 -0.3948499 3.3360121 16777215
 0.1139690 -0.3970476 3.3530488 16777215
 0.1146056 -0.3976868 3.3746636 16777215
 0.1170899 -0.3985706 3.3949094 16777215
 0.1174402 -0.3980685 3.4123664 16777215
 0.1180665 -0.4027003 3.4298494 16777215
 0.1211890 -0.4056152 3.4482853 16777215
 0.1176126 -0.4042487 3.4688349 16777215
 0.1095092 -0.4061064 3.4948268 16777215
 0.1065122 -0.4088036 3.5158732 16777215
 0.1038629 -0.4096541 3.5342565 16777215
 0.1009127 -0.4092811 3.5589416 16777215
 0.1011325 -0.4144661 3.5826716 16777215
 0.0999592 -0.4148580 3.6000571 16777215
 0.0983662 -0.4161376 3.6101773 16777215
 0.0927269 -0.4161597 3.6360993 16777215
 0.0903822 -0.4178174 3.6551392 16777215
 0.0882396 -0.4218270 3.6745892 16777215
 0.0895781 -0.4259398 3.6997864 16777215
 0.0943166 -0.4258639 3.7198958 16777215
 0.0964368 -0.4272054 3.7291410 16777215
 0.1000284 -0.4299832 3.7512357 16777215
 0.0981185 -0.4294997 3.7760611 16777215
 0.0920386 -0.4301361 3.8006680 16777215
 0.0888302 -0.4334919 3.8242602 16777215
 0.0887102 -0.4338757 3.8481219 16777215
 0.0893049 -0.4332619 3.8581023 16777215
 0.0953660 -0.4358799 3.8806860 16777215
 0.0988592 -0.4381899 3.9005468 16777215
 0.0999172 -0.4395068 3.9152641 16777215
 0.0994004 -0.4388642 3.9403560 16777215
 0.0982129 -0.4425316 3.9630094 16777215
 0.1041948 -0.4466872 3.9849479 16777215
 0.1086822 -0.4478825 4.0068202 16777215
 0.1148696 -0.4506183 4.0187917 16777215
 0.1164864 -0.4526420 4.0297689 16777215
 0.1197185 -0.4529297 4.0494604 16777215
 0.1175461 -0.4513494 4.0682039 16777215
 0.1161429 -0.4548284 4.0911460 16777215
 0.1166092 -0.4581013 4.1116147 16777215
 0.1157636 -0.4584066 4.1241703 16777215
 0.1169680 -0.4588909 4.1418319 16777215
 0.1195423 -0.4643449 4.1629853 16777215
 0.1219790 -0.4632888 4.1716280 16777215
 0.1224777 -0.4651044 4.1927676 16777215
 0.1195286 -0.4643871 4.2103238 16777215
 0.1155495 -0.4683058 4.2313890 16777215
 0.1162347 -0.4688902 4.2442670 16777215
 0.1160640 -0.4693904 4.2554917 16777215
 0.1165220 -0.4704527 4.2736073 16777215
 0.1174981 -0.4731331 4.2852101 16777215
 0.1181186 -0.4740137 4.2969956 16777215
 0.1163037 -0.4745615 4.3042474 16777215
 0.1117155 -0.4760388 4.3144665 16777215
 0.1082874 -0.4759869 4.3181386 16777215
 0.1093407 -0.4759966 4.3196502 16777215
 0.1092122 -0.4763108 4.3214593 16777215
 0.1089263 -0.4754989 4.3220038 16777215
 0.1093739 -0.4751189 4.3228884 16777215
 0.1095373 -0.4746420 4.3233700 16777215
 0.1094497 -0.4749693 4.3244972 16777215
