# .PCD v0.7 - Point Cloud Data file format
VERSION 0.7
FIELDS x y z rgb
SIZE 4 4 4 4
TYPE F F F F
COUNT 1 1 1 1
WIDTH 1201
HEIGHT 1
VIEWPOINT 0 0 0 1 0 0 0
POINTS 1201
DATA ascii
17.254471 -37.448494 28.352045 16711746
-2.3471811 -10.745065 18.669912 16711746
12.89313 -21.513573 19.923113 16711746
33.567982 -28.471699 38.478474 16711746
20.409025 -31.873728 24.326996 16711746
21.517759 -20.883366 17.784422 16711746
27.154848 -29.804972 21.656549 16711746
19.202187 -28.54463 23.44265 16711746
19.035921 -25.745222 22.691082 16711746
28.733402 -28.27491 21.738918 16711746
15.019187 -24.222767 21.724165 16711746
19.380426 -26.877335 20.888033 16711746
21.052299 -22.251585 17.896627 16711746
21.413509 -15.862846 14.603232 16711746
14.440884 -31.598461 21.392399 16711746
28.660528 -27.968893 21.634632 16711746
21.20911 -29.511255 21.681084 16711746
22.491253 -29.546919 25.354073 16711746
24.813257 -24.945669 31.39887 16711746
15.561925 -26.608461 28.615353 16711746
25.284185 -27.895979 28.285048 16711746
17.946693 -21.223742 17.273138 16711746
21.413145 -29.275846 21.568323 16711746
18.843822 -26.571188 20.766048 16711746
8.8477011 -23.164005 19.936895 16711746
25.19742 -17.643494 21.370438 16711746
27.681286 -27.740541 33.320271 16711746
15.798043 -18.229256 18.001511 16711746
10.962701 -24.26046 19.456923 16711746
8.2485552 -21.854795 18.986002 16711746
16.222357 -21.05789 18.271885 16711746
8.3347225 -28.623545 20.81365 16711746
40.715057 -47.294735 39.618603 16711746
14.34844 -14.642899 23.607817 16711746
21.08547 -20.680298 16.850025 16711746
11.46337 -24.884039 19.28895 16711746
19.335989 -17.993078 14.265448 16711746
-0.84137374 -12.962921 19.891787 16711746
26.42729 -28.866247 21.146538 16711746
4.2185259 -20.815413 17.530628 16711746
25.235813 -32.310226 20.574717 16711746
9.8404207 -28.380981 20.590578 16711746
8.3366261 -26.692251 20.405813 16711746
2.0737605 -13.575663 16.894861 16711746
21.314682 -15.907451 13.774824 16711746
10.897545 -19.247381 16.781473 16711746
30.465677 -26.050396 26.100822 16711746
29.221464 -31.205816 32.851677 16711746
21.539249 -16.024107 16.052795 16711746
2.1708443 -17.461363 22.216404 16711746
7.4973602 -22.428062 18.594805 16711746
4.8087101 -23.571863 16.631357 16711746
11.102865 -30.129948 20.596006 16711746
1.0040512 -13.819388 18.071337 16711746
17.930159 -12.86459 12.616611 16711746
21.043915 -19.263256 13.207727 16711746
19.148874 -29.808638 18.846073 16711746
17.624712 -25.001049 24.524536 16711746
54.649712 -45.382801 54.967484 16711746
22.669569 -21.514002 17.899658 16711746
24.040483 -21.523518 18.003054 16711746
22.150436 -45.449535 38.331921 16711746
27.913895 -31.985321 25.117723 16711746
22.010357 -25.996613 18.133137 16711746
21.772446 -17.802174 13.225249 16711746
23.534475 -27.11961 19.836586 16711746
35.797997 -38.936169 34.170437 16711746
30.553148 -29.297333 22.101034 16711746
30.597218 -26.882851 22.256685 16711746
2.9758971 -18.404015 20.17548 16711746
3.1864829 -34.836369 23.308588 16711746
83.552559 -51.994179 37.107769 16711746
3.7726049 -4.6689048 13.704014 16711746
10.973257 -9.7327862 12.759043 16711746
5.7335711 -15.17415 14.317034 16711746
3.7290132 -8.8573427 13.895285 16711746
21.227823 -26.217016 24.217556 16711746
16.455019 -21.820229 20.172144 16711746
22.132309 -29.216114 25.872377 16711746
22.775352 -27.230392 28.184767 16711746
18.898912 -28.054939 21.237928 16711746
16.588371 -21.442465 19.935419 16711746
-0.61787456 -11.635408 20.882677 16711746
25.051128 -33.035431 22.64463 16711746
29.8571 -39.150963 30.430918 16711746
3.4362664 -12.529235 15.919477 16711746
6.646553 -11.111363 15.920276 16711746
6.9963036 -13.268365 14.738152 16711746
4.1460128 -12.380521 15.96022 16711746
3.793 -11.232643 16.342142 16711746
0.19674531 -10.550063 18.338816 16711746
2.0065048 -11.493348 16.69997 16711746
8.3614845 -13.65171 16.336874 16711746
6.1342874 -9.1659155 13.118399 16711746
1.1212114 -8.8310833 17.168133 16711746
3.1045115 -15.301722 18.511518 16711746
14.540529 -14.578225 12.866836 16711746
7.8258691 -14.709174 15.145654 16711746
-0.34070802 -13.604733 18.617531 16711746
0.92068511 -11.040825 16.103327 16711746
5.7898383 -11.744461 12.853236 16711746
4.0380878 -10.141599 14.466731 16711746
2.0035901 -18.154112 24.936171 16711746
17.423237 -26.586273 22.600412 16711746
58.86821 -53.495773 57.652561 16711746
3.9242857 -18.867966 13.827182 16711746
-1.3266995 -12.064885 19.945057 16711746
-1.9521762 -20.890688 19.677929 16711746
-2.2511058 -16.723707 25.333101 16711746
5.7099385 -9.273921 15.277038 16711746
16.340828 -21.784859 18.499575 16711746
10.186211 -13.613261 17.592546 16711746
19.604046 -15.39025 13.817387 16711746
-0.38086623 -10.451563 20.051964 16711746
5.0370312 -6.5380006 15.235801 16711746
6.2337008 -12.671038 17.279015 16711746
0.028185947 -8.6676168 17.763668 16711746
-0.43102142 -11.166516 17.822399 16711746
1.8067905 -7.4234881 16.510214 16711746
5.3935509 -14.339502 20.174238 16711746
-1.7590168 -20.135401 19.027086 16711746
0.99928945 -9.1066389 16.666765 16711746
0.0014793403 -9.7282791 17.190121 16711746
0.27467737 -9.9741592 17.823048 16711746
0.043086305 -10.987808 18.504519 16711746
-0.63311112 -13.210902 20.493597 16711746
-1.4468642 -12.621005 22.421402 16711746
-1.7443241 -13.628548 21.104038 16711746
5.3273354 -14.317974 21.724308 16711746
8.1030684 -19.7456 21.849791 16711746
5.9719129 -18.802578 23.638159 16711746
-1.1531228 -12.235821 20.46929 16711746
22.890297 -29.761433 25.460871 16711746
33.836426 -44.015167 25.619604 16711746
-0.11004832 -7.324584 17.980396 16711746
-1.3184325 -16.732779 22.441452 16711746
4.430645 -13.322322 22.133593 16711746
23.017269 -24.348015 19.090015 16711746
11.036332 -42.482117 32.384758 16711746
19.211304 -29.355755 23.049919 16711746
17.811354 -14.034636 12.190673 16711746
25.474331 -18.823256 24.682451 16711746
19.791395 -19.626329 27.481604 16711746
32.744644 -38.544716 29.934015 16711746
7.6269159 -13.449303 16.056355 16711746
14.769805 -24.09206 17.559704 16711746
27.707991 -29.597748 31.779299 16711746
16.604778 -15.862957 16.45476 16711746
29.987873 -17.002134 14.977684 16711746
14.774437 -14.765435 16.393192 16711746
26.294348 -34.579258 27.533171 16711746
19.288794 -46.782982 32.283871 16711746
-10.068181 -22.185301 25.589306 16711746
7.2311015 -15.962317 13.239182 16711746
18.9813 -17.644524 16.701387 16711746
19.261896 -19.633665 15.530551 16711746
28.505587 -16.078299 14.788342 16711746
26.160187 -17.63179 17.892567 16711746
9.0555029 -27.045052 25.833595 16711746
27.469463 -29.586246 21.35215 16711746
34.165211 -33.994766 22.558107 16711746
36.07074 -33.003857 21.032524 16711746
30.281179 -54.248699 33.918957 16711746
22.957695 -24.037977 19.028761 16711746
10.655656 -26.833632 21.982061 16711746
26.739624 -26.262428 18.392998 16711746
14.506383 -12.620866 12.307842 16711746
-7.9834857 -18.77467 24.748604 16711746
31.911274 -20.908203 22.304342 16711746
8.6133919 -27.475956 34.227085 16711746
25.867683 -40.044395 30.363142 16711746
43.526669 -55.919495 43.540447 16711746
42.386993 -43.315144 18.898916 16711746
21.476326 -33.438618 27.647476 16711746
22.033421 -31.476032 25.015539 16711746
21.000368 -29.10146 24.792473 16711746
13.72143 -15.242713 19.376661 16711746
15.550254 -23.039406 24.027603 16711746
23.737429 -37.414875 29.501535 16711746
19.154913 -19.275928 16.547842 16711746
19.217493 -25.250336 22.459444 16711746
11.217221 -20.731382 17.330282 16711746
16.388607 -15.895651 17.648361 16711746
12.325649 -9.7241535 12.437901 16711746
14.97292 -23.934471 24.25186 16711746
14.102368 -24.382347 23.566763 16711746
27.960644 -28.888098 28.453753 16711746
13.789495 -14.262317 20.396759 16711746
18.77055 -34.332947 22.511543 16711746
20.694199 -22.020456 21.371624 16711746
26.393423 -37.0439 30.288258 16711746
12.141233 -25.298855 22.751228 16711746
15.550812 -12.774004 17.805452 16711746
7.5277057 -33.137768 25.493013 16711746
20.299038 -23.666193 26.915693 16711746
8.5324545 -21.028084 23.512266 16711746
9.0016794 -24.932621 20.259983 16711746
10.812661 -14.702525 13.673032 16711746
25.136787 -36.908939 42.596092 16711746
11.19035 -9.8886709 17.166794 16711746
-15.215434 -39.721092 46.231926 16711746
21.715399 -43.825623 36.037033 16711746
-18.881319 -43.519386 32.351463 16711746
73.732895 -45.062023 30.169518 16711746
2.4112358 -4.161994 15.424043 16711746
41.320038 -33.5019 44.949966 16711746
4.0112877 -6.8717384 17.87392 16711746
15.915589 -16.32428 17.147387 16711746
7.6635375 -11.472116 14.597548 16711746
7.109334 -12.627682 15.896148 16711746
6.3312879 -14.248421 21.88468 16711746
9.1513166 -16.697273 19.899565 16711746
7.3330545 -12.744409 14.467412 16711746
3.6495218 -13.140714 19.221941 16711746
5.8717227 -15.69137 19.22246 16711746
9.3978195 -11.466638 15.176319 16711746
3.248534 -8.4374151 16.485889 16711746
17.782646 -18.001875 18.02261 16711746
28.410278 -25.756933 19.863497 16711746
3.6719239 -10.616982 18.227604 16711746
29.042778 -22.867134 35.86129 16711746
24.699919 -35.27647 23.831556 16711746
17.201981 -17.495546 17.999228 16711746
0.50560516 -36.848148 31.27173 16711746
1.5919347 -10.602695 17.711674 16711746
1.1385031 -9.8006411 18.823242 16711746
-3.1450169 -11.530901 22.460337 16711746
1.5568278 -10.459777 17.700798 16711746
4.8124571 -5.8384776 14.846779 16711746
4.0924435 -9.4913454 15.924307 16711746
6.287179 -17.02298 20.664566 16711746
-4.620595 -14.765866 24.676762 16711746
1.3328112 -10.741899 18.359066 16711746
5.9428968 -10.958433 15.983631 16711746
5.3558922 -8.6139011 15.483959 16711746
5.3369517 -8.4362612 14.978945 16711746
3.4806557 -11.35335 18.140356 16711746
4.2953467 -10.774997 18.97242 16711746
2.9941278 -10.711872 19.711535 16711746
2.9868281 -9.3469152 18.819733 16711746
3.3547263 -11.436928 20.142872 16711746
7.0171967 -10.603765 15.819268 16711746
5.8066421 -9.241951 15.054815 16711746
7.7377648 -12.455639 18.682182 16711746
5.4779205 -8.7912483 19.109287 16711746
4.9580903 -8.2209835 18.864468 16711746
7.8829184 -10.644446 20.349598 16711746
7.0723157 -10.366118 18.648447 16711746
3.7516208 -9.5117006 18.584139 16711746
-2.7098417 -14.478139 22.509661 16711746
9.017889 -12.407801 18.086903 16711746
8.606885 -9.2438488 14.205029 16711746
10.639969 -7.8587399 18.440901 16711746
4.6676106 -7.0219102 18.257782 16711746
7.6709485 -12.474955 21.548817 16711746
7.457046 -9.0317478 19.738741 16711746
6.3309455 -10.889225 18.750326 16711746
5.0926352 -11.883968 20.882013 16711746
4.0928502 -10.827158 18.561747 16711746
6.4582605 -17.730612 19.663225 16711746
7.3541341 -11.219984 17.676168 16711746
3.9880986 -9.0637102 16.442341 16711746
5.8668642 -13.576897 21.634939 16711746
4.2510386 -10.545593 18.607821 16711746
7.2708588 -11.454918 19.212015 16711746
0.62913775 -4.9173326 18.485168 16711746
3.9698873 -15.750468 21.826956 16711746
-2.4292393 -14.300062 22.427242 16711746
1.2943678 -11.651557 18.062565 16711746
2.6439693 -7.9776368 18.610729 16711746
0.10966357 -6.4772797 18.706549 16711746
4.7533164 -6.4951615 17.711321 16711746
0.63257426 -9.238883 19.448605 16711746
4.7903309 -8.8799591 18.24494 16711746
-0.86948401 -13.484908 22.502808 16711746
4.7759728 -8.1487961 17.917889 16711746
13.799149 -18.811953 17.201923 16711746
-8.3986053 -57.021057 31.002546 16711746
4.4874978 -6.4820323 17.081944 16711746
-4.1411376 -12.757759 23.611258 16711746
58.725559 -41.094738 44.631477 16711746
17.028496 -28.817806 20.253418 16711746
-5.3556356 -13.489165 25.276203 16711746
55.174881 -27.421997 27.401087 16711746
61.490433 -30.643164 28.70175 16711746
12.382845 -20.612896 18.813545 16711746
-4.4912362 -15.441651 23.564486 16711746
36.92564 -24.467432 26.188648 16711746
53.390255 -27.036804 27.31637 16711746
32.393406 -19.846134 20.112125 16711746
-4.8252029 -17.869211 24.588219 16711746
31.203014 -22.079506 28.520769 16711746
22.345778 -15.617158 21.74399 16711746
22.683445 -43.472034 21.71147 16711746
101.98633 -79.799316 86.057137 16711746
89.525635 -69.993645 77.618034 16711746
41.824379 -71.73336 25.739309 16711746
18.650969 -18.909578 20.023888 16711746
73.30616 -64.487595 66.944443 16711746
29.870604 -39.152065 33.297058 16711746
45.358086 -67.668137 31.072319 16711746
165.1283 -130.34398 133.41177 16711746
-12.958953 -56.634304 53.255501 16711746
46.805702 -89.017807 29.282787 16711746
2.1619599 -13.814609 25.096504 16711746
-5.9068584 -20.324415 28.617266 16711746
-0.82428145 -20.193937 23.232792 16711746
0.3230525 -17.733133 22.251175 16711746
-3.7341676 -20.945717 27.212231 16711746
-4.2840524 -15.006721 26.148571 16711746
-1.1573935 -18.132835 26.967196 16711746
0.83510214 -16.26869 20.493742 16711746
0.32317472 -19.124561 22.507843 16711746
0.20243001 -9.6916075 24.010086 16711746
6.1811657 -15.705237 19.498629 16711746
5.654592 -14.149177 19.678783 16711746
13.901905 -17.53438 26.08078 16711746
-0.27372238 -17.422413 21.856005 16711746
0.72481561 -15.946167 20.543421 16711746
-2.8092239 -15.840761 26.914442 16711746
6.4303327 -12.462339 19.784962 16711746
4.6849351 -19.166227 25.570061 16711746
5.687325 -14.784887 18.668165 16711746
-1.4696982 -18.190323 25.186918 16711746
-5.4118929 -14.494367 26.222328 16711746
-5.9224262 -16.691288 28.799036 16711746
-7.7784448 -48.036224 31.916983 16711746
-6.9678259 -38.661854 40.101944 16711746
-11.407067 -38.909279 26.564941 16711746
4.5520878 -10.100935 18.645567 16711746
10.855248 -11.675922 19.136751 16711746
20.876112 -20.299408 33.403877 16711746
29.62775 -25.809063 40.500931 16711746
12.656963 -14.471669 22.152807 16711746
11.711664 -10.179235 21.098783 16711746
-3.8183954 -15.114955 25.980579 16711746
-0.38617587 -9.6123705 23.204111 16711746
16.167994 -20.130043 29.003819 16711746
14.004463 -16.52202 25.941076 16711746
12.525436 -18.402903 28.342089 16711746
18.577637 -14.486215 22.749674 16711746
14.721332 -13.112167 29.114149 16711746
17.251028 -21.58342 29.719955 16711746
15.860942 -13.720124 22.682085 16711746
16.2922 -16.686453 29.425226 16711746
13.009754 -14.345433 24.180954 16711746
15.433858 -15.214339 23.459732 16711746
16.894667 -16.463596 25.099028 16711746
17.639498 -17.07753 25.351301 16711746
12.70713 -14.171432 21.590843 16711746
13.452003 -16.29859 21.908636 16711746
13.456696 -13.755799 21.615536 16711746
-6.9334941 -27.076908 25.349012 16711746
18.047087 -18.465342 30.77549 16711746
17.844406 -12.080275 19.834845 16711746
11.91092 -10.315045 21.099442 16711746
-8.4087753 -21.829193 26.627579 16711746
16.984535 -15.634728 30.724716 16711746
17.59733 -16.889736 31.590065 16711746
10.5833 -14.650846 24.012529 16711746
15.076413 -16.948973 23.673088 16711746
13.342888 -11.707163 18.472443 16711746
14.673827 -16.642332 29.627743 16711746
16.742104 -13.75638 20.173733 16711746
-6.7062855 -19.676271 27.924175 16711746
15.917531 -14.863281 22.539957 16711746
2.1478276 -13.017918 22.93483 16711746
0.36730766 -42.389408 26.108521 16711746
13.19348 -11.744735 17.312294 16711746
26.275547 -21.144913 33.515934 16711746
15.10881 -16.321672 21.497887 16711746
11.557443 -10.230794 19.906637 16711746
15.065054 -19.122446 26.65971 16711746
6.0814862 -23.173681 25.64683 16711746
0.66434741 -28.487284 23.583511 16711746
-12.315339 -26.127058 26.821795 16711746
14.195174 -13.73783 17.220373 16711746
12.31727 -14.131322 20.682045 16711746
20.498167 -22.106106 31.880402 16711746
11.845592 -16.200968 30.025764 16711746
42.692116 -44.119278 50.913147 16711746
13.575733 -13.980239 23.185663 16711746
9.8437662 -13.769571 23.719694 16711746
17.172733 -17.15929 22.424082 16711746
-0.35114467 -22.143524 35.607727 16711746
15.132077 -12.053259 16.993402 16711746
13.564789 -14.334535 19.114689 16711746
9.0949039 -33.263004 30.199839 16711746
-11.838705 -21.584351 29.401173 16711746
12.858727 -17.953184 31.763102 16711746
21.537964 -22.989824 34.806896 16711746
11.150303 -10.290809 23.920038 16711746
0.01974329 -14.091791 21.137201 16711746
5.7614532 -12.260655 19.153921 16711746
-0.76006418 -32.581799 43.26302 16711746
12.550897 -25.765856 16.841692 16711746
10.376715 -12.878532 21.322685 16711746
12.330054 -16.203062 26.024008 16711746
17.055677 -17.241302 23.87421 16711746
15.325929 -14.879871 29.875721 16711746
12.875212 -14.375224 21.999203 16711746
14.274701 -18.119806 27.843527 16711746
7.6269588 -10.476475 20.401051 16711746
8.8067646 -20.264503 22.736053 16711746
4.352881 -16.757301 23.367258 16711746
6.9956279 -10.56147 22.642481 16711746
24.730268 -17.29039 26.707479 16711746
12.324249 -18.49856 28.248747 16711746
7.1064391 -10.719689 22.695349 16711746
0.90860456 -15.514729 31.658714 16711746
6.2921858 -10.97123 24.643784 16711746
15.225503 -16.415115 23.229074 16711746
15.811139 -16.476175 27.666048 16711746
16.071724 -15.941207 22.879278 16711746
15.076539 -10.441232 18.844694 16711746
2.0929935 -10.295886 22.379509 16711746
13.730671 -15.024241 21.318369 16711746
13.4713 -14.418186 21.098974 16711746
13.917376 -15.979091 22.303957 16711746
10.444877 -10.150943 20.490425 16711746
14.030231 -17.222088 27.005251 16711746
10.659218 -12.370238 21.616245 16711746
10.334471 -10.562426 20.903315 16711746
10.140921 -13.722318 24.861427 16711746
8.8992214 -9.5403519 17.650921 16711746
7.43715 -9.8000946 19.118446 16711746
9.8389292 -11.304963 20.812391 16711746
10.604424 -14.251843 25.641888 16711746
10.870301 -10.069488 18.781586 16711746
16.264498 -14.938972 30.511873 16711746
17.211964 -14.592757 26.645235 16711746
11.41466 -13.314873 22.801897 16711746
1.4863201 -6.7846298 21.134781 16711746
20.449032 -17.061678 26.106262 16711746
7.9178996 -10.628389 22.133354 16711746
11.587392 -11.194591 21.263906 16711746
5.5384068 -7.9030595 21.784082 16711746
9.686409 -9.457406 20.094326 16711746
5.2809405 -6.2390327 20.389017 16711746
12.043369 -12.406507 23.439047 16711746
12.126812 -8.8355532 21.215532 16711746
10.018565 -17.001286 27.329054 16711746
18.801634 -17.815666 20.049334 16711746
11.311687 -16.044785 25.689539 16711746
12.620766 -14.996614 22.736959 16711746
11.202274 -14.069489 25.841406 16711746
11.935242 -15.707951 23.606384 16711746
12.100506 -16.165792 26.097063 16711746
17.451439 -19.330359 14.390444 16711746
21.300535 -17.630756 28.418415 16711746
6.2626967 -12.241385 24.135614 16711746
24.419451 -19.53657 32.506325 16711746
15.759052 -18.631504 28.36035 16711746
17.985489 -16.172094 20.805513 16711746
17.04479 -26.767859 37.610443 16711746
16.044558 -13.520947 22.071556 16711746
29.617882 -33.012909 46.89909 16711746
11.463267 -15.510914 25.746897 16711746
12.046128 -15.906636 19.957411 16711746
12.639008 -16.892242 26.409548 16711746
13.351336 -16.371529 22.852644 16711746
19.673042 -22.295828 32.561039 16711746
13.465209 -13.745978 23.298826 16711746
11.627219 -13.453411 21.619989 16711746
11.465547 -15.332758 19.951273 16711746
8.8019114 -16.426334 24.524143 16711746
14.02566 -23.998314 31.156431 16711746
21.16116 -20.485493 33.75919 16711746
17.563799 -14.91434 26.825615 16711746
15.943874 -13.288533 22.105192 16711746
12.24899 -20.920286 29.866627 16711746
10.397354 -17.067587 24.569214 16711746
15.954165 -20.982346 26.633526 16711746
17.3456 -13.327696 26.986467 16711746
9.9927578 -22.322435 29.175301 16711746
19.75247 -18.455873 20.055 16711746
13.138761 -21.68438 19.312674 16711746
9.2809734 -9.1447554 20.617184 16711746
10.580087 -15.093616 16.219053 16711746
19.050707 -16.558792 11.362149 16711746
15.313438 -15.849491 15.116007 16711746
11.380026 -11.997215 26.880987 16711746
13.69274 -14.328143 23.067867 16711746
19.636032 -26.142061 27.654955 16711746
15.299864 -15.285461 30.21261 16711746
19.160946 -18.036755 33.11417 16711746
16.640968 -17.115574 26.920992 16711746
14.040632 -21.280313 30.387295 16711746
23.397911 -21.722214 26.747686 16711746
31.232695 -25.601156 32.82766 16711746
9.9348316 -11.994675 28.659742 16711746
13.261048 -15.688904 26.500248 16711746
21.81329 -19.281195 37.465137 16711746
23.808325 -19.074778 19.78512 16711746
5.9682961 -14.76823 25.095198 16711746
22.372297 -30.932629 41.958382 16711746
23.640779 -24.510696 36.265636 16711746
9.9715672 -15.389886 26.901773 16711746
3.0181828 -6.0519514 21.038931 16711746
17.724951 -23.364868 26.488245 16711746
17.540855 -19.608894 25.446844 16711746
21.50848 -21.468477 30.501883 16711746
16.387981 -19.803659 29.856201 16711746
9.5809069 -19.35743 24.417154 16711746
18.507027 -21.185034 31.956161 16711746
17.283739 -21.201853 26.886097 16711746
18.155865 -19.270599 24.363737 16711746
20.71129 -26.492748 26.152422 16711746
11.722176 -17.600533 24.67675 16711746
14.418816 -20.300867 23.722485 16711746
8.202714 -12.195569 19.166706 16711746
8.4198189 -22.332653 32.538483 16711746
22.221985 -17.796862 31.237211 16711746
18.256487 -21.824045 26.510027 16711746
25.377474 -21.975834 37.625423 16711746
14.649259 -15.944065 23.600065 16711746
20.711426 -26.501835 26.159283 16711746
13.785923 -20.434181 25.395088 16711746
9.8985796 -20.143887 24.611256 16711746
12.760463 -22.77375 27.893929 16711746
6.3889265 -20.223967 24.691359 16711746
29.936867 -22.819523 35.261173 16711746
7.0999923 -20.869787 26.858456 16711746
13.539599 -19.422157 27.810076 16711746
18.962013 -20.472662 30.741653 16711746
9.5385323 -23.820803 32.15451 16711746
8.9114656 -20.353613 25.513388 16711746
18.044462 -25.941826 29.329155 16711746
14.66644 -15.98561 21.612514 16711746
19.11858 -14.463315 20.075438 16711746
13.173139 -19.320637 25.054926 16711746
21.338774 -22.057844 36.570503 16711746
18.311203 -19.512997 26.773504 16711746
17.641079 -23.502441 29.168777 16711746
16.405607 -15.761786 20.326506 16711746
21.660753 -17.442608 31.153269 16711746
19.614948 -18.75297 33.482079 16711746
16.178493 -19.928293 26.466385 16711746
16.556715 -18.143375 24.629097 16711746
17.646027 -15.400879 23.445272 16711746
19.961861 -23.670834 27.10107 16711746
18.362259 -18.027859 24.295256 16711746
8.4568586 -19.269291 25.239262 16711746
9.9378271 -12.623086 20.442032 16711746
26.548605 -29.625471 37.047787 16711746
17.239674 -15.142512 23.373314 16711746
17.664463 -30.844923 34.440994 16711746
14.75995 -20.545578 31.207325 16711746
19.922903 -21.787247 31.512018 16711746
18.295122 -19.522655 23.796055 16711746
16.810349 -26.185825 26.244427 16711746
7.6528883 -18.546192 29.17502 16711746
11.889728 -29.182695 28.111881 16711746
9.3916988 -14.390087 23.73468 16711746
21.449583 -25.250771 27.685396 16711746
12.928501 -9.8807449 21.491007 16711746
17.504538 -16.356194 25.525446 16711746
13.405264 -16.674898 27.935541 16711746
6.2193084 -17.390694 23.373032 16711746
1.7143817 -18.438719 25.115276 16711746
13.004509 -20.668325 23.688507 16711746
12.07724 -19.991615 22.720621 16711746
7.8813195 -18.920446 30.287134 16711746
18.657013 -15.219888 19.609053 16711746
-2.085722 -14.917142 27.688129 16711746
14.242833 -16.42293 24.983011 16711746
2.7858484 -13.54794 22.205727 16711746
18.951042 -42.300995 19.410381 16711746
12.280194 -17.899822 20.443092 16711746
13.529189 -17.343927 27.589863 16711746
6.5455985 -19.482876 26.513792 16711746
12.520018 -17.266508 27.090353 16711746
16.159813 -19.687353 29.443504 16711746
19.999628 -18.043873 20.773319 16711746
12.423544 -16.797132 19.825678 16711746
27.017097 -23.715195 25.660124 16711746
12.440527 -21.56291 22.95755 16711746
12.685665 -15.094299 23.518755 16711746
-4.3052921 -16.620405 28.550497 16711746
9.6783724 -17.03208 23.025652 16711746
9.9832802 -20.389523 23.324665 16711746
3.3010278 -18.485308 26.673307 16711746
19.089914 -17.767035 20.755381 16711746
5.0402827 -13.269581 25.826628 16711746
-0.067544729 -18.555059 31.117958 16711746
12.158808 -21.738817 19.883362 16711746
14.659789 -20.052736 23.162283 16711746
19.733625 -31.938801 38.867928 16711746
2.5049114 -6.061934 21.901329 16711746
-4.6755919 -19.580429 31.105532 16711746
18.061783 -14.217776 22.670797 16711746
17.577942 -14.347936 21.170732 16711746
30.970766 -40.072865 37.600349 16711746
23.129734 -22.790318 32.283741 16711746
15.035747 -12.811896 19.822752 16711746
19.160664 -22.136562 24.752476 16711746
2.8889973 -7.0411034 23.621922 16711746
12.26328 -17.151369 24.32309 16711746
20.980175 -24.031012 31.4748 16711746
20.182028 -17.711666 21.63599 16711746
25.146566 -25.1311 34.583282 16711746
30.810217 -25.918303 41.224102 16711746
34.7789 -28.819519 43.977131 16711746
24.475285 -38.739864 23.312881 16711746
19.071569 -30.837088 38.115395 16711746
24.029362 -24.738174 32.410473 16711746
15.782893 -21.485533 28.905279 16711746
13.800726 -18.536745 23.855934 16711746
29.988876 -27.088512 39.535194 16711746
23.605289 -24.517561 36.547398 16711746
28.916967 -25.729546 39.73175 16711746
14.608992 -13.839303 21.965519 16711746
27.360079 -24.90274 37.607853 16711746
24.218395 -27.167238 41.533966 16711746
21.475971 -19.969067 25.430338 16711746
18.376102 -17.010351 24.343462 16711746
24.192419 -27.903046 36.758801 16711746
15.576826 -20.727455 21.842445 16711746
28.110117 -27.013144 34.710491 16711746
2.1363728 -6.1029444 22.235735 16711746
15.370073 -16.766083 23.371458 16711746
17.295187 -12.880143 25.752901 16711746
17.10799 -20.264391 24.880629 16711746
21.808123 -21.951887 32.711243 16711746
21.964586 -22.171782 32.877705 16711746
26.261564 -31.617878 39.382523 16711746
32.08868 -28.522076 42.087898 16711746
21.635824 -27.407589 29.696674 16711746
16.851032 -17.966694 22.812397 16711746
15.012955 -17.892887 28.077332 16711746
22.248613 -23.324329 24.822834 16711746
21.980627 -19.209997 17.997921 16711746
21.080709 -24.163902 38.693054 16711746
18.656496 -21.443172 29.761349 16711746
15.086777 -20.525911 20.695547 16711746
9.493989 -16.273182 26.743725 16711746
18.544472 -19.7882 28.823414 16711746
21.889334 -20.570549 30.464247 16711746
25.494022 -20.286085 20.231752 16711746
11.297082 -14.285206 26.327314 16711746
15.917042 -29.716396 33.802238 16711746
24.215424 -24.968769 42.731236 16711746
23.860275 -22.665806 33.059715 16711746
8.9429417 -13.728972 24.070316 16711746
9.7756443 -16.171612 27.34226 16711746
9.0775385 -15.051952 27.556126 16711746
10.164224 -15.96557 28.273695 16711746
10.393618 -15.759046 25.763683 16711746
11.88403 -22.953945 20.42902 16711746
7.1500468 -25.714329 28.23613 16711746
23.018257 -20.52426 36.478878 16711746
19.142082 -20.093502 38.020512 16711746
9.099781 -20.334202 21.117857 16711746
15.218252 -20.877815 22.055471 16711746
17.916559 -23.164719 34.599697 16711746
9.3295956 -14.189395 26.173462 16711746
8.943161 -14.871761 28.261875 16711746
7.1560974 -15.129048 22.84481 16711746
5.5271354 -14.306453 22.110067 16711746
5.0639215 -12.552977 22.851477 16711746
3.904886 -16.746153 29.053143 16711746
14.60457 -22.661514 30.994297 16711746
15.698919 -14.82225 21.87929 16711746
17.548544 -25.228085 21.966505 16711746
11.467104 -22.725307 27.639246 16711746
11.388033 -27.125843 27.749212 16711746
12.796861 -22.593004 20.719402 16711746
18.890049 -20.186806 29.00349 16711746
11.67095 -22.616968 20.464157 16711746
4.5497456 -19.985228 27.425247 16711746
12.183715 -23.990355 27.924063 16711746
6.3698645 -18.912628 28.660255 16711746
8.8207264 -19.71257 26.034409 16711746
8.178421 -21.029488 28.024557 16711746
4.9429197 -25.034473 30.197126 16711746
3.6563449 -24.423445 32.869633 16711746
18.338844 -22.029467 31.402372 16711746
3.8191926 -26.903658 28.914314 16711746
15.765371 -19.818684 18.13401 16711746
7.9773545 -26.301128 42.489483 16711746
9.5561895 -26.481276 27.895313 16711746
20.628189 -29.289499 25.899973 16711746
11.005982 -17.554316 27.738764 16711746
4.4449 -20.243303 26.791676 16711746
5.7684121 -27.928741 31.619196 16711746
11.199185 -25.827858 21.544495 16711746
12.774888 -20.702333 20.255573 16711746
7.5900874 -25.306166 41.413704 16711746
17.58527 -20.367493 35.757938 16711746
15.464996 -27.683588 23.072578 16711746
9.2784777 -20.841055 30.11088 16711746
24.540407 -46.45248 45.440315 16711746
3.9691091 -21.238426 31.492863 16711746
8.9577751 -23.074713 28.771816 16711746
10.757354 -24.07988 25.600582 16711746
5.0929542 -23.826601 28.774496 16711746
12.407572 -20.76276 31.912985 16711746
3.7214797 -25.773464 28.756371 16711746
17.384623 -24.836702 25.16103 16711746
15.294518 -40.293739 36.370644 16711746
15.556382 -24.731783 28.913612 16711746
11.052282 -18.110312 20.561512 16711746
22.001972 -17.307566 29.764996 16711746
34.981457 -35.191349 44.224838 16711746
13.262211 -16.145052 26.318676 16711746
25.422596 -26.327974 31.61301 16711746
15.127164 -22.332926 29.688448 16711746
11.21001 -18.340328 26.831644 16711746
11.99494 -19.580692 26.409742 16711746
6.8759804 -29.881298 37.261959 16711746
5.2164021 -20.174084 29.234703 16711746
11.303881 -19.407757 31.17923 16711746
12.046802 -22.745213 32.285137 16711746
10.836692 -18.079329 24.342421 16711746
14.339847 -20.555336 27.633717 16711746
10.540061 -19.915104 29.198877 16711746
4.7508206 -22.895201 27.582447 16711746
-4.0261745 -21.298861 29.458128 16711746
14.136582 -12.131182 22.688211 16711746
13.493133 -22.175314 23.930391 16711746
18.71876 -35.978085 34.650894 16711746
13.167532 -21.777201 20.348804 16711746
6.7480927 -20.174284 31.24608 16711746
28.730963 -25.470325 31.794382 16711746
9.9251537 -21.664537 30.61363 16711746
14.840533 -20.572882 31.899343 16711746
2.7353966 -31.897682 37.457371 16711746
5.4163356 -21.839314 31.834908 16711746
5.6895347 -35.668617 38.85371 16711746
-5.645154 -21.529022 29.894629 16711746
18.641617 -24.446833 24.404602 16711746
11.79715 -11.738955 20.990725 16711746
8.8276625 -20.002024 28.151218 16711746
10.229537 -32.307392 38.264668 16711746
11.668029 -17.899088 32.126163 16711746
2.8332219 -23.672535 31.600687 16711746
13.430374 -18.659456 24.436407 16711746
12.971175 -21.524445 31.01141 16711746
12.568606 -23.112879 31.499197 16711746
14.956825 -21.941891 28.856018 16711746
11.252066 -18.62298 27.453741 16711746
5.1578851 -14.175646 26.533138 16711746
2.9739873 -24.124041 31.23172 16711746
18.438927 -24.463205 34.273956 16711746
10.100046 -22.336845 27.523567 16711746
18.30055 -24.176897 24.356487 16711746
7.8053088 -22.68148 24.53458 16711746
-9.7670107 -22.93578 31.666512 16711746
12.668388 -20.264511 29.861305 16711746
10.01449 -22.547916 23.345537 16711746
12.743534 -16.529581 20.017189 16711746
34.690838 -26.786392 38.737724 16711746
8.099947 -13.433114 26.097549 16711746
5.3886523 -9.4615583 23.248533 16711746
9.5379591 -13.888126 24.136858 16711746
7.9165845 -12.779228 23.678686 16711746
7.7782793 -12.657231 25.560041 16711746
9.2118244 -16.655344 26.683968 16711746
16.323639 -15.304338 20.402386 16711746
17.273403 -15.387195 21.524536 16711746
26.49312 -24.530825 34.425228 16711746
22.70142 -26.882429 34.309284 16711746
18.220896 -18.841436 23.059954 16711746
2.7324708 -17.046415 25.668156 16711746
3.1428905 -19.787561 29.352112 16711746
9.425354 -11.484227 22.017897 16711746
6.6371655 -24.833193 21.634062 16711746
11.839353 -13.762836 18.005789 16711746
4.2194648 -16.195494 27.533421 16711746
20.717505 -19.174519 34.121689 16711746
8.6399517 -16.118059 21.846464 16711746
16.283981 -27.925003 38.193367 16711746
16.486473 -22.285824 29.747759 16711746
16.557688 -21.029005 30.196838 16711746
44.011845 -47.167007 48.931442 16711746
3.5244749 -6.1258802 23.619627 16711746
19.868324 -24.843065 31.690233 16711746
39.952686 -42.812866 47.026173 16711746
25.542124 -32.761295 40.583862 16711746
16.131256 -14.488879 23.503841 16711746
8.2669439 -8.2076941 21.753132 16711746
13.413084 -11.900988 21.02845 16711746
42.594685 -83.407768 70.545822 16711746
11.221757 -11.326293 27.732883 16711746
4.9782953 -14.540776 25.24238 16711746
40.175365 -37.334648 44.295673 16711746
1.5304011 -10.789883 24.909412 16711746
19.864613 -17.450502 20.706369 16711746
38.47662 -46.5821 42.450771 16711746
-1.7086741 -17.263161 32.101425 16711746
24.597013 -25.034554 33.209656 16711746
33.341232 -28.869898 30.112801 16711746
27.783939 -28.651335 24.805149 16711746
29.257298 -25.888077 25.750505 16711746
33.766842 -30.916553 28.497931 16711746
14.417259 -16.069149 22.587065 16711746
30.360029 -27.374657 18.990211 16711746
20.230238 -15.721373 20.046362 16711746
34.420193 -33.63501 40.160076 16711746
4.0940585 -5.772542 25.209991 16711746
36.235397 -28.48951 31.711454 16711746
44.237648 -33.012138 43.980236 16711746
91.544754 -103.40884 75.789467 16711746
25.835991 -34.835995 25.822704 16711746
42.274162 -39.159649 45.077705 16711746
43.192318 -43.473278 62.112293 16711746
26.385824 -21.339518 23.238892 16711746
312.45398 -494.8006 149.46442 16711746
10.914917 -17.517628 25.382013 16711746
6.5017142 -10.34389 26.304325 16711746
1.9096693 -15.145802 28.112776 16711746
5.0412908 -9.7322788 26.489389 16711746
12.737018 -24.154758 36.373348 16711746
0.73975837 -13.808773 27.885162 16711746
11.666947 -13.196729 24.916422 16711746
5.4812965 -15.23546 28.087719 16711746
1.9607551 -10.436149 26.656559 16711746
-3.6614637 -14.165699 32.371277 16711746
11.750732 -20.498051 32.506699 16711746
4.9372888 -9.573452 26.402216 16711746
6.8430343 -9.7961302 26.55723 16711746
7.0859752 -12.325541 26.571033 16711746
2.8514972 -6.332849 25.447842 16711746
2.9993589 -6.5094771 25.552031 16711746
2.9221518 -8.5760479 26.841911 16711746
1.0288727 -11.006118 25.557896 16711746
6.194386 -9.5814247 27.013584 16711746
6.2009559 -10.789833 24.433193 16711746
-0.13334273 -14.842857 29.407763 16711746
5.7470813 -12.819156 26.627138 16711746
7.6465359 -17.984938 29.547314 16711746
3.4602907 -7.9661236 23.768513 16711746
23.383987 -21.161898 22.347376 16711746
7.276413 -8.8394213 24.944662 16711746
7.3880224 -8.9226761 25.004633 16711746
24.788599 -21.004837 23.323284 16711746
7.3443418 -8.8775558 24.966843 16711746
5.8709521 -7.5599952 24.273758 16711746
40.635559 -34.64782 49.046783 16711746
4.4493651 -12.095336 25.605812 16711746
8.4247885 -9.5908508 24.393452 16711746
5.9577775 -11.737716 25.607203 16711746
2.4805105 -4.8539667 24.176168 16711746
2.5368726 -7.8801637 26.837526 16711746
-1.6027006 -9.8430462 27.255806 16711746
6.7041469 -14.699255 30.603718 16711746
12.070957 -12.64442 24.681564 16711746
18.391514 -15.821645 21.186134 16711746
18.106684 -13.318388 26.812729 16711746
1.9406645 -21.008516 31.705772 16711746
12.902453 -16.896311 30.541639 16711746
12.859962 -14.830681 25.358488 16711746
20.678364 -29.780302 34.334156 16711746
2.0985589 -14.048013 36.036755 16711746
16.317924 -17.217379 26.491476 16711746
9.9600649 -11.413613 24.249939 16711746
5.8723059 -15.05232 26.615002 16711746
8.5634613 -14.657431 30.953814 16711746
1.9872651 -4.3120484 24.392437 16711746
3.0490508 -105.33811 51.379799 16711746
5.6327467 -7.4553156 24.867085 16711746
19.900635 -14.067236 27.469122 16711746
3.8536243 -10.251403 24.226904 16711746
13.357984 -13.255174 24.148952 16711746
24.148077 -16.890282 27.052061 16711746
9.2492857 -12.027687 24.796585 16711746
19.714037 -15.970359 28.365557 16711746
3.5169919 -9.5317698 28.093327 16711746
12.654627 -59.102848 48.953411 16711746
50.902073 -28.740561 33.21175 16711746
3.3009882 -10.233729 28.46007 16711746
65.586838 -101.56418 46.209473 16711746
3.6204889 -5.96278 25.286121 16711746
0.94462538 -3.8107672 25.202921 16711746
3.5299642 -10.300175 28.636345 16711746
30.871454 -30.752661 39.987305 16711746
28.255663 -29.239082 39.29113 16711746
22.79137 -22.284082 27.396381 16711746
28.592878 -30.843447 37.705048 16711746
19.020802 -26.102909 34.535408 16711746
37.147999 -22.238195 30.236485 16711746
6.0834708 -16.234821 27.523476 16711746
2.6341889 -7.253777 25.428692 16711746
3.1999755 -9.5353355 25.64653 16711746
3.0301144 -7.2354097 25.695454 16711746
3.6706994 -8.3657122 26.614925 16711746
2.1546507 -7.1351466 26.660814 16711746
2.793777 -6.932395 26.197985 16711746
0.64544237 -7.0454001 25.641026 16711746
5.1039429 -9.7256269 24.883179 16711746
4.7292252 -11.205633 24.646561 16711746
3.5241144 -9.6000538 24.817917 16711746
2.2173936 -7.8720365 26.851397 16711746
6.6525421 -9.6243153 27.687395 16711746
3.0246966 -8.0340128 26.545841 16711746
3.0739212 -8.1267281 27.062565 16711746
4.2838945 -10.116594 27.412418 16711746
6.8654957 -18.073259 32.977631 16711746
4.531147 -8.887805 26.196026 16711746
4.5449061 -6.5115395 24.261356 16711746
6.2269998 -8.1622667 25.296637 16711746
4.510757 -8.893961 25.042177 16711746
12.205483 -22.388147 29.537518 16711746
3.3185096 -7.7559495 26.4048 16711746
5.2432947 -9.0714378 26.663754 16711746
0.68507826 -7.309392 26.892881 16711746
0.36271754 -8.6789627 27.231121 16711746
0.3390238 -11.819348 29.889017 16711746
3.3979287 -10.266917 27.23933 16711746
3.5712252 -9.2528954 26.92366 16711746
4.8707347 -10.189426 25.890728 16711746
5.0398607 -8.979497 26.378832 16711746
4.1269703 -6.7666917 25.042965 16711746
5.2954512 -8.6904478 25.23731 16711746
6.9718447 -10.942066 27.113081 16711746
-1.9801198 -16.856724 32.213593 16711746
3.8837261 -9.4528084 24.757399 16711746
2.3735125 -9.3834496 26.284334 16711746
5.5685415 -10.933388 27.893164 16711746
0.96776289 -3.6862695 25.230743 16711746
4.1190643 -9.8692522 26.459085 16711746
4.2245045 -13.635548 26.768778 16711746
3.2493923 -8.0429659 26.070951 16711746
4.5154576 -7.6371627 25.410227 16711746
7.79742 -11.022104 27.820517 16711746
-0.09260948 -9.876358 27.838377 16711746
8.3426018 -17.547382 28.033741 16711746
-0.15832137 -14.069267 28.914408 16711746
4.9941301 -8.0796328 28.97846 16711746
5.0056567 -12.465041 26.555191 16711746
3.4568951 -9.5842133 27.465782 16711746
2.7737164 -7.4963408 26.006563 16711746
-0.34892845 -9.9656734 28.73251 16711746
2.2797868 -9.1209555 26.427401 16711746
1.7694901 -6.7534289 26.646597 16711746
2.0555301 -6.1940289 25.852293 16711746
2.014128 -6.9623232 27.531052 16711746
2.8033645 -8.4366417 26.812654 16711746
-0.31998199 -9.5046005 28.152044 16711746
0.55414283 -8.4428234 27.766281 16711746
-0.8424933 -8.4882593 28.000839 16711746
-1.8731697 -9.3198929 28.341166 16711746
2.2145638 -7.3792229 26.137487 16711746
-2.5713217 -10.738927 29.103241 16711746
-0.5901463 -10.505957 28.659328 16711746
1.7712982 -5.9021344 26.406534 16711746
3.8831465 -8.1196833 25.731867 16711746
1.6167988 -6.9313879 26.645559 16711746
3.4166691 -8.9967356 29.553782 16711746
2.1709366 -7.1053405 27.789333 16711746
4.3824325 -13.179358 30.253204 16711746
0.63774359 -6.7516222 25.91926 16711746
2.0675712 -7.2916136 26.638826 16711746
3.5488763 -9.3513975 24.864792 16711746
3.3205869 -7.6811376 26.096361 16711746
3.5029409 -9.1451893 26.000776 16711746
3.6692681 -8.8446779 26.614805 16711746
4.7019539 -6.4390116 27.771753 16711746
6.2113018 -7.5674691 28.204039 16711746
2.4380035 -7.350544 26.635277 16711746
2.6848152 -8.8378096 29.355391 16711746
37.167027 -33.020569 46.465096 16711746
40.768879 -43.374767 44.582897 16711746
19.17384 -19.590527 25.816416 16711746
26.596037 -26.424406 26.487768 16711746
17.840033 -14.747098 30.169056 16711746
-0.34898469 -9.9656525 28.747299 16711746
40.645844 -35.445103 50.009876 16711746
26.808908 -26.072641 39.26107 16711746
58.736347 -71.794159 58.104942 16711746
4.1631203 -7.9126902 24.12055 16711746
4.1122894 -6.9069567 26.324486 16711746
2.7327158 -7.3682079 26.748857 16711746
5.8468165 -7.8617949 27.896061 16711746
2.60601 -10.906346 30.728268 16711746
4.6172247 -8.3831968 24.034761 16711746
2.7771099 -9.642498 27.528492 16711746
3.078932 -7.9133816 26.064146 16711746
8.0692282 -10.680196 29.409803 16711746
5.0632606 -8.8554544 27.272402 16711746
6.9231811 -8.3533354 28.953768 16711746
3.3131158 -13.019649 31.336563 16711746
-0.90352547 -8.3983135 27.786678 16711746
4.9691682 -10.695699 27.60203 16711746
4.1816592 -7.2959843 26.429386 16711746
3.037055 -5.7786283 25.813791 16711746
2.3885024 -8.4252005 27.047251 16711746
0.1567045 -8.1345034 26.408001 16711746
3.20625 -11.25246 26.457134 16711746
-10.254423 -15.485665 42.948292 16711746
3.8665454 -7.55687 27.040106 16711746
7.7444553 -11.923932 30.464823 16711746
-0.23568667 -9.0283604 27.525053 16711746
4.2683544 -8.1054115 27.295141 16711746
7.3715596 -12.207504 28.609619 16711746
3.9326677 -6.0322843 27.084408 16711746
5.5409875 -8.8830147 26.980133 16711746
4.5711503 -10.892189 28.990641 16711746
5.3930278 -8.2783165 26.867506 16711746
3.6092994 -8.8419037 26.467731 16711746
2.1602321 -8.6091356 28.627188 16711746
7.9154811 -12.032686 30.539682 16711746
3.4030006 -6.6631365 26.810886 16711746
-1.8120494 -10.38416 28.172932 16711746
0.36884397 -8.1932049 26.181927 16711746
4.6832552 -7.9260612 28.430986 16711746
4.7291479 -10.143868 29.541317 16711746
3.2599068 -8.1491156 26.291664 16711746
2.7453785 -7.3643274 26.744785 16711746
5.2026534 -7.4562278 27.171597 16711746
4.6995006 -7.7436142 28.645519 16711746
-0.44225886 -8.4933853 27.447741 16711746
-0.39423513 -9.2195044 27.172268 16711746
3.4052093 -5.977572 26.631123 16711746
5.8897018 -9.881546 27.18047 16711746
4.5142083 -9.3352852 25.425716 16711746
8.154685 -23.898552 32.384743 16711746
0.77220798 -13.242681 29.219254 16711746
26.562021 -22.869967 33.18906 16711746
4.415957 -11.098042 29.418463 16711746
16.123732 -26.0214 32.143291 16711746
4.7829666 -8.463522 24.21154 16711746
3.5371559 -9.7714195 26.792429 16711746
3.989768 -5.782413 24.775896 16711746
5.1886854 -8.702239 25.371738 16711746
10.711424 -14.115662 29.765854 16711746
9.7875385 -11.951771 21.89967 16711746
2.5639293 -26.158833 34.394123 16711746
11.850484 -20.739758 32.440773 16711746
9.1544714 -16.272381 30.682499 16711746
17.698996 -14.238256 30.870749 16711746
15.284312 -13.147717 29.695839 16711746
18.529047 -17.326927 23.743814 16711746
11.928679 -13.496843 31.366642 16711746
13.560749 -20.900835 30.830084 16711746
6.0105915 -21.252886 34.776783 16711746
4.6374483 -9.2077799 26.236172 16711746
6.6064806 -8.8091106 28.156511 16711746
12.874411 -19.544497 30.295315 16711746
13.890182 -28.9359 24.762846 16711746
6.7050791 -15.202719 24.954021 16711746
15.308389 -15.965074 25.363272 16711746
17.376947 -28.500544 33.046551 16711746
16.013351 -23.76149 30.0881 16711746
14.698974 -21.720858 29.723595 16711746
19.490557 -35.338028 31.95842 16711746
12.889218 -34.09811 38.442627 16711746
24.665787 -37.234993 40.708324 16711746
12.87183 -26.226772 40.713554 16711746
24.619333 -28.800846 34.452682 16711746
47.948978 -66.260208 51.975952 16711746
37.962627 -53.836208 36.69072 16711746
22.414387 -26.194784 33.466167 16711746
-2.9827638 -29.120653 37.829479 16711746
7.7531247 -23.687534 31.874804 16711746
20.716845 -37.62775 32.553673 16711746
25.26157 -25.23505 39.501255 16711746
13.568311 -33.191601 41.344238 16711746
15.364209 -15.57466 26.472925 16711746
22.841637 -27.045113 44.349674 16711746
22.37685 -26.213596 37.555916 16711746
22.436821 -37.927341 37.183903 16711746
14.685047 -26.944441 31.922794 16711746
12.433578 -19.20196 29.30327 16711746
20.250864 -33.453011 35.352505 16711746
33.179287 -32.347046 33.179428 16711746
15.544602 -26.351469 25.414186 16711746
74.651604 -70.304909 67.320709 16711746
23.702263 -50.02314 44.499557 16711746
27.280039 -25.233387 37.282448 16711746
3.4103904 -23.670519 33.413391 16711746
32.451412 -23.146078 42.684963 16711746
58.612503 -54.477539 55.435902 16711746
13.047337 -59.890907 55.434174 16711746
20.376976 -21.291349 31.637287 16711746
35.138931 -38.012417 41.900898 16711746
33.64296 -50.11076 40.001049 16711746
35.332058 -54.044102 43.950253 16711746
50.50753 -52.51878 49.342564 16711746
1.4674083 -5.7883697 27.081282 16711746
31.010731 -27.776329 24.069485 16711746
5.3176856 -15.858334 32.346893 16711746
16.529533 -15.637875 27.123745 16711746
28.921719 -42.240341 36.285099 16711746
31.786486 -49.700211 42.351078 16711746
32.845684 -28.096394 30.970678 16711746
8.1447678 -15.748914 29.841503 16711746
5.1124578 -16.326738 28.327457 16711746
12.86974 -14.938272 33.801147 16711746
10.608489 -17.909515 30.545176 16711746
7.8436861 -15.781197 30.159079 16711746
8.5893202 -16.553434 30.029795 16711746
10.876794 -15.866186 30.66544 16711746
3.9416838 -12.832642 29.246109 16711746
14.743879 -16.360321 28.63258 16711746
14.099872 -17.149147 29.718737 16711746
5.602654 -13.565605 32.091206 16711746
19.015984 -23.25086 28.476311 16711746
18.213438 -15.665229 39.281792 16711746
13.050991 -16.106159 29.473034 16711746
9.9963417 -18.266848 31.777525 16711746
17.950069 -15.438662 39.049648 16711746
5.8072639 -15.332509 30.801798 16711746
13.296442 -19.032373 31.444298 16711746
8.535677 -16.227509 28.03783 16711746
7.3068199 -15.623708 27.860447 16711746
10.868299 -18.038015 30.546484 16711746
12.001537 -17.272619 28.267042 16711746
9.7047758 -14.114802 29.672314 16711746
16.623224 -11.933359 34.777496 16711746
11.8663 -13.740871 32.492031 16711746
-3.1326661 -20.696157 34.254814 16711746
10.563245 -14.582808 27.690874 16711746
8.7777138 -13.78006 28.359921 16711746
8.1814137 -13.894383 25.90036 16711746
22.733267 -21.115519 42.923264 16711746
5.7914381 -13.844113 27.296936 16711746
13.414442 -14.253848 34.078049 16711746
6.3800297 -13.024593 27.814106 16711746
20.149937 -15.317277 27.851173 16711746
9.592103 -15.932605 30.121298 16711746
3.4980106 -11.668995 30.847633 16711746
17.22086 -15.138565 31.814686 16711746
6.4834261 -14.099012 30.056494 16711746
7.7266498 -13.038804 25.120348 16711746
6.6441846 -10.304603 31.71772 16711746
3.8829589 -10.133357 30.425131 16711746
9.1961975 -14.67875 33.265629 16711746
5.9316158 -14.837556 34.136906 16711746
19.06049 -25.724173 32.505066 16711746
53.623192 -44.17519 37.132717 16711746
25.975981 -27.358685 33.603752 16711746
24.509502 -24.424772 29.61631 16711746
9.9113293 -16.439238 30.776745 16711746
-1.517226 -16.167072 29.974653 16711746
-7.7977629 -25.246517 33.425381 16711746
10.343004 -13.964431 26.689379 16711746
7.5207319 -15.453279 30.842134 16711746
7.2759552 -11.367844 25.756168 16711746
8.1429148 -12.510435 26.123095 16711746
6.1295547 -16.644808 28.946316 16711746
17.792366 -15.429721 33.491821 16711746
64.509514 -47.165031 71.900909 16711746
-5.2970438 -21.277924 49.060387 16711746
3.3704934 -6.2007465 26.374582 16711746
11.592002 -24.004442 34.2421 16711746
2.075063 -8.4847832 29.627747 16711746
7.543529 -13.342799 26.026043 16711746
4.6813269 -11.548974 27.963104 16711746
14.213556 -16.014091 28.554472 16711746
8.4177923 -12.073118 25.023264 16711746
26.260519 -23.953465 45.636116 16711746
3.9966586 -11.038956 31.586489 16711746
4.6822205 -11.868443 31.742348 16711746
2.014333 -8.7241678 28.706446 16711746
3.9864249 -10.264468 27.764942 16711746
9.1725702 -29.380066 34.334587 16711746
-1.6958003 -16.576134 30.993336 16711746
0.34033716 -10.134638 32.106953 16711746
-0.81108272 -13.396121 30.284998 16711746
14.375455 -21.687546 33.242928 16711746
3.3230753 -10.654498 30.650875 16711746
3.8751574 -11.825254 28.759722 16711746
2.3371062 -13.399611 30.148487 16711746
2.9140947 -8.9452009 27.845997 16711746
3.1447287 -9.6685896 27.896082 16711746
7.8892336 -13.610253 25.19519 16711746
3.1341462 -8.2876387 29.540522 16711746
2.3051198 -8.056983 29.145025 16711746
2.140413 -7.1124907 28.534996 16711746
1.8611927 -7.3492508 28.789249 16711746
3.3089371 -9.7899599 29.258327 16711746
2.1517761 -8.3003416 28.519941 16711746
1.6186587 -10.235892 29.14723 16711746
0.93902338 -8.1053391 28.433361 16711746
2.4360671 -9.1349792 28.545652 16711746
0.59711313 -8.6280136 31.269793 16711746
7.782783 -13.99422 28.626383 16711746
2.5971131 -5.3859787 27.81731 16711746
6.1719403 -12.003007 26.957365 16711746
6.883841 -10.7019 26.281485 16711746
6.906642 -12.727484 26.217712 16711746
11.398758 -23.423264 31.313107 16711746
6.3832555 -13.159776 26.441517 16711746
8.1487484 -14.645748 29.040705 16711746
6.7884827 -12.402975 28.621836 16711746
1.7483017 -9.5987797 28.607582 16711746
5.8802714 -11.936918 25.959085 16711746
8.5479717 -13.057508 27.27482 16711746
3.8431621 -11.67826 27.662848 16711746
5.0465689 -10.074465 28.190893 16711746
4.5013633 -9.158967 28.305077 16711746
1.6337341 -6.577579 28.23031 16711746
4.7387533 -9.5392313 28.130898 16711746
3.544734 -8.1987247 29.056532 16711746
6.3086696 -12.346147 28.443058 16711746
5.8236437 -11.906076 28.18331 16711746
2.2687564 -7.6342268 28.870552 16711746
3.2704539 -8.1281605 29.9142 16711746
2.2911243 -7.8210363 28.933754 16711746
2.3809967 -8.7780132 29.736015 16711746
