# .PCD v.7 - Point Cloud Data file format
VERSION .7
FIELDS x y z rgb
SIZE 4 4 4 4
TYPE F F F F
COUNT 1 1 1 1
WIDTH 283
HEIGHT 1
VIEWPOINT 0 0 0 1 0 0 0
POINTS 283
DATA ascii

 0.0258200 -0.0742869 0.0041698 16777215
 0.0265122 -0.0752721 0.0053969 16777215
 0.0271181 -0.0761556 0.0067126 16777215
 0.0285401 -0.0836655 0.0079559 16777215
 0.0286692 -0.0777345 0.0095175 16777215
 0.0286517 -0.0781197 0.0097162 16777215
 0.0289199 -0.0785021 0.0106801 16777215
 0.0289179 -0.0785100 0.0106828 16777215
 0.0291819 -0.0794864 0.0116453 16777215
 0.0291213 -0.0794787 0.0121669 16777215
 0.0295659 -0.0798949 0.0131996 16777215
 0.0310419 -0.0803230 0.0163633 16777215
 0.0342968 -0.0791190 0.0241136 16777215
 0.0316424 -0.0795362 0.0278164 16777215
 0.0327445 -0.0808255 0.0308486 16777215
 0.0386786 -0.0797016 0.0398710 16777215
 0.0464076 -0.0785092 0.0508976 16777215
 0.0546404 -0.0809719 0.0635810 16777215
 0.0604016 -0.0785066 0.0771266 16777215
 0.0606862 -0.0747365 0.0913498 16777215
 0.0782036 -0.0699276 0.1151260 16777215
 0.0832839 -0.0618074 0.1357917 16777215
 0.1014093 -0.0700092 0.1648013 16777215
 0.1126543 -0.0624917 0.1868144 16777215
 0.1234593 -0.0571400 0.2268675 16777215
 0.1252460 -0.0368187 0.2346762 16777215
 0.1306362 -0.0450520 0.2658116 16777215
 0.1508709 -0.0506230 0.2977717 16777215
 0.1388903 -0.0487428 0.3309001 16777215
 0.1673618 -0.0619066 0.3516215 16777215
 0.1633403 -0.0600628 0.3759806 16777215
 0.1878021 -0.0305919 0.3928010 16777215
 0.1980555 -0.0318539 0.4100880 16777215
 0.1987825 -0.0013526 0.4146186 16777215
 0.1976374 -0.0153779 0.4252185 16777215
 0.2130873 -0.0104729 0.4591790 16777215
 0.2203838 0.0010298 0.4925875 16777215
 0.2462379 0.0146763 0.5257862 16777215
 0.2376384 0.0203256 0.5436644 16777215
 0.2407864 0.0126218 0.5462350 16777215
 0.2358052 0.0026856 0.5568200 16777215
 0.2363963 -0.0010093 0.5715803 16777215
 0.2454258 -0.0022828 0.5766388 16777215
 0.2415482 -0.0161835 0.5952615 16777215
 0.2430108 -0.0234616 0.6041108 16777215
 0.2437579 -0.0254546 0.6159800 16777215
 0.2562150 -0.0317235 0.6300804 16777215
 0.2593127 -0.0267273 0.6534991 16777215
 0.2568528 -0.0249178 0.6714178 16777215
 0.2849876 -0.0328571 0.6813513 16777215
 0.2910648 -0.0299663 0.6917978 16777215
 0.3006353 -0.0332197 0.7181311 16777215
 0.3070347 -0.0407254 0.7341895 16777215
 0.3092085 -0.0215591 0.7618278 16777215
 0.3112569 -0.0189458 0.7708833 16777215
 0.3311737 -0.0268762 0.7932019 16777215
 0.3332614 -0.0353215 0.8243240 16777215
 0.3467525 -0.0425004 0.8286183 16777215
 0.3444773 -0.0283633 0.8455613 16777215
 0.3333413 -0.0242407 0.8682331 16777215
 0.3637062 -0.0181741 0.8942552 16777215
 0.3478031 -0.0077034 0.9227532 16777215
 0.3640182 -0.0145995 0.9250768 16777215
 0.3589967 -0.0063233 0.9363688 16777215
 0.3581035 -0.0012974 0.9628464 16777215
 0.3619354 -0.0144996 0.9749699 16777215
 0.3656287 -0.0096054 0.9876611 16777215
 0.3709698 -0.0007699 1.0020475 16777215
 0.3729344 -0.0068561 1.0128669 16777215
 0.3882152 0.0003037 1.0377977 16777215
 0.3911746 -0.0025338 1.0470884 16777215
 0.3978979 0.0052347 1.0590618 16777215
 0.4014963 0.0070181 1.0683877 16777215
 0.4062389 0.0016154 1.0754153 16777215
 0.4250350 0.0062507 1.1113951 16777215
 0.4322962 0.0070843 1.1131771 16777215
 0.4380628 0.0008726 1.1204203 16777215
 0.4437193 -0.0045207 1.1320556 16777215
 0.4463938 -0.0041903 1.1392063 16777215
 0.4482035 -0.0020104 1.1488616 16777215
 0.4557402 -0.0039442 1.1507499 16777215
 0.4573950 -0.0090440 1.1650960 16777215
 0.4524159 0.0068278 1.1689068 16777215
 0.4650961 -0.0062891 1.1838313 16777215
 0.4757155 -0.0061110 1.1862096 16777215
 0.4832320 0.0038345 1.1924276 16777215
 0.4829568 0.0134543 1.2032042 16777215
 0.4960271 0.0092070 1.2153130 16777215
 0.4982351 0.0108554 1.2370636 16777215
 0.5020786 0.0199217 1.2593546 16777215
 0.5059784 0.0252891 1.2753513 16777215
 0.5132384 0.0301737 1.2867277 16777215
 0.4824291 0.0458863 1.3147947 16777215
 0.5051883 0.0516840 1.3291790 16777215
 0.5095926 0.0411120 1.3361256 16777215
 0.5036586 0.0409459 1.3451535 16777215
 0.5080631 0.0378688 1.3550632 16777215
 0.5011387 0.0481458 1.3608859 16777215
 0.5267322 0.0546717 1.3781329 16777215
 0.5236962 0.0559357 1.3991592 16777215
 0.5277165 0.0572529 1.4042463 16777215
 0.5340183 0.0503310 1.4166527 16777215
 0.5458708 0.0546263 1.4375930 16777215
 0.5450677 0.0560120 1.4498543 16777215
 0.5346355 0.0662564 1.4636594 16777215
 0.5385447 0.0706452 1.4739071 16777215
 0.5530790 0.0799047 1.4798406 16777215
 0.5550343 0.0801486 1.4901569 16777215
 0.5594728 0.0724288 1.5076635 16777215
 0.5674652 0.0643156 1.5109829 16777215
 0.5581787 0.0888591 1.5411413 16777215
 0.5684333 0.1034219 1.5605993 16777215
 0.5740994 0.0956843 1.5633948 16777215
 0.5826197 0.1010103 1.5744905 16777215
 0.5786026 0.1067464 1.5915898 16777215
 0.5897269 0.1065713 1.5939205 16777215
 0.6009700 0.1052210 1.6135703 16777215
 0.5931327 0.1009361 1.6341445 16777215
 0.6077885 0.1179492 1.6451602 16777215
 0.6109737 0.1189443 1.6552482 16777215
 0.6145602 0.1185695 1.6700363 16777215
 0.6205672 0.1132759 1.6809685 16777215
 0.6217496 0.1137633 1.6881742 16777215
 0.6222211 0.1166837 1.6885586 16777215
 0.6244767 0.1131927 1.7097063 16777215
 0.6358435 0.1190820 1.7200677 16777215
 0.6414478 0.1186862 1.7350304 16777215
 0.6400167 0.1164213 1.7472186 16777215
 0.6412801 0.1137984 1.7543366 16777215
 0.6454776 0.1090986 1.7625072 16777215
 0.6441510 0.1052634 1.7757834 16777215
 0.6490559 0.0997299 1.7925780 16777215
 0.6338502 0.1082695 1.8128515 16777215
 0.6528296 0.1087432 1.8155825 16777215
 0.6637259 0.1194674 1.8275659 16777215
 0.6656729 0.1326137 1.8500302 16777215
 0.6692405 0.1269647 1.8562132 16777215
 0.6686605 0.1273398 1.8720894 16777215
 0.6763625 0.1297234 1.8752337 16777215
 0.6873460 0.1249126 1.8866659 16777215
 0.7010030 0.1291827 1.9098690 16777215
 0.7141336 0.1204289 1.9184947 16777215
 0.7144572 0.1119566 1.9188483 16777215
 0.7231377 0.1127325 1.9324828 16777215
 0.7266955 0.1144443 1.9415052 16777215
 0.7250794 0.1154162 1.9480066 16777215
 0.7284414 0.1175858 1.9578629 16777215
 0.7152079 0.1266346 1.9603097 16777215
 0.7150541 0.1406700 1.9791901 16777215
 0.7126288 0.1311420 1.9980289 16777215
 0.7207239 0.1283232 2.0036776 16777215
 0.7258851 0.1246337 2.0064735 16777215
 0.7288980 0.1277983 2.0194559 16777215
 0.7340558 0.1245573 2.0244837 16777215
 0.7242808 0.1383881 2.0457213 16777215
 0.7272769 0.1396805 2.0728278 16777215
 0.7372003 0.1398974 2.0815470 16777215
 0.7383426 0.1433368 2.0879278 16777215
 0.7300071 0.1508523 2.1045146 16777215
 0.7243286 0.1411295 2.1047835 16777215
 0.7497663 0.1408709 2.1120787 16777215
 0.7468413 0.1366318 2.1201019 16777215
 0.7339832 0.1422158 2.1193416 16777215
 0.7430863 0.1426229 2.1238348 16777215
 0.7414293 0.1462494 2.1242728 16777215
 0.7475556 0.1444579 2.1282842 16777215
 0.7445118 0.1424805 2.1279869 16777215
 0.7421184 0.1443892 2.1294107 16777215
 0.7449324 0.1447166 2.1312456 16777215
 0.7467223 0.1450777 2.1334639 16777215
 0.7491186 0.1464838 2.1348608 16777215
 0.7502413 0.1462402 2.1366091 16777215
 0.7507779 0.1464727 2.1395929 16777215
 0.7522305 0.1467499 2.1422315 16777215
 0.7539966 0.1494384 2.1441274 16777215
 0.7555537 0.1494638 2.1452127 16777215
 0.7567891 0.1511326 2.1475332 16777215
 0.7573058 0.1535350 2.1500459 16777215
 0.7591249 0.1522707 2.1519289 16777215
 0.7601178 0.1527128 2.1542311 16777215
 0.7623312 0.1524712 2.1557927 16777215
 0.7607921 0.1552345 2.1577525 16777215
 0.7642300 0.1530776 2.1601388 16777215
 0.7645995 0.1555635 2.1606319 16777215
 0.7656463 0.1566968 2.1612275 16777215
 0.7677543 0.1567813 2.1624894 16777215
 0.7702679 0.1545430 2.1680222 16777215
 0.7716565 0.1532727 2.1689532 16777215
 0.7723889 0.1551982 2.1677237 16777215
 0.7709032 0.1519616 2.1727695 16777215
 0.7728394 0.1545922 2.1737576 16777215
 0.7710701 0.1531659 2.1771643 16777215
 0.7718260 0.1537473 2.1763041 16777215
 0.7731701 0.1550483 2.1787372 16777215
 0.7743555 0.1554077 2.1798577 16777215
 0.7743962 0.1564965 2.1815898 16777215
 0.7743301 0.1563501 2.1832697 16777215
 0.7752479 0.1598741 2.1847262 16777215
 0.7756716 0.1591003 2.1859512 16777215
 0.7759156 0.1596764 2.1876733 16777215
 0.7770365 0.1606092 2.1902261 16777215
 0.7775188 0.1597977 2.1917157 16777215
 0.7789049 0.1596506 2.1928926 16777215
 0.7800053 0.1605053 2.1931901 16777215
 0.7788337 0.1615806 2.1940038 16777215
 0.7798537 0.1636065 2.1965063 16777215
 0.7814795 0.1647609 2.1968541 16777215
 0.7803867 0.1669445 2.1980615 16777215
 0.7796738 0.1667883 2.1998198 16777215
 0.7812319 0.1688032 2.2019937 16777215
 0.7817811 0.1687618 2.2030137 16777215
 0.7823344 0.1682467 2.2038662 16777215
 0.7831812 0.1683198 2.2040348 16777215
 0.7834724 0.1683054 2.2054648 16777215
 0.7839522 0.1690884 2.2058415 16777215
 0.7853126 0.1679590 2.2078166 16777215
 0.7848061 0.1706558 2.2087712 16777215
 0.7854263 0.1698221 2.2095385 16777215
 0.7860693 0.1732602 2.2095842 16777215
 0.7877561 0.1741172 2.2112586 16777215
 0.7868837 0.1738962 2.2126396 16777215
 0.7876696 0.1745944 2.2144437 16777215
 0.7887954 0.1735039 2.2151413 16777215
 0.7880899 0.1738088 2.2162001 16777215
 0.7889297 0.1759858 2.2182565 16777215
 0.7895122 0.1763568 2.2196608 16777215
 0.7880237 0.1779572 2.2227352 16777215
 0.7884542 0.1769561 2.2242079 16777215
 0.7890446 0.1756903 2.2250044 16777215
 0.7895592 0.1762830 2.2258232 16777215
 0.7902305 0.1767579 2.2276897 16777215
 0.7913563 0.1755679 2.2294984 16777215
 0.7914491 0.1747196 2.2305193 16777215
 0.7909714 0.1763346 2.2320757 16777215
 0.7933680 0.1741494 2.2324095 16777215
 0.7922335 0.1755699 2.2347491 16777215
 0.7906883 0.1776757 2.2368126 16777215
 0.7942252 0.1769221 2.2369485 16777215
 0.7973105 0.1760322 2.2392154 16777215
 0.7962203 0.1770854 2.2399821 16777215
 0.7954557 0.1767130 2.2429571 16777215
 0.7974977 0.1766523 2.2424355 16777215
 0.7955150 0.1752789 2.2436514 16777215
 0.7963675 0.1748848 2.2449203 16777215
 0.7974830 0.1749870 2.2458558 16777215
 0.7984684 0.1748229 2.2469778 16777215
 0.7985820 0.1743128 2.2476172 16777215
 0.7989690 0.1747780 2.2475679 16777215
 0.7977622 0.1747600 2.2513118 16777215
 0.7991898 0.1749908 2.2517753 16777215
 0.7970747 0.1757673 2.2513921 16777215
 0.7984682 0.1748872 2.2532039 16777215
 0.7989353 0.1755856 2.2532492 16777215
 0.7984239 0.1786680 2.2533696 16777215
 0.7982502 0.1787316 2.2536721 16777215
 0.7960112 0.1812463 2.2536168 16777215
 0.7992701 0.1810629 2.2538228 16777215
 0.7990106 0.1809139 2.2547896 16777215
 0.8000160 0.1810101 2.2554939 16777215
 0.7987108 0.1803232 2.2562487 16777215
 0.7990754 0.1803232 2.2561707 16777215
 0.8022366 0.1806133 2.2586641 16777215
 0.8024160 0.1808695 2.2599015 16777215
 0.8018355 0.1811297 2.2599521 16777215
 0.8027719 0.1806899 2.2598598 16777215
 0.8029501 0.1821002 2.2607677 16777215
 0.8045624 0.1815079 2.2623734 16777215
 0.8052406 0.1817254 2.2626336 16777215
 0.8055605 0.1805525 2.2627110 16777215
 0.8057880 0.1810217 2.2631989 16777215
 0.8061057 0.1816056 2.2645526 16777215
 0.8066580 0.1817662 2.2654302 16777215
 0.8068336 0.1821022 2.2660451 16777215
 0.8064055 0.1833484 2.2660413 16777215
 0.8045703 0.1833415 2.2683794 16777215
 0.8049651 0.1840409 2.2692707 16777215
 0.8052728 0.1835105 2.2705412 16777215
 0.8050858 0.1836078 2.2707369 16777215
 0.8061070 0.1834428 2.2708490 16777215
 0.8072163 0.1843531 2.2717323 16777215
 0.8081101 0.1861125 2.2743406 16777215
 0.8087471 0.1871700 2.2766342 16777215
 0.8102260 0.1876345 2.2782774 16777215
