# .PCD v.7 - Point Cloud Data file format
VERSION .7
FIELDS x y z rgb
SIZE 4 4 4 4
TYPE F F F F
COUNT 1 1 1 1
WIDTH 1192
HEIGHT 1
VIEWPOINT 0 0 0 1 0 0 0
POINTS 1192
DATA ascii
0.2956214 0.0808940 0.8047977 16711746
0.2694992 0.0855642 0.8118973 16711746
0.2819341 0.0964991 0.7864602 16711746
0.2702107 0.1394288 0.7535760 16711746
0.2673487 0.1339588 0.7564011 16711746
0.2618868 0.1062435 0.7653348 16711746
0.2688934 0.1347388 0.7603235 16711746
0.2751428 0.0987082 0.8988065 16711746
0.2717285 0.0907559 0.8662027 16711746
0.2442541 0.0808311 0.8370966 16711746
0.2945068 0.1120955 0.7824582 16711746
0.2889038 0.1092013 0.7669613 16711746
0.2428587 0.1056408 0.7727085 16711746
0.2424233 0.1049199 0.7730566 16711746
0.2784401 0.1067849 0.7668807 16711746
0.2768120 0.1084228 0.7691873 16711746
0.2766262 0.1236281 0.7746326 16711746
0.2439791 0.1068853 0.7618030 16711746
0.2612712 0.1098797 0.7638019 16711746
0.2625300 0.1025021 0.7709030 16711746
0.2472599 0.1211704 0.7542905 16711746
0.2709619 0.1202377 0.7740368 16711746
0.2518278 0.1059927 0.7670883 16711746
0.2646932 0.1099921 0.7746792 16711746
0.2529808 0.1151180 0.7797844 16711746
0.2882791 0.1008757 0.7718381 16711746
0.2627553 0.1023710 0.7735370 16711746
0.2642874 0.1187522 0.7602670 16711746
0.2497856 0.1105304 0.7704941 16711746
0.2560859 0.1109259 0.7779906 16711746
0.2668690 0.1002230 0.7698229 16711746
0.2562038 0.1014996 0.7724891 16711746
0.2751493 0.1208597 0.7661846 16711746
0.2519120 0.1121169 0.7623840 16711746
0.2431565 0.1158558 0.7650613 16711746
0.2838751 0.1073867 0.7808019 16711746
0.2913685 0.1078557 0.7726800 16711746
0.2731876 0.1087039 0.7783327 16711746
0.2737736 0.1150424 0.7728903 16711746
0.2723019 0.1144188 0.7727773 16711746
0.2897151 0.1235008 0.7638519 16711746
0.2230057 0.0958331 0.7844139 16711746
0.2658537 0.1038293 0.7648905 16711746
0.2785373 0.1429995 0.7514911 16711746
0.2574308 0.1085277 0.7880930 16711746
0.2533154 0.1177804 0.7686312 16711746
0.2508562 0.1148296 0.7771727 16711746
0.2506669 0.1090465 0.7658786 16711746
0.2448964 0.1179549 0.7640212 16711746
0.2838124 0.1053195 0.7738307 16711746
0.2851537 0.1296268 0.7799705 16711746
0.2551187 0.1048605 0.7801392 16711746
0.2535997 0.1081221 0.7781533 16711746
0.2537596 0.1045460 0.7783253 16711746
0.2765931 0.1266862 0.7649751 16711746
0.2523174 0.1164162 0.7694412 16711746
0.2498150 0.1116924 0.7828028 16711746
0.2498832 0.1166400 0.7676035 16711746
0.2978965 0.1220009 0.7662305 16711746
0.2500167 0.1133976 0.7780364 16711746
0.2707123 0.1127831 0.7690238 16711746
0.2964455 0.1184027 0.7645151 16711746
0.2659839 0.1150567 0.7714527 16711746
0.2488329 0.1045575 0.7785159 16711746
0.2616186 0.1158693 0.7665216 16711746
0.2596672 0.1106599 0.7618639 16711746
0.2610539 0.1083906 0.7723166 16711746
0.2330148 0.1001909 0.7819173 16711746
0.2376394 0.1119078 0.7764944 16711746
0.2854785 0.0980856 0.7970580 16711746
0.3094324 0.0999620 0.7790282 16711746
0.2390451 0.1132550 0.7755233 16711746
0.2724752 0.1175297 0.7632968 16711746
0.2805744 0.1023531 0.7884572 16711746
0.2764610 0.1130959 0.7669326 16711746
0.3024261 0.0921496 0.7950475 16711746
0.2520787 0.1116863 0.7900327 16711746
0.2500817 0.0904830 0.8175753 16711746
0.2162496 0.1238388 0.8145240 16711746
0.2800672 0.1084430 0.7892315 16711746
0.3037186 0.0902141 0.7969490 16711746
0.2335931 0.1036755 0.8011286 16711746
0.3072880 0.0895478 0.8039106 16711746
0.2407558 0.0587471 0.9370486 16711746
0.2570144 0.0865221 0.8367056 16711746
0.2748593 0.0860210 0.8687268 16711746
0.2421902 0.0932355 0.8963457 16711746
0.2553970 0.0758231 0.8414864 16711746
0.2491515 0.0623091 0.8690506 16711746
0.2920095 0.0732343 0.8217694 16711746
0.2518645 0.0890838 0.8140470 16711746
0.2274496 0.0964193 0.7812588 16711746
0.2607408 0.1124930 0.7616707 16711746
0.2880674 0.0935618 0.7980433 16711746
0.2889053 0.0912762 0.8001567 16711746
0.2922927 0.1159130 0.7746324 16711746
0.3182556 0.0995152 0.7918120 16711746
0.2394520 0.0994234 0.7834034 16711746
0.2303196 0.1011329 0.7797183 16711746
0.2671776 0.1027489 0.8143519 16711746
0.2826839 0.1361176 0.7548790 16711746
0.2632792 0.1086358 0.8034057 16711746
0.2931496 0.1125413 0.7722221 16711746
0.2725788 0.1448478 0.7504063 16711746
0.3048742 0.1016110 0.8376656 16711746
0.2724323 0.1397970 0.7550654 16711746
0.2626343 0.1023710 0.8036152 16711746
0.2651239 0.1228034 0.7583358 16711746
0.2737378 0.1284258 0.7740324 16711746
0.2457892 0.0990154 0.7925370 16711746
0.2506207 0.1407390 0.7777404 16711746
0.2637363 0.1202166 0.7629207 16711746
0.2765859 0.1113572 0.7655695 16711746
0.2753875 0.1300498 0.7753328 16711746
0.2714382 0.1298867 0.7785184 16711746
0.2807875 0.1371867 0.7812335 16711746
0.2843175 0.1394009 0.7751867 16711746
0.2738696 0.1361913 0.7655427 16711746
0.2655717 0.1019255 0.7656391 16711746
0.3034753 0.1015011 0.7857732 16711746
0.2626744 0.1275594 0.7779766 16711746
0.2794580 0.1169380 0.7647280 16711746
0.2558856 0.1087195 0.7896930 16711746
0.2878712 0.1125726 0.7963148 16711746
0.2647225 0.1123477 0.7692908 16711746
0.2746435 0.1221467 0.7617360 16711746
0.2928568 0.1119269 0.7753684 16711746
0.2597653 0.1303303 0.7540499 16711746
0.3015551 0.0923788 0.7904986 16711746
0.2729781 0.1448414 0.7530512 16711746
0.2616370 0.1140981 0.7598906 16711746
0.2673515 0.1385775 0.7522325 16711746
0.2840590 0.1062867 0.7889533 16711746
0.2917858 0.0947554 0.7999516 16711746
0.2924513 0.1005378 0.7935153 16711746
0.2584861 0.0687559 0.8860025 16711746
0.2292094 0.0645463 0.8218459 16711746
0.2704492 0.0690813 0.8761759 16711746
0.2424988 0.0903992 0.7987874 16711746
0.2494376 0.1025056 0.8068920 16711746
0.2650527 0.1310394 0.7638515 16711746
0.2858492 0.1202596 0.7675378 16711746
0.2714631 0.1422500 0.7567610 16711746
0.2729745 0.1286151 0.7743288 16711746
0.2729879 0.1315580 0.7572364 16711746
0.2639726 0.1331303 0.7612091 16711746
0.2754516 0.1377316 0.7540377 16711746
0.2726759 0.1464353 0.7509452 16711746
0.2591484 0.1220514 0.7649665 16711746
0.2768051 0.1359142 0.7580174 16711746
0.2534482 0.1139052 0.7890386 16711746
0.2382494 0.1078273 0.7741263 16711746
0.2559585 0.1112685 0.7629745 16711746
0.2719750 0.1038478 0.7674555 16711746
0.2506126 0.1093508 0.7926318 16711746
0.2774961 0.1097259 0.7665982 16711746
0.2616257 0.1108350 0.7708294 16711746
0.2639592 0.1166144 0.7698364 16711746
0.2488094 0.1150667 0.7682702 16711746
0.2625415 0.1136785 0.7682417 16711746
0.2636832 0.1157499 0.7728135 16711746
0.2465843 0.1068717 0.7800272 16711746
0.2360195 0.1089699 0.7683036 16711746
0.2817121 0.0936324 0.7791625 16711746
0.2922467 0.1114795 0.7748734 16711746
0.2350101 0.1226922 0.7948318 16711746
0.2527301 0.1058486 0.7739689 16711746
0.2801937 0.1186797 0.7930012 16711746
0.2760924 0.1287794 0.7769344 16711746
0.2598951 0.1056820 0.7726083 16711746
0.2641430 0.1180474 0.7684181 16711746
0.2600513 0.1315168 0.7546252 16711746
0.2520961 0.1146285 0.7739802 16711746
0.2538896 0.1046839 0.7671081 16711746
0.2582627 0.1051411 0.7658130 16711746
0.2740403 0.0991167 0.7704893 16711746
0.2727621 0.0942578 0.7693509 16711746
0.2491292 0.1008050 0.7694086 16711746
0.2463818 0.1077495 0.7682314 16711746
0.2819894 0.0997364 0.7765476 16711746
0.2550084 0.1032976 0.7780257 16711746
0.2426499 0.1065139 0.7708820 16711746
0.2720696 0.1103258 0.7667255 16711746
0.2460849 0.1225841 0.7545001 16711746
0.2779697 0.1070203 0.7663255 16711746
0.2564794 0.1191842 0.7597382 16711746
0.2695328 0.1160137 0.7684476 16711746
0.2493966 0.1015613 0.7691305 16711746
0.2535698 0.1132703 0.7725105 16711746
0.2611160 0.1029345 0.7773899 16711746
0.2708400 0.1065958 0.7687381 16711746
0.2543111 0.1016091 0.7791364 16711746
0.2917807 0.1133092 0.7709478 16711746
0.2520345 0.1063434 0.7850890 16711746
0.2711444 0.1102940 0.7669141 16711746
0.2578336 0.0968855 0.7757362 16711746
0.2786216 0.1012899 0.7697127 16711746
0.2836278 0.1074609 0.7934516 16711746
0.2589863 0.1002872 0.7772437 16711746
-0.1482448 -0.9011676 0.4860677 16711746
-0.1798654 -0.6044192 0.7243108 16711746
-0.1036566 -0.7053671 0.5069342 16711746
-0.5444639 -0.6196085 0.4895322 16711746
-0.2379919 -0.5783567 0.7693097 16711746
0.3365310 -0.6405222 0.7133151 16711746
0.1990741 -0.6219478 0.3690526 16711746
0.3755383 -0.4032166 0.7050767 16711746
0.0472386 -1.1160214 0.5324953 16711746
0.1787220 -0.8556646 0.4487838 16711746
0.4984277 -0.7049751 0.5953922 16711746
0.3312943 -0.4995732 0.6569791 16711746
0.1358616 -0.3898258 0.8387927 16711746
0.2797988 -0.1586958 0.6855546 16711746
0.0588914 -0.3596664 0.6219758 16711746
0.6647830 -0.3469470 0.6437767 16711746
0.2525662 -0.5538117 0.6169441 16711746
0.0990489 -0.2866127 0.3898962 16711746
0.0598524 -0.3345975 0.2883408 16711746
0.2192802 -0.3135146 0.3100887 16711746
-0.2241954 -0.4891755 0.6441509 16711746
0.1154532 -0.2490020 0.5540389 16711746
0.2721462 -0.3364197 0.6981683 16711746
-0.3430181 -0.6538604 0.4041994 16711746
0.0979094 -0.3035269 0.2710834 16711746
-0.2918147 -0.7796274 0.3797921 16711746
0.1696171 -0.2012542 0.2103556 16711746
0.4395362 -0.4158248 0.4557331 16711746
-0.0521920 -0.4988815 0.2492092 16711746
0.1762898 -0.3833939 0.3167019 16711746
0.2508093 -0.5629656 0.6384143 16711746
0.2404777 -0.6722100 0.4407520 16711746
0.0403814 -0.5505607 0.4925359 16711746
0.2962627 -0.2344308 0.7363231 16711746
0.3055685 -0.9439813 1.1480129 16711746
-0.2446539 -0.4552104 0.5635065 16711746
-0.3463650 -0.2686178 0.8965144 16711746
0.3010949 -0.4559895 0.8012769 16711746
0.3443653 -0.2571922 0.4609753 16711746
0.3368482 -0.5436772 0.7602558 16711746
0.3051963 -0.2595237 0.4074748 16711746
0.1322458 -0.4758037 0.9567441 16711746
0.4181344 -1.4989491 1.7735448 16711746
0.2868947 -0.4764161 0.4127678 16711746
0.2740103 -0.6434826 0.7023286 16711746
-0.1085976 -0.8470644 0.5767500 16711746
0.0552996 -0.4147017 0.2708780 16711746
-0.3428730 -0.3632989 0.4049285 16711746
0.2994002 -0.2938856 0.5870622 16711746
-0.3181410 -0.5777978 0.4331439 16711746
0.2566552 -0.1886787 0.5994932 16711746
0.1509652 -0.3943720 0.3151109 16711746
0.2720312 -0.5093029 0.4559202 16711746
0.4758983 -0.4712796 0.3141955 16711746
0.2395675 -0.7460802 0.8210766 16711746
0.3893922 -0.4923368 0.7901041 16711746
0.1349030 -0.4419749 0.2475732 16711746
0.1421926 -0.2781739 1.0396876 16711746
0.2988870 -0.3034752 0.3558572 16711746
0.3505260 -0.5248635 0.6862537 16711746
0.3436728 -0.2843038 0.3274991 16711746
0.5662114 -0.5372446 0.9759296 16711746
0.1816408 -0.2010192 0.2137151 16711746
0.2114343 -0.6881223 0.4661426 16711746
0.1434884 -0.3103587 0.7619953 16711746
0.1383449 -0.5712786 0.6336794 16711746
0.2723035 -0.3747959 0.5017315 16711746
0.0469343 -0.6297203 0.6445691 16711746
0.2650488 -0.5489780 0.5472673 16711746
0.3249143 -0.2336957 0.8316143 16711746
0.5360148 -0.2932887 0.5240318 16711746
-0.0325758 -0.4777528 0.3154863 16711746
0.5835199 -0.2967784 0.5247332 16711746
0.0815070 -0.3355145 0.7326352 16711746
0.1573478 -0.2995321 0.4201017 16711746
0.1302975 -0.4512396 0.5879141 16711746
0.4572626 -0.4327768 0.4702029 16711746
0.3540101 -0.3296483 0.3545783 16711746
0.2404800 -0.2663658 0.5647231 16711746
0.3849083 -0.4849670 0.4604640 16711746
0.7728920 -0.5634016 0.4279704 16711746
0.2086787 -0.4143462 0.7118530 16711746
-0.0142480 -0.5230815 0.4957992 16711746
0.0822215 -0.0220847 0.0725047 16711746
0.4172691 -0.3281876 0.5941849 16711746
0.0551092 -0.8474650 0.7972695 16711746
0.1417483 -0.4003325 0.9962234 16711746
0.5680799 -0.3376358 0.6847920 16711746
0.2786711 -0.4046674 0.5851553 16711746
0.5438649 -0.4017468 0.7392007 16711746
-0.2419576 -0.2516289 0.9696307 16711746
0.0409375 -0.3716602 1.1056089 16711746
0.4237279 -0.4733964 0.8154237 16711746
-0.0901477 -0.2720624 0.2750095 16711746
0.0772936 -0.4241408 0.3190957 16711746
0.3179271 -0.2315065 0.8146839 16711746
0.2789664 -0.3492382 1.1654342 16711746
0.2661033 -0.6082162 0.8539126 16711746
0.5400573 -0.7710813 1.1524310 16711746
-0.6039672 -0.9219209 0.4657257 16711746
0.4355237 -0.4640623 0.3280509 16711746
-0.0106726 -0.4207703 1.1318542 16711746
0.1348765 -0.3762927 0.9511077 16711746
0.2762037 -0.4085404 1.0289660 16711746
0.1390040 -0.4178092 0.5432640 16711746
0.6678901 -0.2896193 0.8441292 16711746
0.3517719 -0.4796267 0.9753842 16711746
0.3986952 -0.3582160 1.0554259 16711746
0.3304480 -0.4396437 1.2907237 16711746
0.4107488 -0.2963139 0.5739216 16711746
0.5071861 -0.5234693 0.3431915 16711746
0.7566711 -1.2468281 0.7916939 16711746
0.1815457 -0.6392373 0.6934997 16711746
-0.1975826 -0.4048786 0.2651765 16711746
0.3400511 -0.3408852 0.2159793 16711746
0.3474638 -0.3052989 0.4800613 16711746
0.2997158 -0.2459982 0.3727058 16711746
0.3078101 -0.9308746 1.1144093 16711746
-0.1069959 -0.1834877 0.1911672 16711746
-0.2637374 -0.4523391 0.3305418 16711746
-0.4961556 -0.9847953 0.5638123 16711746
0.3136148 -0.6790933 0.6675950 16711746
0.2201457 -0.5466391 0.3605278 16711746
0.2065195 -0.4108611 0.4770242 16711746
0.1830056 -0.5557110 0.3615480 16711746
0.1979385 -0.5358685 0.4642898 16711746
0.1578002 -0.4099412 0.2717495 16711746
0.3079689 -0.3919714 0.4882623 16711746
0.4004644 -0.5225194 0.2576890 16711746
-0.2015876 -0.6897101 0.7369919 16711746
0.3877791 -0.7570896 0.8701299 16711746
-0.0530239 -0.3567542 0.3387185 16711746
0.1719414 -0.1596856 0.2476195 16711746
0.1065805 -0.4966588 0.4417097 16711746
-0.1869486 -0.4240161 0.5689321 16711746
0.1659824 -0.1823791 0.1763041 16711746
-0.0768261 -0.1532340 0.1903063 16711746
0.1968354 -0.5772520 0.2747293 16711746
0.1959710 -0.6089910 0.3254882 16711746
0.2787832 -0.3406099 0.4326119 16711746
-0.1677856 -0.3605624 0.2116117 16711746
0.2269939 -0.2206370 0.2614970 16711746
0.3150964 -0.8960225 0.6709634 16711746
-0.6123381 -0.4778808 0.4774845 16711746
0.2029303 -0.1415918 0.2027777 16711746
0.0819642 -0.2645649 0.2448920 16711746
0.0739094 -0.0336850 0.0894857 16711746
0.0707252 -0.1653148 0.1511824 16711746
-0.0118101 -0.2499927 0.2617623 16711746
-0.0440253 -0.2952487 0.3754102 16711746
-0.0547128 -0.4597217 0.3053057 16711746
0.0773284 -0.2659167 0.2732155 16711746
-0.0191940 -0.3991271 0.1976785 16711746
-0.2223940 -0.3154809 0.2948839 16711746
0.0793751 -0.4321893 0.4289173 16711746
0.0041095 -0.1422840 0.2175486 16711746
0.1481741 -0.1658251 0.3435531 16711746
0.2307721 -0.3906316 0.3539814 16711746
-0.4216986 -0.4903933 0.3926241 16711746
0.1770457 -0.5101921 0.2926803 16711746
0.0670822 -0.7296436 0.7568245 16711746
0.1432141 -0.4612247 0.3238183 16711746
-0.0110065 -0.2502934 0.2468265 16711746
0.0584440 -0.2037780 0.1567364 16711746
-0.3546503 -0.3297689 0.8773400 16711746
0.3151779 -0.2617088 0.3255337 16711746
0.3020023 -0.2679625 0.3006662 16711746
0.3473044 -0.5463988 0.7651988 16711746
0.2519692 -0.6176323 0.6550860 16711746
0.1830316 -0.6871347 0.4282744 16711746
0.3043756 -0.5985886 0.5261767 16711746
0.2240087 -0.5405646 0.4265460 16711746
0.2643968 -0.5995118 0.6706731 16711746
-0.0713198 -0.6352981 0.3051494 16711746
0.2246734 -0.5670534 0.4190301 16711746
0.2640412 -0.3871683 0.6057795 16711746
-0.0845597 -0.4365417 0.2071764 16711746
0.1460314 -0.4943359 0.3456447 16711746
-0.2936319 -0.6348556 0.3715675 16711746
0.2612439 -0.4297170 0.4790495 16711746
-0.0842016 -0.2818676 0.6853247 16711746
0.1785981 -0.5405448 0.4712481 16711746
0.0064933 -0.5944754 0.5542416 16711746
0.4496299 -0.5648861 0.3264906 16711746
0.0338319 -0.4036820 1.1847785 16711746
0.2463807 -0.5107335 0.2466196 16711746
-0.1345078 -0.1390128 0.4840758 16711746
0.2155221 -0.1499370 0.2372090 16711746
-0.2062716 -0.3711576 0.2781395 16711746
0.1616370 -0.6661443 0.3855069 16711746
0.0843135 -0.3841988 0.2986158 16711746
-0.3181739 -0.3618412 0.5041372 16711746
0.2884026 -0.4887791 0.3497008 16711746
-0.0557986 -0.3678421 0.3473607 16711746
-0.0294364 -0.5000314 0.3954208 16711746
0.0775178 -0.3254961 0.2076578 16711746
0.2651124 -0.5136052 0.2419814 16711746
0.3220136 -0.3696637 0.2230883 16711746
0.0488261 -0.4218550 0.2671502 16711746
0.0679885 -0.3299030 0.2263872 16711746
-0.0752530 -0.2306126 0.2455454 16711746
0.5198684 -0.4010643 0.5187613 16711746
-0.0427091 -0.2198748 0.1490745 16711746
0.0004518 -0.4023144 0.4555687 16711746
-0.0543265 -0.1309425 0.4244113 16711746
-0.0563582 -0.2777917 0.2645251 16711746
0.2238041 -0.5017288 0.5509397 16711746
-0.1980668 -0.3550712 0.6299478 16711746
0.3473611 -0.2586644 0.3692532 16711746
0.1182967 -0.3954093 0.2123958 16711746
-0.1730309 -0.2141255 0.2124888 16711746
-0.2774089 -0.3470983 0.2840556 16711746
-0.0137878 -0.3277918 0.1734148 16711746
0.0681123 -0.1916247 0.1712842 16711746
-0.3513197 -0.4617009 0.3342659 16711746
-0.1317653 -0.2860137 0.5876270 16711746
-0.0264949 -0.1152368 0.1137808 16711746
0.3753776 -0.6723017 0.8321206 16711746
0.0986994 -0.2331103 0.1525700 16711746
0.2112634 -0.2847364 0.2455188 16711746
-0.3428883 -0.4165998 0.3290128 16711746
0.0649293 -0.1867694 0.1521759 16711746
-0.3606974 -0.6753736 0.4458354 16711746
-0.2920169 -0.2706344 0.3144766 16711746
-0.0759372 -0.1516972 0.1729793 16711746
-0.2436085 -0.3656572 0.2559699 16711746
-0.1740993 -0.2418755 0.2263665 16711746
-0.1939232 -0.2996109 0.2671858 16711746
-0.1647522 -0.3318207 0.2430069 16711746
-0.2075182 -0.2793873 0.2264969 16711746
-0.1997271 -0.2783259 0.2797599 16711746
0.1329756 -0.3787588 0.2351577 16711746
0.0961162 -0.2577443 0.1531041 16711746
-0.4449361 -0.7091272 0.6162348 16711746
-0.2382053 -0.3113068 0.2396041 16711746
0.2715732 -0.2938793 0.3407551 16711746
-0.2137829 -0.2754208 0.2451363 16711746
-0.3871275 -0.3607802 0.9510959 16711746
-0.1750533 -0.2667718 0.2396375 16711746
0.0792093 -0.2991508 0.3011681 16711746
-0.0378595 -0.4001051 0.2696849 16711746
0.3677109 -0.4107792 0.2247693 16711746
-0.0984850 -0.4619233 0.2702833 16711746
0.1593464 -0.2976988 0.1558160 16711746
0.0765611 -0.1454337 0.1158687 16711746
0.0694897 -0.1659105 0.1419854 16711746
0.0657962 -0.1518922 0.1217821 16711746
0.2335591 -0.6714240 0.4079523 16711746
0.0702939 -0.1546142 0.1340146 16711746
0.0406623 -0.1200630 0.1450065 16711746
0.0665101 -0.2051781 0.1708048 16711746
0.0693495 -0.1092499 0.0961803 16711746
0.0164804 -0.1584566 0.2003721 16711746
-0.0871373 -0.4237008 0.2441715 16711746
-0.1191106 -0.5401576 0.7238484 16711746
0.3757938 -0.6177630 0.8621987 16711746
0.1112626 -0.0415302 0.0591766 16711746
0.0190643 -0.1878994 0.2545775 16711746
0.2369623 -0.1663384 0.2709654 16711746
0.0364723 -0.2237704 0.2281026 16711746
0.0895522 -0.0583435 0.1119286 16711746
0.0711027 -0.1338561 0.1252806 16711746
-0.1231865 -0.4955879 0.4324858 16711746
0.1224151 -0.3392901 0.2975807 16711746
-0.1099877 -0.3354681 0.3261024 16711746
0.0842096 -0.0969402 0.0913473 16711746
0.1656410 -0.4526448 0.2457295 16711746
0.0368218 -0.1048600 0.0897570 16711746
-0.1250454 -0.2001755 0.2260321 16711746
-0.0012758 -0.2253421 0.1357299 16711746
0.0825967 -0.1510238 0.1407248 16711746
0.0550728 -0.2562710 0.1559574 16711746
0.0922837 -0.0929072 0.0950160 16711746
0.0080557 -0.2857812 0.1978653 16711746
0.0776983 -0.0573010 0.1447580 16711746
-0.2699184 -0.5922028 0.3476837 16711746
0.0197587 -0.1785942 0.1619585 16711746
-0.2136852 -0.2115455 0.2498287 16711746
-0.3154525 -0.5535458 0.3361878 16711746
0.1939351 -0.3427394 0.1850357 16711746
0.0869178 -0.1381475 0.1169392 16711746
0.0172370 -0.1979498 0.2663256 16711746
0.2137023 -0.2998434 0.2758803 16711746
0.0682051 -0.3921122 0.2297029 16711746
0.0890281 -0.1689834 0.1380389 16711746
-0.0922678 -0.3021957 0.4791993 16711746
-0.2028619 -0.1919789 0.2695340 16711746
-0.0283086 -0.1787405 0.1521051 16711746
0.0673204 -0.3374242 0.1890493 16711746
0.2095429 -0.2836508 0.2239324 16711746
-0.0049910 -0.3308468 0.2531543 16711746
-0.0233535 -0.1799636 0.1265398 16711746
0.1829029 -0.4597043 0.2895738 16711746
0.0040927 -0.3131835 0.2361352 16711746
-0.2536794 -0.4589616 0.2855560 16711746
0.1133944 -0.5238739 0.2775197 16711746
0.2786044 -0.4433129 0.2059185 16711746
-0.2013012 -0.3083546 0.2732553 16711746
0.1154485 -0.4194871 0.2080080 16711746
0.1355998 -0.4045245 0.2474071 16711746
0.0732958 -0.2195922 0.1582332 16711746
0.2544068 -0.5065679 0.3338158 16711746
-0.2321292 -0.4783352 0.3358887 16711746
0.1889220 -0.2908371 0.2320897 16711746
0.2671159 -0.4206931 0.3116201 16711746
-0.1429191 -0.1787209 0.1971079 16711746
0.2214635 -0.4231249 0.2249637 16711746
0.1750678 -0.4949518 0.2806564 16711746
-0.2072418 -0.1587915 0.2021970 16711746
-0.2517986 -0.2648298 0.2831865 16711746
0.2324679 -0.6290654 0.4389774 16711746
0.1907857 -0.1339499 0.1987416 16711746
-0.0707127 -0.1721023 0.1784511 16711746
0.3920510 -0.5993028 0.3280661 16711746
0.3364346 -0.2746339 0.1932373 16711746
0.1413110 -0.4918703 0.2582388 16711746
0.1889609 -0.4570121 0.3065720 16711746
-0.0054966 -0.1801332 0.2288191 16711746
0.3409050 -0.4530423 0.5642662 16711746
0.3705748 -1.0477892 1.0700731 16711746
0.1267415 -0.2107687 0.1375529 16711746
0.1343545 -0.2266664 0.2562468 16711746
0.3744257 -0.2470417 0.1726171 16711746
0.1478353 -0.0933025 0.1142570 16711746
-0.0654719 -0.3193667 0.3653312 16711746
-0.5276493 -0.9147423 0.8978437 16711746
0.1714260 -0.3494657 0.2689094 16711746
-0.0464426 -0.3367054 0.2198328 16711746
0.0789621 -0.0024448 0.0301443 16711746
0.0653834 -0.1548983 0.1432266 16711746
0.0449679 -0.3070207 0.2965257 16711746
0.0540844 -0.2780994 0.1682595 16711746
0.0063033 -0.3372113 0.2453999 16711746
-0.0021995 -0.2059380 0.1301197 16711746
0.1240017 -0.1906322 0.1283848 16711746
0.1308369 -0.1647301 0.1672629 16711746
0.0300502 -0.2151786 0.1551417 16711746
0.0033809 -0.1783023 0.1566668 16711746
0.1188823 -0.4321185 0.2210468 16711746
-0.0714987 -0.6199888 0.4434769 16711746
-0.0062289 -0.1950889 0.2011142 16711746
-0.0679916 -0.3499896 0.2839065 16711746
-0.1765851 -0.1743715 0.1903664 16711746
-0.1156145 -0.3449763 0.5354300 16711746
0.1815875 -0.2506265 0.1496172 16711746
0.1060614 -0.1242709 0.1281059 16711746
0.2012653 -0.4883643 0.3470921 16711746
-0.1075319 -0.5547509 0.4716027 16711746
0.1776861 -0.1130793 0.1726957 16711746
0.1241874 -0.2209173 0.1345972 16711746
0.0706002 -0.1782860 0.1275319 16711746
0.1573409 -0.5841840 0.3684959 16711746
0.1289022 -0.3224695 0.2040628 16711746
-0.0310114 -0.2163256 0.1554426 16711746
0.1892919 -0.1718769 0.1991590 16711746
-0.1462156 -0.2718320 0.1848099 16711746
0.1336856 -0.3787857 0.2206729 16711746
-0.0566911 -0.3232581 0.2431585 16711746
-0.0390582 -0.2770997 0.2519166 16711746
-0.2480858 -0.4312370 0.3190437 16711746
-0.0981956 -0.2029532 0.2091596 16711746
-0.1482807 -0.4547300 0.3059108 16711746
-0.0296006 -0.2939946 0.1944703 16711746
-0.0751616 -0.3732293 0.2778958 16711746
-0.0523069 -0.2190313 0.2239390 16711746
-0.2805760 -0.2607397 0.3025704 16711746
-0.0169302 -0.4841259 0.3177334 16711746
0.2640631 -0.5586442 0.2883822 16711746
0.1329500 -0.3916606 0.2557843 16711746
0.2055661 -0.3079927 0.3319170 16711746
-0.0154342 -0.1550367 0.1425091 16711746
0.1947999 -0.7948536 0.4748846 16711746
0.1341811 -0.2692639 0.1613988 16711746
0.3359508 -0.5984445 0.6601338 16711746
-0.1206990 -0.2747678 0.2470426 16711746
-0.1788128 -0.4075078 0.3025360 16711746
-0.0839956 -0.2591703 0.1896624 16711746
-0.0429250 -0.2120802 0.1792054 16711746
-0.0912815 -0.1679619 0.2053330 16711746
0.0014749 -0.1602376 0.1835860 16711746
0.0888869 -0.1376301 0.1137266 16711746
0.0887085 -0.1782807 0.1399758 16711746
0.1013646 -0.3349760 0.1513488 16711746
0.5323580 -0.3692740 0.3999067 16711746
0.3044146 -0.3665033 0.3491334 16711746
0.0424490 -0.4091963 0.3376779 16711746
0.3805681 -0.3448091 0.5334342 16711746
0.1882545 -0.3518143 0.6093633 16711746
0.2530123 -0.4076518 0.6885946 16711746
0.4559301 -0.4772120 0.7429562 16711746
-0.0627788 -0.6678731 0.6109522 16711746
-0.5888966 -0.5872139 0.5854094 16711746
-0.4580878 -0.6576586 0.4190808 16711746
0.1260480 -0.4585431 0.7886248 16711746
0.2763487 -0.5468104 0.4459628 16711746
0.0574818 -0.2853837 0.7267097 16711746
0.1288576 -0.5044940 0.8650209 16711746
0.1654202 -0.2330028 0.7754687 16711746
0.2085902 -0.5619889 0.6642994 16711746
0.2984283 -0.6143572 1.1032996 16711746
0.3334972 -0.5115038 0.6067560 16711746
0.3023871 -0.7305385 0.7996542 16711746
-0.5883439 -0.7207695 0.5072019 16711746
0.3582330 -0.6529862 0.7118393 16711746
0.3230635 -0.2397682 0.8373628 16711746
0.3786052 -0.4240238 1.1064467 16711746
0.3439780 -0.5589452 0.6977794 16711746
0.2405779 -0.5157004 0.5351148 16711746
-0.2017741 -0.9216922 0.5117940 16711746
0.2273347 -0.6482962 0.4352690 16711746
0.2361917 -0.7520982 0.4920430 16711746
0.4941382 -0.5292860 0.9962727 16711746
0.2334080 -0.4941543 0.6867512 16711746
0.3491857 -0.4069344 0.6922678 16711746
0.2838783 -0.4050821 1.0703287 16711746
0.4051562 -0.4008759 0.6347795 16711746
0.3285906 -0.3309018 0.8176456 16711746
0.2676160 -0.4893571 0.2801428 16711746
-0.1484836 -0.7897295 0.4885890 16711746
0.2671815 -0.5610717 0.2900152 16711746
0.6613713 -0.4829528 0.5124879 16711746
-0.1349658 -0.8227979 0.3919973 16711746
0.1267127 -0.5070206 0.8670417 16711746
0.1462342 -0.7175678 1.0875452 16711746
0.0561519 -0.8379151 0.7467728 16711746
0.2785918 -0.3173403 0.9475529 16711746
0.3474633 -0.4184763 0.8069670 16711746
-0.1732595 -0.4956543 0.7461249 16711746
0.4740970 -0.5473889 0.4766325 16711746
0.2408529 -0.6785929 0.3766197 16711746
0.3340165 -0.5037658 0.4011945 16711746
0.2206776 -0.4450820 0.2729832 16711746
0.2123920 -0.7664515 0.9133399 16711746
0.5880213 -0.7164295 0.6057841 16711746
0.1348517 -0.3533123 0.8824140 16711746
0.1380442 -0.1284460 0.3090130 16711746
-0.0247440 -0.8257211 0.7514698 16711746
0.1358619 -0.4107410 0.6848595 16711746
-0.2720235 -0.8898135 0.4869295 16711746
-0.4511110 -0.7598571 0.9235641 16711746
0.4896521 -0.4679337 1.1249938 16711746
-0.4212012 -0.7468454 0.7397391 16711746
0.0566703 -0.9765581 0.9959857 16711746
-0.5827556 -0.6427808 0.6932780 16711746
0.3182271 -0.5432910 0.3846401 16711746
-0.1565901 -1.1718681 1.3527018 16711746
0.0536127 -0.3173184 0.7750081 16711746
-0.6975242 -1.0591207 1.1336157 16711746
-0.0382334 -0.2656370 0.5570446 16711746
0.2968351 -0.4095575 1.0826740 16711746
0.1267204 -0.3159575 0.8284603 16711746
0.0570441 -0.3331199 0.2800935 16711746
-0.9898486 -1.2006997 0.9558333 16711746
-1.2736073 -1.6550410 0.9721372 16711746
0.1027588 -0.4544521 0.3835317 16711746
-0.6835227 -1.0624048 0.6099437 16711746
-0.2609312 -0.6733947 0.4681406 16711746
-1.4535309 -1.0069073 0.8140308 16711746
-1.4844905 -1.6221844 0.7645999 16711746
0.1577522 -0.4726608 0.3863479 16711746
0.3185475 -0.4571418 0.6789158 16711746
-0.4035486 -0.4307660 1.0596936 16711746
0.1415680 -0.2684433 0.9250466 16711746
0.2544864 -0.2785396 0.8866113 16711746
-0.6570929 -0.5523390 0.4053229 16711746
0.2676239 -0.4749507 0.7216393 16711746
0.1078650 -0.5764754 0.7802237 16711746
0.4864427 -0.5104371 0.5151443 16711746
0.0858945 -0.3557369 0.2993560 16711746
-0.4898806 -0.6174660 0.4570340 16711746
-0.6772490 -0.8212862 0.5768788 16711746
0.3827606 -0.4846499 0.9103305 16711746
-0.1142788 -0.5516983 0.4693053 16711746
0.0702556 -0.4088443 0.2895783 16711746
0.2695664 -0.1815820 0.6485380 16711746
-0.5591063 -1.0976002 0.6110469 16711746
0.0443559 -0.3602611 1.0803555 16711746
-0.3944733 -1.2034688 0.6255767 16711746
-0.6196989 -1.1972642 0.6697002 16711746
-1.2361808 -1.4503254 0.9541789 16711746
0.1399398 -0.8105850 0.4481811 16711746
-0.4794423 -0.5660129 0.4693005 16711746
0.1403094 -0.9251741 0.4192652 16711746
0.2074129 -0.8228694 0.4242798 16711746
-0.1315427 -0.7877352 0.6170499 16711746
0.1535520 -0.4258955 1.0846291 16711746
-0.3161394 -0.3994845 0.8060486 16711746
0.3342429 -0.9289339 0.8874604 16711746
0.2243630 -0.6605228 0.7649310 16711746
0.0145057 -0.4123015 0.5414115 16711746
-0.2381932 -0.7638753 0.6230463 16711746
0.0734500 -0.7535891 0.8642412 16711746
0.2975594 -0.5516381 0.5911443 16711746
-0.1783265 -0.6900355 0.4101150 16711746
-0.4608391 -0.3318595 1.1182760 16711746
-0.0954983 -0.8566503 0.4078128 16711746
0.3829017 -0.5203230 0.7876350 16711746
-0.4110391 -0.7500657 0.7642267 16711746
0.3351477 -0.4837772 0.7540864 16711746
-0.1471223 -0.7450995 0.5279185 16711746
-1.0499246 -0.4161876 1.4542296 16711746
0.4150073 -0.7208432 0.9834498 16711746
0.4458157 -0.5784446 0.9035869 16711746
0.1503686 -0.9365044 0.4539415 16711746
0.4053362 -0.8036740 0.7955956 16711746
0.5040854 -0.6308756 1.2257570 16711746
-1.3815513 -0.6964416 0.8049244 16711746
-1.0808709 -1.0158328 0.6127430 16711746
0.0537124 -0.5412797 0.7075942 16711746
0.1990636 -0.3296271 0.5901659 16711746
0.0295343 -0.6444421 0.3820238 16711746
0.2616304 -0.4285674 0.7186877 16711746
0.0724282 -0.9610759 1.0881910 16711746
0.1686049 -0.5950018 0.9150950 16711746
0.1328680 -0.1193002 0.2827231 16711746
-0.3463677 -0.7338306 0.6313320 16711746
0.4898419 -0.2062484 0.8582743 16711746
-0.4913073 -0.4624921 0.5095270 16711746
0.3333924 -0.5503755 0.6472785 16711746
-0.9479034 -0.3703499 0.9847075 16711746
0.1346315 -0.2117760 0.4146437 16711746
0.3071612 -0.6371102 0.7222750 16711746
-1.4692596 -0.6332319 1.7271613 16711746
-0.7628517 -0.3094147 0.8146314 16711746
-1.3924044 -0.5425605 2.0609825 16711746
0.4586838 -0.5682821 0.8493591 16711746
0.0797936 -0.5973593 0.6390939 16711746
0.3823227 -0.5422229 0.6374107 16711746
0.3227961 -0.7748973 0.7547999 16711746
0.3254037 -0.4621885 0.6195171 16711746
0.2962517 -0.6177886 1.1082660 16711746
0.5267839 -0.4338371 0.7918047 16711746
-0.0586953 -0.4860543 0.4011230 16711746
0.0270370 -0.5185369 0.7090951 16711746
0.1534827 -0.3593311 0.8868766 16711746
0.3879313 -0.7044384 0.9961111 16711746
0.3678400 -0.5733059 0.7417768 16711746
0.7204569 -0.7420200 0.5820453 16711746
0.0551053 -0.4068035 0.6604028 16711746
0.1188912 -0.7178229 0.7906119 16711746
0.2071420 -0.5558769 0.6329049 16711746
-0.6783540 -0.7464898 0.6181205 16711746
-0.0012145 -0.6079246 0.6796365 16711746
0.2069254 -0.8425317 0.6360602 16711746
0.0847548 -0.5464376 0.7848516 16711746
-0.0336541 -0.3952669 0.3477185 16711746
0.0286280 -0.8401580 0.9988957 16711746
0.0719293 -0.5245094 0.5300047 16711746
0.0900826 -0.7283975 0.7562802 16711746
0.1707541 -0.3036143 0.4723713 16711746
0.5093417 -0.8888627 0.5596189 16711746
0.0271386 -0.5851661 0.8506612 16711746
0.1816113 -0.5760506 0.7370813 16711746
-0.4063478 -0.4406405 0.6369884 16711746
-0.2860250 -0.5523559 0.3915664 16711746
-0.1085100 -0.3714993 0.3396275 16711746
-0.0809330 -0.4917508 0.3584592 16711746
-0.5648168 -1.1115824 0.6214886 16711746
0.1854042 -0.6508821 0.5089473 16711746
0.7567239 -0.8416570 0.7520765 16711746
0.2532360 -0.9020172 0.5453923 16711746
0.6066185 -0.2771530 0.5169873 16711746
-0.1256995 -0.7515951 0.5845605 16711746
0.4568220 -0.4932402 0.4986179 16711746
0.6341913 -0.4268225 0.4955842 16711746
0.4601490 -0.4512503 0.4032070 16711746
0.0627993 -0.7232431 0.5719405 16711746
-0.2801447 -0.1262998 0.5911649 16711746
-0.9044816 -0.6729407 1.1059716 16711746
0.6685166 -0.3741729 1.0508996 16711746
0.6499364 -0.3027270 0.5499483 16711746
0.0246839 -0.7271723 1.1777492 16711746
0.5751399 -0.6681824 1.1965522 16711746
-0.4482075 -0.9455183 0.5730497 16711746
-0.3670610 -1.0393196 0.7274870 16711746
0.0520450 -0.6676530 0.6056671 16711746
0.3139234 -0.5388182 0.3571950 16711746
0.0440844 -0.9625757 0.7545131 16711746
0.0638953 -0.6731282 0.5341744 16711746
0.3353964 -0.6491714 1.2728447 16711746
0.8371321 -0.6118527 1.2163949 16711746
0.0569815 -0.4424551 0.7909232 16711746
0.4521526 -0.5504427 1.0846006 16711746
-0.5498444 -0.9699001 0.5822803 16711746
0.1926079 -0.4909188 0.5706238 16711746
0.0327409 -1.0771563 1.1005281 16711746
0.5514808 -0.2415069 0.9843515 16711746
-0.0805343 -0.5014766 0.4871536 16711746
-0.4722881 -0.8508046 0.5257582 16711746
-0.7683362 -0.4341295 0.4556546 16711746
-0.5675918 -0.4406645 0.9115108 16711746
0.2580472 -0.6168417 0.6686906 16711746
0.4609633 -0.5711815 0.9313521 16711746
0.4167334 -0.4665459 0.8921407 16711746
0.3940835 -0.6272001 0.8421022 16711746
0.6126450 -0.4846191 0.8890971 16711746
0.1994961 -0.3930639 0.6819620 16711746
-0.8783527 -0.9501758 0.6933686 16711746
0.0773851 -0.0972822 0.1922043 16711746
0.0744944 -0.1016207 0.1943237 16711746
0.3389404 -0.5836362 0.6853079 16711746
0.3196311 -0.4911481 0.8635839 16711746
-0.7013041 -0.9335574 0.4696735 16711746
0.1235976 -0.5274042 0.6897087 16711746
0.3138592 -0.5154495 0.5004324 16711746
0.7816043 -0.5652162 0.4931305 16711746
0.5587450 -0.5625829 0.6562444 16711746
0.3357255 -0.9817103 0.7914640 16711746
0.9522218 -0.7310796 0.8034568 16711746
0.4234715 -0.8572126 0.5471789 16711746
0.3060220 -0.6542681 1.1694804 16711746
0.5251471 -0.5002750 0.4037817 16711746
-1.1154537 -1.6534064 0.8478519 16711746
-0.6712801 -1.0928606 0.6221101 16711746
-0.0954569 -0.3292006 1.0098066 16711746
0.3397669 -0.2144159 0.9059794 16711746
0.6984507 -0.7122393 0.5645412 16711746
0.6001584 -0.6433743 0.4855483 16711746
-0.6712717 -1.1634610 0.6897366 16711746
0.2892007 -0.4878916 0.7801313 16711746
0.3171249 -0.9041238 0.7432301 16711746
0.4931850 -0.8654145 0.5501224 16711746
0.5276418 -0.5608594 1.0326891 16711746
-0.1920427 -0.9720872 0.6946978 16711746
0.5454437 -0.6314440 1.5179837 16711746
0.5386283 -0.5470957 0.7732494 16711746
0.4703698 -0.3888286 1.0936955 16711746
0.4317162 -0.5139836 1.0204962 16711746
0.2970123 -0.5830403 0.4048063 16711746
-0.0222173 -0.5069199 1.3231488 16711746
0.0743299 -0.6446936 1.3345257 16711746
0.3959776 -0.8324255 0.8126524 16711746
-0.0626565 -0.7901143 1.4585927 16711746
-0.5670813 -0.9496250 0.4561478 16711746
0.1838213 -0.3757392 1.1645385 16711746
0.3865761 -0.8505896 1.1148707 16711746
-0.1224505 -0.3718678 1.1275178 16711746
-0.2021369 -0.5304171 1.5205710 16711746
0.0390894 -0.7884325 0.8066440 16711746
0.4425650 -0.5398127 0.9551563 16711746
-0.1575499 -0.6589453 0.5361193 16711746
-0.8527639 -1.3044052 0.6442804 16711746
0.3306543 -1.7175354 1.3342184 16711746
0.2901972 -0.7252814 0.7727140 16711746
0.1493354 -1.0234338 0.5392356 16711746
0.0394689 -1.0194720 1.0429106 16711746
0.2056196 -0.7051759 0.6502826 16711746
0.0398016 -1.0100549 0.9642308 16711746
0.3792009 -0.4083470 1.0841831 16711746
0.5352044 -0.7403271 0.4408000 16711746
-0.0012592 -0.4495261 0.9570669 16711746
0.6057054 -0.7307289 0.6148822 16711746
-1.1562840 -1.6045550 0.8777099 16711746
-0.9170642 -0.9977311 0.7803215 16711746
0.3882669 -0.6991550 0.6363976 16711746
0.3575877 -0.3795075 1.0439817 16711746
0.4650671 -0.4395022 1.0499989 16711746
-0.0485832 -0.8429863 1.5677515 16711746
0.3495277 -0.7727913 1.3326405 16711746
0.2649648 -1.0649420 0.6140860 16711746
0.6902924 -0.3832151 1.0680724 16711746
0.1808139 -0.5596024 1.0239774 16711746
-0.0246486 -0.7952083 0.9049444 16711746
0.1866823 -0.3799918 0.6363009 16711746
0.3696886 -0.5321228 0.4896790 16711746
-0.6374246 -1.0872643 1.0696499 16711746
0.2974938 -0.5133347 0.8220401 16711746
-0.2362178 -0.7990369 0.5510587 16711746
-0.1683985 -0.9953978 1.3202589 16711746
0.0804461 -0.9584431 1.1009042 16711746
0.2358314 -0.2858489 0.8110177 16711746
-0.0920319 -0.9672741 1.1216170 16711746
0.3505245 -0.8004262 0.8588946 16711746
0.1956665 -0.9162559 0.5747026 16711746
-0.0521750 -1.0305512 0.8954815 16711746
-0.0801279 -1.2946900 0.9910536 16711746
0.3303579 -0.6020699 0.5316396 16711746
0.3086855 -0.8773932 0.6596649 16711746
-0.1674405 -0.9592471 1.2795891 16711746
0.1351188 -0.3733252 0.8926588 16711746
0.8981115 -0.6605062 0.7312962 16711746
0.1142814 -0.7091530 0.4738161 16711746
0.1772324 -0.9298837 0.7091014 16711746
0.5271405 -0.3148726 0.7534072 16711746
0.4256307 -0.2560778 0.9692764 16711746
0.4827086 -0.5198924 0.9631634 16711746
0.0374416 -1.0028900 1.0349126 16711746
0.7191677 -0.4604868 0.9027832 16711746
0.1719988 -0.5165629 0.9747216 16711746
0.1190089 -0.4783625 0.3958867 16711746
0.5499687 -1.1791070 1.0432594 16711746
0.4622549 -0.7544778 0.8233149 16711746
0.7314143 -1.0838341 0.5786943 16711746
0.2388529 -0.4024043 0.7053393 16711746
0.1459491 -0.6735147 1.1503526 16711746
0.2721947 -0.3703517 0.9813713 16711746
0.4104880 -1.0334567 1.5260918 16711746
0.4312857 -0.7593679 1.8160595 16711746
-1.1551057 -0.9308812 0.6604974 16711746
0.0767068 -0.8120812 0.8836547 16711746
0.4686752 -1.7143801 0.7619856 16711746
0.5591558 -0.4792148 1.3110378 16711746
-1.3282294 -1.9480435 0.9710517 16711746
-0.1491709 -1.0383145 1.8943492 16711746
0.2733904 -0.9551203 0.6016706 16711746
0.3183393 -0.9472029 0.5511188 16711746
-0.8525523 -1.6048002 0.8446646 16711746
0.1636861 -0.1709773 0.4087409 16711746
0.1291795 -1.3949403 1.1604421 16711746
0.2531163 -0.8178467 0.8576642 16711746
0.0379241 -1.2776256 1.0474209 16711746
0.4290174 -0.4495395 1.2380977 16711746
0.2271295 -0.3387366 0.7010968 16711746
0.0311940 -0.5924488 1.3932595 16711746
0.3993715 -0.9511625 1.3867517 16711746
0.4180372 -0.7088727 1.3177029 16711746
0.2698494 -0.9524090 0.4756473 16711746
0.1974813 -0.2837384 0.5359084 16711746
0.1717476 -0.3150431 0.5661011 16711746
0.6055316 -0.4804888 1.7741932 16711746
0.4820411 -0.5802181 1.4696221 16711746
0.2234028 -0.6382018 0.7165878 16711746
0.2051859 -1.2687814 0.9243690 16711746
0.7412072 -0.9892402 0.6300045 16711746
0.2270368 -1.0817366 0.7290496 16711746
0.2369622 -0.9633259 0.8441813 16711746
0.1035548 -0.8781632 0.8752372 16711746
0.7349228 -0.9098170 0.7247486 16711746
0.2585878 -0.9802518 0.9455080 16711746
0.9681298 -1.0568365 0.6829123 16711746
0.3729604 -0.9388415 0.5166113 16711746
0.2482471 -1.0381014 0.6288611 16711746
0.3651716 -0.6009072 0.5463644 16711746
0.2839251 -0.9330933 0.5742435 16711746
0.4157366 -1.0223885 0.8471750 16711746
0.3941364 -0.9996819 1.0934165 16711746
-0.1558569 -0.8597001 1.0090477 16711746
0.9049854 -1.4260908 1.9371240 16711746
0.5906547 -0.7213184 1.1639960 16711746
1.1166644 -1.0439790 0.6527194 16711746
0.1989863 -1.0324277 0.5135369 16711746
0.5151970 -0.6996853 1.0714300 16711746
0.3955095 -1.1367606 1.3243235 16711746
0.5208581 -0.8914694 1.2376897 16711746
0.7916738 -0.5534353 1.4756953 16711746
0.2141245 -0.4493606 0.6689178 16711746
-0.0338633 -0.5803662 1.5007461 16711746
0.4640091 -0.8499183 1.0570297 16711746
-0.2412901 -1.3871977 2.3096795 16711746
0.0239473 -0.3779955 0.8470193 16711746
0.2585793 -0.4236756 0.8505184 16711746
0.0170178 -0.7197698 0.5602046 16711746
0.3752598 -1.1781505 1.2542146 16711746
0.4568135 -0.5222707 1.3808310 16711746
0.1396290 -0.1007915 0.3536134 16711746
0.1328930 -0.0837034 0.3110155 16711746
0.4399311 -1.0370609 1.3010561 16711746
0.6506978 -0.6742699 1.5200844 16711746
-0.0840989 -1.0019647 1.8079137 16711746
0.3946181 -0.3227159 0.8832520 16711746
0.3068781 -0.3455447 0.3767038 16711746
0.0283185 -1.6056639 1.3209692 16711746
0.5994185 -0.8549866 1.4894891 16711746
-0.1709627 -1.7719023 2.3353882 16711746
0.1434752 -0.4066482 0.6006764 16711746
0.1782622 -0.3802723 0.6376015 16711746
0.5971329 -0.8054972 0.9425688 16711746
1.1255739 -1.1055841 0.5101408 16711746
1.1127844 -1.0304292 0.6464691 16711746
0.9052653 -1.1102805 0.5406574 16711746
0.2945308 -1.3412764 1.0456632 16711746
0.6571150 -0.5233983 1.1255609 16711746
0.1380380 -0.0904827 0.3474905 16711746
0.7021830 -0.6620539 0.4324551 16711746
-0.4963057 -1.0790973 1.0511117 16711746
0.0530795 -0.2299485 0.4704930 16711746
0.3479147 -1.2862623 1.0504768 16711746
0.3843718 -0.7345089 1.5268492 16711746
-0.3559556 -1.7347944 1.7581029 16711746
-0.3451117 -1.2601439 1.2225487 16711746
0.7109510 -1.3006805 1.5064859 16711746
-0.3602838 -1.7907544 1.5985783 16711746
0.8701447 -1.3612159 1.8470411 16711746
0.0270233 -2.0686238 1.2201157 16711746
-0.1650617 -1.2530792 0.7438852 16711746
-3.1713881 -1.5019413 3.7037408 16711746
0.0526382 -1.1871673 1.2204903 16711746
-0.1819545 -1.2042136 1.4186131 16711746
-0.0506949 -1.4153540 1.2439398 16711746
-0.0339146 -0.9844616 0.6360085 16711746
-0.5962965 -1.5229019 1.0731298 16711746
0.0159468 -1.6136149 1.1508461 16711746
0.0128394 -1.5779532 1.1300459 16711746
0.6581270 -1.0210464 1.1497940 16711746
0.2950197 -0.6132992 0.9449342 16711746
0.3907207 -1.0241394 1.1401496 16711746
-0.3262548 -0.9491864 1.2316664 16711746
0.3224940 -0.8879346 0.8738156 16711746
0.2664742 -0.9036579 0.9232997 16711746
-0.0201299 -0.6705189 1.3865494 16711746
-0.0297449 -0.8825288 0.9320153 16711746
0.0773305 -1.3033557 0.9154329 16711746
0.7794144 -0.7488382 1.0815096 16711746
-0.3369002 -0.9744017 0.7671412 16711746
-0.2432940 -0.8423383 1.1557806 16711746
-0.4323034 -1.1516272 1.4416275 16711746
-0.2486184 -0.7127930 1.0141288 16711746
0.5674127 -1.0159832 0.8971413 16711746
0.8015692 -0.9438647 0.4952272 16711746
1.2459373 -0.9491149 1.1416535 16711746
0.4773734 -1.0716497 1.5254579 16711746
-0.1480000 -1.1078434 0.8037996 16711746
-0.0973812 -0.9147645 0.7476731 16711746
-0.5511592 -1.0306464 0.8829699 16711746
-0.2290489 -0.9541633 0.8774941 16711746
-0.1260511 -0.8604286 0.8078272 16711746
-0.8650794 -0.3872021 1.2823409 16711746
-0.2664400 -0.5074321 0.6420013 16711746
-0.1812111 -0.7344796 0.9229836 16711746
0.0735943 -1.0271943 1.1215335 16711746
-0.8813820 -0.9751695 1.2540892 16711746
-0.0865182 -0.7253132 1.1243796 16711746
1.0906121 -0.5621974 1.8265609 16711746
0.4928151 -0.8989769 1.4396951 16711746
1.0949899 -0.3667820 1.1949784 16711746
-0.9940262 -0.3883634 1.8238094 16711746
-1.0668255 -0.7620093 2.4684045 16711746
0.9147630 -1.2372540 0.7932184 16711746
-0.6765487 -0.9538896 1.0589503 16711746
-0.7760683 -0.3446907 1.1905196 16711746
0.0402516 -0.4990202 1.2186240 16711746
-0.0108164 -1.5083811 1.1838586 16711746
-0.4056699 -0.5208108 1.0919464 16711746
0.5653296 -1.0564382 1.3738843 16711746
-0.0308005 -0.7281772 1.1182307 16711746
-0.3099842 -0.6622739 0.7751595 16711746
-0.0334451 -2.4890962 1.8394841 16711746
-0.2117011 -1.0237867 0.7587206 16711746
0.6537452 -0.5589178 1.0181167 16711746
-0.1666586 -1.6932372 1.5035456 16711746
-0.1566113 -1.2644609 1.1549076 16711746
-0.6171622 -0.6750413 1.1066117 16711746
-0.4539566 -1.1825356 1.6998364 16711746
-0.8076747 -1.5457520 1.7102597 16711746
-0.3180316 -1.2982824 1.4896505 16711746
-0.3592626 -0.3372926 1.1536275 16711746
-0.4390305 -0.3510951 1.4187323 16711746
0.7951786 -0.7512832 1.3154249 16711746
-0.4859029 -1.3386574 1.5105513 16711746
-0.1731284 -0.7257770 0.8378059 16711746
-0.6929336 -1.5958033 2.3937030 16711746
0.4335417 -0.8161058 1.4700494 16711746
-0.2416385 -1.1030141 1.3233025 16711746
-0.0344679 -1.6635094 1.6630034 16711746
-0.2656482 -0.6476597 1.1033661 16711746
-0.0972953 -0.6771158 1.1009359 16711746
0.5856947 -0.7959249 1.4314477 16711746
0.7872491 -1.4304616 1.7384101 16711746
-0.5136029 -0.8862802 1.2148116 16711746
-0.1903230 -0.9282978 1.0916249 16711746
0.1305562 -1.0893748 1.0378201 16711746
0.3857017 -1.3044255 0.6865216 16711746
0.1313641 -1.2128475 1.0469357 16711746
-0.8678126 -1.8851793 1.7560136 16711746
-2.2221892 -0.8625066 2.9189243 16711746
0.4034324 -1.3117355 0.9973025 16711746
0.2805026 -0.3281771 0.9839904 16711746
-0.3001687 -1.5830729 1.3990008 16711746
-1.5985881 -0.6899693 2.6629894 16711746
0.1506906 -0.1005302 0.4020121 16711746
-0.1842489 -0.6860449 0.7953673 16711746
-0.2114226 -1.2302278 0.8636115 16711746
0.8340405 -0.6429018 1.2531443 16711746
0.0933512 -1.7197040 0.9644135 16711746
0.4509604 -1.8229830 1.1760582 16711746
0.5844681 -0.7833666 0.9721301 16711746
0.3714994 -1.3223773 0.7929867 16711746
0.1576108 0.0167773 0.3711750 16711746
0.3437495 -0.9129537 1.2551430 16711746
0.1436272 -0.0027152 0.4000095 16711746
0.0994815 -0.0191540 0.3947312 16711746
0.4357485 -0.7428693 0.5530443 16711746
0.3816747 -1.4917167 1.0355359 16711746
0.4088590 -1.0362225 0.7267810 16711746
0.6087823 -0.5473501 0.5564192 16711746
-0.4778214 -0.3426902 1.2015525 16711746
0.4349331 -0.3177722 0.4365495 16711746
0.1710358 -0.1717992 0.4511058 16711746
-1.1488886 -0.4847031 2.1017659 16711746
-0.2208591 -1.3256377 0.9815189 16711746
0.6067495 -1.3237978 1.3942959 16711746
-0.7612709 -0.8390750 1.4244356 16711746
-0.2928329 -1.6720142 1.1614968 16711746
0.2847233 -0.4015185 0.5004974 16711746
0.8481317 -1.7398713 2.0713513 16711746
0.9288239 -1.6721447 2.0584843 16711746
0.3849045 -1.5146939 0.8433173 16711746
0.2061956 -0.0822679 0.5437322 16711746
0.1031125 -0.8954246 0.9783041 16711746
0.1872995 -0.1238496 0.5458942 16711746
0.6251715 -0.6485542 0.8867460 16711746
0.1890427 -0.1329520 0.5655366 16711746
0.5130970 -1.4147315 1.0249622 16711746
0.2372224 -0.4664908 0.9350047 16711746
0.2584693 -0.6043547 1.0815072 16711746
0.2713197 -0.3064983 0.9596306 16711746
0.0725530 -0.4846950 0.6222754 16711746
0.9354546 -0.8192109 0.8544256 16711746
-0.1497343 -0.6661979 0.6739082 16711746
0.4132097 -0.5735086 0.6665788 16711746
0.6426120 -0.4143476 0.6698816 16711746
0.4464763 -0.5861313 0.6842302 16711746
0.6225965 -0.6100863 0.8559981 16711746
0.5126366 -0.6500673 0.9737035 16711746
0.7095440 -0.8421252 0.7965042 16711746
0.1960504 -1.1068702 1.3862339 16711746
0.4292058 -0.5085242 0.6537925 16711746
0.2354080 -0.7689767 0.8305805 16711746
0.3341487 -0.3204793 0.9529523 16711746
0.3492277 -0.3288233 0.9278423 16711746
0.1897321 -0.2044897 0.7494681 16711746
0.3352813 -0.4309775 1.2622067 16711746
0.3062363 -0.7911087 0.8818887 16711746
0.6901655 -0.6040453 0.7542373 16711746
0.5656691 -1.2886132 1.1314162 16711746
0.1063918 -0.3411580 1.1221303 16711746
0.1080256 -0.3131415 0.5280203 16711746
0.4621711 -1.8044130 1.1668444 16711746
0.3071282 -0.7993152 0.6492692 16711746
0.3577737 -0.3504531 0.5751414 16711746
0.5945140 -0.3948161 0.6168093 16711746
0.7873986 -0.6658379 0.7169257 16711746
0.2989794 -0.5202310 0.7900181 16711746
0.1454135 -1.1209651 1.9710729 16711746
-0.4130485 -1.1653825 1.5032364 16711746
-0.4765109 -1.2872440 1.6296757 16711746
0.6145195 -2.2348039 3.1117506 16711746
0.4899311 -1.0143178 0.9703668 16711746
0.4392927 -0.5401236 0.6718960 16711746
0.4228493 -0.5013577 0.6518871 16711746
0.6010405 -0.7800093 1.0988282 16711746
0.7754157 -1.2455614 1.6590492 16711746
0.1935316 -0.8963405 1.1422505 16711746
0.9562010 -0.5606335 0.8461294 16711746
0.7519932 -0.9083895 0.9021241 16711746
0.4483531 -0.4552995 0.6079377 16711746
0.9198228 -0.7237478 0.6218049 16711746
0.9541022 -0.9352615 0.7258228 16711746
0.5825174 -0.6444187 0.7988435 16711746
0.3286945 -0.1706287 0.8982560 16711746
0.0856486 -1.0581573 1.1444530 16711746
0.2668360 -0.3259466 0.9118696 16711746
0.0434731 -0.3361645 0.6064599 16711746
0.9576634 -0.9479073 0.7339003 16711746
-0.1195466 -1.0040290 1.6588404 16711746
-0.0953302 -0.4324716 1.1637598 16711746
0.6854260 -0.8065696 0.7893338 16711746
1.1216398 -0.8635086 1.1708093 16711746
0.7885911 -0.2947778 1.0344813 16711746
0.0723975 -1.0719566 1.1647917 16711746
-0.1058848 -0.7820628 0.9449877 16711746
1.0307368 -0.9015265 0.8593302 16711746
0.2791960 -0.2064487 0.9322452 16711746
0.1257150 -0.6300796 1.1496196 16711746
-0.0350014 -0.5299466 1.6181799 16711746
-0.2897453 -0.8473305 1.7536371 16711746
0.4728361 -1.0519241 0.9207906 16711746
0.5185673 -0.4527586 0.7431095 16711746
-0.1466317 -0.9456130 0.9504073 16711746
-0.2340119 -0.9358575 1.0760211 16711746
-0.7158340 -1.3474449 1.4869490 16711746
0.2023965 -1.0955299 0.8879566 16711746
-0.0729933 -1.0621370 1.0794591 16711746
0.3082952 -1.1353405 0.8903971 16711746
0.5876752 -0.4288959 0.8582951 16711746
0.3784555 -0.4338202 0.8324711 16711746
-0.1522546 -0.8875580 1.0854318 16711746
-0.0246165 -0.9964341 0.9718593 16711746
0.3007504 -1.1280389 0.9140948 16711746
0.0433606 -0.5390943 0.7790667 16711746
0.4503654 -0.4538311 0.7957259 16711746
0.2440808 -0.1943012 0.7591496 16711746
0.6305496 -0.4280950 0.7578162 16711746
0.1337356 -1.5877528 1.3609329 16711746
1.0990909 -1.1446165 0.9570664 16711746
0.6231490 -0.9702296 1.3619995 16711746
0.3045333 -0.7183914 0.7512116 16711746
-0.2213681 -1.0660625 1.0184410 16711746
-0.1440947 -0.8530795 0.9040791 16711746
0.6448635 -0.6664893 0.6490470 16711746
-0.0422618 -0.9832364 1.0283034 16711746
-0.2406884 -0.9220927 1.0694582 16711746
0.6067984 -0.7185045 0.8879648 16711746
