# .PCD v.7 - Point Cloud Data file format
VERSION .7
FIELDS x y z rgb
SIZE 4 4 4 4
TYPE F F F F
COUNT 1 1 1 1
WIDTH 1215
HEIGHT 1
VIEWPOINT 0 0 0 1 0 0 0
POINTS 1215
DATA ascii
1.0691980 -0.6433636 2.5072076 16711746
0.6272970 -0.0686119 1.9973137 16711746
1.1655074 -0.4181298 2.1129401 16711746
1.0917131 -0.3763536 2.2411363 16711746
0.9309781 -0.1314465 2.1984348 16711746
1.4012926 -0.6983727 2.2218444 16711746
0.6296877 -0.4620744 2.2297869 16711746
0.7114483 -0.1949170 2.0728853 16711746
0.8352008 -0.0935207 2.0283940 16711746
0.4860274 -0.1751302 2.1051400 16711746
0.2476106 -0.4707783 2.3528464 16711746
0.4092571 -1.0665087 3.9515951 16711746
0.5959280 -0.6888354 2.1566188 16711746
-0.1339303 -0.6909240 2.6066420 16711746
0.9146987 -0.3082624 2.1562419 16711746
0.3281207 -1.1385000 2.4273958 16711746
0.9644293 -0.6660852 2.1454773 16711746
0.4767089 -1.0268875 2.4307053 16711746
0.9760547 -0.1841624 2.2169867 16711746
1.2181948 -0.6261727 2.1533010 16711746
1.0285325 -0.5738992 2.1917233 16711746
0.9823923 -0.1966920 2.2479570 16711746
0.7239261 -0.7835990 2.2944272 16711746
1.0410718 -0.5926822 2.1994011 16711746
0.6986557 -1.1219163 2.3992450 16711746
0.6974971 -0.5555060 2.2569783 16711746
0.5147912 -0.5815446 2.2614055 16711746
0.6437538 -0.9360383 2.3849807 16711746
0.5734711 -1.0714540 2.5943394 16711746
0.7009857 0.0777588 1.9357597 16711746
0.6300023 -0.4297216 2.2006853 16711746
0.8714144 -0.5838645 2.9060047 16711746
0.9215529 -0.0779160 2.1776810 16711746
-0.0010351 -0.7445288 2.4306316 16711746
0.8857923 -1.1135584 2.3923779 16711746
0.4306568 -1.1373521 2.6454501 16711746
0.9339739 -0.7347906 2.2947586 16711746
0.2341056 -0.5158276 3.0195310 16711746
0.1769249 -1.6269215 2.6035340 16711746
0.9597471 -1.7534834 2.4557815 16711746
0.9395372 -1.1326584 2.3177993 16711746
1.0435354 -0.8444877 2.3184013 16711746
0.9967384 -0.1326735 2.6119864 16711746
1.1725022 -0.8667928 2.7746365 16711746
0.9713492 -0.1134381 2.5510390 16711746
1.0874285 -0.6119683 2.3407631 16711746
0.3403972 -1.1337472 2.5766010 16711746
0.8939823 -0.7040430 2.1358175 16711746
0.9712368 -0.8381771 3.6651866 16711746
1.0766184 -0.4927442 3.0790093 16711746
-1.0514557 -2.7847176 3.0216775 16711746
0.9521335 -0.0967843 2.5088446 16711746
0.1242911 -0.9688022 2.4660914 16711746
1.0043411 -0.5131838 2.5230098 16711746
0.8267409 -0.2646209 2.6020906 16711746
0.8807345 -0.3499528 3.1127424 16711746
-0.1059009 -0.9972187 2.6557953 16711746
0.8382601 -0.1707158 2.5567112 16711746
0.0962371 -0.6789187 2.4896362 16711746
-0.1189006 -1.2483279 2.5478280 16711746
0.6183605 -0.2005673 2.1010861 16711746
0.9401281 -0.4250189 2.1965215 16711746
1.1101528 -0.5911026 2.6743741 16711746
0.3670939 -0.7034386 2.7567558 16711746
1.0353519 -0.4480102 2.9673853 16711746
-0.6886408 -1.7261363 2.9428744 16711746
0.9812391 -0.7626423 2.4077213 16711746
0.3601347 -0.6810219 2.2893503 16711746
0.3859639 -0.5850538 2.3478701 16711746
-0.2641985 -1.9226426 2.8004959 16711746
-0.5419158 -1.5331919 2.8321905 16711746
0.8079509 -0.4475671 2.1190403 16711746
0.9738478 -0.4612985 2.2738004 16711746
0.5714596 -0.5230718 2.3668408 16711746
0.7737502 -0.4120845 2.1927571 16711746
0.5869343 -0.5836284 2.3262098 16711746
1.0073529 -1.1824466 2.7192047 16711746
0.9514104 -0.6237949 2.4554086 16711746
1.1010953 -0.6926619 2.5622373 16711746
1.1580827 -0.8041876 2.6535850 16711746
-0.0775837 -1.1279562 2.3843706 16711746
1.0124749 -0.5363678 2.1790960 16711746
0.9258488 -0.3293616 2.1274424 16711746
0.1379422 -0.5736333 2.6712174 16711746
0.8541459 -0.5690888 2.2965631 16711746
0.8775342 -0.4349001 2.3766155 16711746
0.9606645 -0.8050712 2.2443585 16711746
0.5608495 -0.6839998 2.3647614 16711746
0.5692200 -0.6387091 2.2637782 16711746
0.8919605 -0.7373758 2.3835280 16711746
1.2072784 -0.2830630 2.2755876 16711746
-0.4931783 -1.8453416 2.7604477 16711746
1.1323096 -0.8132297 2.8170373 16711746
1.0376295 -0.4846958 2.4774296 16711746
0.8303941 -0.1700540 2.3007982 16711746
0.8823757 -0.2640043 2.4507344 16711746
1.6316335 -1.2715895 4.9877925 16711746
1.0694963 -1.4681485 2.4074733 16711746
0.7941631 -0.7168402 2.6277976 16711746
1.3739113 -0.6236410 2.3092625 16711746
1.0934418 -1.1031135 2.6488690 16711746
1.4017985 -0.5307143 2.3128622 16711746
1.3069741 -0.4398992 2.2596874 16711746
0.9784504 -0.7229192 2.5351949 16711746
0.9446257 -0.7195991 2.2936609 16711746
0.6214805 -0.5069622 2.1654732 16711746
0.9243081 -0.3339280 2.1071322 16711746
0.5575899 -0.1619535 2.1132267 16711746
0.7646083 -0.3536189 2.1554148 16711746
0.9469231 -0.2361827 2.1428578 16711746
0.8893925 -0.1775936 2.1103811 16711746
-0.4233468 -1.9325652 2.8777366 16711746
1.4585527 -1.0989304 2.2909648 16711746
1.2478205 -0.8797939 2.9516690 16711746
0.8434172 -0.4916530 2.2320189 16711746
0.8252138 -0.3341993 2.2424328 16711746
0.6649816 -1.4436558 4.2474294 16711746
1.1383382 -1.0936288 2.8873961 16711746
0.8365588 -1.3877395 3.0924041 16711746
0.8855347 -0.9934796 2.2940414 16711746
2.2269218 -0.7390663 2.8140731 16711746
0.7659011 -0.8030377 2.3113446 16711746
1.1980171 -0.6275378 2.1838899 16711746
0.9611192 -0.5314874 2.3480554 16711746
1.6114279 -0.4661035 2.4590595 16711746
0.7612430 -0.6195680 2.2730412 16711746
0.9830559 -0.4463990 2.2701917 16711746
0.7818888 -1.3983107 3.1589868 16711746
1.2257560 -1.0816932 2.8003221 16711746
1.3865731 -1.1403437 3.7256389 16711746
0.8996450 -0.1544670 2.1284261 16711746
1.4855791 -1.2495502 3.4206219 16711746
0.7339962 -0.7516582 2.3184354 16711746
0.7815343 -0.5323315 2.2844236 16711746
1.1929040 -0.4288901 2.4414859 16711746
0.5745637 -0.5082588 2.6213355 16711746
0.6722761 -0.6247805 2.4073868 16711746
0.6022744 -0.6151276 2.3352184 16711746
0.6741936 -0.3973252 2.4034040 16711746
0.1871617 -0.3465978 2.5736825 16711746
0.5303714 -0.3688770 2.5622108 16711746
0.7281293 0.0177127 2.0949872 16711746
0.7574852 -0.9731767 2.6521354 16711746
1.0662065 -0.9214073 2.2916636 16711746
0.4830593 -0.7005527 2.5669882 16711746
1.0099515 -1.1025084 2.3890240 16711746
0.3907748 -0.8509936 3.2254155 16711746
0.4933864 -0.7949674 3.3341970 16711746
1.5239029 -0.9009486 2.7725053 16711746
0.6780722 -1.3167176 2.9472139 16711746
0.7337770 -1.1152476 2.7223330 16711746
0.0389112 -1.4562103 2.9857771 16711746
0.6723331 -1.0650059 2.7128978 16711746
0.6661797 -1.1372070 2.7208135 16711746
0.6902647 -1.6617794 2.9955297 16711746
1.7211016 -1.6255869 3.7789917 16711746
1.4690986 -1.9049872 3.6030157 16711746
0.8062204 -1.5388111 3.0137324 16711746
1.0911093 -2.0048623 3.2891791 16711746
0.5039821 -0.6999732 2.6292737 16711746
0.6524755 -0.2436809 2.2794926 16711746
0.6671259 -0.0894657 2.3150506 16711746
1.3867737 -0.6470824 2.2703342 16711746
0.7402573 -0.0009606 2.0975261 16711746
1.4819350 -1.0010772 3.3575132 16711746
1.7120329 -1.2439950 3.4699697 16711746
0.7948363 -0.6193581 2.4095426 16711746
0.7472301 -0.1887339 2.2366741 16711746
2.5963027 -1.3695489 5.7532420 16711746
0.9302728 -0.4510297 2.3071227 16711746
0.5651399 -0.5992917 2.3366456 16711746
0.9585105 -0.8583795 2.3541703 16711746
0.8373668 -0.9382781 2.3077009 16711746
1.1999346 -0.4778273 2.5262806 16711746
0.7904848 -0.4316814 2.3817716 16711746
1.0347860 -0.2458476 2.3091178 16711746
0.7986716 -0.0219012 2.2060409 16711746
1.5715683 -0.7118673 2.2600069 16711746
0.7642481 -0.0458403 2.1560771 16711746
1.1367859 -0.6952645 2.4752045 16711746
0.7869964 -0.1530436 2.2491057 16711746
1.2583156 -0.2772499 2.6346486 16711746
0.8083856 -0.7179291 2.5632892 16711746
1.6299286 -0.7691063 2.2817330 16711746
0.9216288 -1.0474898 2.4635038 16711746
0.9677737 -0.3554255 2.2797530 16711746
0.7893757 -0.1996761 2.2366369 16711746
0.7638525 -0.6464463 2.2798531 16711746
0.4414819 -1.0607547 2.7301738 16711746
1.2676907 -0.4890041 2.1397381 16711746
1.2590590 -0.6142402 2.1932070 16711746
1.3750714 -0.6758769 2.7995386 16711746
0.1886888 -0.2176574 2.4693477 16711746
0.7056124 -0.3302355 2.2088490 16711746
1.5074126 -0.7488548 3.0748723 16711746
1.4130142 -1.2368698 3.4420030 16711746
1.1502751 -0.4145498 2.4123178 16711746
1.1694633 -0.6616452 2.9075367 16711746
0.7726796 0.1003043 2.1420984 16711746
1.1150531 -0.6584324 2.7012618 16711746
1.0231408 -0.4464190 2.6078999 16711746
1.0976627 -0.2698071 2.4212718 16711746
0.7453669 -0.5585408 2.5889468 16711746
0.8935654 -0.6071017 2.4129207 16711746
0.6233186 -0.3526706 2.8230722 16711746
1.0146147 -0.3031973 2.2967491 16711746
0.9227167 -0.3933775 2.7249351 16711746
0.9773003 -0.6986541 2.5482893 16711746
1.0106251 -0.8109306 2.3932848 16711746
0.6755981 -0.7015935 2.8277078 16711746
0.8041765 -0.4350057 2.5142355 16711746
1.0477351 -0.6066528 2.6447868 16711746
1.2557807 -0.4905159 2.2535498 16711746
1.1914141 -0.2978362 2.2902534 16711746
0.9229525 -0.5908513 2.4747944 16711746
0.8500869 -0.5297265 2.4276032 16711746
0.6673504 -0.3969654 3.0746138 16711746
0.7876354 -0.5159127 2.4564302 16711746
0.6001985 -0.2612622 2.6601980 16711746
0.9615068 -0.1819737 2.2356415 16711746
0.9841221 -0.3959976 2.6133029 16711746
0.7347810 0.1156734 2.1324039 16711746
0.9289618 -0.2562470 2.4176443 16711746
0.9244728 -0.6333962 2.3996258 16711746
0.9098359 -0.2813233 2.3523161 16711746
1.0468949 -0.7259213 2.5801749 16711746
1.0040933 -0.2979628 2.2618649 16711746
0.9705146 -0.0770205 2.2520428 16711746
0.5794830 -0.1647230 2.7777481 16711746
1.7511284 -0.4619507 3.5641847 16711746
0.5818207 -1.8491244 4.8145752 16711746
1.4810253 -0.2829513 2.5245657 16711746
0.7842601 -0.0618654 2.3149760 16711746
0.7433407 0.1242161 2.1341553 16711746
0.8535874 -0.2549197 2.3119898 16711746
0.7185990 -0.1083168 2.2271380 16711746
0.6993144 -0.1536056 2.2797782 16711746
0.8500594 -0.0634608 2.1945722 16711746
0.8173815 -0.1181609 2.5170949 16711746
0.6841512 -0.0688994 2.2677181 16711746
0.6606190 -0.2107149 2.3465500 16711746
1.0139947 -0.3427687 2.5495615 16711746
0.9120473 -0.0607109 2.1850548 16711746
0.6133028 -0.2568654 2.6392312 16711746
0.6403857 -0.0604524 2.2649195 16711746
0.7944222 0.0202710 2.3500686 16711746
0.8789756 0.0100144 2.1782241 16711746
0.7925320 -0.1673005 2.2499807 16711746
0.8792690 -0.1020926 2.3735673 16711746
0.8993092 -0.1614189 2.3941205 16711746
1.0777688 -0.5572669 2.6955781 16711746
0.5918924 -0.0419876 2.2526448 16711746
0.7744468 0.0625637 2.2864060 16711746
0.9881130 -0.1172159 2.2400053 16711746
1.1055273 0.0083529 2.4156160 16711746
0.7572737 0.0251263 2.1759427 16711746
0.8506584 -0.0128257 2.2040792 16711746
0.7144002 -0.0739736 2.2010989 16711746
0.9359750 -0.7859709 2.2925167 16711746
0.9129974 -0.5795829 2.2226925 16711746
0.9705751 -0.8087808 2.3502254 16711746
0.5555001 -0.8487749 2.4570336 16711746
0.6076638 -0.6952820 2.4401598 16711746
0.8646249 -0.7153903 2.3180871 16711746
0.6182598 -0.4766853 2.3857834 16711746
0.9216978 -0.9868393 2.3544934 16711746
0.9678268 -0.1808609 2.4057362 16711746
-0.2817335 -0.4010262 3.0562670 16711746
0.4663112 -1.2968235 3.4039698 16711746
0.6555462 -0.9601579 2.7585499 16711746
1.2459015 -0.8952426 2.9876654 16711746
0.4329788 -0.9076183 2.6268449 16711746
0.5652360 -0.8930354 2.6975648 16711746
1.0007392 -0.8544587 2.3814912 16711746
0.7879151 -0.9395186 2.4205995 16711746
0.1774313 -0.7971255 2.9034953 16711746
0.4514467 -0.7723623 2.7030466 16711746
0.5924873 -0.8553498 2.8749976 16711746
0.4841757 -0.6548029 2.6891191 16711746
0.5019123 -0.9036273 2.8138132 16711746
0.5718156 -1.0574812 2.4291584 16711746
1.0079598 -0.9020546 2.3957338 16711746
0.5420083 -0.8290587 2.7666891 16711746
0.7695644 -1.2626983 2.6061265 16711746
0.3567501 -1.0148516 2.9520030 16711746
0.5533518 -0.8876604 2.5539668 16711746
0.4697003 -0.7113762 2.5597386 16711746
0.2515016 -0.8448705 2.9223113 16711746
0.3713714 -0.6585422 2.9259629 16711746
1.0347092 -1.0950063 2.5827854 16711746
0.5366571 -1.3698175 2.5316970 16711746
0.7669700 -0.8235378 3.6838582 16711746
1.3562572 -0.5765657 2.1684098 16711746
0.8735589 -0.3564698 2.5788291 16711746
1.2628067 -0.4255397 2.3833005 16711746
1.0098019 -1.0211358 2.5408809 16711746
1.3074255 -1.0178840 2.8647685 16711746
-0.1842236 -0.7086704 2.7033999 16711746
0.8574367 -0.7668441 2.3935022 16711746
0.3866010 -0.9181331 3.1160431 16711746
1.2163196 -1.0148503 3.0838430 16711746
0.2021074 -0.4754041 3.1464832 16711746
1.6788552 -0.4882052 2.5408511 16711746
0.7890560 -1.1318600 2.4585485 16711746
0.8800707 -0.2464353 2.2409658 16711746
0.7089257 -1.1329023 2.4118118 16711746
0.9313105 -0.6308070 2.3771954 16711746
0.9643085 -0.8712325 2.3663881 16711746
1.1050708 -0.6861604 2.7290990 16711746
0.8626513 -0.9239901 2.3409855 16711746
1.1723500 -0.8456249 2.8588068 16711746
1.0966877 -0.3389486 2.1860404 16711746
1.2484591 -0.5818772 3.8026996 16711746
0.7703981 -0.4257965 2.3043692 16711746
1.0240066 -0.2829036 2.3344629 16711746
1.3761054 -0.3173048 2.4106712 16711746
1.2326138 -0.3723344 2.6448700 16711746
1.1081010 -0.2357626 2.2775707 16711746
1.4485644 -0.4862346 2.3723984 16711746
1.0554818 -0.2444761 2.4434745 16711746
1.5042350 -0.4103271 2.4767604 16711746
0.7943703 -0.2668795 2.8755190 16711746
1.1019827 -0.4941007 2.9032288 16711746
1.1465291 -0.4543413 3.0277767 16711746
1.3193704 -0.6749817 3.2326653 16711746
1.3627056 -0.4183578 2.4233167 16711746
1.1642591 -0.3260615 3.1708803 16711746
0.6164437 -0.7501627 2.4327664 16711746
1.1541595 -0.9283977 2.6715462 16711746
0.7268704 -0.7179479 3.0827267 16711746
1.0610094 -0.2652179 2.8785467 16711746
1.2167943 -0.3674303 2.3054044 16711746
1.1102268 -0.4068512 2.4012728 16711746
1.6282200 -0.5312575 3.0811288 16711746
0.2063032 -0.8975585 2.7158566 16711746
0.7756340 -0.2451935 2.5873446 16711746
1.0387591 -0.3075671 2.3190804 16711746
1.2481655 -0.4466276 2.3466618 16711746
1.7216182 -1.3278887 3.0065038 16711746
1.3843297 -0.9640956 3.0978322 16711746
0.7059278 -0.2725048 2.3199980 16711746
1.0888164 -0.9682707 2.5396409 16711746
0.7254894 0.1016255 2.1241755 16711746
0.5207081 -0.4312886 2.3085907 16711746
1.0828450 -0.4958848 2.6530244 16711746
0.9352444 -0.3343530 2.6861510 16711746
0.7888380 -0.1125546 2.2171841 16711746
0.9313425 -0.0498370 2.2388303 16711746
0.8751097 -0.0476228 2.2262032 16711746
0.8369940 -0.0905483 2.2171035 16711746
0.8069965 0.0279488 2.1925008 16711746
0.7917996 0.0131971 2.1811261 16711746
0.8936754 -0.0174825 2.2173800 16711746
0.8102448 -0.0115092 2.2319949 16711746
0.7578471 -0.0418675 2.2723658 16711746
1.1468426 -0.1499844 2.2542443 16711746
0.8050691 0.0579939 2.1738446 16711746
0.8119966 -0.0005962 2.1924357 16711746
0.7530341 -0.0228910 2.3013637 16711746
0.9010109 -0.1056068 2.4070725 16711746
0.7340471 0.0002752 2.1957753 16711746
0.8145148 -0.1949960 2.2759221 16711746
0.8108607 -0.0542179 2.2043071 16711746
0.7850732 -0.0733867 2.2369895 16711746
0.8308355 -0.0415062 2.2337160 16711746
0.7362680 0.0311768 2.1826506 16711746
0.7984945 -0.0344055 2.2393570 16711746
0.7981829 -0.0505724 2.1988919 16711746
0.9106892 -0.0084652 2.2233663 16711746
0.8882812 0.0286701 2.2097738 16711746
0.7732004 0.0464261 2.2011769 16711746
0.7337448 -0.1703584 2.2287219 16711746
0.9071609 -0.0340135 2.2244391 16711746
0.7366820 -0.1035041 2.2113523 16711746
0.8283833 0.0205138 2.2589231 16711746
0.8849544 0.0144146 2.2094393 16711746
0.8067028 -0.0921259 2.2987549 16711746
0.7629427 -0.0876286 2.2897921 16711746
0.9043625 -0.0032470 2.2199697 16711746
0.8931484 -0.1323349 2.3777726 16711746
0.7456508 0.0342337 2.3129079 16711746
0.7982867 -0.0444128 2.2104237 16711746
0.8314555 -0.1872966 2.2605855 16711746
0.7852002 -0.0344179 2.2404902 16711746
0.9082526 0.0517450 2.2447238 16711746
0.8321922 0.0342816 2.2601814 16711746
0.8535056 -0.0176780 2.1883802 16711746
0.7752678 -0.0129027 2.2236602 16711746
0.8386344 -0.0741804 2.2722316 16711746
0.8072844 -0.0129563 2.2292931 16711746
0.7520227 -0.0230324 2.2679298 16711746
0.7613937 -0.0105602 2.4868085 16711746
0.9024590 -0.0170703 2.4449410 16711746
0.8585136 -0.0218697 2.1979187 16711746
0.8603888 -0.0004869 2.1896398 16711746
0.8697088 -0.0536701 2.2060864 16711746
0.8068452 0.0555317 2.1745672 16711746
0.3585500 -0.3165485 2.3447492 16711746
0.7086302 -0.1234878 2.2383652 16711746
0.8307655 -0.1489140 2.2843850 16711746
1.1912652 -0.2011440 2.8514168 16711746
0.6842263 -0.1011674 2.2462440 16711746
0.7595937 -0.0438053 2.2714846 16711746
0.8180991 -0.1979582 2.2594998 16711746
0.7824227 0.0032020 2.2216568 16711746
0.7584398 -0.0802568 2.3539143 16711746
0.7593936 -0.0381878 2.3201456 16711746
0.7637614 0.0224647 2.3952153 16711746
0.8334128 0.0636656 2.2585008 16711746
0.8093972 -0.0190069 2.2319987 16711746
0.7559087 -0.0863611 2.5408790 16711746
0.8641740 0.0149157 2.2166800 16711746
0.8247896 0.0456378 2.2270613 16711746
0.8744969 -0.0194443 2.1951058 16711746
0.8377838 0.0106652 2.1981058 16711746
0.7997169 0.0609990 2.1986568 16711746
0.8891175 -0.0644121 2.2009513 16711746
0.9153761 -0.0673865 2.2703369 16711746
0.8061352 0.0645110 2.1867630 16711746
0.8611808 0.0536841 2.1796515 16711746
0.7796764 0.0512555 2.2182546 16711746
0.8035575 -0.0378849 2.2215562 16711746
0.8007464 0.0836985 2.1811821 16711746
0.7391875 0.0296042 2.2965384 16711746
0.7633687 -0.0903161 2.2920258 16711746
0.8777299 -0.0326708 2.2056758 16711746
0.7634089 0.1101775 2.1626236 16711746
0.7405211 0.1273250 2.1582282 16711746
0.7584904 0.1132246 2.1536899 16711746
0.7731528 -0.0430844 2.2326725 16711746
0.7976210 0.0570680 2.1815987 16711746
0.8925833 -0.0504825 2.2132096 16711746
0.8058736 0.0660441 2.1815751 16711746
0.7928967 0.0486896 2.2193642 16711746
0.8576936 0.0169524 2.1801457 16711746
0.5385391 -0.0667620 2.2684970 16711746
0.8270875 0.0725460 2.2486653 16711746
0.7751930 0.0432174 2.2422593 16711746
0.7427720 0.0034148 2.2241991 16711746
0.7435144 -0.0350823 2.2301798 16711746
0.8621364 0.0604512 2.2461841 16711746
0.8009816 -0.0344258 2.2126358 16711746
0.9928653 -0.0378525 2.3478084 16711746
0.8270257 0.0090690 2.2827492 16711746
0.8409899 0.0948913 2.2900083 16711746
0.8531091 0.0164039 2.3420334 16711746
0.8322056 0.0591523 2.2858112 16711746
0.8091613 0.0156662 2.2670488 16711746
0.8386596 0.0497607 2.2750330 16711746
0.7741410 0.1043091 2.3160441 16711746
0.8678913 0.0738037 2.2414973 16711746
0.7952150 0.0871531 2.2742701 16711746
0.8842612 0.0670392 2.3044457 16711746
0.7715536 0.0457336 2.2802424 16711746
0.7844742 0.0574521 2.2706215 16711746
0.8512472 0.0573201 2.2510808 16711746
0.8773997 0.0662322 2.4099314 16711746
0.6994572 0.1104639 2.4153907 16711746
0.7803065 0.0683352 2.2850628 16711746
0.7833024 0.0632739 2.2671092 16711746
0.7688124 0.0670568 2.2805862 16711746
0.7727716 0.0359597 2.2784503 16711746
0.8168206 0.0958866 2.2904465 16711746
0.7760329 0.0335385 2.2961071 16711746
0.8466229 0.0705400 2.3127372 16711746
0.6648483 0.0967773 2.3653917 16711746
0.8786945 0.0796562 2.2915223 16711746
0.9325882 0.0701189 2.2578788 16711746
0.7707101 0.0142760 2.2907941 16711746
0.8185509 0.0826650 2.2513034 16711746
0.7797196 0.0610103 2.2777658 16711746
0.7944351 0.0128686 2.3049722 16711746
0.7920216 0.0982994 2.3622239 16711746
0.7181611 0.0925770 2.3727920 16711746
0.8823317 0.0819778 2.2335868 16711746
0.7817276 0.0674024 2.2644265 16711746
0.8182069 0.0823404 2.2514400 16711746
0.8768411 0.0643826 2.2468019 16711746
0.7971132 0.0805596 2.3640587 16711746
0.7184146 0.0925759 2.3727477 16711746
0.8475667 0.0838267 2.2799153 16711746
0.7917888 0.0417303 2.3368394 16711746
0.9076577 0.0303077 2.2616100 16711746
0.7810143 0.0616351 2.2680228 16711746
0.7624288 0.0915556 2.2682920 16711746
0.7942938 0.0882044 2.2679133 16711746
0.8095610 0.0695762 2.2592294 16711746
0.8888305 0.0593230 2.3556523 16711746
0.7916900 0.0546401 2.2743344 16711746
0.7924227 0.0473918 2.3305769 16711746
0.7750831 0.1100646 2.2668805 16711746
0.8096539 0.0695961 2.2509699 16711746
0.8988401 0.0742645 2.3836861 16711746
0.7931883 0.0554862 2.3290534 16711746
0.7650902 0.0539654 2.2993596 16711746
0.7331054 0.1019069 2.3653183 16711746
0.8319251 0.1170354 2.3020849 16711746
0.7718074 0.0279801 2.2840359 16711746
0.7283323 0.1338062 2.2710452 16711746
0.7676197 0.1085995 2.3059962 16711746
0.8192680 0.0945599 2.2876971 16711746
0.7750844 0.0724967 2.2669199 16711746
0.8509947 0.0176194 2.3525126 16711746
0.7084364 0.1334037 2.3154747 16711746
0.8668393 0.0835299 2.3676922 16711746
0.7670492 0.0642044 2.3024888 16711746
0.7696638 0.1367161 2.2210665 16711746
0.8688688 0.0818924 2.3921843 16711746
0.7277437 0.0233286 2.2997615 16711746
0.7438949 0.0194932 2.2820528 16711746
0.8728943 0.0379787 2.3039796 16711746
0.7437537 0.0489840 2.3380182 16711746
0.7448453 0.1475372 2.2697885 16711746
0.7595179 0.1039788 2.2413890 16711746
0.7570754 0.0428244 2.3069553 16711746
0.8272021 0.0959371 2.3878701 16711746
0.8151004 0.1122448 2.2376084 16711746
0.7691134 0.1273538 2.2283971 16711746
0.8076931 0.1136546 2.2355936 16711746
0.7690752 0.1001703 2.2368634 16711746
0.7660696 -0.1415542 2.3479609 16711746
0.8519798 0.0135736 2.3561728 16711746
0.8047237 -0.1323251 2.3242233 16711746
0.8082750 0.1045128 2.2389951 16711746
0.7666773 0.0640127 2.2618155 16711746
0.7681327 0.0581207 2.2500839 16711746
0.7930792 0.0725188 2.2498174 16711746
0.8241712 0.0290986 2.2614558 16711746
0.8379374 0.0542650 2.2421346 16711746
0.7583598 0.0923793 2.2607930 16711746
0.7718609 0.0919344 2.2385247 16711746
0.7695298 0.1343939 2.2266946 16711746
0.7515688 0.0533414 2.2640533 16711746
0.7798783 0.0525279 2.2628515 16711746
0.8046818 0.0965081 2.2358878 16711746
0.8094972 0.0674830 2.2601836 16711746
0.7730500 0.0418641 2.2610281 16711746
0.7256575 0.0006298 2.3253956 16711746
0.8097098 0.1112971 2.2423573 16711746
0.7470295 0.0828931 2.2814083 16711746
0.8056107 0.0131292 2.4830477 16711746
0.7510730 0.0615238 2.2838745 16711746
0.6690398 0.0910938 2.2986972 16711746
0.8558558 0.0929720 2.3199327 16711746
0.7777777 0.0889629 2.2429276 16711746
0.8467147 0.0685599 2.3186278 16711746
0.6981142 0.1073872 2.3204513 16711746
0.8477158 0.0623504 2.2550902 16711746
0.7697404 0.0713700 2.2468452 16711746
0.8307288 0.0782286 2.2961900 16711746
0.7816363 0.1343444 2.2305217 16711746
0.8543497 0.0599844 2.2646799 16711746
0.8626927 0.0652553 2.3205078 16711746
0.8744231 0.0732524 2.2657824 16711746
0.8073133 0.1021667 2.2721934 16711746
0.8181344 0.1034146 2.3088925 16711746
0.7980325 0.1158552 2.2494698 16711746
0.8812734 0.0796573 2.3544433 16711746
0.9778331 0.0081133 2.5825872 16711746
0.8079495 0.0952378 2.2418952 16711746
0.8753488 0.0691224 2.3669500 16711746
0.9335552 0.0799167 2.4642715 16711746
0.8806093 0.0660715 2.2700636 16711746
0.8315051 0.1075869 2.3030324 16711746
0.8077933 0.0996684 2.2644217 16711746
0.7983276 0.0905525 2.3239770 16711746
0.7635370 0.1025641 2.3053207 16711746
0.7961468 0.0522461 2.4011719 16711746
0.7757229 0.0657112 2.3077567 16711746
0.7440085 0.1172133 2.2432654 16711746
0.7641671 0.1104433 2.3171041 16711746
0.7932421 0.1020432 2.3181019 16711746
0.8989558 0.0886958 2.4109263 16711746
0.8051621 0.1176099 2.2708814 16711746
0.8471990 0.0436287 2.3939602 16711746
0.8790627 0.0937433 2.3813787 16711746
0.8310648 0.0988060 2.2756603 16711746
0.9131778 0.0478193 2.4556258 16711746
0.8828973 0.0617527 2.3632772 16711746
0.8701648 0.0319016 2.4245465 16711746
0.8548152 0.0862765 2.2578351 16711746
0.9346759 0.0902833 2.4866328 16711746
0.8060113 0.0937462 2.2400956 16711746
0.7997233 0.1504573 2.2381103 16711746
0.8441142 0.0790704 2.3356688 16711746
0.8618982 0.0797634 2.2517104 16711746
0.7798716 0.1443163 2.2697923 16711746
0.7836277 0.1227684 2.2449548 16711746
0.7658756 0.0933085 2.2838113 16711746
0.8097355 0.0776633 2.2454257 16711746
0.8125065 0.0831082 2.2750702 16711746
0.8201001 0.0934773 2.2802632 16711746
0.8299958 0.0333201 2.3140073 16711746
0.8999324 0.1049490 2.3978322 16711746
0.8958933 0.0951114 2.4057736 16711746
0.7774259 0.1120781 2.2522540 16711746
0.7483582 0.0681874 2.3914461 16711746
0.8483191 0.0731568 2.2441511 16711746
0.7237883 0.1175758 2.2650831 16711746
0.8406992 0.0671533 2.3266904 16711746
0.7548488 0.0649087 2.3589439 16711746
0.9508813 0.0571306 2.5326734 16711746
0.8683336 0.0931100 2.4127812 16711746
0.8308592 0.0841039 2.2994077 16711746
0.8672944 0.0537451 2.3769252 16711746
0.7628157 0.0929958 2.2642255 16711746
0.8447986 0.0578077 2.3359029 16711746
0.7690446 0.0656328 2.2921391 16711746
0.8455749 0.0313851 2.3150504 16711746
0.8178311 0.1174609 2.3053722 16711746
0.7156172 0.0653270 2.3313134 16711746
0.7623711 0.0633940 2.3732853 16711746
0.8336927 0.0728717 2.3124266 16711746
0.6594880 0.0768542 2.5041840 16711746
0.7076159 0.0248183 2.3801484 16711746
0.9049679 0.0990476 2.3570035 16711746
0.8918598 0.0943821 2.3463507 16711746
0.7836241 0.1072625 2.2750266 16711746
0.7482719 0.1297065 2.2519519 16711746
0.8721994 0.0751771 2.3313572 16711746
0.8267809 0.0757087 2.2955101 16711746
0.8304910 0.1229359 2.3322201 16711746
0.7582852 0.0943949 2.3041213 16711746
0.8529149 0.0846446 2.3240163 16711746
0.8137553 0.0905233 2.3415613 16711746
0.8633069 0.0369010 2.3573031 16711746
0.8219222 0.0882417 2.2899835 16711746
0.7123496 0.1068757 2.2743287 16711746
0.7220275 0.0202357 2.4148920 16711746
0.8542070 0.0799027 2.3092053 16711746
0.8457609 0.0782307 2.3140888 16711746
0.7512156 0.0595596 2.3467400 16711746
0.9060229 0.0643996 2.4375384 16711746
0.9198630 0.0990724 2.4591358 16711746
0.7225062 0.0755926 2.2769485 16711746
0.8102873 0.0853643 2.3454278 16711746
0.9233649 0.1167837 2.3595464 16711746
0.8478042 0.0970236 2.3447609 16711746
0.7732132 0.0419257 2.3265281 16711746
0.8467705 0.1043467 2.2983837 16711746
0.8421190 0.1210654 2.3474011 16711746
0.8382025 0.0217023 2.3014097 16711746
0.8348694 0.0763579 2.3007579 16711746
0.7502872 0.0066928 2.3629503 16711746
0.7375039 0.0863748 2.3396692 16711746
0.8310313 0.1011325 2.3876758 16711746
0.7366084 0.0651856 2.3166127 16711746
0.7106562 0.1333546 2.3228390 16711746
0.7350876 0.0623807 2.3328364 16711746
0.6723247 0.0185983 2.3041723 16711746
0.7548547 0.1288399 2.2554994 16711746
0.7483096 0.1162991 2.2566419 16711746
0.8398362 0.0642884 2.3283970 16711746
0.8663205 0.0973851 2.3367417 16711746
0.7260483 0.0417954 2.3388166 16711746
0.8440508 0.1150095 2.2888846 16711746
0.8096721 0.0772707 2.3659616 16711746
0.8718251 0.0929411 2.3864996 16711746
0.8098634 0.1406679 2.2674000 16711746
0.8489740 0.0841588 2.3032079 16711746
0.9043251 0.1027394 2.4126894 16711746
0.8288872 0.1089849 2.3284931 16711746
0.8325813 0.1187103 2.2830043 16711746
0.8363538 0.0756908 2.3201354 16711746
0.7920349 0.1052304 2.3273413 16711746
0.8406417 0.0967081 2.3020644 16711746
0.8545661 0.1256115 2.3018157 16711746
0.7941164 0.0572318 2.3812485 16711746
0.8583655 0.1298056 2.2614443 16711746
0.9603024 0.0761430 2.5285952 16711746
0.8202271 0.1230013 2.2744281 16711746
0.7978008 0.1006958 2.2755129 16711746
0.8396924 0.0899372 2.3039212 16711746
0.7919490 0.1201320 2.3068616 16711746
0.8082648 0.1341851 2.2699261 16711746
0.8064351 0.0904610 2.3316123 16711746
0.7945787 0.0875990 2.3426421 16711746
0.7956765 0.0848341 2.2924402 16711746
0.7986028 0.0623435 2.3157034 16711746
0.7206287 -0.0671360 2.3698628 16711746
0.8131569 0.0606806 2.2820621 16711746
0.7375643 0.0703423 2.3168504 16711746
0.8292574 0.0889029 2.2635763 16711746
0.7973329 0.0332458 2.3612819 16711746
0.7867489 0.1298048 2.3336596 16711746
0.7844154 0.1018817 2.3584993 16711746
0.7805371 0.1135760 2.3206129 16711746
0.6969362 -0.0565595 2.3951681 16711746
0.8224829 0.0803434 2.3361561 16711746
0.8479146 0.0515833 2.4109862 16711746
0.8064483 0.1035516 2.3152406 16711746
0.8354005 0.0740313 2.2696648 16711746
0.7913243 0.0655778 2.3504918 16711746
0.8675786 0.0058574 2.5227718 16711746
0.8391666 0.1261698 2.3232181 16711746
0.8990099 0.0830151 2.3014870 16711746
0.7668486 0.1125216 2.2923794 16711746
0.8124056 0.1407436 2.2472370 16711746
0.6992325 0.0079096 2.3972387 16711746
0.8571522 0.0679385 2.3446569 16711746
0.7819856 0.0449558 2.3420813 16711746
0.7969253 0.1099531 2.2730064 16711746
0.7931110 0.0967929 2.3242898 16711746
0.7963659 0.1004140 2.2858734 16711746
0.9194640 0.0556707 2.3047018 16711746
0.8415859 0.0738015 2.2794657 16711746
0.7934555 0.0405610 2.3767366 16711746
0.8669745 0.0950531 2.3385403 16711746
0.8326980 0.1548734 2.2467921 16711746
1.0189379 -0.0259005 2.6624663 16711746
0.7281820 -0.0058577 2.4064469 16711746
0.7836400 0.1130534 2.2965574 16711746
0.8025740 0.0429775 2.3241603 16711746
0.6473517 0.0805563 2.3706770 16711746
0.8064486 0.1017839 2.3083620 16711746
0.7993110 0.1277582 2.2944043 16711746
0.7446955 0.0126557 2.3231039 16711746
0.6489139 -0.1012893 2.4545166 16711746
0.8457287 0.0862406 2.3376327 16711746
0.6354958 0.0752762 2.5473094 16711746
0.9832693 0.0167256 2.3010774 16711746
0.8419257 0.0486753 2.3194048 16711746
0.7962965 0.0708637 2.3175089 16711746
0.8236837 0.1033367 2.2620332 16711746
0.8095984 0.0686996 2.3587887 16711746
0.6715424 -0.0805186 2.3951375 16711746
0.8050392 0.0993255 2.2833731 16711746
0.7776768 -0.0065097 2.3724701 16711746
0.8374686 0.1047054 2.2978256 16711746
0.8791192 0.1332704 2.3139622 16711746
0.8423393 0.0920293 2.2949066 16711746
1.0020968 0.0530581 2.5069556 16711746
0.8990005 0.0502920 2.3802738 16711746
0.8424516 0.0782005 2.3088005 16711746
0.8183493 0.0840056 2.3858676 16711746
0.8684824 0.0811233 2.3933260 16711746
0.7198500 0.1213151 2.3425009 16711746
0.7518548 0.0650674 2.3345726 16711746
0.8661470 0.0743495 2.3395548 16711746
0.9051440 0.0709147 2.4563310 16711746
0.7607130 0.0938680 2.3204505 16711746
0.7577605 0.0240530 2.3622129 16711746
0.8384440 0.0509282 2.3268485 16711746
0.8390650 0.1090764 2.2921808 16711746
0.9426293 0.0766209 2.4561625 16711746
0.9023474 0.0955750 2.3483212 16711746
0.8580751 0.0607322 2.3151791 16711746
0.8341033 0.0669582 2.3289318 16711746
0.7564459 0.0764943 2.3505068 16711746
0.8334519 0.0693211 2.3427074 16711746
0.9535320 0.0934459 2.4611130 16711746
0.8297644 0.0849676 2.2957261 16711746
0.7191491 -0.0046543 2.3286884 16711746
0.8416458 0.0360100 2.3327732 16711746
0.7251028 0.0386595 2.4027245 16711746
0.8465583 0.0896889 2.3286119 16711746
0.8460259 0.0549399 2.4377203 16711746
0.9261415 0.0802369 2.4044442 16711746
0.8927262 0.1201576 2.3985610 16711746
0.8811268 0.0859233 2.3679130 16711746
0.8317280 0.0397584 2.2885683 16711746
0.7884871 0.0142707 2.3627794 16711746
0.8645654 0.0891571 2.3058050 16711746
0.8272402 0.0560762 2.2820592 16711746
0.8491372 0.0807148 2.2730224 16711746
0.8758833 0.0570860 2.3955610 16711746
0.8919741 0.0944659 2.3997688 16711746
0.7228224 0.0052314 2.3236775 16711746
0.8795705 0.0874533 2.3666978 16711746
0.8608747 0.0893508 2.3790317 16711746
0.7211560 0.0032287 2.3247764 16711746
0.9123954 0.1058119 2.3873155 16711746
0.9010625 0.0443056 2.3876381 16711746
0.8517668 0.0822971 2.3525116 16711746
0.9333463 0.1001052 2.3782389 16711746
0.8834833 0.0955596 2.3424733 16711746
0.6521515 -0.0266621 2.3854635 16711746
0.8721581 0.0388461 2.3703933 16711746
0.8768995 0.0975616 2.4020844 16711746
0.8194597 0.0722239 2.3165052 16711746
0.8378959 0.0366974 2.3686886 16711746
0.8799782 0.0608753 2.3468957 16711746
0.7637869 0.0836256 2.3370512 16711746
0.8713738 0.0474713 2.2826569 16711746
0.8323913 0.0938992 2.3215733 16711746
0.8222916 0.1029745 2.3052638 16711746
0.8298271 0.0905488 2.3804011 16711746
0.7274112 0.0918794 2.2975528 16711746
0.8123302 0.1147149 2.2908132 16711746
0.8404748 0.1094708 2.2869775 16711746
0.8357409 0.0266896 2.3293598 16711746
0.8391636 0.1106756 2.2687998 16711746
0.8628854 0.1278147 2.3891542 16711746
0.9165248 0.0990812 2.4488678 16711746
0.9071637 0.0833538 2.3686037 16711746
0.8505616 0.1008610 2.3544574 16711746
0.7332085 -0.0024601 2.3878155 16711746
0.9663320 0.0215354 2.3865130 16711746
0.7877903 0.0918717 2.2792184 16711746
0.8827106 0.1014050 2.3414898 16711746
0.8115545 0.0606086 2.3525648 16711746
0.8446789 0.0887278 2.3359156 16711746
0.9100130 0.0873323 2.3558857 16711746
0.8163561 0.1396320 2.3168337 16711746
0.7822165 0.1677056 2.2554042 16711746
0.6059237 -0.2442178 2.5925817 16711746
0.8267019 0.0838269 2.2944987 16711746
0.8147732 0.1088744 2.2818189 16711746
0.8494784 0.1206696 2.2780521 16711746
0.7989986 0.0590166 2.3422348 16711746
0.7910357 0.0872935 2.3192749 16711746
0.8546770 0.0219441 2.3424721 16711746
0.9418668 0.0693404 2.3002744 16711746
0.8832256 0.0626428 2.3679271 16711746
0.8494578 0.0592426 2.3102815 16711746
0.8756042 0.0727643 2.3575525 16711746
0.7858119 0.1299004 2.3025658 16711746
0.8677188 0.0896263 2.3320794 16711746
0.8528522 0.1017715 2.3244884 16711746
0.8325961 0.0767314 2.2823911 16711746
0.9279104 0.0476264 2.3091726 16711746
0.8944749 0.1146195 2.3278313 16711746
0.8461324 0.0638008 2.3474050 16711746
0.8191123 0.0964001 2.2793887 16711746
0.8112376 0.1224163 2.3037395 16711746
0.8275952 0.1148183 2.3225174 16711746
0.8825766 0.1128094 2.2770801 16711746
0.8505540 0.0630846 2.2857926 16711746
0.8451098 0.1051858 2.3006294 16711746
0.9029106 0.0929075 2.3379741 16711746
0.8913693 0.0833580 2.2894571 16711746
0.8090605 0.0771631 2.3644238 16711746
0.8710295 0.0375233 2.3793263 16711746
0.7789262 0.0741910 2.2896097 16711746
0.9092485 0.0624438 2.3939619 16711746
0.8020774 0.1180352 2.3571599 16711746
0.8568361 0.0738266 2.3646257 16711746
0.8312368 0.0455560 2.2946153 16711746
0.8656754 0.0850193 2.3432064 16711746
0.8535404 0.0527619 2.3433211 16711746
0.8933923 0.0818029 2.3456137 16711746
1.0045508 0.0844325 2.3236468 16711746
0.9314068 0.1072232 2.3598483 16711746
0.9618958 0.0558858 2.4493911 16711746
0.7793951 0.0241431 2.3858335 16711746
0.8285082 0.0612427 2.3051224 16711746
0.7220559 0.0132587 2.3036177 16711746
0.9122916 0.0808375 2.3722582 16711746
0.8577379 0.0013590 2.3028133 16711746
0.8022324 0.0561560 2.3164854 16711746
0.8623616 0.0976095 2.3380179 16711746
0.7954154 0.1749670 2.2441649 16711746
0.7439246 0.0004840 2.3067286 16711746
0.8659544 0.1086165 2.3354337 16711746
0.8478251 -0.0072341 2.3021150 16711746
0.8502585 0.0816341 2.3493156 16711746
0.8766308 0.0956297 2.3782742 16711746
0.9143878 0.0550597 2.2952819 16711746
0.8782749 -0.0146327 2.3078015 16711746
0.8718587 -0.0362745 2.3154881 16711746
0.8707901 0.0905888 2.3221920 16711746
0.8557771 0.0473892 2.2812164 16711746
0.8769498 0.1185588 2.4218152 16711746
0.8934049 0.0959489 2.3515821 16711746
0.9099307 -0.0191045 2.3728580 16711746
0.8900304 0.0838630 2.3528581 16711746
0.9108700 0.1055662 2.2813618 16711746
0.7933810 0.0700590 2.3215966 16711746
0.8517675 0.0200149 2.2959144 16711746
0.9611234 0.0758347 2.3366604 16711746
0.9450120 0.0804615 2.3276424 16711746
0.8605288 0.0545777 2.3628879 16711746
0.8349808 0.0789051 2.3302402 16711746
0.9420375 0.0602625 2.3889267 16711746
0.9306375 0.0693120 2.2876215 16711746
0.8223886 0.0479806 2.3225927 16711746
0.9376858 0.0365462 2.3250794 16711746
0.9280934 0.0781518 2.2959528 16711746
0.8647131 0.1240699 2.2849562 16711746
0.9237824 0.0123929 2.3004642 16711746
0.8098711 -0.0051851 2.3434675 16711746
0.7898030 0.0847691 2.3647048 16711746
0.8928998 0.1181664 2.3681555 16711746
0.8855246 0.0895923 2.4035888 16711746
0.8984050 0.0957826 2.3359282 16711746
0.9164019 0.0993294 2.2842548 16711746
0.7903081 0.0920535 2.3522921 16711746
0.9179581 0.0786249 2.2836804 16711746
0.8792915 0.1122583 2.2910833 16711746
0.8994812 0.0960313 2.4140501 16711746
0.7791567 0.1071168 2.3281672 16711746
0.7785589 0.1171517 2.3234849 16711746
0.8075734 0.0965608 2.3156350 16711746
0.7899716 0.0897047 2.3314605 16711746
0.8691728 0.0833693 2.2878554 16711746
0.8792553 0.1048286 2.3778853 16711746
0.8741360 0.1081208 2.3723075 16711746
0.8752140 0.0921707 2.3522995 16711746
0.9310262 0.0795365 2.3009217 16711746
0.9030042 0.0579763 2.2985578 16711746
0.8998278 0.0954902 2.3363063 16711746
0.9231207 0.0831568 2.2930524 16711746
0.8772787 0.0234752 2.3387570 16711746
0.8928015 0.1042875 2.3560810 16711746
0.8806266 0.1228313 2.3163087 16711746
0.8933311 0.0902060 2.3282065 16711746
0.9098151 0.0329945 2.3445981 16711746
0.7996255 0.0550561 2.3624065 16711746
0.8619409 0.1268652 2.3204165 16711746
0.9264100 0.0969967 2.3158758 16711746
0.8282177 0.0399969 2.3037095 16711746
0.8971881 0.0995180 2.3627672 16711746
0.9285520 0.0593014 2.3536909 16711746
0.9746353 0.0645431 2.3739233 16711746
0.9101607 0.0628974 2.4140930 16711746
0.8802454 -0.0201385 2.2997015 16711746
0.8826613 0.0757683 2.3347471 16711746
0.8213564 0.1360607 2.3310535 16711746
0.9210387 0.0955342 2.2995861 16711746
0.9622849 0.0594511 2.3300092 16711746
0.8808028 -0.0212669 2.3002713 16711746
0.9734998 0.0622188 2.3235986 16711746
0.7530252 0.0180473 2.3394783 16711746
0.8828577 -0.0390514 2.3913345 16711746
0.7526137 0.1115149 2.2993853 16711746
0.8813484 0.0817317 2.4085691 16711746
0.8672077 0.1160569 2.3053763 16711746
0.9012081 0.0652578 2.4191029 16711746
0.9051408 0.1304236 2.3486302 16711746
0.8060597 0.1280197 2.2769585 16711746
0.8025710 0.1300994 2.2724202 16711746
0.8109461 0.0843924 2.3045828 16711746
0.7989710 0.0934644 2.3239558 16711746
0.7922850 0.0870050 2.2959731 16711746
0.7756100 0.1122169 2.3205047 16711746
0.7906111 0.1328402 2.3163586 16711746
0.8302097 0.0925653 2.2962875 16711746
0.8010749 0.1026172 2.3007374 16711746
0.7901371 0.1119806 2.2970691 16711746
0.8205363 0.0904895 2.2997434 16711746
0.9256971 0.1062647 2.3694029 16711746
0.7926826 0.1199337 2.3061509 16711746
0.7488210 0.1113731 2.3049397 16711746
0.7792290 0.1159016 2.3062820 16711746
0.7576190 0.1233611 2.2939093 16711746
0.7902139 0.1196762 2.3041718 16711746
0.8100792 0.0895703 2.3708010 16711746
0.8329919 0.1282099 2.3438230 16711746
0.7869943 0.1255063 2.3547580 16711746
0.7399393 0.1189993 2.4124236 16711746
0.7812020 0.1222715 2.2989047 16711746
0.8220305 0.1514959 2.3031077 16711746
0.8113290 0.1284446 2.2893574 16711746
0.7825488 0.0774510 2.3256457 16711746
0.7838194 0.0751173 2.3312364 16711746
0.7689015 0.1109146 2.2972929 16711746
0.7131352 0.1400291 2.3410935 16711746
0.9175458 -0.1441336 2.4529662 16711746
0.7983416 0.1308360 2.2649045 16711746
0.7919515 0.1361322 2.2871907 16711746
0.8176941 0.1450870 2.2581456 16711746
0.8236348 0.1313140 2.2632148 16711746
0.7942664 0.1252117 2.3164670 16711746
0.7826148 0.1335408 2.2924738 16711746
0.7561700 0.1138339 2.2988806 16711746
0.7909715 0.1381707 2.2954755 16711746
0.7823529 0.1039436 2.2864830 16711746
0.7776946 0.0817068 2.3382454 16711746
0.7912322 0.1404390 2.3051891 16711746
0.7900890 0.1359502 2.2978113 16711746
0.7723147 0.1252686 2.2853429 16711746
0.7813708 0.1316517 2.2946231 16711746
0.8425757 0.0954894 2.3363605 16711746
0.8295351 0.0741888 2.3095524 16711746
0.8227510 0.0855333 2.2951877 16711746
0.7912967 0.1510657 2.2742255 16711746
0.7794724 0.1318309 2.3108017 16711746
0.8716621 0.0450002 2.3918138 16711746
0.7764321 0.1161928 2.2969229 16711746
0.8056781 0.1507294 2.2654107 16711746
0.7883663 0.1195613 2.3369517 16711746
0.7892925 0.1178861 2.2883627 16711746
0.8566239 0.1184551 2.3515036 16711746
0.8584509 0.1159985 2.3557773 16711746
0.8258960 0.1363385 2.2846727 16711746
0.7677630 0.0958087 2.2910099 16711746
0.8261051 0.1363086 2.2846389 16711746
0.8210835 0.1405541 2.3066967 16711746
0.8124009 0.1560523 2.2763686 16711746
0.7164544 0.0951711 2.2984445 16711746
0.7906483 0.0800628 2.3149829 16711746
0.9195104 0.0643802 2.4769030 16711746
0.8466027 0.1226247 2.3099074 16711746
0.7184699 0.0349508 2.3557525 16711746
0.8838595 0.1308693 2.3287196 16711746
0.7884248 0.0877301 2.3133128 16711746
0.8865173 0.1295382 2.3306715 16711746
0.7884827 0.1095685 2.3054764 16711746
0.7442374 0.1088964 2.3006878 16711746
0.9180729 0.0905172 2.3345389 16711746
0.8323015 0.1260884 2.3201911 16711746
0.8846406 0.1124320 2.3564715 16711746
0.8366345 0.1322292 2.3162425 16711746
0.8506590 0.1186189 2.3144743 16711746
0.7788066 0.1307641 2.3127127 16711746
0.7730500 0.1086773 2.3151197 16711746
0.8230745 0.0816364 2.2992563 16711746
0.7661298 0.0925732 2.2925766 16711746
0.9613937 0.0342906 2.5618520 16711746
0.8798503 0.0954871 2.3324485 16711746
0.7881737 0.0803403 2.3227742 16711746
0.7851518 0.1274096 2.3061161 16711746
0.8595710 0.1210153 2.3482394 16711746
0.8431770 0.1030662 2.3170350 16711746
0.8928136 0.0788317 2.3039832 16711746
0.8645281 0.0870363 2.3000989 16711746
0.8547554 0.0737404 2.2916417 16711746
0.8372092 0.1170549 2.3038483 16711746
0.7883033 0.1005664 2.3054824 16711746
0.8803619 0.0869060 2.3412619 16711746
0.8465515 0.1060176 2.3155830 16711746
0.8854899 0.1272667 2.3376043 16711746
0.8964912 0.1044574 2.3473983 16711746
0.8652044 0.1127978 2.3346958 16711746
0.9479284 0.0618027 2.3385558 16711746
0.8848295 0.1045588 2.3663285 16711746
0.9028916 0.1243073 2.3866150 16711746
0.7984070 0.1280714 2.2890761 16711746
0.8162749 0.1408955 2.3249612 16711746
0.8354272 0.1146984 2.2947106 16711746
0.7705159 0.0731586 2.3022883 16711746
0.7462394 0.1063953 2.2934022 16711746
0.8341267 0.1160271 2.3051198 16711746
0.8640589 0.1243107 2.3548267 16711746
0.8511731 0.0558231 2.3044271 16711746
0.8420236 0.1267186 2.2857935 16711746
0.7691302 0.1074593 2.3203535 16711746
0.7618685 0.0917068 2.2871256 16711746
0.7689486 0.0924742 2.2867949 16711746
0.7672117 0.0943594 2.3107708 16711746
0.6976435 -0.0176002 2.3672502 16711746
0.8280162 0.1625078 2.2643039 16711746
0.8296845 0.1402178 2.2700603 16711746
0.8688065 0.1171535 2.2844977 16711746
0.7412248 0.0750214 2.3315389 16711746
0.8341502 0.0899523 2.2982032 16711746
0.8089579 0.1362301 2.2750573 16711746
0.8171275 0.1322440 2.2711403 16711746
0.8561263 0.1244219 2.3446999 16711746
0.8312077 0.0740620 2.3243766 16711746
0.8233894 0.1149624 2.2787554 16711746
0.8299838 0.1391615 2.2650926 16711746
0.8228918 0.1317703 2.2713671 16711746
0.8432646 0.1342802 2.2765741 16711746
0.8277085 0.1367211 2.2691400 16711746
0.8085055 0.1256331 2.2810593 16711746
0.8342932 0.1029917 2.3118293 16711746
0.8091357 0.1187177 2.2778654 16711746
0.8128492 0.1019484 2.2853174 16711746
0.8376184 0.1151342 2.2769198 16711746
0.8126516 0.1152027 2.2987516 16711746
0.8293672 0.1125113 2.2930484 16711746
0.8542187 0.0949744 2.2872751 16711746
0.7917894 0.1594676 2.2701015 16711746
0.8433351 0.1077450 2.2823105 16711746
0.8400309 0.1323520 2.2821968 16711746
0.8104637 0.1417087 2.2678936 16711746
0.8129268 0.1272705 2.2748435 16711746
0.8014764 0.1083396 2.3114181 16711746
0.8613374 0.1060547 2.2830973 16711746
0.8242897 0.1332080 2.2772036 16711746
0.8217843 0.1053204 2.2917490 16711746
0.8260207 0.1356883 2.2707572 16711746
0.8607115 0.1198571 2.3501012 16711746
0.8282036 0.0995645 2.2929237 16711746
0.8314844 0.1283085 2.2700055 16711746
0.8508160 0.1141355 2.3044269 16711746
0.8675050 0.0808069 2.3747945 16711746
0.8042772 0.1654709 2.2764583 16711746
0.7977582 0.1719762 2.2565737 16711746
0.7786228 -0.2011474 2.5066369 16711746
0.8228469 0.1435051 2.2832284 16711746
0.8384475 0.1165982 2.2879224 16711746
0.8379751 0.1416658 2.2799582 16711746
0.8558584 0.1172342 2.3459864 16711746
0.8343256 0.1275257 2.2696693 16711746
0.8320729 0.1248166 2.2971077 16711746
0.8510248 0.0971227 2.2997828 16711746
0.8374705 0.1187968 2.2805934 16711746
0.8114359 0.1374345 2.2721868 16711746
0.7885281 0.1112920 2.3038790 16711746
0.8849571 0.0613011 2.3481548 16711746
0.8311124 0.1003404 2.2943156 16711746
0.8367917 0.1070872 2.3130004 16711746
0.8095906 0.1314130 2.2761629 16711746
0.7898236 0.1317423 2.2830496 16711746
0.8246538 0.1182188 2.3042901 16711746
0.8342994 0.1115194 2.3198013 16711746
0.8158162 0.1235409 2.2821290 16711746
0.8368324 0.1207064 2.3045683 16711746
0.8385728 0.1158451 2.3398759 16711746
0.8220146 0.1338214 2.2670431 16711746
0.8561463 0.1278102 2.2989323 16711746
0.8346537 0.1356079 2.2771394 16711746
0.8431398 0.1463424 2.2885671 16711746
0.8626078 0.1283660 2.3131251 16711746
0.8310987 0.1438810 2.2692981 16711746
0.8322294 0.1395825 2.2792275 16711746
0.8505220 0.1057720 2.3531902 16711746
0.8497275 0.1202624 2.3140655 16711746
0.8423581 0.1298344 2.3556135 16711746
0.8584854 0.1152531 2.3900509 16711746
0.8989119 0.1116215 2.4259164 16711746
0.8633357 0.1275803 2.3438468 16711746
0.8691443 0.0785077 2.3782465 16711746
0.8807478 0.1245030 2.3749189 16711746
0.8471113 0.1293576 2.3134019 16711746
0.8306950 0.1397838 2.2751362 16711746
0.8398536 0.1278283 2.3019130 16711746
0.8885948 0.0234458 2.5808423 16711746
0.8310455 0.1111527 2.2940266 16711746
0.8301259 0.1179763 2.3083949 16711746
0.7923689 0.1396544 2.2791739 16711746
0.7967504 0.1039232 2.3280163 16711746
0.8198257 0.1228078 2.2744386 16711746
0.8472729 0.1366869 2.2845051 16711746
0.8203600 0.1213196 2.2749648 16711746
0.8543476 0.1327056 2.2874687 16711746
0.7783288 0.1355138 2.2831321 16711746
0.7682186 0.1070856 2.2997611 16711746
0.8403937 0.1363951 2.2684488 16711746
0.9066754 0.0989799 2.3812447 16711746
0.8719173 0.1177263 2.2979832 16711746
0.8003117 0.1108118 2.2808588 16711746
0.7813904 0.1437532 2.2778630 16711746
0.8519897 0.1162956 2.3817821 16711746
0.8864961 0.1182394 2.3380141 16711746
0.9338279 0.0775886 2.4152963 16711746
0.8333807 0.1260634 2.2709684 16711746
0.8537284 0.1121216 2.3454123 16711746
0.8774393 0.1060891 2.4222019 16711746
0.7767336 0.1086981 2.2896166 16711746
0.8483288 0.1090025 2.3405218 16711746
0.7932645 0.1039599 2.2890184 16711746
0.8335949 0.1208456 2.2834766 16711746
0.8498166 0.1333062 2.2948108 16711746
0.7938440 0.1225323 2.2989504 16711746
0.7898955 0.1397810 2.2839749 16711746
0.8052593 0.1157840 2.2921934 16711746
0.7971236 0.1233220 2.3095593 16711746
0.7859526 0.1238492 2.2841716 16711746
0.7777861 0.1170683 2.2911470 16711746
0.8913474 0.0963360 2.3647923 16711746
0.8701743 0.1033390 2.2892275 16711746
0.7693939 0.0658284 2.3400102 16711746
0.7859381 0.0799136 2.3450315 16711746
0.7845294 0.1271183 2.3032353 16711746
0.7821155 0.1189061 2.2875340 16711746
0.8208559 0.1370405 2.2699461 16711746
0.8212379 0.0946361 2.2971039 16711746
0.7763322 0.1496893 2.3358605 16711746
0.7457101 0.1376749 2.3771446 16711746
0.7609209 0.1247536 2.3304558 16711746
0.9513642 0.0992010 2.5091202 16711746
0.8581734 0.1170897 2.3655841 16711746
0.8239534 0.1237085 2.2788117 16711746
0.8349090 0.1309421 2.2796135 16711746
0.8536516 0.1388010 2.2967937 16711746
0.7886482 0.1077029 2.2869468 16711746
0.8352603 0.1499040 2.2810359 16711746
0.7930713 0.1590181 2.2689087 16711746
0.7732062 0.1229304 2.2978032 16711746
0.7767813 0.1384628 2.2913814 16711746
0.8492760 0.1349670 2.3146694 16711746
0.8209573 0.1389108 2.2800124 16711746
0.8369010 0.1464238 2.2654717 16711746
0.8806991 0.1218527 2.3337188 16711746
0.8322951 0.1069173 2.2804010 16711746
0.8549740 0.1462891 2.2899220 16711746
0.7914534 0.1544290 2.2717206 16711746
0.7544364 0.1117995 2.3009439 16711746
0.8272131 0.1324919 2.2912772 16711746
0.8078475 0.1361516 2.2731044 16711746
0.8137244 0.1352090 2.2786229 16711746
0.7660010 0.1241576 2.2965212 16711746
0.7412911 0.1057082 2.3022039 16711746
0.8296881 0.1208625 2.2962735 16711746
0.8023328 0.1645230 2.2845957 16711746
0.8526337 0.0436509 2.4832101 16711746
0.8028226 0.1441798 2.2718999 16711746
0.8182819 0.1351748 2.2802374 16711746
0.7904524 0.1371247 2.2824130 16711746
0.7816901 0.1090456 2.2955654 16711746
0.7666880 0.1225952 2.2898097 16711746
0.8282206 0.1075214 2.2909274 16711746
0.7665081 0.1137037 2.3028207 16711746
0.7801976 0.1250338 2.2826369 16711746
0.7825477 0.1356199 2.2818429 16711746
0.7990924 0.1044758 2.2913537 16711746
0.7791684 0.1102000 2.2929606 16711746
0.8337870 0.1429944 2.3213496 16711746
0.7884129 0.1676573 2.2648907 16711746
0.7800916 0.1483761 2.2796335 16711746
0.8267373 0.1522315 2.2756310 16711746
0.8204203 0.1156404 2.2903678 16711746
0.7889567 0.1596708 2.2704442 16711746
0.7775179 0.1444999 2.2819448 16711746
0.7888837 0.1263296 2.2812214 16711746
0.7864414 0.1166649 2.2899210 16711746
0.8246881 0.1271436 2.2959175 16711746
0.8227322 0.1555484 2.2801893 16711746
0.7462908 0.1119734 2.2981863 16711746
0.7206341 0.1053212 2.2908006 16711746
0.8269857 0.1488393 2.2839937 16711746
0.7796652 0.1440253 2.2989717 16711746
