# .PCD v.7 - Point Cloud Data file format
VERSION .7
FIELDS x y z rgb
SIZE 4 4 4 4
TYPE F F F F
COUNT 1 1 1 1
WIDTH 313
HEIGHT 1
VIEWPOINT 0 0 0 1 0 0 0
POINTS 313
DATA ascii

 0.0000000 0.0000000 0.0000000 16777215
 0.0285735 -0.0191198 -0.0017175 16777215
 0.0336631 -0.0191417 -0.0024225 16777215
 0.0418389 -0.0190146 -0.0030102 16777215
 0.0419302 -0.0189873 -0.0030478 16777215
 0.0443070 -0.0185078 -0.0028313 16777215
 0.0523732 -0.0183413 -0.0029565 16777215
 0.0609608 -0.0179788 -0.0027289 16777215
 0.0670793 -0.0169165 -0.0020108 16777215
 0.0705274 -0.0165613 -0.0016218 16777215
 0.0685141 -0.0177808 0.0017601 16777215
 0.0633921 -0.0144150 0.0063262 16777215
 0.0592949 -0.0149669 0.0104372 16777215
 0.0490190 -0.0174776 0.0172440 16777215
 0.0354552 -0.0205391 0.0255639 16777215
 0.0262975 -0.0248178 0.0301006 16777215
 0.0213609 -0.0283294 0.0339103 16777215
 0.0210648 -0.0343216 0.0329595 16777215
 0.0252469 -0.0375672 0.0312856 16777215
 0.0263755 -0.0370176 0.0310381 16777215
 0.0316873 -0.0321593 0.0308178 16777215
 0.0320073 -0.0318268 0.0299330 16777215
 0.0321809 -0.0272918 0.0322292 16777215
 0.0283645 -0.0250558 0.0373266 16777215
 0.0256270 -0.0241898 0.0414895 16777215
 0.0230166 -0.0225057 0.0529168 16777215
 0.0221390 -0.0216721 0.0587856 16777215
 0.0262150 -0.0216894 0.0723837 16777215
 0.0312742 -0.0233425 0.0891406 16777215
 0.0389439 -0.0230366 0.1070717 16777215
 0.0430411 -0.0268747 0.1308695 16777215
 0.0537775 -0.0334350 0.1589632 16777215
 0.0646447 -0.0405611 0.1969353 16777215
 0.0756271 -0.0470064 0.2567089 16777215
 0.0921815 -0.0661490 0.3195211 16777215
 0.1212682 -0.0857223 0.4093224 16777215
 0.1411952 -0.1002103 0.4698168 16777215
 0.1623731 -0.1262196 0.5133016 16777215
 0.1796533 -0.1412147 0.5615225 16777215
 0.1827318 -0.1490692 0.6344067 16777215
 0.1895720 -0.1623066 0.6743363 16777215
 0.1999458 -0.1705218 0.7069755 16777215
 0.2036958 -0.1715505 0.7169334 16777215
 0.2219323 -0.1816354 0.7695324 16777215
 0.2239664 -0.1852470 0.7846119 16777215
 0.2324195 -0.1896804 0.8406481 16777215
 0.2348158 -0.2015431 0.8803232 16777215
 0.2382546 -0.2113163 0.9158461 16777215
 0.2418987 -0.2191680 0.9581332 16777215
 0.2527335 -0.2331397 1.0088909 16777215
 0.2663210 -0.2398846 1.0607499 16777215
 0.2869919 -0.2484693 1.1048774 16777215
 0.3014586 -0.2666886 1.1515508 16777215
 0.3092752 -0.2777110 1.1986523 16777215
 0.3176723 -0.2864393 1.2453359 16777215
 0.3376167 -0.3039125 1.2945268 16777215
 0.3451555 -0.3164675 1.3305917 16777215
 0.3518794 -0.3271926 1.3613425 16777215
 0.3576415 -0.3410595 1.3970122 16777215
 0.3730974 -0.3523667 1.4396987 16777215
 0.3923008 -0.3646868 1.5031929 16777215
 0.4001369 -0.3812316 1.5688750 16777215
 0.4171626 -0.3996205 1.6262631 16777215
 0.4303865 -0.4099140 1.6727256 16777215
 0.4401304 -0.4178573 1.7456548 16777215
 0.4565303 -0.4345386 1.8163364 16777215
 0.4702711 -0.4490813 1.8442100 16777215
 0.4864256 -0.4691438 1.8928777 16777215
 0.4901698 -0.4788759 1.9356751 16777215
 0.4991815 -0.4814296 2.0028820 16777215
 0.5068439 -0.4872751 2.0555649 16777215
 0.5163970 -0.4999824 2.1162231 16777215
 0.5343001 -0.5098592 2.1476839 16777215
 0.5428466 -0.5269171 2.2121677 16777215
 0.5568457 -0.5332541 2.2610559 16777215
 0.5652984 -0.5348209 2.3117754 16777215
 0.5901567 -0.5527776 2.3622513 16777215
 0.5926100 -0.5646340 2.3979850 16777215
 0.6042945 -0.5708311 2.4348183 16777215
 0.6176281 -0.5802259 2.4963124 16777215
 0.6110174 -0.5782957 2.5298383 16777215
 0.6157254 -0.5964704 2.5898252 16777215
 0.6288816 -0.6200846 2.6560001 16777215
 0.6240866 -0.6308408 2.6994689 16777215
 0.6424838 -0.6413766 2.7621570 16777215
 0.6558482 -0.6529290 2.8046784 16777215
 0.6720381 -0.6722866 2.8539717 16777215
 0.6839117 -0.6821716 2.9023695 16777215
 0.6905322 -0.6882091 2.9615176 16777215
 0.6942010 -0.6912993 3.0151634 16777215
 0.7059877 -0.7093558 3.0636678 16777215
 0.7223470 -0.7259265 3.1303127 16777215
 0.7267151 -0.7324312 3.1811585 16777215
 0.7365582 -0.7372397 3.2246671 16777215
 0.7589124 -0.7561080 3.2651412 16777215
 0.7589383 -0.7604997 3.3062358 16777215
 0.7673221 -0.7722042 3.3510509 16777215
 0.7753417 -0.7796651 3.4017887 16777215
 0.7834798 -0.7783170 3.4512372 16777215
 0.7848653 -0.7939439 3.5076106 16777215
 0.7905450 -0.8013958 3.5342391 16777215
 0.7961007 -0.8112842 3.5772295 16777215
 0.7994927 -0.8136458 3.6391065 16777215
 0.8094676 -0.8147172 3.6886106 16777215
 0.8243312 -0.8266039 3.7315273 16777215
 0.8268704 -0.8378058 3.7668099 16777215
 0.8341908 -0.8458642 3.8042059 16777215
 0.8439010 -0.8500894 3.8656366 16777215
 0.8504313 -0.8554375 3.9170384 16777215
 0.8539022 -0.8606888 3.9454889 16777215
 0.8620786 -0.8738426 3.9961541 16777215
 0.8619635 -0.8874986 4.0361948 16777215
 0.8767772 -0.8963473 4.0962963 16777215
 0.9016463 -0.8999532 4.1591854 16777215
 0.9073433 -0.9209006 4.2189336 16777215
 0.9132057 -0.9298428 4.2726932 16777215
 0.9209569 -0.9370403 4.3381619 16777215
 0.9216120 -0.9466993 4.3941369 16777215
 0.9302064 -0.9641124 4.4456553 16777215
 0.9336827 -0.9763362 4.5183010 16777215
 0.9379597 -0.9788137 4.5783744 16777215
 0.9530082 -0.9877204 4.6053309 16777215
 0.9555141 -0.9987241 4.6375265 16777215
 0.9637588 -1.0154080 4.6911840 16777215
 0.9657032 -1.0141677 4.7189841 16777215
 0.9664353 -1.0209619 4.7818227 16777215
 0.9622433 -1.0282656 4.8196731 16777215
 0.9786219 -1.0449381 4.8578444 16777215
 0.9845856 -1.0564861 4.8929815 16777215
 0.9872547 -1.0627667 4.9318757 16777215
 0.9949691 -1.0675473 4.9748425 16777215
 1.0099317 -1.0763700 5.0258512 16777215
 1.0090787 -1.0818231 5.0451670 16777215
 1.0168562 -1.0938816 5.0966258 16777215
 1.0176771 -1.0999049 5.1405807 16777215
 1.0197773 -1.1012433 5.1851439 16777215
 1.0272248 -1.1110688 5.2255449 16777215
 1.0209458 -1.1330290 5.2750082 16777215
 1.0273223 -1.1416640 5.3221412 16777215
 1.0312563 -1.1459141 5.3758311 16777215
 1.0428205 -1.1502537 5.4332147 16777215
 1.0436212 -1.1601661 5.4792080 16777215
 1.0482538 -1.1721352 5.5455976 16777215
 1.0493927 -1.1769922 5.5889993 16777215
 1.0579973 -1.1878222 5.6425161 16777215
 1.0653852 -1.2023377 5.7001796 16777215
 1.0694247 -1.2170783 5.7771974 16777215
 1.0785842 -1.2143992 5.8179412 16777215
 1.0930290 -1.2298411 5.8774567 16777215
 1.1053948 -1.2396337 5.9131641 16777215
 1.1105536 -1.2437835 5.9506388 16777215
 1.1144017 -1.2452705 6.0121932 16777215
 1.1311438 -1.2580763 6.0727205 16777215
 1.1249223 -1.2666937 6.1237302 16777215
 1.1261415 -1.2748429 6.1781983 16777215
 1.1420282 -1.2724211 6.2414160 16777215
 1.1431788 -1.2860041 6.3099670 16777215
 1.1518899 -1.2854691 6.3577814 16777215
 1.1463678 -1.2913531 6.4297566 16777215
 1.1576211 -1.2961972 6.4902406 16777215
 1.1592066 -1.3083357 6.5490375 16777215
 1.1665154 -1.3108331 6.5868649 16777215
 1.1656439 -1.3171172 6.6329432 16777215
 1.1750451 -1.3110409 6.6721964 16777215
 1.1874632 -1.3277441 6.7123628 16777215
 1.1886783 -1.3366058 6.7570047 16777215
 1.1900191 -1.3408337 6.7830758 16777215
 1.2001292 -1.3471503 6.8261824 16777215
 1.2024394 -1.3539548 6.9050293 16777215
 1.2085156 -1.3712703 6.9788866 16777215
 1.2184483 -1.3800132 7.0447330 16777215
 1.2233083 -1.3853548 7.1021328 16777215
 1.2382103 -1.3912891 7.1312199 16777215
 1.2347789 -1.4047189 7.2029328 16777215
 1.2338046 -1.4061941 7.2586761 16777215
 1.2317334 -1.4096984 7.3137918 16777215
 1.2357084 -1.4170786 7.3484817 16777215
 1.2405369 -1.4320998 7.3964310 16777215
 1.2424999 -1.4356306 7.4343853 16777215
 1.2434168 -1.4349709 7.4845619 16777215
 1.2588041 -1.4489315 7.5421147 16777215
 1.2657173 -1.4618843 7.5899115 16777215
 1.2703233 -1.4681855 7.6308727 16777215
 1.2705989 -1.4687147 7.6720343 16777215
 1.2736974 -1.4748311 7.7110195 16777215
 1.2802707 -1.4866813 7.7686100 16777215
 1.2806123 -1.4894865 7.8042192 16777215
 1.2838058 -1.4944714 7.8610420 16777215
 1.2987750 -1.5149254 7.8985362 16777215
 1.2966776 -1.5171354 7.9420657 16777215
 1.3020496 -1.5171156 7.9860177 16777215
 1.3045039 -1.5174246 8.0300484 16777215
 1.3123889 -1.5211904 8.1026621 16777215
 1.3133173 -1.5329483 8.1675282 16777215
 1.3194133 -1.5381906 8.2365952 16777215
 1.3207145 -1.5443068 8.3097582 16777215
 1.3201265 -1.5474539 8.3529243 16777215
 1.3269143 -1.5532305 8.3903847 16777215
 1.3288350 -1.5597405 8.4325294 16777215
 1.3383921 -1.5645972 8.5051174 16777215
 1.3282709 -1.5764434 8.5533667 16777215
 1.3311917 -1.5855489 8.6127205 16777215
 1.3390183 -1.5895066 8.6721611 16777215
 1.3445666 -1.5930202 8.7001457 16777215
 1.3466928 -1.6037931 8.7489100 16777215
 1.3427114 -1.6144178 8.7848043 16777215
 1.3446860 -1.6179227 8.8562031 16777215
 1.3488896 -1.6248608 8.9314270 16777215
 1.3423553 -1.6308790 8.9663239 16777215
 1.3375401 -1.6368657 9.0261402 16777215
 1.3418405 -1.6376429 9.0786810 16777215
 1.3511231 -1.6385553 9.1423178 16777215
 1.3672531 -1.6549239 9.2014027 16777215
 1.3683472 -1.6560192 9.2506847 16777215
 1.3673930 -1.6529469 9.3249254 16777215
 1.3667982 -1.6622674 9.3824520 16777215
 1.3778934 -1.6756997 9.4516315 16777215
 1.3828306 -1.6772077 9.5051746 16777215
 1.3932428 -1.6801951 9.5562859 16777215
 1.3999579 -1.6955787 9.6164818 16777215
 1.4047949 -1.6974642 9.6693583 16777215
 1.4022307 -1.6979507 9.7171316 16777215
 1.4022832 -1.7011020 9.7843504 16777215
 1.4033036 -1.7105831 9.8220606 16777215
 1.4059591 -1.7198876 9.8673525 16777215
 1.4105096 -1.7250639 9.9218187 16777215
 1.4188097 -1.7285589 9.9686232 16777215
 1.4288027 -1.7480968 10.0268984 16777215
 1.4256904 -1.7482066 10.0908823 16777215
 1.4147680 -1.7488414 10.1455050 16777215
 1.4142792 -1.7489834 10.1782990 16777215
 1.4152403 -1.7618330 10.2352161 16777215
 1.4131386 -1.7619717 10.2858572 16777215
 1.4174769 -1.7587571 10.3418007 16777215
 1.4333117 -1.7697480 10.3998976 16777215
 1.4374361 -1.7783775 10.4519129 16777215
 1.4298999 -1.7741687 10.5110617 16777215
 1.4459774 -1.7745476 10.5779161 16777215
 1.4401329 -1.7847650 10.6290026 16777215
 1.4477124 -1.7923524 10.6842785 16777215
 1.4482961 -1.7933878 10.7588615 16777215
 1.4693336 -1.7966621 10.8151302 16777215
 1.4756143 -1.8091896 10.8677034 16777215
 1.4785080 -1.8141476 10.9202633 16777215
 1.4676349 -1.8101161 10.9667034 16777215
 1.4621811 -1.8125839 11.0377293 16777215
 1.4606078 -1.8236954 11.0877047 16777215
 1.4656594 -1.8316599 11.1392822 16777215
 1.4655895 -1.8284937 11.1923065 16777215
 1.4731784 -1.8366945 11.2416077 16777215
 1.4766407 -1.8455123 11.2806005 16777215
 1.4736295 -1.8505664 11.3358622 16777215
 1.4761231 -1.8481574 11.3878508 16777215
 1.4753053 -1.8600758 11.4388208 16777215
 1.4726806 -1.8653812 11.4789753 16777215
 1.4783916 -1.8727386 11.5312834 16777215
 1.4816895 -1.8691580 11.5776806 16777215
 1.4817972 -1.8755389 11.6270866 16777215
 1.4795866 -1.8783150 11.6535110 16777215
 1.4719255 -1.8801723 11.6821585 16777215
 1.4667182 -1.8808556 11.7300434 16777215
 1.4661851 -1.8842983 11.7916298 16777215
 1.4586728 -1.8913985 11.8325748 16777215
 1.4541142 -1.8941748 11.8774061 16777215
 1.4539185 -1.8929847 11.9276056 16777215
 1.4526722 -1.8944595 11.9759960 16777215
 1.4481363 -1.9002221 12.0175371 16777215
 1.4493260 -1.8998213 12.0786533 16777215
 1.4444861 -1.8955605 12.1357727 16777215
 1.4460220 -1.9002738 12.1869984 16777215
 1.4373670 -1.9044334 12.2307940 16777215
 1.4376247 -1.9088678 12.2811489 16777215
 1.4386299 -1.9051301 12.3368044 16777215
 1.4491980 -1.9086406 12.4025030 16777215
 1.4531076 -1.9153321 12.4495687 16777215
 1.4499574 -1.9163277 12.5001478 16777215
 1.4429421 -1.9140830 12.5550699 16777215
 1.4431751 -1.9196761 12.6022768 16777215
 1.4435399 -1.9319687 12.6506081 16777215
 1.4397595 -1.9338564 12.7092190 16777215
 1.4435608 -1.9332471 12.7538881 16777215
 1.4382524 -1.9415668 12.7880535 16777215
 1.4446554 -1.9453043 12.8252134 16777215
 1.4440987 -1.9453523 12.8627033 16777215
 1.4356475 -1.9503038 12.9040709 16777215
 1.4405515 -1.9568285 12.9529877 16777215
 1.4342415 -1.9628048 12.9946842 16777215
 1.4365406 -1.9691650 13.0426483 16777215
 1.4424639 -1.9689718 13.0855713 16777215
 1.4502468 -1.9754914 13.1244440 16777215
 1.4527075 -1.9791514 13.1643925 16777215
 1.4503555 -1.9756680 13.2194719 16777215
 1.4482558 -1.9827838 13.2629900 16777215
 1.4410579 -1.9842895 13.3047428 16777215
 1.4414339 -1.9874613 13.3450985 16777215
 1.4381237 -1.9846914 13.3878918 16777215
 1.4310763 -1.9923909 13.4323635 16777215
 1.4395070 -1.9917012 13.4735146 16777215
 1.4333479 -1.9882931 13.5136766 16777215
 1.4207227 -1.9888163 13.5679245 16777215
 1.4216630 -1.9901898 13.6048222 16777215
 1.4109499 -1.9917729 13.6402740 16777215
 1.4050925 -1.9870955 13.6768646 16777215
 1.3949029 -1.9836656 13.7148447 16777215
 1.4059987 -1.9881580 13.7535915 16777215
 1.4034526 -1.9889550 13.7900524 16777215
 1.3909795 -1.9858919 13.8185215 16777215
 1.3874955 -1.9790648 13.8505964 16777215
 1.3801098 -1.9794077 13.8704166 16777215
 1.3696136 -1.9793973 13.8901730 16777215
 1.3666987 -1.9790890 13.9026785 16777215
 1.3727298 -1.9775962 13.9180393 16777215
 1.3730674 -1.9775987 13.9242134 16777215
