# .PCD v0.7 - Point Cloud Data file format
VERSION 0.7
FIELDS x y z rgb
SIZE 4 4 4 4
TYPE F F F F
COUNT 1 1 1 1
WIDTH 1178
HEIGHT 1
VIEWPOINT 0 0 0 1 0 0 0
POINTS 1178
DATA ascii
1.0604672 -7.2412572 1.6277151 16711746
-1.9417287 -3.5746727 2.5616825 16711746
-1.9274719 -2.9792717 2.3070674 16711746
-2.0816617 -4.1418953 2.5771289 16711746
1.5315859 -5.1504498 2.1782813 16711746
2.313524 -2.8827729 0.87971711 16711746
3.4306207 -4.2864051 0.74207479 16711746
-2.6424701 -3.8647094 2.3983507 16711746
1.9815643 -4.3566837 2.5589347 16711746
-4.034018 -4.1446152 1.7441399 16711746
-4.5429621 -5.4678731 2.2012236 16711746
-4.8517566 -5.5220165 2.2786236 16711746
-3.5528841 -4.054565 2.0039253 16711746
-6.7647023 -4.7594385 1.5499656 16711746
-3.770335 -3.6939428 1.8237914 16711746
-2.4731534 -4.1712594 2.620913 16711746
-1.7660016 -3.2368515 2.5081723 16711746
-4.5947294 -3.2119851 1.2510188 16711746
-0.41008496 -18.056417 4.8998613 16711746
-4.0088034 -2.5661688 1.2425081 16711746
-3.9925592 -4.2389483 2.1509542 16711746
-2.5156162 -2.2075698 1.39715 16711746
-12.352933 -10.34767 0.36972734 16711746
-0.82888567 -14.940006 3.3688235 16711746
-9.0478182 -7.3758531 0.95491815 16711746
-4.4445915 -5.1079021 2.0391524 16711746
-1.5923587 -11.194241 3.9960902 16711746
-2.253176 -3.1615813 2.3979003 16711746
-2.3282654 -3.5486791 2.2920198 16711746
-2.4698615 -2.4205968 1.5430243 16711746
-10.010897 -9.0882883 0.45461097 16711746
2.716496 -14.851111 3.3572671 16711746
-6.5705962 -4.5991883 1.49769 16711746
-0.5295884 -7.0185351 1.6693096 16711746
-0.31878367 -10.927537 3.0757277 16711746
-2.1057181 -14.069831 3.9633172 16711746
10.186629 -12.665108 -0.87488192 16711746
-3.2653592 -8.3095665 3.0542822 16711746
1.5058234 -10.270218 -0.57370865 16711746
-8.2111893 -10.418313 -0.14008923 16711746
-1.6366187 -13.604011 1.4965426 16711746
-7.3813663 -17.569506 -0.89346081 16711746
1.5971491 -19.928129 0.16338295 16711746
-4.4880681 -4.981267 2.3193195 16711746
-1.44835 -16.877028 1.5334538 16711746
-0.72444332 -6.3116603 2.2447968 16711746
-1.7960919 -16.213089 1.1134651 16711746
-4.5314679 -6.3793335 -0.90209597 16711746
-0.93542528 -3.3218358 2.8279994 16711746
-0.82670063 -3.7549739 3.0142848 16711746
-2.1536403 -3.7625577 3.0108135 16711746
-4.2749476 -7.1356907 3.210875 16711746
-4.0379319 -3.9492555 2.0166459 16711746
-2.9210684 -18.352125 2.7784617 16711746
-8.2524786 -17.255081 0.8838408 16711746
-2.571434 -1.9906501 0.78141028 16711746
-4.2271409 -5.1046519 2.0135777 16711746
-3.0191038 -10.172337 1.1981658 16711746
-7.6413784 -13.622185 -0.23112056 16711746
-1.9409416 -5.0877571 2.7286832 16711746
-1.1436863 -7.4794941 2.7855632 16711746
-2.3302886 -3.083499 2.0395005 16711746
8.0768404 -21.44397 15.133381 16711746
-5.1146107 -7.3142123 -0.18612452 16711746
1.5436227 -5.1236749 3.2705736 16711746
0.61798495 -4.6676378 1.8370432 16711746
2.570081 -7.0301261 2.7449582 16711746
-3.2111857 -4.8080225 1.8796363 16711746
-3.6001604 -4.772234 2.2293649 16711746
-2.4914427 -3.3274193 2.5661378 16711746
-0.2350881 -17.755108 4.4062181 16711746
2.361171 -5.5801153 2.8109174 16711746
-2.1592431 -5.8830657 2.2302959 16711746
2.5011439 -5.9479885 3.0438824 16711746
-2.6348958 -2.9201252 1.6505682 16711746
-4.0827427 -2.9197948 1.0671118 16711746
-2.2807477 -17.485641 4.903513 16711746
-1.889697 -3.4465973 2.4569268 16711746
-4.7774262 -3.3546064 1.4809228 16711746
-4.4908767 -3.1551132 0.54463643 16711746
1.3731545 -9.7448759 -0.51886982 16711746
-6.462193 -3.7908914 2.6019783 16711746
-0.28826639 -13.673045 2.8246701 16711746
1.9984241 -13.419212 2.3182096 16711746
-2.0458457 -3.1223581 2.4631267 16711746
0.020922469 -11.362055 4.1396799 16711746
2.1991746 -12.01101 2.3863604 16711746
-2.9295607 -18.37108 2.8079877 16711746
-6.0614238 -9.0986319 1.7970595 16711746
-1.0985504 -12.691535 2.7407656 16711746
-3.6043174 -4.1290641 1.8023859 16711746
-5.0093274 -13.38297 1.0808758 16711746
-2.1524122 -2.0761182 1.4435447 16711746
-3.9928718 -9.9717512 2.368753 16711746
2.4619873 -12.05648 2.808809 16711746
-4.09868 -3.111881 1.2066529 16711746
-0.68923229 -8.7500792 3.5546837 16711746
-3.4381354 -5.7494698 1.6879804 16711746
-3.3591783 -4.1239095 2.167836 16711746
-2.0600839 -2.1166084 1.4547017 16711746
-3.2562149 -5.406827 2.4760451 16711746
-2.2900286 -2.5207684 1.8688614 16711746
-0.63351363 -13.378212 3.3248055 16711746
3.1848905 -11.243597 0.49302024 16711746
1.6966977 -5.8800039 2.7989588 16711746
-2.0853519 -3.7022321 2.5989432 16711746
-2.3080552 -3.8234084 0.43056181 16711746
-0.93251646 -4.0367179 3.3083427 16711746
-2.1003325 -3.1348395 2.0415692 16711746
-1.510857 -3.9031625 2.4090855 16711746
-1.5478685 -9.3451605 3.6430438 16711746
-3.5834281 -6.4604926 2.0787556 16711746
-3.8525856 -7.6805511 2.1654947 16711746
-3.0391519 -2.0782912 1.0731156 16711746
-3.2604175 -10.412045 2.3550305 16711746
-4.1880851 -4.1726708 1.9450644 16711746
0.66087973 -11.254115 3.3623815 16711746
2.4291315 -2.5186625 2.3180258 16711746
-1.9058858 -6.123692 2.2297072 16711746
-3.8482041 -3.9187796 2.1454563 16711746
-3.0494738 -5.6163263 1.906882 16711746
-2.4128718 -9.9237413 2.3542295 16711746
-2.375335 -3.4610341 2.3093913 16711746
-2.9260314 -3.1500168 1.945745 16711746
-3.8688118 -6.3467393 1.5796802 16711746
-2.0480862 -3.7792225 2.7591567 16711746
-2.1887298 -1.871563 1.7204738 16711746
-3.1071882 -3.2157907 2.4106503 16711746
-2.7668273 -2.7230163 1.2667524 16711746
-1.1715697 -2.515265 2.3367543 16711746
-1.8810877 -3.1135099 2.4535947 16711746
-0.36614525 -13.353006 2.6276994 16711746
-3.7687681 -9.5906429 2.2402453 16711746
2.4043179 -9.186101 1.9718012 16711746
-1.0160698 -3.9466307 3.5766315 16711746
4.5360804 -7.7951884 -0.15513724 16711746
-3.0295761 -11.813534 2.9142759 16711746
-3.2688651 -3.1113193 1.5418719 16711746
-2.3651197 -2.1155572 1.3010932 16711746
5.8487334 -10.583127 -1.4805413 16711746
0.26246482 -13.912137 2.1766086 16711746
-5.4829397 -6.0800829 1.8104039 16711746
-3.6095333 -5.4540973 1.1070702 16711746
1.5710206 -5.4584212 3.5266094 16711746
-1.5462631 -9.7288589 1.0216726 16711746
1.7978338 -1.8947208 1.3650185 16711746
-0.350306 -2.6377649 2.4132931 16711746
-5.3894477 -5.8825536 2.2440557 16711746
0.8686797 -12.19017 1.4334986 16711746
0.076201253 -9.1209049 3.669064 16711746
0.00079610944 -3.7082484 2.8459942 16711746
-0.68924046 -3.3636589 2.6300316 16711746
0.59580857 -2.8165479 1.8930961 16711746
-0.62827587 -3.1581252 2.4440322 16711746
1.6886367 -1.3394163 0.99056011 16711746
0.91615361 -2.5791268 2.0390053 16711746
1.9194506 -2.157006 1.4944721 16711746
1.2984349 -2.0406642 1.3465129 16711746
-2.1047692 -2.2411237 1.8063796 16711746
-1.7895392 -1.977661 1.5040116 16711746
1.4336799 -6.3596282 -0.56495553 16711746
-1.9722744 -2.8162057 2.4713848 16711746
-3.0683672 -5.6216097 1.7885772 16711746
-2.7239091 -3.2770603 2.2897334 16711746
1.7566922 -7.5474243 2.208796 16711746
2.0723605 -3.9107716 2.7855299 16711746
-0.6348505 -5.2553377 2.7964714 16711746
-1.8578681 -4.6992688 2.7197943 16711746
-2.4739957 -2.9966681 1.9866401 16711746
-2.3898594 -4.8312359 2.6671071 16711746
-1.2300158 -9.0628901 3.096885 16711746
2.5561674 -8.6479778 2.3880093 16711746
-1.9141779 -1.8932157 1.2600631 16711746
-1.3905307 -1.2643827 0.79216868 16711746
-1.8892969 -8.7257767 3.4341638 16711746
0.1994925 -9.9573364 3.6899662 16711746
2.2383358 -6.2261105 1.5752614 16711746
-1.2614683 -3.2957807 3.0852296 16711746
2.1198416 -7.4191995 5.8753734 16711746
-0.9647187 -9.3111448 0.51267409 16711746
-3.0435433 -10.423074 0.92079198 16711746
-1.7044938 -4.8627791 4.5409865 16711746
-3.1857631 -3.213479 1.5551041 16711746
0.30298099 -12.894094 0.76355022 16711746
-3.4222879 -5.1351972 2.831923 16711746
-0.36814246 -4.3100271 2.2698135 16711746
-2.2100413 -4.5539961 2.476249 16711746
-1.4344794 -5.1514182 2.5612626 16711746
0.62906873 -4.6969552 2.7443149 16711746
-0.97730279 -3.4906387 2.9854085 16711746
0.044280436 -2.9263151 2.6449406 16711746
0.78610557 -4.4483218 2.7005763 16711746
-2.7522559 -5.4220614 2.5577409 16711746
1.7149392 -4.3834777 2.1114693 16711746
-2.1770332 -4.4679341 2.4164603 16711746
-2.6691573 -2.3206124 1.4982705 16711746
2.4611912 -4.0934916 2.4268367 16711746
2.5343716 -4.6241698 1.8909558 16711746
0.89593041 -2.6966226 1.4675241 16711746
0.79139286 -3.4919641 1.8412669 16711746
2.052984 -4.4154749 2.2761183 16711746
-2.2830806 -1.6609818 0.72459537 16711746
1.1279666 -6.9939198 2.3820024 16711746
2.0575273 -4.543252 2.3596871 16711746
-4.9476972 -4.5272512 2.921118 16711746
0.33528483 -4.279963 -0.53510338 16711746
3.0431449 -2.482748 -0.21489261 16711746
2.3802874 -2.496352 1.2751224 16711746
2.962101 -3.736269 1.5245991 16711746
1.2226638 -3.1354666 0.50880092 16711746
-0.48191941 -3.137624 2.876327 16711746
3.2846172 -2.4136322 0.6386342 16711746
0.99805933 -2.8170953 2.1863935 16711746
2.7932622 -1.8211802 0.67884058 16711746
-3.650465 -3.2271991 0.2132142 16711746
-4.0984101 -3.1113002 0.21132761 16711746
2.6507847 -2.861666 1.5557864 16711746
2.3000591 -2.0163882 0.64214718 16711746
3.1348209 -3.6285267 0.18280835 16711746
2.9200144 -4.2581201 0.62684625 16711746
-1.357982 -3.4548585 2.2006295 16711746
1.47162 -2.4449966 1.7536753 16711746
-1.0556972 -3.5476398 2.8120933 16711746
-2.4840717 -2.6270211 1.9526165 16711746
-2.3505418 -2.1813307 1.6296498 16711746
-2.2116699 -3.0319002 2.1306798 16711746
-2.3964202 -3.2256913 2.3073339 16711746
-1.2873983 -3.2723551 2.8170788 16711746
0.90863246 -2.836638 1.5877405 16711746
-3.0794649 -2.8919718 1.4678159 16711746
-4.2794447 -3.2243707 1.175194 16711746
-0.58522093 -2.8707802 2.4310033 16711746
1.3028367 -3.1503739 2.0896082 16711746
-2.5502603 -2.6575873 1.5266995 16711746
-1.5810333 -1.223363 0.61444515 16711746
-2.4036705 -2.1775796 2.5508327 16711746
-0.83416897 -5.3555613 2.4850178 16711746
-4.7689028 -6.8724098 -0.43671113 16711746
-2.006964 -3.0466878 2.3874385 16711746
-2.3683205 -4.0644131 3.3205411 16711746
0.66955078 -7.7549944 2.4679294 16711746
-1.9899434 -3.94642 1.6089534 16711746
-2.4626803 -4.725831 3.0592597 16711746
-0.74654651 -8.3776169 2.9140205 16711746
2.500248 -9.1764441 2.4042983 16711746
2.3817656 -10.089714 -0.66976058 16711746
3.7829142 -9.4997969 -0.52449703 16711746
-3.1339297 -4.7572808 0.99893349 16711746
1.0492347 -4.3391113 2.2849982 16711746
-1.1783826 -3.2109253 2.3835499 16711746
1.543039 -3.8330684 2.0725834 16711746
0.048861925 -3.3550024 2.5148022 16711746
0.17085613 -2.8388984 2.6449447 16711746
-1.3148198 -1.0230396 0.27777061 16711746
-1.0280359 -3.6005864 3.0995913 16711746
-2.7958028 -2.670969 1.4780669 16711746
-1.6892604 -4.9209991 2.8837302 16711746
0.60957587 -2.4522114 1.8799306 16711746
-0.1574467 -5.1150427 2.5418942 16711746
2.4412031 -4.4187951 1.7788572 16711746
-1.7871689 -2.5118072 2.3153219 16711746
-0.94867373 -2.3467963 2.347455 16711746
-0.87860388 -5.6225824 2.4475541 16711746
-2.6523337 -3.4034595 2.3379934 16711746
-0.11090072 -3.7899361 3.4395065 16711746
-0.8519094 -3.4628937 3.1266997 16711746
-1.6550138 -1.6786312 1.7807145 16711746
0.26587695 -8.510108 2.6497748 16711746
-2.1669333 -2.2327566 1.6092257 16711746
3.9841363 -3.173763 1.1050534 16711746
-2.911041 -3.5650585 -0.37462926 16711746
-2.2251053 -1.5502738 0.52059615 16711746
1.0946106 -3.9576647 2.4648118 16711746
0.60482436 -4.3595533 1.8199248 16711746
2.4709632 -3.370326 0.78989905 16711746
-1.7703391 -3.6546903 2.1938741 16711746
-0.47561476 -3.117274 2.8580408 16711746
-1.3105668 -3.2772613 3.1834562 16711746
1.4127575 -5.5251961 1.4632808 16711746
-2.6415331 -2.5670292 1.8988104 16711746
1.031805 -3.5264189 2.1073098 16711746
-1.0939535 -2.6277895 2.6066289 16711746
-1.8496759 -3.7095191 2.4907215 16711746
-1.6796257 -4.6206775 2.3541498 16711746
0.060972705 -3.2309673 2.3877499 16711746
0.15145758 -2.9999192 2.8339233 16711746
0.83227015 -2.0815561 1.5050679 16711746
-0.53929621 -2.6935282 2.2694368 16711746
1.2408606 -3.4778287 2.452858 16711746
1.3895507 -2.0970442 1.6833664 16711746
-5.0318198 -5.2398787 0.031283278 16711746
-2.1097028 -3.378114 2.4292755 16711746
-1.7882161 -1.9488986 1.3176554 16711746
-1.9478772 -2.7398052 2.4424937 16711746
1.0424747 -6.3368192 2.03895 16711746
3.7937484 -9.3576698 5.9131737 16711746
-1.5805537 -4.381247 2.2425506 16711746
0.6496529 -0.35218531 -0.51230979 16711746
1.2717648 -8.9274673 2.9062059 16711746
1.9395063 -8.1606569 1.7739317 16711746
2.1379902 -7.1603937 1.2830193 16711746
0.19616005 -9.8763819 2.9162714 16711746
-0.15054682 -5.1193843 2.5540645 16711746
-0.58179903 -6.8464365 1.7226872 16711746
-1.0490494 -7.5913076 2.8124015 16711746
1.238477 -4.8180199 1.9059038 16711746
-1.082634 -2.5024092 2.6262274 16711746
-1.2411516 -3.2922375 3.0821226 16711746
0.80921954 -2.0610671 -0.14832193 16711746
-0.83193266 -2.6977293 2.6372452 16711746
-1.9015336 -3.3926499 2.4201782 16711746
-1.7379588 -3.3611705 -0.65675449 16711746
1.5865623 -3.4325368 1.6545056 16711746
1.1653268 -5.0495048 2.2192545 16711746
2.6640909 -4.9020228 0.83020222 16711746
1.8359478 -4.1591439 1.6775911 16711746
2.1613312 -4.8219075 2.7906504 16711746
6.2763119 -5.8982639 -0.68584293 16711746
-1.5243697 -4.0219078 4.3044114 16711746
4.4680419 -9.3059702 0.0072324793 16711746
0.25216338 -7.5142756 2.5479338 16711746
3.8322837 -7.8534722 -0.5319556 16711746
-0.088628367 -9.280283 0.15609111 16711746
1.5344427 -5.1561785 2.3780575 16711746
-2.1112072 -4.2567334 1.1316357 16711746
-1.1451354 -3.3014803 3.3872275 16711746
1.5954781 -3.8501127 1.2462064 16711746
-4.1522975 -2.7818379 0.22128019 16711746
-2.6843183 -3.0386186 -0.41821602 16711746
1.5910567 -3.210427 1.3434277 16711746
0.56797487 -5.7510047 1.8431054 16711746
0.76468462 -3.7603645 1.6905916 16711746
-1.0809987 -9.3671246 2.5920775 16711746
5.0940652 -10.918421 7.5034943 16711746
2.5062044 -14.025666 -0.38070047 16711746
-3.1248269 -4.5946093 3.9735332 16711746
1.4318186 -2.3727369 1.6142488 16711746
-1.9257886 -3.9447284 0.35012224 16711746
2.2706025 -4.4657683 0.42362288 16711746
0.19374976 -5.8807073 -0.44744682 16711746
0.66509449 -2.9196095 1.4923189 16711746
-1.4858336 -3.7821238 2.3198612 16711746
3.2097406 -3.6658025 0.81818819 16711746
-3.2669351 -6.0125356 -0.69068551 16711746
-1.7826703 -4.5376544 3.2021527 16711746
-1.0906699 -8.63519 2.518028 16711746
-1.4104172 -11.276692 3.2091055 16711746
-1.2594255 -2.7379112 2.9702475 16711746
-7.3059845 -8.2225113 0.19482073 16711746
-7.051178 -7.4395504 -0.41401675 16711746
-4.5072398 -5.5979614 2.9093268 16711746
0.70726144 -4.0432405 2.0478852 16711746
-2.1318476 -7.6599345 0.74936986 16711746
-0.59721619 -12.508161 -0.82465547 16711746
2.3971488 -13.224423 -0.73302156 16711746
0.61208123 -8.2238064 2.8733017 16711746
0.86295331 -12.976414 -0.34682477 16711746
-8.4385595 -5.7088523 1.2827469 16711746
-0.66004544 -7.8493171 2.5004561 16711746
-2.813448 -5.2311363 0.64504945 16711746
1.2322643 -6.5793977 -0.3604863 16711746
0.78392786 -3.516089 1.7719264 16711746
3.5156751 -6.9383111 0.34495282 16711746
-7.4016409 -10.614964 -0.03619248 16711746
5.490839 -10.69475 -0.49820915 16711746
-1.6686022 -5.4551411 2.1378505 16711746
-1.1771108 -7.3260221 2.8591304 16711746
2.1603775 -9.517766 0.042652432 16711746
-7.5036221 -9.2146187 -0.91952991 16711746
-10.246635 -9.8651543 0.083337769 16711746
1.3282219 -14.411915 2.1682644 16711746
0.60675001 -1.9238923 1.413896 16711746
0.75228596 -3.4448304 1.5689292 16711746
0.71385723 -2.0175641 1.4052835 16711746
0.92049271 -3.4964163 2.9262142 16711746
-7.2942128 -5.0466537 0.84580886 16711746
-11.680177 -9.7865629 0.055163305 16711746
-9.779974 -9.7587824 -0.34374279 16711746
-1.3607193 -19.287691 3.8359501 16711746
-15.077628 -9.7833509 2.7151339 16711746
0.47203678 -26.923077 2.2397768 16711746
-5.462214 -26.22464 9.623373 16711746
1.2544138 -23.458267 0.47255963 16711746
-11.526505 -11.578156 0.72429287 16711746
-1.2037377 -19.97661 3.1846766 16711746
-13.570585 -9.2569075 1.7888895 16711746
-0.44847223 -24.141876 4.755929 16711746
-0.73324847 -20.140247 7.0793877 16711746
-0.72480357 -17.238724 4.1735282 16711746
-14.252391 -8.9005899 2.8919702 16711746
-7.254848 -8.9713335 -0.95526379 16711746
-5.6318583 -17.55934 -1.8320152 16711746
-14.640461 -12.966419 0.7647562 16711746
-1.9576485 -20.124796 3.6747084 16711746
-7.9153523 -14.790346 -2.0109162 16711746
-9.8953867 -15.800579 -0.40710872 16711746
-13.574116 -11.113315 0.09965761 16711746
-7.5444717 -15.114731 -1.7796469 16711746
1.0437758 -22.967209 5.3634434 16711746
-3.1791282 -18.954933 1.054845 16711746
-8.6102524 -13.971508 -1.3733652 16711746
-1.215672 -16.905252 3.9194002 16711746
-5.2857151 -12.476963 -1.3020227 16711746
-6.1803055 -11.782552 -1.3498225 16711746
-3.1479578 -15.930592 -0.4388856 16711746
3.901432 -7.9787087 6.907155 16711746
-16.461874 -14.169203 9.7099075 16711746
-6.5321636 -22.274628 -1.1785591 16711746
-9.8890991 -10.151308 0.10222077 16711746
-16.041012 -14.102869 9.6152382 16711746
-8.1710119 -9.8850336 -0.93493491 16711746
2.8285027 -23.258204 3.4163404 16711746
-10.407718 -9.2969437 8.5071344 16711746
-6.236176 -12.468802 -1.5012654 16711746
-8.6711702 -12.93603 -1.5655755 16711746
-8.0855999 -11.966934 -1.1605381 16711746
17.502363 -15.496093 -0.4162465 16711746
2.7273724 -5.3362732 4.0113835 16711746
-9.4389591 -6.5401912 2.2529814 16711746
-13.346525 -10.908937 0.19518098 16711746
-5.9553456 -20.901957 -1.0003452 16711746
-12.791692 -11.233426 7.1866469 16711746
0.29503784 -18.816465 1.7415588 16711746
-1.718109 -14.721303 -0.76661921 16711746
-4.3250771 -19.264542 3.0879538 16711746
-2.5730093 -19.965403 6.0555015 16711746
5.2287974 -20.970804 11.527388 16711746
-0.33534828 -17.758869 7.0475545 16711746
-0.034303449 -17.801855 8.032093 16711746
-13.971853 -10.202803 1.4050111 16711746
-0.25942758 -18.382183 4.246192 16711746
2.2396736 -14.269326 -0.20423824 16711746
-11.843649 -14.711305 0.045700256 16711746
1.6077409 -19.956627 1.4980737 16711746
-18.097515 -12.913514 2.728435 16711746
-10.861425 -10.192117 7.2772803 16711746
-6.0191741 -20.909571 -1.767898 16711746
-8.9011269 -16.126904 -1.4609169 16711746
-7.8822913 -14.47609 -2.0574241 16711746
-5.6524029 -17.435961 -2.2205279 16711746
-11.842767 -11.07867 -0.19970392 16711746
-6.9913435 -11.608246 -1.2223539 16711746
0.98643726 -20.463867 -0.24520494 16711746
-13.145906 -11.289351 -0.37497321 16711746
-6.0854597 -15.889882 -0.88395625 16711746
-9.1221437 -12.203365 0.058524203 16711746
-12.859979 -12.166164 7.8867598 16711746
-16.792109 -11.438008 4.1362934 16711746
1.9560269 -20.378445 0.25463384 16711746
-8.5293846 -9.8771448 11.042595 16711746
-9.504673 -10.711708 -0.33714703 16711746
0.1992583 -23.343813 -0.1696884 16711746
-13.173994 -9.54846 3.3064375 16711746
-13.168459 -8.8836832 4.0970888 16711746
0.1859692 -19.459684 5.2943788 16711746
-3.2325466 -13.864939 -1.0368483 16711746
-15.870468 -13.56672 3.6368277 16711746
-3.2625513 -13.950838 0.48569587 16711746
-11.985347 -11.674909 5.6874022 16711746
-3.44186 -17.318619 -0.43956947 16711746
-4.2933068 -10.296082 5.2059302 16711746
0.26047575 -21.141548 3.0281758 16711746
-15.706915 -12.857603 0.41184065 16711746
-5.2910738 -12.571554 -1.7504381 16711746
-0.78416044 -17.894323 5.51825 16711746
-1.0158982 -17.036825 -0.88813609 16711746
-1.9080652 -17.146852 0.98572087 16711746
-5.1562347 -16.077423 -1.7112424 16711746
-8.3867311 -6.261312 8.5494165 16711746
-0.61075491 -19.479326 6.8515306 16711746
-9.5928764 -10.432236 0.67086405 16711746
-3.7150612 -17.861805 0.93498778 16711746
6.0944915 -14.870022 4.4069104 16711746
-5.3609762 -10.511587 10.575932 16711746
-10.550204 -16.473209 8.0531816 16711746
-1.2906713 -13.492707 12.103986 16711746
-5.2530174 -20.990158 4.3540368 16711746
-7.5189099 -20.017893 2.4462564 16711746
-13.028793 -10.661323 0.065306991 16711746
-0.44266203 -21.553581 4.7545328 16711746
-8.2819653 -11.478941 -1.1506082 16711746
-10.258476 -11.825788 0.17504811 16711746
-1.3623661 -18.600214 5.0181742 16711746
-1.4025496 -17.969269 4.0567937 16711746
-0.27007055 -20.709824 2.994173 16711746
0.36567688 -20.502007 -0.53253537 16711746
-13.093396 -12.267211 0.56841314 16711746
-2.911833 -19.040773 6.3725724 16711746
1.2807326 -17.646143 0.81171364 16711746
0.28873074 -17.583599 0.33643794 16711746
-0.67307675 -19.884163 5.3641143 16711746
-7.9015155 -13.602766 -0.82852954 16711746
-14.996882 -11.856236 -0.3684409 16711746
2.3220875 -23.268101 6.8713841 16711746
-11.711085 -9.8578596 6.683846 16711746
0.45342943 -17.548283 -0.030519696 16711746
-8.4940071 -13.29811 -0.99582958 16711746
0.57058358 -19.0884 7.8027053 16711746
-16.767046 -13.468302 1.7416247 16711746
-1.8991429 -17.988255 3.902616 16711746
-8.8568487 -14.759201 -1.2158192 16711746
-3.8206916 -9.6061344 5.0121503 16711746
-8.96488 -12.018825 -1.2414428 16711746
-0.40966457 -17.213202 6.7794571 16711746
-4.3836517 -19.074596 3.5367186 16711746
2.3125155 -20.444592 8.2870922 16711746
-2.787183 -18.058516 5.8742871 16711746
-2.8512678 -16.040585 6.8551893 16711746
4.1159382 -19.32444 7.5451107 16711746
-15.426871 -10.706552 4.6619048 16711746
2.4827645 -20.702337 8.3078299 16711746
3.7077441 -18.35607 6.4641137 16711746
-13.100595 -12.031713 9.0187435 16711746
-11.629207 -14.232655 0.76463908 16711746
-0.84504205 -19.885592 0.5105387 16711746
2.7566509 -21.210926 1.6086516 16711746
-1.8976386 -19.512243 2.8808994 16711746
-3.7365317 -18.351835 0.90194803 16711746
-3.2639785 -13.08653 5.553833 16711746
-2.7700696 -12.54683 6.2174129 16711746
7.1416883 -22.921263 9.2550354 16711746
-3.2324626 -16.658318 -0.2850641 16711746
-11.013282 -12.165389 12.72365 16711746
-9.493331 -13.598351 3.7632504 16711746
2.7589386 -21.350813 6.2596374 16711746
-1.5072855 -16.306669 3.631664 16711746
-3.2414329 -17.836283 6.3978148 16711746
-4.349596 -17.61375 6.4195733 16711746
-9.7696791 -11.961922 10.804091 16711746
4.5108085 -20.721016 15.193671 16711746
4.2941399 -19.676838 2.7026458 16711746
-0.77585697 -17.991169 -0.070528463 16711746
-0.27060321 -15.061834 3.935281 16711746
1.3414987 -27.080528 9.768487 16711746
1.596135 -18.655458 -0.57821774 16711746
-1.6614503 -18.81872 3.5458972 16711746
-3.8800914 -22.737438 8.5466509 16711746
-2.9903688 -16.071939 0.085164189 16711746
7.5593596 -23.765846 10.818104 16711746
9.5180025 -32.695259 13.487281 16711746
1.3229623 -20.758661 0.96117401 16711746
6.412436 -20.070568 8.7089529 16711746
-17.430145 -12.144891 5.2643223 16711746
2.6988766 -21.079943 1.5817562 16711746
8.9971056 -25.539625 13.17068 16711746
-6.5311527 -27.582605 4.3172426 16711746
10.900914 -10.753632 12.417298 16711746
2.6663826 -25.902416 10.059829 16711746
9.3501186 -37.267017 14.569915 16711746
-24.616993 -24.964258 0.3326444 16711746
2.5452902 -22.857821 7.9299898 16711746
5.0929904 -30.4317 2.3925014 16711746
-26.689825 -24.637753 11.111174 16711746
-4.8361998 -17.827347 -1.2484688 16711746
-5.3015766 -19.751129 -1.5458827 16711746
4.7160935 -20.811466 11.429674 16711746
5.7376189 -17.671139 8.3327026 16711746
4.8131604 -24.515299 9.2665329 16711746
-0.59052861 -26.45503 3.5322478 16711746
-3.1289449 -29.033112 3.8494751 16711746
8.6443377 -23.589638 13.09446 16711746
18.359047 -26.381289 2.6171653 16711746
6.1906891 -24.506613 11.135535 16711746
-4.2638741 -29.851807 2.313889 16711746
8.3309917 -22.496813 12.596108 16711746
6.5637102 -26.301601 11.709899 16711746
-4.3867474 -26.398201 2.1983466 16711746
-4.051198 -20.92592 -0.42766526 16711746
-6.7282228 -29.705412 10.405529 16711746
-4.8701434 -27.99868 2.2392533 16711746
-25.508879 -23.390961 10.648995 16711746
-3.8117034 -20.446367 8.4069138 16711746
4.4541521 -19.346771 16.345528 16711746
-1.4420575 -20.88909 -0.65036851 16711746
-18.786161 -10.778308 3.5230718 16711746
-0.77108848 -20.351158 0.042787425 16711746
-15.773102 -15.553262 0.82939065 16711746
-3.5099967 -18.575525 7.8367543 16711746
-13.302396 -20.775658 -0.58529896 16711746
-2.9208019 -21.703245 1.0955579 16711746
-0.55221206 -20.546116 8.2591124 16711746
15.237082 -45.810555 24.705736 16711746
1.2246374 -21.711292 0.087776959 16711746
-0.26797336 -22.238443 -0.75522971 16711746
4.2009659 -24.213144 1.0102067 16711746
8.3027582 -22.587704 11.659431 16711746
0.99430889 -21.576803 1.6641036 16711746
0.62967861 -18.196636 0.51401991 16711746
-21.65159 -14.232413 6.6659336 16711746
-1.3389494 -20.294672 -0.085139796 16711746
4.0796294 -19.484037 14.26853 16711746
8.6334286 -21.872839 16.459936 16711746
-15.21683 -14.863791 0.88937694 16711746
-17.980928 -11.799486 5.758996 16711746
0.95905811 -9.5040092 6.142858 16711746
4.8700242 -5.9512916 1.4754817 16711746
4.801722 -31.747122 6.2897916 16711746
4.4482622 -23.675909 4.8323784 16711746
5.3109584 -24.331308 4.5612707 16711746
-10.875818 -14.65199 -0.75585997 16711746
-25.148165 -15.766614 7.1141901 16711746
-0.17735918 -21.136898 6.3487325 16711746
-5.2464242 -19.367556 -0.96302885 16711746
-2.3401117 -20.661001 4.0698967 16711746
3.5575461 -25.643505 0.091927461 16711746
-4.1281719 -20.908247 -0.43875873 16711746
-11.457604 -14.519973 -0.80878454 16711746
-16.375418 -22.808533 -0.040638987 16711746
-29.587524 -22.503 13.552227 16711746
-23.413015 -21.44108 9.848567 16711746
-4.8773794 -27.818054 2.3223739 16711746
6.3713984 -22.445602 9.5687351 16711746
-3.8747423 -21.23473 1.5010874 16711746
-2.6386604 -24.684366 5.574409 16711746
-26.991749 -23.16766 12.772378 16711746
-7.0627961 -26.784615 8.2811003 16711746
-2.8404238 -27.154537 5.9103789 16711746
1.7652713 -24.505198 -0.57505769 16711746
4.2251844 -9.7645235 8.0275812 16711746
4.9055276 -12.171374 9.564889 16711746
-5.3806801 -19.417168 -0.76020885 16711746
0.86432999 -6.4255295 3.2547276 16711746
-11.387486 -13.29004 -0.94219017 16711746
0.91555667 -6.3062057 3.4262784 16711746
-25.72403 -25.714706 10.173979 16711746
-4.9250259 -31.247711 -0.36008054 16711746
-3.0682373 -26.15027 4.1484017 16711746
-4.3869014 -23.56785 -0.40991503 16711746
-8.3633118 -38.472332 5.9947267 16711746
-0.73653376 -26.52318 1.1492242 16711746
-2.0829277 -30.7449 3.818696 16711746
-2.9452209 -26.651358 4.0685797 16711746
3.860559 -18.862211 13.855277 16711746
-22.753775 -19.116327 6.4328041 16711746
-14.1947 -20.045338 -1.732094 16711746
-13.650078 -21.905176 -2.1568954 16711746
5.0842018 -25.136141 10.966961 16711746
-0.29985026 -26.618002 1.0840839 16711746
-5.1549864 -28.973539 3.8651679 16711746
-27.2495 -17.323885 7.6242762 16711746
-25.238049 -22.232168 11.656627 16711746
11.130232 -14.187405 1.8577079 16711746
1.3816954 -21.340137 -0.037243932 16711746
-29.978092 -23.018412 14.605201 16711746
-25.900866 -20.351213 13.029649 16711746
-22.354746 -29.887299 5.7013693 16711746
2.8094156 -54.219814 20.272938 16711746
-23.368448 -19.131958 13.405286 16711746
-4.9671764 -20.178583 7.7187757 16711746
-3.5958195 -23.832182 2.6888225 16711746
-4.8368993 -25.329296 1.3552067 16711746
-6.235867 -26.801247 0.97837776 16711746
6.7047868 -41.11451 0.42866465 16711746
-14.250612 -14.142359 -0.21583834 16711746
8.1748543 -27.338413 11.324231 16711746
-0.38253504 -19.223402 2.20366 16711746
5.2822008 -26.044378 11.363459 16711746
-14.658744 -16.797871 0.68309522 16711746
-20.079309 -22.256813 -0.47529033 16711746
2.3591886 -25.665016 10.77135 16711746
-26.224159 -20.073053 15.500007 16711746
-3.3592126 -23.483776 2.6956589 16711746
1.8549284 -27.746843 5.9847617 16711746
-7.1793375 -24.637768 5.9444666 16711746
-22.5002 -18.857454 6.3423305 16711746
-15.261541 -18.252369 0.14181562 16711746
-14.53056 -18.040531 -0.82572806 16711746
-8.6454754 -38.459221 -3.0697734 16711746
3.6234436 -9.5159569 5.5555749 16711746
3.5527742 -19.858154 0.39592904 16711746
4.0987096 -3.8823514 1.7128948 16711746
-18.716541 -11.965353 7.5276718 16711746
-2.1056769 -21.203463 0.47326222 16711746
8.2579851 -22.726126 15.701445 16711746
-4.3123097 -23.195545 9.404336 16711746
-25.882627 -27.158289 12.070151 16711746
7.9515738 -26.290234 10.506968 16711746
-16.487356 -22.247646 -2.7044349 16711746
-0.53701192 -23.936352 4.6313896 16711746
-21.501394 -17.681749 12.463057 16711746
5.1101561 -22.547581 12.097369 16711746
-3.7825637 -20.121626 0.11477474 16711746
-5.7402344 -22.092854 -1.1354593 16711746
-15.633109 -15.820132 13.999233 16711746
-19.771299 -12.853395 7.1767468 16711746
8.7309189 -23.193308 5.747386 16711746
3.1142979 -20.7836 -0.31490722 16711746
-6.8455505 -26.010353 8.0078745 16711746
5.6738677 -24.042152 8.4196644 16711746
-31.047356 -22.235916 15.877254 16711746
-22.991993 -24.292532 9.0241165 16711746
10.31648 -28.664093 15.754863 16711746
-19.570129 -12.029647 4.7233281 16711746
6.1521831 -12.123239 13.009009 16711746
-20.796621 -19.488314 9.3486748 16711746
-26.424007 -25.044764 13.738504 16711746
-7.3266506 -6.9811368 2.2242799 16711746
-7.5397716 -32.322647 7.5720167 16711746
-1.3360968 -19.150278 2.163635 16711746
-12.448248 -11.51007 0.73051047 16711746
-2.1047344 -24.78426 1.1601062 16711746
-7.2593613 -27.889812 8.4367199 16711746
-3.314671 -29.972387 4.9462013 16711746
-22.737204 -19.972692 12.280707 16711746
-1.8609077 -21.683424 6.6560507 16711746
-27.889837 -18.066629 7.761107 16711746
6.1201491 -12.201493 13.017884 16711746
14.673826 -30.283506 0.098130442 16711746
5.2385635 -10.485129 11.351411 16711746
6.4013371 -26.815441 8.0954723 16711746
6.0355396 -25.093945 7.6949472 16711746
3.5697415 -21.605732 11.008977 16711746
5.7830248 -23.196978 7.4517775 16711746
-6.9292402 -29.474821 0.47243357 16711746
2.6166594 -25.737846 10.917684 16711746
4.3024211 -29.14764 10.5474 16711746
-7.2936258 -29.118717 5.1141634 16711746
-31.800037 -24.006916 17.896154 16711746
-1.0419909 -18.052219 5.1003923 16711746
-25.640821 -29.578089 -2.4361565 16711746
-5.4726186 -27.584198 1.08629 16711746
4.5378752 -23.748083 7.3235445 16711746
2.2835319 -21.770498 9.7815323 16711746
4.1251884 -20.551468 6.4578471 16711746
4.7725434 -24.861654 8.053319 16711746
3.032331 -11.42758 9.9329166 16711746
-4.7424512 -26.871237 0.64888358 16711746
5.5334139 -19.909559 7.9199243 16711746
0.26040015 -10.677755 3.8211436 16711746
6.250267 -29.026119 5.1707988 16711746
-12.558658 -15.198944 -1.2880546 16711746
5.0554695 -26.490576 7.6021605 16711746
2.0467811 -45.37635 15.400688 16711746
2.3520517 -3.9519901 3.844187 16711746
-29.303085 -31.543894 -5.7519016 16711746
-53.288944 -53.961815 2.3368876 16711746
-37.845673 -40.225231 -4.8625808 16711746
-5.6620803 -30.779316 4.1887236 16711746
8.9540157 -25.68087 10.630736 16711746
5.6438365 -24.188248 8.2785921 16711746
-38.138832 -32.399879 -4.0738206 16711746
4.2838602 -10.185195 7.3352213 16711746
8.8388052 -21.965956 16.534988 16711746
7.9558902 -20.037802 14.959582 16711746
16.398966 -42.169678 32.530014 16711746
6.56043 -14.001101 14.929105 16711746
-16.896618 -61.864422 -1.3646437 16711746
-1.55608 -43.94241 18.57477 16711746
9.1251802 -24.152311 19.711666 16711746
-16.154028 -58.63134 -1.1865567 16711746
-25.65188 -252.38004 75.883186 16711746
-20.669638 -238.30284 71.858658 16711746
-1.5511268 -48.629486 20.548635 16711746
8.1025152 -19.037973 17.66423 16711746
7.4239769 -16.51577 17.348677 16711746
-1.0114582 -28.719227 12.688006 16711746
-32.264286 -78.127579 -4.0819879 16711746
1.9234165 -42.964127 21.134766 16711746
16.9382 -47.233078 33.765297 16711746
3.9846814 -39.098877 39.596725 16711746
30.575974 -94.757851 52.746632 16711746
7.2767558 -17.130054 14.800591 16711746
-51.964142 -39.486351 34.956768 16711746
-20.854877 -17.088066 2.2431655 16711746
-7.1972747 -96.138382 15.603825 16711746
-2.57759 -53.546558 10.645977 16711746
-3.1981804 -42.009335 6.4550209 16711746
7.0449939 -38.978611 31.24423 16711746
7.6101542 -17.252392 16.602783 16711746
-5.7076373 -6.6266346 6.772409 16711746
-11.146749 -12.754128 7.027041 16711746
12.22392 -82.616074 10.399035 16711746
21.967939 -160.41132 34.887157 16711746
9.3608027 -136.6357 28.013168 16711746
3.8736725 -77.314102 1.6248162 16711746
0.93389809 -11.850041 9.0581799 16711746
-32.597851 -23.865936 1.6465079 16711746
-28.117144 -23.029943 3.9969904 16711746
0.82151985 -118.8044 30.186928 16711746
2.3594992 -61.679169 4.8253069 16711746
20.129673 -144.21144 31.964851 16711746
9.9612827 -22.368097 19.928476 16711746
26.155548 -63.509655 62.182289 16711746
-12.938734 -56.799671 19.52034 16711746
31.622017 -113.47981 41.795448 16711746
24.182539 -58.620842 57.881134 16711746
9.5918741 -23.941479 21.158348 16711746
9.9016266 -24.648743 23.256449 16711746
75.451111 -234.34964 127.87275 16711746
8.4091969 -19.433899 18.723341 16711746
11.505219 -69.272842 29.184658 16711746
-1.0015439 -13.241949 10.409028 16711746
4.541914 -7.1431675 10.775567 16711746
3.8232319 -9.6270876 14.474354 16711746
-7.3063478 -8.6793804 5.5134335 16711746
-16.536699 -17.005283 1.8693006 16711746
2.5403786 -13.195479 13.137714 16711746
2.0467031 -7.5158906 7.8913994 16711746
-5.9978733 -92.620491 8.1148014 16711746
2.2516341 -57.080769 3.6440463 16711746
-4.8885694 -87.937729 0.91855896 16711746
3.8402407 -101.72466 5.3135204 16711746
14.645225 -135.97731 39.622211 16711746
29.494089 -123.44441 40.883205 16711746
-9.5401983 -70.356789 10.322011 16711746
-8.0514383 -51.292294 11.108769 16711746
13.790795 -31.726515 12.107819 16711746
10.464425 -71.145447 11.313422 16711746
2.9669647 -2.4572237 9.0712433 16711746
3.5815513 -4.2660818 9.8279209 16711746
-9.7587547 -9.0241203 5.0729856 16711746
4.1238222 -23.480303 14.026601 16711746
-6.9526038 -80.80938 11.040988 16711746
10.430161 -38.157776 16.230495 16711746
-20.497635 -13.567013 6.7367873 16711746
-15.591351 -12.288724 5.1835318 16711746
3.1631963 -34.771572 9.5604172 16711746
18.860636 -40.115643 23.986053 16711746
6.3681316 -16.48716 11.991619 16711746
-7.039185 -61.728821 12.497191 16711746
16.671452 -106.76077 21.267647 16711746
-7.1502862 -9.2045984 6.2056651 16711746
3.0420232 -2.3603139 8.938035 16711746
2.3746006 -36.190552 8.0985575 16711746
31.278217 -240.04895 47.151276 16711746
14.075038 -114.42665 24.081936 16711746
13.762499 -90.528358 18.471216 16711746
17.256021 -40.314896 39.294483 16711746
-13.182507 -73.724953 18.82214 16711746
-7.866755 -50.658825 15.655367 16711746
14.501121 -34.656677 29.247942 16711746
7.7801681 -20.924604 14.306432 16711746
32.701508 -82.28212 72.552635 16711746
6.7312403 -110.16663 -0.17128794 16711746
-3.9746058 -46.005135 5.86274 16711746
-3.3017862 -52.572517 11.46898 16711746
-3.8904963 -20.319818 15.087149 16711746
-56.96426 -38.4739 24.872982 16711746
2.0039139 -95.126991 7.6144686 16711746
-6.3041391 -71.935707 13.110259 16711746
6.7620645 -28.564259 7.0505419 16711746
5.3631916 -35.46627 6.1554594 16711746
11.597656 -51.200298 10.564552 16711746
5.3292112 -12.651021 10.067286 16711746
-8.622468 -9.2204762 5.2808862 16711746
2.1121962 -14.707019 8.2508116 16711746
-0.37591487 -21.79291 10.700254 16711746
1.6079278 -26.546667 9.1706095 16711746
3.1835835 -17.97666 8.6470261 16711746
15.981225 -37.734341 8.7445869 16711746
9.5431538 -28.254875 16.170536 16711746
10.129883 -29.623257 17.300314 16711746
17.964283 -48.601406 28.978907 16711746
15.510249 -47.774284 24.724047 16711746
-16.097563 -47.015167 48.837109 16711746
22.874796 -65.287697 49.441448 16711746
23.47032 -69.19442 45.164776 16711746
1.0719706 -30.407818 7.4063716 16711746
9.7442093 -54.72327 19.334204 16711746
20.651121 -42.747322 11.520297 16711746
-16.247187 -27.850876 33.035984 16711746
-11.872873 -36.108864 40.28693 16711746
19.776539 -89.380096 46.985023 16711746
-0.089725353 -33.859871 9.6612663 16711746
4.3368917 -33.162014 16.705053 16711746
5.9256172 -36.009747 13.106751 16711746
10.008087 -54.779015 24.987848 16711746
7.652751 -30.656494 8.2632275 16711746
21.870804 -61.530174 34.388172 16711746
12.959493 -48.680882 6.6601324 16711746
-1.4457127 -24.738153 9.4547749 16711746
13.136482 -95.959862 27.708031 16711746
7.6369505 -35.990395 11.549063 16711746
12.53776 -27.440453 9.6394844 16711746
12.213362 -37.924641 15.972717 16711746
28.92334 -61.258099 44.563889 16711746
22.837837 -64.731789 35.772423 16711746
40.777027 -64.659721 42.027267 16711746
-7.0724659 -27.030563 6.9187555 16711746
-8.6042509 -49.210075 16.750971 16711746
15.332275 -68.405266 16.826769 16711746
51.820614 -74.046951 8.1631889 16711746
0.90430462 -25.142111 7.3408513 16711746
14.064476 -52.741444 11.931183 16711746
-3.4073238 -24.940393 10.730845 16711746
-5.420805 -51.57066 8.8517895 16711746
13.682291 -31.003599 15.151497 16711746
14.266697 -45.780048 17.338938 16711746
0.35883552 -41.907906 18.029425 16711746
-50.290108 -33.458958 26.192781 16711746
30.190359 -60.916508 41.142879 16711746
-2.2287436 -32.160889 11.671383 16711746
0.67725164 -38.232548 8.6856489 16711746
-3.303432 -44.759312 13.544425 16711746
23.729017 -82.571037 32.472897 16711746
9.5594225 -44.848236 17.58423 16711746
4.605793 -7.2263832 10.881227 16711746
9.6723776 -42.935783 9.9452572 16711746
-4.7918539 -33.11068 14.053098 16711746
9.0381651 -60.626522 9.6004381 16711746
-5.0429993 -57.322334 14.783421 16711746
8.213604 -48.779438 18.414169 16711746
0.980214 -40.638359 9.0522852 16711746
25.722897 -172.35345 115.72244 16711746
2.9930079 -36.74464 15.361719 16711746
0.52061808 -23.212473 10.994556 16711746
8.2559052 -53.683834 21.05522 16711746
10.877881 -26.262356 9.7349558 16711746
11.116908 -27.043499 9.7312651 16711746
2.6030526 -26.729443 8.3900461 16711746
14.518048 -80.947884 11.845603 16711746
-3.5777214 -66.426003 13.663249 16711746
-13.637958 -69.570496 20.563913 16711746
15.460169 -77.145584 22.003458 16711746
17.714561 -41.531223 42.837223 16711746
1.7658715 -77.203659 4.4142261 16711746
-14.688206 -54.149002 5.4974179 16711746
-11.077606 -59.726677 4.6573501 16711746
-13.542339 -94.770485 4.687604 16711746
-14.168962 -73.769508 8.2829781 16711746
-22.632635 -74.877075 5.6564865 16711746
17.057018 -64.279121 10.934123 16711746
12.14716 -26.775955 30.289856 16711746
-38.750599 -29.725719 19.953066 16711746
13.204312 -86.277672 17.817518 16711746
15.251243 -36.051876 33.628517 16711746
-9.8064651 -75.30368 11.841112 16711746
15.322794 -115.51375 36.715508 16711746
30.599966 -72.714867 74.346207 16711746
-16.225073 -63.843491 0.82498318 16711746
-23.002102 -57.920235 4.1060653 16711746
-26.336527 -122.92113 -0.53727466 16711746
6.4748192 -79.367516 13.220376 16711746
21.49362 -131.92554 17.714855 16711746
-36.163975 -102.58726 -0.70176345 16711746
30.87314 -117.95578 22.114351 16711746
6.4080234 -124.55713 43.601257 16711746
36.074509 -100.22635 22.014063 16711746
42.491844 -117.18896 23.913271 16711746
40.188519 -111.25678 23.553595 16711746
-7.6634717 -26.305622 31.149597 16711746
-6.9311318 -69.830666 15.065713 16711746
27.504787 -122.81145 16.171543 16711746
0.29145575 -84.189743 14.964515 16711746
9.7405987 -62.224121 48.627998 16711746
5.0807433 -8.5784588 14.033039 16711746
2.1249053 -11.698556 10.831066 16711746
18.099091 -48.148037 12.328248 16711746
14.28765 -36.675091 25.677462 16711746
15.202186 -18.258923 15.203305 16711746
-7.1224089 -42.676918 6.9457388 16711746
22.347654 -95.539146 32.053608 16711746
5.3439097 -73.265038 21.949659 16711746
4.8285069 -6.0828681 13.685291 16711746
29.031626 -121.53481 39.755234 16711746
37.887413 -110.98714 60.207874 16711746
-19.002447 -65.834457 -0.22941285 16711746
15.613093 -78.364342 3.6401033 16711746
-4.3349609 -50.832874 13.43557 16711746
-7.914999 -74.548485 16.50491 16711746
11.535278 -89.221901 10.512789 16711746
13.459378 -65.552971 7.7564993 16711746
15.187299 -66.297134 11.322999 16711746
16.481007 -45.238518 36.408833 16711746
-38.065014 -88.619286 -0.71583325 16711746
8.4777784 -18.710871 20.009415 16711746
-5.5414915 -68.154755 14.405782 16711746
-2.1565747 -140.37405 11.69492 16711746
-24.758909 -61.481548 3.6095459 16711746
46.01067 -111.23074 21.731899 16711746
29.401257 -160.98727 24.216721 16711746
20.419685 -120.01359 15.900975 16711746
21.076025 -95.38269 12.844509 16711746
13.21171 -87.071243 64.475998 16711746
24.942234 -105.42698 31.446808 16711746
41.018665 -107.53461 23.553196 16711746
12.534196 -25.384127 14.339713 16711746
7.6936831 -25.959215 12.385548 16711746
-6.1262479 -95.233635 30.920774 16711746
0.34014851 -69.986839 27.863152 16711746
10.100286 -23.340139 22.250729 16711746
-36.802773 -100.58266 0.78763682 16711746
-3.5277243 -125.60916 8.406599 16711746
6.897172 -31.47855 33.535637 16711746
7.9104848 -15.095581 21.642712 16711746
-6.4324889 -23.732527 32.274178 16711746
7.3784418 -15.517902 18.33128 16711746
21.558254 -104.9379 25.276312 16711746
28.916626 -76.694763 56.527668 16711746
85.898232 -208.63356 195.44266 16711746
28.708607 -98.557503 42.112659 16711746
33.570877 -99.811668 54.693687 16711746
95.445038 -144.58734 34.023766 16711746
23.449686 -67.566177 32.126572 16711746
18.061613 -48.684296 42.299126 16711746
0.17991015 -68.788445 11.647638 16711746
10.835473 -136.90204 33.536758 16711746
6.0347247 -131.22466 42.264896 16711746
-3.8100355 -77.569466 28.57966 16711746
-3.5189571 -81.745453 31.783972 16711746
14.102848 -58.115692 15.745282 16711746
39.862259 -73.354538 22.771177 16711746
20.811043 -100.63806 58.372295 16711746
10.200106 -47.554497 17.35216 16711746
-1.9148626 -61.000603 25.617876 16711746
61.592537 -101.39294 24.228529 16711746
41.159874 -99.550758 40.550484 16711746
7.9770327 -77.112656 33.697235 16711746
16.763109 -76.392609 18.079916 16711746
40.572983 -83.305984 37.101345 16711746
22.104538 -75.853004 18.207546 16711746
27.58666 -100.41605 27.277838 16711746
20.452284 -69.623672 17.55382 16711746
33.136375 -91.012405 58.681778 16711746
18.593424 -55.934326 32.551781 16711746
31.497139 -77.881004 36.836929 16711746
22.278711 -47.301666 33.803272 16711746
32.162823 -113.54015 46.293221 16711746
17.566744 -63.563858 30.420633 16711746
27.325634 -63.313995 31.017691 16711746
-5.8618517 -61.476154 45.444752 16711746
-2.8819005 -64.82811 29.582134 16711746
21.784578 -86.008232 36.414074 16711746
28.556326 -77.593002 51.454765 16711746
-8.8271265 -62.122513 30.072403 16711746
-18.250135 -79.333961 29.324942 16711746
24.460064 -119.82049 65.952591 16711746
39.329754 -115.29298 62.708374 16711746
14.967188 -75.470497 57.412487 16711746
20.220577 -47.00259 27.726486 16711746
8.8544788 -87.371521 53.280815 16711746
12.580392 -65.429886 33.224983 16711746
1.3431146 -141.84969 37.881233 16711746
22.938484 -63.269829 37.642136 16711746
15.053332 -65.831085 22.680531 16711746
0.14154564 -46.828594 22.329563 16711746
14.318652 -62.495178 22.167589 16711746
-0.58432806 -43.295105 19.020994 16711746
-0.74174458 -53.582367 23.517967 16711746
8.0849152 -61.841347 12.746208 16711746
14.494004 -67.408005 27.006559 16711746
18.47954 -50.052746 14.079368 16711746
27.256689 -42.655663 43.851307 16711746
25.4174 -90.120674 21.088764 16711746
-16.125856 -80.348183 9.6763792 16711746
28.261566 -104.74334 21.641371 16711746
71.18145 -96.908691 41.933041 16711746
3.8846846 -5.8272991 16.323666 16711746
35.061855 -86.43116 36.386555 16711746
41.283562 -310.72549 204.37839 16711746
7.3124428 -12.945518 21.196611 16711746
25.489201 -25.447134 24.208868 16711746
7.5146184 -65.553963 26.85347 16711746
39.310658 -74.831238 31.766434 16711746
22.593704 -91.174019 30.373743 16711746
-4.8836622 -60.26656 28.029318 16711746
25.622219 -73.231674 18.516579 16711746
15.469081 -81.448952 21.43372 16711746
17.052406 -63.986084 39.698467 16711746
16.588154 -64.745331 31.126841 16711746
9.0520811 -49.902973 12.982375 16711746
19.870441 -71.698372 25.152586 16711746
-3.9975653 -58.384766 16.189426 16711746
23.119495 -98.868622 30.831377 16711746
21.471231 -69.369995 33.799397 16711746
28.465494 -69.702156 57.482143 16711746
4.483067 -7.4741993 17.772459 16711746
14.761779 -34.08857 19.817881 16711746
-7.0852666 -69.916855 22.384214 16711746
-3.7947452 -52.77095 18.860437 16711746
-8.926507 -47.640709 19.685591 16711746
-17.359707 -73.974632 16.939957 16711746
62.589474 -80.08094 54.216095 16711746
-10.268999 -76.041039 13.560086 16711746
23.01956 -61.279259 39.196606 16711746
28.134096 -95.764839 42.110607 16711746
23.854931 -76.997826 27.668072 16711746
18.683496 -81.40097 20.72941 16711746
55.157936 -168.06093 118.48158 16711746
-11.541123 -67.461494 11.115593 16711746
-12.612101 -96.919014 17.883614 16711746
-19.592743 -75.181305 24.974785 16711746
-8.083704 -67.4758 15.340022 16711746
-5.2142348 -29.990715 19.604599 16711746
16.854313 -46.330524 43.266903 16711746
26.219574 -75.473427 27.253475 16711746
43.239853 -62.079475 25.768625 16711746
20.636509 -47.884365 55.116581 16711746
-6.3342772 -71.772972 16.689291 16711746
-24.954576 -23.952547 29.644239 16711746
27.83956 -80.243401 64.621956 16711746
74.375427 -107.59544 74.907761 16711746
20.849201 -57.704834 38.716602 16711746
18.40799 -41.717827 49.561504 16711746
36.743206 -78.068489 48.43919 16711746
-3.5476608 -41.651012 17.131927 16711746
22.310061 -49.980511 17.872511 16711746
24.595802 -69.896584 33.662415 16711746
70.866661 -65.596443 44.818077 16711746
4.4407892 -62.589417 32.400513 16711746
-6.1579471 -73.074799 13.472892 16711746
23.054537 -65.006836 32.161938 16711746
7.2221441 -10.372737 21.426998 16711746
21.875702 -69.465408 28.497845 16711746
18.40662 -84.634369 24.546059 16711746
6.9899106 -84.362801 31.245785 16711746
45.776939 -71.730034 49.416119 16711746
56.370449 -91.559319 79.084251 16711746
17.848045 -72.054245 17.662853 16711746
9.8327646 -94.946495 33.820442 16711746
-56.685776 -49.325974 19.103739 16711746
25.341276 -36.271843 43.449314 16711746
28.15023 -90.654793 46.289116 16711746
10.237139 -99.494858 34.675255 16711746
40.603172 -78.5625 59.523033 16711746
-5.5300727 -67.01226 14.893844 16711746
72.450874 -146.78369 106.78265 16711746
4.5753822 -91.40686 39.136559 16711746
9.1348972 -122.55907 34.684669 16711746
8.1727095 -71.690598 24.157583 16711746
26.35046 -51.830185 37.127892 16711746
18.507723 -45.263966 35.959064 16711746
19.571207 -78.597054 41.438751 16711746
-31.490213 -65.167137 20.522209 16711746
32.872295 -51.31757 23.450382 16711746
19.857285 -50.257996 40.496929 16711746
35.887981 -65.405075 30.338245 16711746
14.433458 -57.26741 61.29306 16711746
40.458652 -47.933781 34.590961 16711746
26.968954 -94.106934 39.084297 16711746
12.332277 -38.816463 22.209166 16711746
36.38335 -54.819626 42.026871 16711746
15.192684 -30.546169 20.554689 16711746
53.276306 -108.53461 61.091713 16711746
45.023552 -86.665726 79.057381 16711746
16.533974 -58.927773 41.220737 16711746
39.846996 -80.115372 49.639072 16711746
8.5092449 -59.303207 18.474501 16711746
36.776283 -85.559555 88.1996 16711746
28.223932 -75.859024 54.42408 16711746
32.521908 -66.148331 21.79755 16711746
23.60281 -57.460545 50.597584 16711746
25.690353 -75.528358 62.463867 16711746
47.069588 -93.079369 79.953407 16711746
21.126871 -63.401794 30.275007 16711746
15.18919 -54.602299 65.977608 16711746
25.812477 -77.442757 58.394527 16711746
79.847801 -94.753212 81.250046 16711746
7.6286359 -62.876026 29.29435 16711746
54.048134 -106.36102 81.421196 16711746
35.461834 -55.816708 23.960339 16711746
14.671282 -76.718369 21.674551 16711746
31.635635 -71.607117 82.373589 16711746
23.114508 -80.725479 26.171114 16711746
3.1225638 -59.244125 26.280039 16711746
0.89815205 -71.252167 42.208035 16711746
-5.8188577 -66.432289 51.888618 16711746
90.105659 -121.3368 95.777374 16711746
12.437936 -79.497337 46.095665 16711746
10.593744 -101.47178 64.894989 16711746
23.12174 -54.869965 27.870987 16711746
49.173557 -78.567146 23.798479 16711746
25.711349 -64.309402 25.812258 16711746
11.151237 -61.524376 57.021309 16711746
12.447186 -24.047928 36.357899 16711746
15.287468 -71.47184 25.417223 16711746
13.926759 -28.819132 36.517685 16711746
52.897305 -86.659836 22.293354 16711746
13.758717 -28.321077 36.174496 16711746
36.28566 -111.24578 88.28035 16711746
73.425781 -147.20564 99.183838 16711746
25.151466 -66.178581 42.015476 16711746
10.677728 -30.670071 30.239859 16711746
8.62953 -35.529655 39.184338 16711746
35.040947 -55.006779 23.700062 16711746
31.350731 -83.293526 52.918575 16711746
33.448429 -121.41402 62.08659 16711746
26.766811 -53.326103 20.609255 16711746
