# .PCD v.7 - Point Cloud Data file format
VERSION .7
FIELDS x y z rgb
SIZE 4 4 4 4
TYPE F F F F
COUNT 1 1 1 1
WIDTH 104
HEIGHT 1
VIEWPOINT 0 0 0 1 0 0 0
POINTS 104
DATA ascii

 0.0105532 -0.0761833 -0.0207436 16777215
 0.0131831 -0.0929185 -0.0108176 16777215
 0.0175504 -0.1541342 -0.0806688 16777215
 -0.0019826 -0.1484947 -0.0640136 16777215
 0.0020578 -0.1484293 -0.0604687 16777215
 0.0039635 -0.1368803 -0.0500851 16777215
 0.0070094 -0.1327527 -0.0438842 16777215
 0.0063027 -0.1342045 -0.0401550 16777215
 0.0042581 -0.1222582 -0.0358084 16777215
 0.0017886 -0.0919881 -0.0257630 16777215
 -0.0021158 -0.0718519 -0.0200838 16777215
 -0.0022217 -0.0753956 -0.0185430 16777215
 -0.0000078 -0.0699938 -0.0310495 16777215
 -0.0117149 -0.0795334 -0.0417926 16777215
 0.0000004 -0.0789249 -0.0259209 16777215
 0.0011669 -0.0601254 -0.0283219 16777215
 -0.0039626 -0.0598292 -0.0365173 16777215
 -0.0028613 -0.0586009 -0.0361190 16777215
 -0.0056455 -0.0640193 -0.0346930 16777215
 -0.0022006 -0.0564003 -0.0348906 16777215
 -0.0064317 -0.0678337 -0.0346618 16777215
 -0.0139918 -0.0665063 -0.0365412 16777215
 -0.0152231 -0.0737499 -0.0381420 16777215
 -0.0169267 -0.0515853 -0.0329253 16777215
 -0.0285387 -0.0139781 -0.0414099 16777215
 -0.0234819 -0.0315184 -0.0403888 16777215
 -0.0053346 -0.0580738 -0.0499877 16777215
 -0.0233259 -0.0339994 -0.0396687 16777215
 -0.0215300 -0.0345998 -0.0388032 16777215
 -0.0216005 -0.0367177 -0.0388838 16777215
 -0.0205157 -0.0381961 -0.0380241 16777215
 -0.0189468 -0.0424379 -0.0382555 16777215
 -0.0189673 -0.0486000 -0.0425411 16777215
 -0.0200296 -0.0540884 -0.0433806 16777215
 -0.0217108 -0.0550881 -0.0436887 16777215
 -0.0239770 -0.0589483 -0.0452600 16777215
 -0.0258400 -0.0441187 -0.0549387 16777215
 -0.0255590 -0.0442972 -0.0535488 16777215
 -0.0247093 -0.0448217 -0.0520419 16777215
 -0.0244478 -0.0459010 -0.0517563 16777215
 -0.0238886 -0.0468719 -0.0471815 16777215
 -0.0268533 -0.0475396 -0.0472581 16777215
 -0.0326302 -0.0440551 -0.0487118 16777215
 -0.0329769 -0.0442711 -0.0462063 16777215
 -0.0343499 -0.0404683 -0.0471689 16777215
 -0.0352297 -0.0387286 -0.0462331 16777215
 -0.0374454 -0.0329420 -0.0480127 16777215
 -0.0394240 -0.0303439 -0.0475545 16777215
 -0.0362606 -0.0299973 -0.0440263 16777215
 -0.0372266 -0.0303492 -0.0522266 16777215
 -0.0378839 -0.0315170 -0.0489782 16777215
 -0.0417325 -0.0276368 -0.0449955 16777215
 -0.0354835 -0.0313470 -0.0511013 16777215
 -0.0343484 -0.0193234 -0.0495018 16777215
 -0.0415428 -0.0176581 -0.0501495 16777215
 -0.0446710 -0.0232561 -0.0497983 16777215
 -0.0381739 -0.0062943 -0.0438965 16777215
 -0.0484312 -0.0282428 -0.0430990 16777215
 -0.0437333 -0.0113472 -0.0539222 16777215
 -0.0439579 -0.0121683 -0.0535273 16777215
 -0.0446178 -0.0127504 -0.0540047 16777215
 -0.0438759 -0.0232227 -0.0538816 16777215
 -0.0461584 -0.0269999 -0.0542003 16777215
 -0.0475584 -0.0247570 -0.0491876 16777215
 -0.0443042 -0.0167493 -0.0431552 16777215
 -0.0480389 -0.0166978 -0.0489322 16777215
 -0.0484603 -0.0169694 -0.0489828 16777215
 -0.0500706 -0.0151973 -0.0484851 16777215
 -0.0501018 -0.0116625 -0.0480116 16777215
 -0.0475238 -0.0118072 -0.0570302 16777215
 -0.0500456 -0.0104363 -0.0495765 16777215
 -0.0509678 -0.0090015 -0.0469369 16777215
 -0.0478906 0.0036098 -0.0461840 16777215
 -0.0509785 -0.0004839 -0.0452938 16777215
 -0.0523493 0.0020713 -0.0468053 16777215
 -0.0521381 0.0009372 -0.0481925 16777215
 -0.0523797 -0.0005825 -0.0467211 16777215
 -0.0512992 0.0018954 -0.0486420 16777215
 -0.0497310 0.0031912 -0.0493197 16777215
 -0.0428986 0.0175531 -0.0442687 16777215
 -0.0446637 0.0347868 -0.0475614 16777215
 -0.0446341 0.0258782 -0.0502739 16777215
 -0.0485408 0.0227949 -0.0501914 16777215
 -0.0552970 0.0046662 -0.0534251 16777215
 -0.0514679 0.0042316 -0.0514936 16777215
 -0.0515484 0.0055675 -0.0499732 16777215
 -0.0508373 0.0022265 -0.0549873 16777215
 -0.0499247 0.0037988 -0.0551143 16777215
 -0.0502106 0.0037133 -0.0550732 16777215
 -0.0438885 0.0229209 -0.0441808 16777215
 -0.0473304 0.0074164 -0.0435427 16777215
 -0.0560063 0.0019842 -0.0388598 16777215
 -0.0597916 0.0156834 -0.0512074 16777215
 -0.0619245 0.0156813 -0.0378774 16777215
 -0.0522285 0.0280841 -0.0383705 16777215
 -0.0459315 0.0206346 -0.0307776 16777215
 -0.0492641 0.0164738 -0.0372953 16777215
 -0.0476513 0.0237146 -0.0372702 16777215
 -0.0443776 0.0269907 -0.0323500 16777215
 -0.0445384 0.0269938 -0.0324594 16777215
 -0.0444524 0.0265489 -0.0326046 16777215
 -0.0446841 0.0261810 -0.0327814 16777215
 -0.0452046 0.0254428 -0.0335402 16777215
 -0.0450901 0.0258786 -0.0330457 16777215
