# .PCD v.7 - Point Cloud Data file format
VERSION .7
FIELDS x y z rgb
SIZE 4 4 4 4
TYPE F F F F
COUNT 1 1 1 1
WIDTH 47
HEIGHT 1
VIEWPOINT 0 0 0 1 0 0 0
POINTS 47
DATA ascii

 -14.4370584 11.7643375 21.1964684 16777215
 -0.1685193 0.1435365 0.2586942 16777215
-1.4494942 0.5904180 1.3824935 16711746
-0.6411211 0.1247621 1.2505172 16711746
-1.4894004 0.5286098 1.3291826 16711746
-0.8327180 0.3243240 0.7828525 16711746
-0.5266034 -0.2899708 1.1877617 16711746
-0.8286930 0.2551712 0.8469245 16711746
-0.8339640 0.2446464 0.8489980 16711746
-0.8162777 0.3011936 0.8137758 16711746
-0.8755152 0.2582909 0.7982367 16711746
-0.8858132 0.2756482 0.7930350 16711746
-0.8031135 0.2137977 0.9696526 16711746
-1.8314064 0.1697572 1.6397806 16711746
-1.6758562 0.2962163 1.5276417 16711746
-0.4468575 0.4572714 1.7069223 16711746
-0.9641791 0.4753596 1.7341104 16711746
-0.4672510 0.1628462 0.8774842 16711746
-0.7780613 0.3435334 0.8319773 16711746
-0.2879074 0.7336336 1.4597776 16711746
-0.9547574 0.7700099 1.4041846 16711746
-0.6055440 0.3819214 1.0060775 16711746
-1.0135974 0.6073007 1.5812937 16711746
-1.5409852 -0.4328476 1.4950757 16711746
-1.2192568 0.0395838 2.0481772 16711746
15.9649334 66.3147507 859.9000854 16711746
304.9899597 254.2524109 1016.8244629 16711746
38.9326363 31.8152351 120.3624115 16711746
-90.1204758 -13.0960894 154.7134705 16711746
-158.3593597 -257.9989929 1122.4460449 16711746
989.3068848 -442.1213379 751.7131348 16711746
-424.1389465 -273.4087219 828.8604126 16711746
-100.0873260 -107.7606049 868.5759888 16711746
-47.0603561 -14.7519350 125.9197769 16711746
601.6470947 -129.7157440 779.3103027 16711746
-136.4307098 72.0905151 883.4708862 16711746
-147.7349854 81.4185638 645.1655273 16711746
937.3147583 -338.8016663 842.4789429 16711746
65.7012177 115.2569275 1191.1685791 16711746
-72.6176758 -104.0357132 673.1893921 16711746
603.9992065 -244.2529144 1314.3901367 16711746
2.5351620 9.9646463 79.8584824 16711746
-218.6284637 76.7072906 985.3223267 16711746
722.9041748 -198.8356476 883.6083984 16711746
-1.1075778 71.4626236 844.8867188 16711746
342.6313782 -56.4256401 1029.6600342 16711746
677.5527344 -311.6649170 709.9306030 16711746
