# .PCD v.7 - Point Cloud Data file format
VERSION .7
FIELDS x y z rgb
SIZE 4 4 4 4
TYPE F F F F
COUNT 1 1 1 1
WIDTH 1192
HEIGHT 1
VIEWPOINT 0 0 0 1 0 0 0
POINTS 1192
DATA ascii
0.0326039 -0.1073528 0.0707171 16711746
0.0881563 -0.0995132 0.0751848 16711746
0.1054751 -0.1064680 0.0795458 16711746
0.0579837 -0.1162301 0.0863801 16711746
0.0689347 -0.1196399 0.0804699 16711746
0.0516077 -0.0984235 0.0655973 16711746
0.0616509 -0.1107033 0.0772878 16711746
0.0739848 -0.1104493 0.0712330 16711746
0.0754721 -0.1067399 0.0840431 16711746
0.0690133 -0.1179443 0.1120780 16711746
0.0819457 -0.1018978 0.0539015 16711746
0.0329423 -0.0904198 0.0625183 16711746
0.1099481 -0.1121497 0.1106522 16711746
0.1152043 -0.0997405 0.0876319 16711746
0.0760971 -0.1091716 0.0750528 16711746
0.0381409 -0.0881897 0.0636919 16711746
0.0622880 -0.0954373 0.0834300 16711746
0.0404394 -0.0954428 0.0634897 16711746
0.0368254 -0.0896755 0.0555507 16711746
0.0768190 -0.1093585 0.0757174 16711746
0.0815307 -0.1041485 0.0505938 16711746
0.0732851 -0.1034887 0.0769293 16711746
0.0695330 -0.1222431 0.0608555 16711746
0.1010638 -0.1172792 0.0496640 16711746
0.0427440 -0.1114019 0.0821494 16711746
0.0480254 -0.1232073 0.0677981 16711746
0.0528882 -0.1174000 0.0731495 16711746
0.0832191 -0.1223706 0.0580722 16711746
0.0406041 -0.0924415 0.0666404 16711746
0.0849817 -0.0939240 0.0827181 16711746
0.0869658 -0.1010949 0.0728085 16711746
0.0839310 -0.0989068 0.0687263 16711746
0.0373856 -0.0982138 0.0654720 16711746
0.0730461 -0.1316004 0.0665612 16711746
0.0821595 -0.0999580 0.0715198 16711746
-0.0427240 -0.4392710 0.3148810 16711746
0.0406572 -0.0928505 0.0492924 16711746
0.0686051 -0.0932592 0.0747640 16711746
0.0765187 -0.0937004 0.0783676 16711746
0.0685506 -0.1055421 0.0744103 16711746
0.0777460 -0.0945816 0.0810961 16711746
0.0681089 -0.1049595 0.0734311 16711746
0.0762034 -0.1060172 0.0769851 16711746
0.0785013 -0.1183785 0.0800472 16711746
0.0759509 -0.1521139 0.0713489 16711746
0.0593652 -0.0803435 0.0429959 16711746
0.0768150 -0.0938263 0.0788653 16711746
0.0700610 -0.0950569 0.0796486 16711746
0.0733027 -0.1041879 0.0726849 16711746
0.0824730 -0.1243041 0.0880596 16711746
0.1115777 -0.1069643 0.0939586 16711746
0.0865030 -0.0987389 0.0805560 16711746
0.0789961 -0.1189447 0.0875138 16711746
0.0793558 -0.1499820 0.0821957 16711746
0.0403238 -0.1089412 0.0625096 16711746
0.0714636 -0.1021090 0.0784971 16711746
0.0584182 -0.0895141 0.0679764 16711746
0.0513564 -0.0996057 0.0666850 16711746
0.0628965 -0.1092504 0.0646322 16711746
0.0385752 -0.0892812 0.0632923 16711746
0.0726267 -0.1451345 0.0716274 16711746
0.0715136 -0.1090208 0.0757237 16711746
0.0437893 -0.1073867 0.0794888 16711746
0.0594545 -0.0860754 0.0411045 16711746
0.0634095 -0.0932625 0.0446996 16711746
0.0700765 -0.1087529 0.0802077 16711746
0.0178930 -0.1531832 0.1267420 16711746
0.0669983 -0.0995160 0.0773643 16711746
-0.0393329 -0.1631134 0.1350709 16711746
0.0093879 -0.1643064 0.0985814 16711746
-0.0047020 -0.1556143 0.1063486 16711746
0.0738113 -0.2024721 0.0877884 16711746
0.0349727 -0.1281657 0.0902695 16711746
0.0745330 -0.0927077 0.0707130 16711746
0.0749145 -0.0966623 0.0770050 16711746
0.0804557 -0.1073218 0.0953148 16711746
0.0787176 -0.0931051 0.0669904 16711746
0.0514236 -0.1339064 0.1315568 16711746
0.0854807 -0.1006978 0.0911323 16711746
0.0795664 -0.1639189 0.1333160 16711746
0.0693096 -0.1226473 0.0847685 16711746
0.0567853 -0.1064261 0.0941707 16711746
0.0751851 -0.0914264 0.0566587 16711746
0.0856673 -0.1032257 0.0696339 16711746
0.0951706 -0.1395497 0.0898962 16711746
0.0683800 -0.0957457 0.0724174 16711746
0.0714178 -0.1217408 0.1023102 16711746
0.0723384 -0.0907908 0.0702096 16711746
0.0763988 -0.1348472 0.1252093 16711746
0.0755068 -0.0969302 0.0779272 16711746
0.0730048 -0.0871505 0.0598172 16711746
0.0796373 -0.1112545 0.0878141 16711746
0.0800151 -0.0964333 0.0808717 16711746
0.0910782 -0.1549293 0.1027575 16711746
0.0889594 -0.1350153 0.1033381 16711746
0.0864201 -0.1478840 0.0904545 16711746
0.0693187 -0.1075892 0.0791047 16711746
0.0697232 -0.1161743 0.0837382 16711746
0.0640946 -0.1538724 0.1024225 16711746
0.0675409 -0.1119097 0.0849451 16711746
0.0505382 -0.0822512 0.0277204 16711746
0.0802171 -0.1131873 0.0875533 16711746
0.0720003 -0.1060590 0.0820274 16711746
0.0351623 -0.1091382 0.0762749 16711746
0.0869233 -0.1004238 0.1016805 16711746
0.0862678 -0.1042814 0.0971824 16711746
0.0667645 -0.1045128 0.1081444 16711746
0.0969246 -0.1103471 0.0910829 16711746
0.0241165 -0.0923433 0.0776579 16711746
0.0987104 -0.0998173 0.0999649 16711746
0.0989127 -0.0948723 0.0729867 16711746
0.1125541 -0.1154547 0.0794413 16711746
0.0941426 -0.0980170 0.0667405 16711746
0.0714894 -0.0941152 0.0730603 16711746
0.0511470 -0.0782602 0.0235260 16711746
0.0703138 -0.0843500 0.0572194 16711746
0.0893165 -0.1139933 0.1352056 16711746
0.0944307 -0.1251099 0.1244053 16711746
0.0896381 -0.1035192 0.0771739 16711746
0.1032100 -0.0931072 0.0845601 16711746
0.0676122 -0.1191106 0.0816304 16711746
0.0735581 -0.1136127 0.0679794 16711746
0.0193321 -0.1097463 0.0713034 16711746
0.0651882 -0.1157786 0.0975246 16711746
0.0480262 -0.1106302 0.0778042 16711746
0.0248689 -0.1078485 0.0778373 16711746
0.0901423 -0.1301062 0.0518601 16711746
0.0760899 -0.1085227 0.0788388 16711746
0.0684793 -0.1140344 0.0810153 16711746
0.0568090 -0.1166461 0.0840360 16711746
0.0487629 -0.1023192 0.0706158 16711746
0.0533154 -0.1041511 0.0707584 16711746
0.0269006 -0.1041334 0.0628836 16711746
0.0347307 -0.1085284 0.0658475 16711746
0.0718978 -0.1259536 0.0753794 16711746
0.0259459 -0.1043584 0.0744057 16711746
0.0312998 -0.1009806 0.0600525 16711746
0.0265021 -0.1056779 0.0652221 16711746
0.0175832 -0.0997597 0.0787449 16711746
0.0085021 -0.1086341 0.0812372 16711746
-0.0177561 -0.0958697 0.0979742 16711746
0.0515136 -0.0959247 0.0679421 16711746
0.0748761 -0.1115955 0.0673221 16711746
0.1049375 -0.1345292 0.1680454 16711746
0.1046371 -0.1355278 0.1570119 16711746
0.0479708 -0.0773270 0.0253583 16711746
0.1090009 -0.1310292 0.1581174 16711746
0.0503821 -0.0774454 0.0253944 16711746
0.1212420 -0.1506717 0.0914791 16711746
0.0607239 -0.1331194 0.0634866 16711746
0.0565883 -0.0930612 0.0635108 16711746
0.0694348 -0.0948446 0.0375343 16711746
0.0322534 -0.0949593 0.0384364 16711746
0.0523281 -0.0976224 0.0730763 16711746
0.0757946 -0.0985585 0.0437727 16711746
0.0717755 -0.0885141 0.0535724 16711746
0.0501567 -0.0895463 0.0695732 16711746
0.0500655 -0.0769488 0.0245831 16711746
0.0631079 -0.1030965 0.0590821 16711746
0.0676516 -0.0872168 0.0454893 16711746
0.0661790 -0.1293279 0.1007556 16711746
0.0720265 -0.1211327 0.0978134 16711746
0.0674612 -0.1097466 0.1009628 16711746
0.0626116 -0.1269044 0.0997331 16711746
0.0768908 -0.1298088 0.1129239 16711746
0.0677750 -0.1424435 0.0983324 16711746
0.0730029 -0.1311883 0.0987824 16711746
0.0569944 -0.1092503 0.0831746 16711746
0.0642186 -0.1329936 0.0868480 16711746
0.0594440 -0.1040621 0.0767373 16711746
0.0621191 -0.1514244 0.0628965 16711746
0.1250705 -0.1373113 0.1005699 16711746
0.1374940 -0.1540593 0.1080819 16711746
0.0467946 -0.0969543 0.0756336 16711746
0.0683968 -0.1363878 0.1118070 16711746
0.0849309 -0.0996898 0.0677882 16711746
0.0730024 -0.1000540 0.0738473 16711746
0.0751521 -0.0960080 0.0748502 16711746
0.0502969 -0.0768526 0.0241752 16711746
0.0568662 -0.0847848 0.0445360 16711746
0.0625990 -0.1111824 0.0822021 16711746
0.0474573 -0.0861515 0.0296551 16711746
0.0498573 -0.0948519 0.0333154 16711746
0.0523318 -0.0762420 0.0247289 16711746
0.0409465 -0.0903522 0.0466492 16711746
0.0896174 -0.1191374 0.1344226 16711746
0.0841089 -0.1247044 0.0943019 16711746
0.0516731 -0.1503222 0.0653530 16711746
0.0598885 -0.0841567 0.0491993 16711746
0.0757353 -0.0971866 0.0822091 16711746
0.0812568 -0.0889462 0.1024585 16711746
0.0296583 -0.0992493 0.0511406 16711746
0.0246552 -0.1063066 0.0575721 16711746
0.0480574 -0.0761809 0.0253951 16711746
-0.0151781 -0.0896123 0.0800262 16711746
0.0155777 -0.1042465 0.0642206 16711746
0.0545980 -0.1174719 0.0687052 16711746
0.0494306 -0.1074829 0.0667877 16711746
0.0094075 -0.1081358 0.0601834 16711746
0.0539001 -0.1086019 0.0588678 16711746
0.0199090 -0.0946962 0.0495496 16711746
0.0464579 -0.1026383 0.0567789 16711746
0.0613546 -0.1179303 0.0908060 16711746
0.0278914 -0.1011098 0.0533266 16711746
0.0508250 -0.1272355 0.0520742 16711746
0.0482620 -0.0759569 0.0234328 16711746
0.0501553 -0.0784761 0.0323209 16711746
0.0444086 -0.1116594 0.0500433 16711746
0.0061343 -0.1994321 0.1090712 16711746
0.0527685 -0.0986243 0.0534507 16711746
0.0505137 -0.0893387 0.0517172 16711746
0.0754654 -0.0990672 0.0505860 16711746
0.0466547 -0.0859412 0.0530163 16711746
0.0774400 -0.0913863 0.0748055 16711746
0.0321098 -0.0887285 0.0407248 16711746
0.0539358 -0.0909276 0.0375008 16711746
0.0529541 -0.0914362 0.0620907 16711746
0.0661709 -0.1055696 0.0747361 16711746
0.0579296 -0.0985494 0.0595709 16711746
0.0563689 -0.1206019 0.0832087 16711746
0.0557058 -0.1167313 0.0783393 16711746
0.0472995 -0.1137475 0.0728462 16711746
0.0744373 -0.1475647 0.0973576 16711746
0.0804895 -0.1266692 0.0928386 16711746
0.0553782 -0.1169194 0.0788419 16711746
0.0784284 -0.1235877 0.0881390 16711746
0.0517629 -0.0998432 0.0642055 16711746
0.0380651 -0.1119901 0.0576006 16711746
0.0558182 -0.1170852 0.0786876 16711746
0.0558109 -0.1094035 0.0807349 16711746
0.0615155 -0.1382016 0.0777149 16711746
0.0405576 -0.1023306 0.0659904 16711746
0.0644613 -0.1136307 0.0781540 16711746
0.0509776 -0.0798777 0.0315292 16711746
0.0266878 -0.0927609 0.0474430 16711746
0.0561571 -0.0917101 0.0540927 16711746
0.0250803 -0.0945593 0.0497746 16711746
0.0264568 -0.0894572 0.0571429 16711746
0.0528556 -0.0841506 0.0497538 16711746
0.0254679 -0.1251003 0.1209319 16711746
0.0780331 -0.1082018 0.1063908 16711746
0.0688022 -0.1013507 0.0804975 16711746
0.1323529 -0.1320712 0.0901404 16711746
0.0566083 -0.1039519 0.0684863 16711746
0.0413552 -0.0882884 0.0485233 16711746
0.0319222 -0.1090403 0.0592896 16711746
0.0433988 -0.1007160 0.0579872 16711746
0.0609090 -0.0907729 0.0566498 16711746
0.0580522 -0.0818951 0.0453291 16711746
0.0643015 -0.0865615 0.0608941 16711746
0.0626547 -0.1439412 0.1675927 16711746
0.0509774 -0.0830756 0.0425379 16711746
0.0402577 -0.0960763 0.0578357 16711746
0.0462986 -0.1160932 0.0677992 16711746
0.0826216 -0.0946277 0.0844956 16711746
0.0556145 -0.0990433 0.0716387 16711746
0.0863374 -0.1381979 0.0627380 16711746
0.0418923 -0.1068014 0.0577728 16711746
0.0125418 -0.1196999 0.0516071 16711746
0.0159909 -0.1127068 0.0498786 16711746
0.0520823 -0.1169168 0.0700317 16711746
0.0824035 -0.0936056 0.0722961 16711746
0.1064154 -0.0936617 0.0979397 16711746
0.0705795 -0.1107987 0.0862061 16711746
0.0825118 -0.1055292 0.0936769 16711746
0.0137916 -0.1169022 0.0452217 16711746
0.0391835 -0.0828265 0.0466640 16711746
0.0679669 -0.1071262 0.0812137 16711746
0.0416449 -0.0900607 0.0659726 16711746
0.0995848 -0.1059368 0.0975346 16711746
0.1245359 -0.1039962 0.0919926 16711746
0.0919450 -0.0883643 0.0780064 16711746
0.0664413 -0.0943977 0.0756943 16711746
0.0573508 -0.0964192 0.0782085 16711746
0.0671128 -0.0854976 0.0561756 16711746
0.0620067 -0.1078972 0.0748841 16711746
0.0496657 -0.0983365 0.0728122 16711746
0.0506879 -0.0811396 0.0265750 16711746
0.0235955 -0.0906077 0.0670050 16711746
0.0632420 -0.1172348 0.0638156 16711746
0.0380611 -0.1044295 0.0662880 16711746
0.0548644 -0.1014508 0.0733535 16711746
0.0848577 -0.1207725 0.0506661 16711746
0.0517327 -0.0984656 0.0630311 16711746
0.0348282 -0.1054747 0.0682573 16711746
0.0577278 -0.1069890 0.0559907 16711746
0.0122632 -0.1169883 0.0526842 16711746
0.0537516 -0.1096587 0.0492983 16711746
0.0656109 -0.1156331 0.0602787 16711746
0.0559686 -0.1274678 0.0501425 16711746
0.0535682 -0.0949164 0.0709565 16711746
0.0452672 -0.0977452 0.0624986 16711746
0.0462851 -0.1102485 0.0746714 16711746
0.0646701 -0.1243903 0.0597771 16711746
0.0904866 -0.1274098 0.0549859 16711746
0.0416564 -0.1061748 0.0641323 16711746
0.0384388 -0.1057367 0.0732152 16711746
0.0529129 -0.1096636 0.0695902 16711746
0.0047731 -0.1221299 0.0578719 16711746
0.0711832 -0.1073301 0.0477974 16711746
0.0318692 -0.1076932 0.0645018 16711746
0.0193724 -0.1193595 0.0471386 16711746
0.0604352 -0.1034708 0.0826837 16711746
0.0690528 -0.1011674 0.0801071 16711746
0.0780395 -0.1052959 0.0958547 16711746
0.0840392 -0.1040944 0.0927411 16711746
0.1059882 -0.0965827 0.0750702 16711746
0.1042930 -0.1217810 0.0537064 16711746
0.0766595 -0.0939675 0.0868791 16711746
0.0278910 -0.0883553 0.0601586 16711746
0.0692257 -0.0984677 0.0718072 16711746
0.0619678 -0.1075013 0.0989490 16711746
0.0524242 -0.0771481 0.0273145 16711746
0.0489131 -0.0777214 0.0286329 16711746
0.0715064 -0.1079566 0.0872922 16711746
0.0713194 -0.1009428 0.0871021 16711746
0.0551092 -0.0917358 0.0701750 16711746
0.0534643 -0.0903551 0.0607118 16711746
0.0370664 -0.0831818 0.0489084 16711746
0.0534106 -0.0982392 0.0665498 16711746
0.0720832 -0.1147443 0.0706456 16711746
0.0598265 -0.0874654 0.0724618 16711746
0.0522878 -0.0894753 0.0783490 16711746
0.0335042 -0.0911407 0.0586529 16711746
0.0507690 -0.0758987 0.0230445 16711746
0.0855137 -0.0985537 0.1107920 16711746
0.1097253 -0.1164015 0.1092555 16711746
0.0399720 -0.0803585 0.0439385 16711746
0.0717147 -0.0902992 0.0592296 16711746
0.0852904 -0.0997586 0.0741692 16711746
0.0836507 -0.1028654 0.0412133 16711746
0.0377254 -0.0813819 0.0307019 16711746
0.0374803 -0.0875714 0.0370128 16711746
0.0597737 -0.0965124 0.0773141 16711746
0.0512013 -0.0847067 0.0455220 16711746
0.0892799 -0.1017170 0.1192157 16711746
0.0455863 -0.1106608 0.0597612 16711746
0.0484155 -0.0837003 0.0313407 16711746
0.0414153 -0.0817437 0.0280047 16711746
0.0488443 -0.0749936 0.0226802 16711746
0.0539156 -0.0885599 0.0583774 16711746
0.0536266 -0.0948146 0.0586012 16711746
0.0538869 -0.0905640 0.0497125 16711746
0.0507959 -0.0968288 0.0522652 16711746
0.0338277 -0.0881649 0.0400538 16711746
0.0552566 -0.0902301 0.0453664 16711746
0.0315345 -0.0790149 0.0390153 16711746
0.0297895 -0.0852738 0.0435288 16711746
0.0483965 -0.0937589 0.0324114 16711746
0.0597566 -0.0912765 0.0555437 16711746
0.0604169 -0.0849733 0.0460284 16711746
0.0579087 -0.0949743 0.0548468 16711746
0.0531974 -0.0937605 0.0566594 16711746
0.0521657 -0.0920645 0.0594627 16711746
0.0357756 -0.0894968 0.0392010 16711746
0.0350365 -0.0870552 0.0385047 16711746
0.0541284 -0.0873189 0.0417782 16711746
0.0376500 -0.0847880 0.0352005 16711746
0.0390159 -0.0855410 0.0341925 16711746
0.0418747 -0.0836685 0.0294018 16711746
0.0399302 -0.0844582 0.0328570 16711746
0.0411449 -0.0829962 0.0291126 16711746
0.0419524 -0.0827178 0.0278017 16711746
0.0512389 -0.0950028 0.0597290 16711746
0.0486674 -0.0874962 0.0291499 16711746
0.1077122 -0.1103130 0.0781029 16711746
0.0739522 -0.1026999 0.0669727 16711746
0.0791934 -0.0915190 0.0948972 16711746
0.0507049 -0.0826052 0.0404448 16711746
0.0536819 -0.0798247 0.0335065 16711746
0.0388203 -0.0822978 0.0308020 16711746
0.0443811 -0.0826398 0.0279299 16711746
0.0526069 -0.0772384 0.0291214 16711746
0.0371997 -0.0863552 0.0297804 16711746
0.0506815 -0.0761268 0.0220185 16711746
0.0613416 -0.0892049 0.0561839 16711746
0.0596995 -0.0936645 0.0459970 16711746
0.0512422 -0.0905253 0.0439811 16711746
0.0553144 -0.0827175 0.0515652 16711746
0.0530633 -0.0879941 0.0479144 16711746
0.0506830 -0.0906277 0.0444287 16711746
0.0435728 -0.0870019 0.0432928 16711746
0.0499203 -0.0882747 0.0329251 16711746
0.0568576 -0.0932441 0.0342026 16711746
0.0598096 -0.0944534 0.0482305 16711746
0.0630181 -0.0877468 0.0500407 16711746
0.0674212 -0.0929602 0.0368779 16711746
0.0485324 -0.0816219 0.0354792 16711746
0.0584913 -0.0887003 0.0706516 16711746
0.0406807 -0.0817333 0.0286055 16711746
0.0404067 -0.0836994 0.0296429 16711746
0.0362940 -0.0860809 0.0358233 16711746
0.0627453 -0.1004125 0.0439932 16711746
0.0538176 -0.0940647 0.0345999 16711746
0.0551911 -0.0896648 0.0451727 16711746
0.0764576 -0.1000862 0.0782700 16711746
0.0863585 -0.1083109 0.0481122 16711746
0.0902529 -0.1120437 0.0513503 16711746
0.0693521 -0.0965210 0.0803529 16711746
0.0480422 -0.0846539 0.0397125 16711746
0.0184817 -0.0859493 0.0569248 16711746
0.0507558 -0.0896733 0.0559167 16711746
0.0592938 -0.0900257 0.0745908 16711746
0.1163495 -0.1034128 0.1067902 16711746
0.0498389 -0.0852009 0.0430286 16711746
0.0157326 -0.0837447 0.0537299 16711746
0.0528420 -0.0932603 0.0391266 16711746
0.0355592 -0.0851987 0.0338877 16711746
0.0323037 -0.0943845 0.0418067 16711746
0.0570390 -0.0823219 0.0443715 16711746
0.0385623 -0.0839147 0.0331735 16711746
0.0757095 -0.0952326 0.0589678 16711746
0.0302541 -0.1005697 0.0360398 16711746
0.0496512 -0.0947285 0.0345209 16711746
0.0960075 -0.1162096 0.1361579 16711746
0.0355871 -0.0889076 0.0547308 16711746
0.0701202 -0.1052882 0.0900933 16711746
0.0829937 -0.1018632 0.0940721 16711746
0.0667861 -0.1074566 0.0843067 16711746
0.0769820 -0.1090456 0.0836344 16711746
0.0608527 -0.0792161 0.0498698 16711746
0.0701847 -0.0891298 0.0525299 16711746
0.0719238 -0.0917564 0.0550071 16711746
0.0504441 -0.0763718 0.0242422 16711746
0.0803515 -0.0941757 0.0949190 16711746
0.0726316 -0.0873591 0.0564386 16711746
0.0750495 -0.0911745 0.0579847 16711746
0.0986145 -0.0982301 0.1465277 16711746
0.0928241 -0.1127333 0.1075630 16711746
0.0830776 -0.1067841 0.0971936 16711746
0.0860505 -0.0921134 0.1156346 16711746
0.0884305 -0.1058973 0.1055125 16711746
0.1424512 -0.1214891 0.1323337 16711746
0.0931636 -0.1192891 0.1160428 16711746
0.0810321 -0.1226508 0.1080546 16711746
0.0498767 -0.0744931 0.0218680 16711746
0.0781926 -0.0940913 0.0947595 16711746
0.1071591 -0.1145432 0.0601139 16711746
0.0397357 -0.0842280 0.0442009 16711746
0.0852488 -0.0927365 0.0779901 16711746
0.1101934 -0.1121717 0.0624795 16711746
0.0402310 -0.0837183 0.0432541 16711746
0.0687661 -0.0878702 0.0537906 16711746
0.0418008 -0.0833479 0.0346275 16711746
0.0906175 -0.1052819 0.1185601 16711746
0.0540702 -0.0867984 0.0574416 16711746
0.0581927 -0.0917859 0.0548788 16711746
0.0558656 -0.1001332 0.0353600 16711746
0.0547107 -0.0883420 0.0310626 16711746
0.0247891 -0.0811937 0.0475768 16711746
0.0651198 -0.0881834 0.0508359 16711746
0.0154603 -0.0847372 0.0587653 16711746
0.0493962 -0.0785706 0.0301000 16711746
0.0745335 -0.0858128 0.0858236 16711746
0.0770353 -0.0952527 0.0873552 16711746
0.0612873 -0.0852936 0.0505585 16711746
0.0882267 -0.0988718 0.0784017 16711746
0.0581112 -0.0883085 0.0456976 16711746
0.0848532 -0.0977747 0.0451195 16711746
0.0201764 -0.0853797 0.0550793 16711746
0.0974844 -0.1069157 0.0513715 16711746
0.0741887 -0.0895534 0.0570346 16711746
0.0732234 -0.1281966 0.1017787 16711746
0.0665631 -0.0792855 0.0393476 16711746
0.0382429 -0.1349707 0.0571453 16711746
0.0471830 -0.1216313 0.0603086 16711746
0.0365643 -0.0932948 0.0440736 16711746
0.1188242 -0.1180077 0.0752847 16711746
0.1029631 -0.1182133 0.0976195 16711746
0.0792652 -0.1049131 0.0873765 16711746
0.0631408 -0.0852233 0.0561929 16711746
0.0618938 -0.0820929 0.0312239 16711746
0.0811508 -0.1071104 0.0561583 16711746
0.0751713 -0.0912881 0.0388789 16711746
0.0452352 -0.0763836 0.0279543 16711746
0.0545271 -0.0811436 0.0332760 16711746
0.0518076 -0.0814163 0.0310673 16711746
0.0520998 -0.0815590 0.0283914 16711746
0.0515505 -0.0811122 0.0276307 16711746
0.0506966 -0.0817059 0.0285873 16711746
0.0400248 -0.0841398 0.0314890 16711746
0.0424446 -0.0823210 0.0301538 16711746
0.0316458 -0.0785100 0.0374569 16711746
0.0587397 -0.0799549 0.0342832 16711746
0.0600191 -0.0950695 0.0575162 16711746
0.0535360 -0.0787036 0.0337057 16711746
0.0649131 -0.0861015 0.0544439 16711746
0.0387450 -0.0836914 0.0277137 16711746
0.0406214 -0.0989544 0.0527457 16711746
0.0630154 -0.0837387 0.0387721 16711746
0.0614593 -0.0825896 0.0366274 16711746
0.0525770 -0.0821635 0.0320176 16711746
0.0509305 -0.0805913 0.0307269 16711746
0.0480865 -0.0798877 0.0386232 16711746
0.0455575 -0.0798387 0.0348560 16711746
0.0472814 -0.0807566 0.0354994 16711746
0.0475262 -0.0799063 0.0331193 16711746
0.0477216 -0.0813144 0.0338701 16711746
0.0476487 -0.0783192 0.0332836 16711746
0.0473499 -0.0803561 0.0339768 16711746
0.0481813 -0.0815810 0.0338711 16711746
0.0465569 -0.0801347 0.0334857 16711746
0.0477908 -0.0772220 0.0346742 16711746
0.0530797 -0.0794644 0.0325273 16711746
0.0181802 -0.0822542 0.0544283 16711746
0.0543672 -0.0862304 0.0320962 16711746
0.0608155 -0.0808943 0.0483106 16711746
0.0687158 -0.0967291 0.0597084 16711746
0.0428166 -0.0846760 0.0582088 16711746
0.0419995 -0.0859284 0.0494340 16711746
0.0518022 -0.1022537 0.0494551 16711746
0.0454725 -0.0832391 0.0450838 16711746
0.0681376 -0.0952196 0.0575155 16711746
0.0779163 -0.1002866 0.0787556 16711746
0.0005696 -0.1278181 0.0529840 16711746
0.0420327 -0.0840704 0.0500893 16711746
0.0655129 -0.0929831 0.0538853 16711746
0.0422646 -0.0884352 0.0515329 16711746
0.0585440 -0.1259998 0.0581222 16711746
0.0425883 -0.0873115 0.0506942 16711746
0.0398923 -0.0845183 0.0467219 16711746
0.0409124 -0.0870981 0.0511027 16711746
0.0417166 -0.0934714 0.0571272 16711746
0.0448539 -0.0854387 0.0518923 16711746
0.0398861 -0.0938281 0.0505716 16711746
0.0383118 -0.0974117 0.0559897 16711746
0.0713393 -0.1120075 0.0749613 16711746
0.0895165 -0.1292575 0.0535966 16711746
0.0384666 -0.0974908 0.0552834 16711746
0.0401254 -0.0842109 0.0466468 16711746
0.0792660 -0.1016839 0.0766566 16711746
0.0495225 -0.0863518 0.0462514 16711746
0.0440650 -0.1158732 0.0532474 16711746
0.0622409 -0.1028775 0.0621892 16711746
0.0666377 -0.1004645 0.0542079 16711746
0.0379229 -0.0955370 0.0580613 16711746
0.0428853 -0.0864052 0.0491727 16711746
0.0972809 -0.0962083 0.0643058 16711746
0.1031114 -0.0925119 0.0913845 16711746
0.0864994 -0.0873472 0.0668607 16711746
0.0601187 -0.0958055 0.0557515 16711746
0.0869904 -0.1019408 0.1176620 16711746
0.0595814 -0.0937949 0.0784941 16711746
0.0459905 -0.0775677 0.0395580 16711746
0.0467396 -0.0782659 0.0396950 16711746
0.0601136 -0.0806234 0.0590568 16711746
0.0529542 -0.0819373 0.0450686 16711746
0.0527625 -0.0829100 0.0442922 16711746
0.0477945 -0.0767648 0.0322917 16711746
0.0669782 -0.0984999 0.0786655 16711746
0.0618045 -0.0963416 0.0723068 16711746
0.0781686 -0.0983638 0.0925016 16711746
0.0442674 -0.0869994 0.0528609 16711746
0.0927269 -0.1082341 0.1015839 16711746
0.0943583 -0.1138190 0.1048889 16711746
0.0450351 -0.0803873 0.0469930 16711746
0.0570996 -0.1293091 0.0870380 16711746
0.0787171 -0.0989725 0.0941755 16711746
0.0755241 -0.0996444 0.0805826 16711746
0.1052648 -0.1052650 0.1120253 16711746
0.0621409 -0.1483684 0.0828629 16711746
0.0908095 -0.1124896 0.0966933 16711746
0.0550970 -0.1337610 0.0772323 16711746
0.0650740 -0.1274990 0.1041122 16711746
0.0649147 -0.1142255 0.0907710 16711746
0.0402240 -0.1450351 0.0717334 16711746
0.0654795 -0.1620733 0.0768859 16711746
0.0427356 -0.1288447 0.0654538 16711746
0.0510318 -0.0837013 0.0482383 16711746
0.0598937 -0.0868286 0.0542618 16711746
0.0653561 -0.0952142 0.0749630 16711746
0.0654833 -0.0897823 0.0659061 16711746
0.0793816 -0.1036860 0.0893617 16711746
0.0755018 -0.0959782 0.0858490 16711746
0.0742265 -0.0998584 0.0922457 16711746
0.0578013 -0.1307012 0.0885521 16711746
0.0878519 -0.0910763 0.0897560 16711746
0.0588271 -0.1101060 0.0861395 16711746
0.0470712 -0.1485691 0.0753056 16711746
0.0925771 -0.1034397 0.0881955 16711746
0.0753302 -0.1358792 0.1043203 16711746
0.0737093 -0.1719875 0.0914510 16711746
0.0628147 -0.1507217 0.0793856 16711746
0.0452830 -0.0782028 0.0423678 16711746
0.0512688 -0.1057104 0.0699375 16711746
0.0714616 -0.1040019 0.0846073 16711746
0.0418154 -0.1400144 0.0719664 16711746
0.0779986 -0.1167457 0.0921048 16711746
0.0639167 -0.1726337 0.0855150 16711746
0.0696422 -0.1451225 0.0791233 16711746
0.0537383 -0.1224072 0.0705805 16711746
0.1020445 -0.1446383 0.1072506 16711746
0.0437010 -0.0859091 0.0499846 16711746
0.0477477 -0.0844240 0.0552296 16711746
0.0552175 -0.0963473 0.0747824 16711746
0.0576072 -0.1005727 0.0636563 16711746
0.0877303 -0.1201341 0.0970363 16711746
0.0583284 -0.0911882 0.0566905 16711746
0.0677713 -0.1276443 0.0849757 16711746
0.0399224 -0.0879251 0.0476314 16711746
0.0938268 -0.0965910 0.1001117 16711746
0.0631975 -0.0987415 0.0769790 16711746
0.0542249 -0.0904458 0.0610999 16711746
0.1003470 -0.1169297 0.0860697 16711746
0.0768888 -0.1277551 0.0963894 16711746
0.0514457 -0.0984917 0.0693776 16711746
0.0601776 -0.0804033 0.0580706 16711746
0.0600712 -0.0818040 0.0494415 16711746
0.0671258 -0.0893869 0.0548509 16711746
0.0655841 -0.0866336 0.0552806 16711746
0.0593169 -0.0800199 0.0345752 16711746
0.1289658 -0.1020656 0.1243157 16711746
0.0984355 -0.1026072 0.0984712 16711746
0.0633975 -0.0987729 0.0768806 16711746
0.0801888 -0.1063052 0.0902936 16711746
0.0474720 -0.1547433 0.0896088 16711746
0.0510344 -0.0834801 0.0591358 16711746
0.0551095 -0.1426281 0.0855854 16711746
0.0733161 -0.0827959 0.0837617 16711746
0.0510608 -0.0818593 0.0537872 16711746
0.0615193 -0.0824011 0.0521311 16711746
0.0690809 -0.0835093 0.0695273 16711746
0.0674118 -0.0826336 0.0650610 16711746
0.0618010 -0.0847291 0.0506220 16711746
0.0896511 -0.1043124 0.0843029 16711746
0.0504495 -0.0846267 0.0320493 16711746
0.0825372 -0.0985920 0.0666103 16711746
0.0756916 -0.1010065 0.0666864 16711746
0.0368215 -0.1069018 0.0471934 16711746
0.0563208 -0.0911292 0.0475026 16711746
0.0411032 -0.0971430 0.0505532 16711746
0.0614930 -0.0841993 0.0541428 16711746
0.0556181 -0.1069864 0.0526603 16711746
0.0590713 -0.0963620 0.0451307 16711746
0.0699988 -0.0841472 0.0535745 16711746
0.0563273 -0.0925648 0.0516654 16711746
0.0438942 -0.0900014 0.0424447 16711746
0.0637360 -0.1128583 0.0525928 16711746
0.0454637 -0.1077516 0.0459445 16711746
0.0574041 -0.0942597 0.0460197 16711746
0.0618818 -0.0930942 0.0542500 16711746
0.0636918 -0.1132583 0.0522028 16711746
0.0608195 -0.1123067 0.0549135 16711746
0.0364066 -0.0872021 0.0478664 16711746
0.0663799 -0.0854156 0.0882018 16711746
0.0508607 -0.0832460 0.0526088 16711746
0.0745001 -0.0928588 0.0560883 16711746
0.0598776 -0.1030025 0.0552742 16711746
0.0626127 -0.0982102 0.0599244 16711746
0.0581177 -0.0971529 0.0496763 16711746
0.0625156 -0.0916255 0.0480129 16711746
0.0428526 -0.0865149 0.0425688 16711746
0.0610683 -0.0967209 0.0593363 16711746
0.0529251 -0.0863117 0.0591074 16711746
0.0686630 -0.0893922 0.0676737 16711746
0.0507621 -0.0823641 0.0497105 16711746
0.0464289 -0.0805526 0.0367843 16711746
0.0635001 -0.0842079 0.0523797 16711746
0.0548923 -0.0804743 0.0333319 16711746
0.0750696 -0.0840322 0.0899143 16711746
0.0865833 -0.0863972 0.0685807 16711746
0.0600071 -0.0932857 0.0431618 16711746
0.0441965 -0.0907845 0.0350897 16711746
0.0566463 -0.0905135 0.0391406 16711746
0.0417485 -0.0867465 0.0458802 16711746
0.0519509 -0.0823811 0.0416468 16711746
0.0597522 -0.0802305 0.0353469 16711746
0.0571007 -0.0866452 0.0379886 16711746
0.0511840 -0.0740740 0.0241463 16711746
0.0509957 -0.0739141 0.0248503 16711746
0.0572210 -0.0826893 0.0326882 16711746
0.0418816 -0.0924313 0.0452043 16711746
0.0502343 -0.0941696 0.0413593 16711746
0.0522300 -0.0826067 0.0390615 16711746
0.0512741 -0.0954410 0.0393799 16711746
0.0505429 -0.0830839 0.0372726 16711746
0.0522180 -0.0791771 0.0385595 16711746
0.0509574 -0.0877015 0.0428228 16711746
0.0722683 -0.0812172 0.0837263 16711746
0.0637995 -0.0867685 0.0610318 16711746
0.0547973 -0.0958757 0.0455691 16711746
0.0830441 -0.0969437 0.0776744 16711746
0.0820907 -0.0963660 0.0766303 16711746
0.0572713 -0.1188454 0.0684581 16711746
0.0615715 -0.1198808 0.0704263 16711746
0.0774190 -0.0915077 0.0631736 16711746
0.0771456 -0.0962805 0.0729121 16711746
0.0277529 -0.1039823 0.0735538 16711746
0.0615155 -0.1050731 0.0509456 16711746
0.0720024 -0.0819399 0.0423215 16711746
0.0910314 -0.0981129 0.0867188 16711746
0.0616955 -0.0856873 0.0292126 16711746
0.0614785 -0.0838783 0.0497727 16711746
0.0718043 -0.0880105 0.0632550 16711746
0.0643444 -0.0809677 0.0583322 16711746
0.0513698 -0.0937309 0.0383660 16711746
0.0384886 -0.0823074 0.0461282 16711746
0.0656931 -0.0791308 0.0497125 16711746
0.0500074 -0.0839149 0.0434692 16711746
0.0388757 -0.0805239 0.0421158 16711746
0.0511700 -0.0844525 0.0413430 16711746
0.0624755 -0.0851377 0.0475856 16711746
0.0482852 -0.0781741 0.0430551 16711746
0.0523448 -0.0816070 0.0454725 16711746
0.0675340 -0.0820436 0.0417101 16711746
0.0678028 -0.0877607 0.0431635 16711746
0.0578638 -0.0799416 0.0426585 16711746
0.0627413 -0.0879339 0.0605555 16711746
0.0473401 -0.0931571 0.0387340 16711746
0.0501600 -0.0818352 0.0367655 16711746
0.0597380 -0.0950748 0.0440889 16711746
0.0369537 -0.0822879 0.0304879 16711746
0.0690765 -0.0872277 0.0933402 16711746
0.1057041 -0.0932052 0.0921196 16711746
0.0858212 -0.1029815 0.0377136 16711746
0.0507092 -0.0857525 0.0339180 16711746
0.0667826 -0.0802013 0.0482789 16711746
0.0610938 -0.0825789 0.0464471 16711746
0.0572867 -0.0799953 0.0536907 16711746
0.0710133 -0.0820392 0.0477750 16711746
0.0542829 -0.0857667 0.0422818 16711746
0.0542831 -0.0859564 0.0425726 16711746
0.0611918 -0.0959423 0.0472218 16711746
0.0560325 -0.0924636 0.0424945 16711746
0.0532928 -0.0888818 0.0417772 16711746
0.0612115 -0.0914459 0.0453240 16711746
0.0699981 -0.0928592 0.0432564 16711746
0.0538884 -0.1011889 0.0418067 16711746
0.0454995 -0.0859343 0.0333885 16711746
0.0526385 -0.0861251 0.0405357 16711746
0.0547839 -0.0854579 0.0429890 16711746
0.0530302 -0.0853062 0.0384218 16711746
0.0432329 -0.0850945 0.0382171 16711746
0.0451068 -0.0865665 0.0339543 16711746
0.0416071 -0.0876570 0.0343321 16711746
0.0601516 -0.0827702 0.0433880 16711746
0.0560505 -0.0927214 0.0414139 16711746
0.0445163 -0.0873224 0.0352819 16711746
0.0524880 -0.0884259 0.0392320 16711746
0.0470210 -0.0856507 0.0342965 16711746
0.0422278 -0.0867133 0.0336595 16711746
0.0401287 -0.0852741 0.0316348 16711746
0.0514770 -0.0871520 0.0348751 16711746
0.0499140 -0.0829543 0.0414484 16711746
0.0564804 -0.0824251 0.0514350 16711746
0.0652169 -0.0951959 0.0741164 16711746
0.0693811 -0.0863489 0.0585493 16711746
0.0517527 -0.0829995 0.0321512 16711746
0.0506735 -0.0803126 0.0298303 16711746
0.0532627 -0.0831039 0.0325261 16711746
0.0513511 -0.0823395 0.0304243 16711746
0.0569243 -0.0966941 0.0361826 16711746
0.0512612 -0.0818027 0.0313723 16711746
0.1228853 -0.1014588 0.0861973 16711746
0.0637449 -0.0904066 0.0680807 16711746
0.0565719 -0.0920551 0.0423465 16711746
0.0719981 -0.0886225 0.0704694 16711746
0.0424340 -0.0896679 0.0583280 16711746
0.0558526 -0.0819017 0.0625566 16711746
0.0215529 -0.0823343 0.0519133 16711746
0.0324195 -0.0948416 0.0779751 16711746
0.0603493 -0.0793876 0.0290174 16711746
0.0397214 -0.1020961 0.0508729 16711746
0.0536943 -0.0800382 0.0348352 16711746
0.0508023 -0.0763298 0.0293721 16711746
0.0518732 -0.0772860 0.0338666 16711746
0.0516281 -0.0759121 0.0297232 16711746
0.0597439 -0.0846741 0.0350289 16711746
0.0390655 -0.0891876 0.0371711 16711746
0.0553942 -0.0900436 0.0380958 16711746
0.0562290 -0.0883845 0.0502658 16711746
0.0614113 -0.0839232 0.0533749 16711746
0.0601029 -0.0782845 0.0469359 16711746
0.0550114 -0.0921136 0.0554161 16711746
0.0675134 -0.0945651 0.0744768 16711746
-0.0063072 -0.0910256 0.0767570 16711746
0.0903869 -0.0982420 0.0832152 16711746
0.0681364 -0.0900815 0.0767544 16711746
0.0606101 -0.0821074 0.0518780 16711746
0.0523439 -0.0836445 0.0405781 16711746
0.0647765 -0.0895977 0.0649307 16711746
0.0617336 -0.0906972 0.0608171 16711746
0.0512139 -0.1075603 0.0574674 16711746
0.0551486 -0.0942634 0.0335499 16711746
0.0628397 -0.1446646 0.0624170 16711746
0.0343069 -0.0921963 0.0107465 16711746
0.0793076 -0.1337368 0.0852872 16711746
0.0679891 -0.1211198 0.0632254 16711746
0.0644361 -0.1232327 0.0596275 16711746
0.0403480 -0.1942026 0.0725744 16711746
0.0243980 -0.1134009 0.0335361 16711746
0.0019225 -0.1459953 0.0189251 16711746
0.0043470 -0.1418876 0.0142634 16711746
0.0387047 -0.1252439 0.0167621 16711746
0.0132646 -0.1119411 0.0047455 16711746
0.0208028 -0.1326208 0.0113344 16711746
0.0239723 -0.1003923 -0.0073476 16711746
0.0407380 -0.1315997 0.0210543 16711746
0.0097738 -0.1482999 0.0356062 16711746
0.0313844 -0.1263796 0.0174987 16711746
0.0022677 -0.1443274 0.0181293 16711746
0.0109358 -0.1313246 0.0171929 16711746
0.0236484 -0.1135016 0.0311083 16711746
0.0124241 -0.1130332 0.0009287 16711746
0.0162274 -0.1184441 -0.0035115 16711746
0.0075792 -0.1374531 0.0080636 16711746
0.0128895 -0.1136150 0.0055569 16711746
0.0016162 -0.1453189 0.0206920 16711746
-0.0102073 -0.1329974 0.0248429 16711746
0.0265050 -0.1195621 0.0084493 16711746
0.0180526 -0.1274304 0.0136824 16711746
0.0238156 -0.1079867 0.0081431 16711746
0.0239929 -0.1254791 0.0087935 16711746
-0.0226156 -0.1290283 0.0383364 16711746
0.0116728 -0.1308921 0.0153439 16711746
0.0139365 -0.1164287 0.0088126 16711746
-0.0294699 -0.1305533 0.0323228 16711746
0.0335852 -0.1086627 0.0042707 16711746
0.0070394 -0.1420133 0.0152012 16711746
0.0119423 -0.1181426 0.0125157 16711746
-0.0144809 -0.1106993 0.0324697 16711746
-0.0000993 -0.1222356 0.0003283 16711746
0.0141565 -0.1448317 -0.0018743 16711746
0.0245885 -0.1115117 0.0161737 16711746
0.0233863 -0.1078835 0.0241536 16711746
-0.0047809 -0.1233216 0.0223560 16711746
0.0217893 -0.1215431 0.0144743 16711746
-0.0032096 -0.1388158 0.0275266 16711746
-0.0270212 -0.1066838 0.0201221 16711746
0.0273325 -0.1155384 0.0040773 16711746
-0.0115003 -0.1202776 0.0443601 16711746
0.0341150 -0.1077340 0.0086422 16711746
-0.0125620 -0.1352957 0.0309148 16711746
-0.0368000 -0.1122316 0.0298960 16711746
-0.0088153 -0.1151498 0.0175109 16711746
0.0274160 -0.1216687 0.0022239 16711746
0.0238693 -0.1117821 0.0054437 16711746
0.0215620 -0.1306877 -0.0031609 16711746
0.0041978 -0.0999208 0.0179646 16711746
0.0252823 -0.1539148 0.0448323 16711746
0.0058382 -0.1549771 0.0144904 16711746
0.0167194 -0.1322664 0.0337273 16711746
0.0154562 -0.1290550 0.0266312 16711746
0.0131017 -0.1553206 0.0299957 16711746
0.0021097 -0.1466929 0.0101856 16711746
0.0271417 -0.1179065 -0.0014325 16711746
0.0223497 -0.1797975 0.1006139 16711746
0.0220373 -0.1576484 0.0139994 16711746
0.0291576 -0.1561291 0.0345211 16711746
0.0320104 -0.1394523 0.0404581 16711746
0.0091783 -0.1394949 0.0175068 16711746
-0.0170716 -0.1443425 0.0322752 16711746
0.0146462 -0.1351830 0.0312498 16711746
0.0216176 -0.1260657 0.0081676 16711746
-0.0175531 -0.1906676 0.0490123 16711746
0.0154133 -0.1433258 0.0426656 16711746
-0.0356125 -0.2074193 0.0860958 16711746
-0.2198457 -0.2795985 0.2540618 16711746
-0.0155959 -0.2550037 0.2831505 16711746
0.0186765 -0.0845689 -0.0110672 16711746
0.0047526 -0.1383427 0.0095682 16711746
0.0204590 -0.1216577 0.0065202 16711746
0.0182969 -0.1462759 -0.0032759 16711746
0.0315111 -0.1324415 -0.0027284 16711746
0.0213718 -0.1120789 0.0114595 16711746
0.0099331 -0.1028046 -0.0058142 16711746
0.0216293 -0.1112525 -0.0062883 16711746
0.0149462 -0.0967786 -0.0003121 16711746
0.0589143 -0.1575400 0.0658701 16711746
0.0136750 -0.1498285 0.0230961 16711746
0.0261280 -0.1852569 0.0755354 16711746
0.0044850 -0.2892223 0.1564518 16711746
0.0827790 -0.2664252 0.1139635 16711746
0.0433759 -0.1640841 0.0326234 16711746
0.0212780 -0.1326516 0.0464970 16711746
-0.0249791 -0.2018235 0.1474620 16711746
0.0262491 -0.1249740 0.0309542 16711746
0.0255835 -0.1280379 0.0321218 16711746
0.0287453 -0.1166915 0.0198359 16711746
0.0286178 -0.1157239 0.0159233 16711746
0.0226482 -0.1299919 0.0447394 16711746
0.0141684 -0.1612764 0.0674289 16711746
0.0226550 -0.0931287 -0.0137673 16711746
0.0261288 -0.1236305 0.0170173 16711746
0.0273332 -0.0984662 -0.0073192 16711746
0.0294302 -0.1048617 0.0033887 16711746
0.0261670 -0.1239956 0.0173220 16711746
0.0281457 -0.1117796 0.0093767 16711746
0.0273546 -0.1230885 0.0226820 16711746
0.0155399 -0.1506747 0.0695640 16711746
0.0171284 -0.1399166 0.0529115 16711746
0.0298144 -0.1056597 0.0039255 16711746
0.0287098 -0.1111646 0.0118033 16711746
0.0277785 -0.1239069 0.0233917 16711746
0.0185397 -0.1482783 0.0474262 16711746
0.0228864 -0.0935737 -0.0131802 16711746
0.0162611 -0.1539964 0.0736798 16711746
0.0262783 -0.0966364 -0.0098832 16711746
0.0297041 -0.1065568 0.0018962 16711746
0.0279955 -0.1128110 0.0077049 16711746
0.0280063 -0.1035944 -0.0009665 16711746
0.0278134 -0.1087493 0.0085870 16711746
0.0250452 -0.0954860 -0.0118462 16711746
0.0148457 -0.0824866 -0.0184583 16711746
0.0245965 -0.1112276 0.0057454 16711746
0.0174194 -0.0861682 -0.0178919 16711746
-0.0027428 -0.1658066 0.0755115 16711746
0.0270103 -0.0980158 -0.0076347 16711746
0.0268691 -0.0976124 -0.0095961 16711746
0.0288935 -0.1057268 0.0011117 16711746
0.0295534 -0.1132588 0.0134954 16711746
0.0266602 -0.1063536 0.0065088 16711746
0.0230948 -0.1248374 0.0159900 16711746
0.0174689 -0.0863223 -0.0178610 16711746
0.0277380 -0.0993332 -0.0069387 16711746
0.0265020 -0.1035715 -0.0005244 16711746
0.0249573 -0.0952458 -0.0111978 16711746
0.0229962 -0.1535971 0.0512254 16711746
0.0261786 -0.1249601 0.0308130 16711746
0.0292207 -0.1115171 0.0106792 16711746
0.0292868 -0.1126484 0.0130023 16711746
0.0219106 -0.0911745 -0.0159394 16711746
0.0247571 -0.1027839 -0.0017788 16711746
0.0275793 -0.1057604 0.0007904 16711746
0.0272914 -0.1291579 0.0348633 16711746
0.0267008 -0.0975042 -0.0078056 16711746
0.0262098 -0.0964633 -0.0099492 16711746
0.0249692 -0.1329862 0.0333509 16711746
0.0270302 -0.1040280 -0.0004025 16711746
0.0269928 -0.1102591 0.0054712 16711746
0.0226736 -0.1298756 0.0446267 16711746
0.0283104 -0.1105963 0.0103447 16711746
0.0271689 -0.1161959 0.0140541 16711746
0.0269756 -0.1183969 0.0144613 16711746
0.0258946 -0.1228131 0.0163865 16711746
0.0298213 -0.1053933 0.0037813 16711746
0.0271536 -0.1179914 0.0234955 16711746
0.0032574 -0.1371378 0.0432471 16711746
0.0161723 -0.1387745 0.0528059 16711746
0.0288893 -0.1109117 0.0102656 16711746
0.0282445 -0.1143525 0.0143528 16711746
0.0270873 -0.1110500 0.0065834 16711746
0.0201749 -0.0887754 -0.0173367 16711746
0.0237191 -0.0931615 -0.0144274 16711746
0.0199686 -0.1287014 0.0177178 16711746
0.0175238 -0.0863173 -0.0179113 16711746
0.0084073 -0.1505582 0.0687183 16711746
0.0270768 -0.1034869 -0.0016870 16711746
0.0190653 -0.1727089 0.0664252 16711746
0.0156578 -0.1569620 0.0512310 16711746
0.0249413 -0.1134917 0.0075967 16711746
0.0226144 -0.0912693 -0.0150194 16711746
0.0219322 -0.0932371 -0.0140092 16711746
0.0196148 -0.1252093 0.0149181 16711746
-0.0470109 -0.5709069 0.5005126 16711746
-1.0392771 -2.4000552 3.2557175 16711746
0.2174723 -0.5740346 0.2189372 16711746
0.2576364 -0.5516080 0.2740305 16711746
0.1968977 -0.6097421 0.2885787 16711746
0.5709034 -0.8763369 0.7360277 16711746
-0.0251142 -0.5915751 0.3857430 16711746
0.1313378 -1.0787195 1.0173126 16711746
0.3299671 -0.6682841 0.3032274 16711746
1.0759869 -1.5177069 2.4340677 16711746
1.3033059 -1.6050687 2.2768371 16711746
0.7623181 -1.0726378 1.3157823 16711746
0.3809893 -0.4540684 0.1999945 16711746
0.8901064 -0.7952943 0.9445043 16711746
1.2954129 -1.6228541 3.4187431 16711746
1.6440446 -0.7949401 1.1144780 16711746
0.9692299 -1.4582165 2.0781882 16711746
1.1045266 -0.9968490 1.3959194 16711746
0.3507970 -0.6471645 0.6006938 16711746
1.4783325 -1.8118865 2.4291975 16711746
0.3541173 -0.2952887 0.8881993 16711746
1.6211778 -1.4411136 2.7497458 16711746
0.9549912 -1.6900743 3.0440898 16711746
0.6549744 -1.0361594 1.5670282 16711746
0.8382284 -0.7833565 0.8251082 16711746
0.3682345 -0.7275891 0.4904264 16711746
0.2686987 -0.6826676 0.4749615 16711746
0.5949705 -0.9307792 1.0033029 16711746
0.9334077 -0.9663334 1.2073219 16711746
1.2196240 -1.1150119 1.4121989 16711746
0.5907003 -0.8109843 0.6887339 16711746
0.7540744 -0.4981308 0.4503592 16711746
0.9192032 -1.4818499 3.7095265 16711746
0.9896529 -0.7551029 0.9084383 16711746
0.4680123 -0.9754013 1.2454271 16711746
1.3489903 -1.3732604 1.2395726 16711746
1.1065109 -1.5446374 1.9413247 16711746
1.0400742 -1.2659559 1.6717433 16711746
1.0523697 -1.2474259 1.9092312 16711746
0.5691894 -1.1184229 1.1863608 16711746
0.5519831 -0.6500690 0.4347511 16711746
1.0141417 -0.6630231 0.6887003 16711746
0.3743048 -0.6923791 0.4090211 16711746
1.5597847 -1.2837417 2.5670664 16711746
1.6959969 -1.3941425 4.3646035 16711746
0.9669331 -0.7800109 0.9352208 16711746
0.8023322 -1.0164464 1.8809794 16711746
0.5965604 -0.8214551 0.6948790 16711746
0.6473344 -0.4979770 0.3604216 16711746
0.3839254 -0.5268373 0.1829817 16711746
0.4030927 -0.4369691 0.1771726 16711746
0.5326114 -0.5211072 0.2239742 16711746
1.0061780 -1.2730319 2.6269095 16711746
1.4095596 -1.2416105 2.3151720 16711746
1.7874606 -1.5500991 2.4339771 16711746
0.5744886 -1.0920831 1.2890477 16711746
0.7136188 -1.2754116 2.2587574 16711746
0.4599942 -0.6212800 0.3126635 16711746
0.6136819 -1.0955210 1.2044394 16711746
1.3096117 -1.5223651 1.1459857 16711746
0.5698438 -0.7035113 0.5779838 16711746
0.4694495 -0.6580614 0.5403321 16711746
0.9479548 -1.3467219 1.4361043 16711746
0.6486276 -0.9111676 0.8616723 16711746
0.5711436 -1.2311475 1.1165221 16711746
1.0490075 -1.9097692 1.9081362 16711746
0.3034204 -0.5579761 0.2783064 16711746
0.5414674 -0.7608821 0.4628583 16711746
0.5231056 -0.5140803 0.2942954 16711746
0.4388472 -0.5348647 0.3115194 16711746
0.2548080 -0.8440166 0.4902732 16711746
1.2528896 -1.2166796 3.3332813 16711746
0.5571275 -0.9129177 2.2351079 16711746
0.9395382 -1.1320285 1.3278940 16711746
0.6011143 -1.3788534 1.7029853 16711746
0.6233858 -1.3009070 1.9176716 16711746
0.3454750 -0.8724584 0.6827201 16711746
1.1828657 -1.6158360 1.5904939 16711746
1.6652741 -1.3757042 1.2615380 16711746
0.5001619 -2.3667972 2.0535316 16711746
0.3541670 -1.2099195 0.7155635 16711746
1.3754129 -1.2792537 1.6270112 16711746
2.2607138 -1.6464976 2.3259442 16711746
1.2466801 -0.9813167 1.1870645 16711746
1.7604131 -1.5471941 2.8593669 16711746
0.4622704 -1.3285527 1.6964835 16711746
0.1781333 -1.0577419 1.3289917 16711746
-0.0991402 -0.4837750 0.3448257 16711746
0.1637965 -0.9669684 1.2159748 16711746
-0.0088303 -0.7543069 0.3971739 16711746
0.7820039 -1.2654445 2.1979542 16711746
-0.1953609 -0.5138149 0.3551899 16711746
-0.1470632 -0.4185963 0.3035360 16711746
0.0898039 -0.5065309 0.2503891 16711746
0.0144052 -0.3032869 0.5863489 16711746
-0.1272097 -0.6352396 0.6188611 16711746
-0.1717217 -0.6939234 0.3426735 16711746
0.1730589 -0.5497627 0.3202814 16711746
0.3109214 -0.4396791 0.2309129 16711746
0.2315645 -0.5024014 0.1987407 16711746
0.2743047 -0.4276544 0.1668613 16711746
-0.2333239 -0.6672454 0.4352947 16711746
0.0904735 -0.6113876 0.4699986 16711746
-0.0182263 -0.5078881 0.2807475 16711746
0.0624840 -0.5087591 0.2285520 16711746
0.0051392 -0.5700683 0.6291111 16711746
-0.0056235 -0.7042574 0.3203475 16711746
0.2422826 -0.4594128 0.1985824 16711746
-0.0192004 -0.7485179 0.3881324 16711746
0.0794210 -0.5697129 0.2480987 16711746
0.0054629 -0.5324290 0.4039438 16711746
-0.1208130 -0.2749973 0.1833443 16711746
0.1367678 -0.4854155 0.1956954 16711746
0.1845421 -0.6172174 0.2765548 16711746
0.3362664 -0.4553764 0.2202205 16711746
0.1871500 -0.6168060 0.4234223 16711746
0.0543892 -0.6105560 0.2717191 16711746
0.2184074 -0.5337346 0.2716178 16711746
-0.0194479 -0.6020623 0.3506475 16711746
0.1863910 -0.5084680 0.2295674 16711746
0.0184811 -0.5864348 0.3972242 16711746
-0.2308630 -0.4979893 0.2796289 16711746
0.1244764 -0.6059501 0.5270815 16711746
-0.2049167 -0.4705110 0.5145199 16711746
0.4045545 -0.4482820 0.1717200 16711746
-0.2108753 -0.6615387 0.3606800 16711746
0.2548994 -0.5260223 0.2326055 16711746
-0.0345101 -0.4445470 0.3945548 16711746
-0.0318058 -0.4625484 0.2456528 16711746
0.1359756 -0.4468227 0.2267770 16711746
0.1638408 -0.6167815 0.3898900 16711746
0.1698296 -0.5228573 0.2879186 16711746
0.0304706 -0.4748367 0.2479710 16711746
-0.0997389 -0.3960112 0.2001155 16711746
-0.0652435 -0.2495935 0.1654217 16711746
0.1101631 -0.6387321 0.4551340 16711746
0.0086948 -0.4228072 0.2415985 16711746
0.1559102 -0.6003934 0.3787020 16711746
-0.0327384 -0.3930806 0.2331209 16711746
-0.0129744 -0.5192319 0.2464279 16711746
0.2565551 -0.5740986 0.3121904 16711746
-0.1509605 -0.3061527 0.2093016 16711746
0.0227193 -0.3560099 0.3457940 16711746
0.3605140 -0.4275271 0.1378375 16711746
0.1327145 -0.5337471 0.3338856 16711746
0.0902428 -0.5931513 0.3619450 16711746
0.3852660 -0.4792545 0.1423960 16711746
0.4783683 -0.4850691 0.2431788 16711746
-0.0365124 -0.4713095 0.2618544 16711746
0.1133847 -0.5942252 0.4014702 16711746
-0.0392535 -0.3364664 0.1533879 16711746
0.2045504 -0.4657246 0.3191461 16711746
0.1957933 -0.4890105 0.3397167 16711746
0.2562687 -0.5595420 0.3049397 16711746
0.1517145 -0.5663971 0.3535289 16711746
-0.0973816 -0.3945140 0.1982954 16711746
0.1279995 -0.5685613 0.3167342 16711746
0.0404511 -0.3381184 0.1643933 16711746
-0.1075818 -0.3951968 0.2353408 16711746
0.2911129 -0.5735650 0.2605756 16711746
-0.0412009 -0.4490657 0.2420387 16711746
0.0624906 -0.5749317 0.2629992 16711746
0.1985112 -0.4807326 0.1676223 16711746
0.3763860 -0.4144965 0.1397055 16711746
-0.0407629 -0.1860100 0.0957196 16711746
0.3168423 -0.4360897 0.1875735 16711746
0.0058542 -0.4949056 0.2237956 16711746
0.2740944 -0.5049635 0.2096209 16711746
0.0145152 -0.4583272 0.2418874 16711746
-0.1090627 -0.4096936 0.3845762 16711746
-0.0364869 -0.4198024 0.2023577 16711746
-0.0133378 -0.4401322 0.2547823 16711746
0.0074035 -0.3943605 0.1641825 16711746
0.0828153 -0.3024992 0.2443948 16711746
0.0476024 -0.3172534 0.3015748 16711746
-0.0658540 -0.2857499 0.2150117 16711746
-0.2799063 -0.3522305 0.2937335 16711746
0.1468911 -0.2989228 0.1510698 16711746
0.0100050 -0.3826190 0.1449875 16711746
0.2572660 -0.4156938 0.1344862 16711746
0.0300289 -0.3441587 0.1391383 16711746
0.1681529 -0.4389070 0.1859810 16711746
0.2490072 -0.4311378 0.2894845 16711746
0.1029168 -0.4251761 0.1864114 16711746
0.0804130 -0.4211700 0.2007006 16711746
0.2454340 -0.4431421 0.1642309 16711746
0.2462091 -0.4494773 0.2139921 16711746
0.0222594 -0.3900332 0.2367301 16711746
-0.0864764 -0.2735918 0.1238533 16711746
0.1161155 -0.4108129 0.1683580 16711746
0.2456962 -0.4027866 0.1472178 16711746
0.1666278 -0.4278960 0.1980496 16711746
0.1577273 -0.2770956 0.1265173 16711746
0.0308376 -0.1834461 0.2629395 16711746
-0.0650362 -0.3118449 0.2737408 16711746
0.0583639 -0.2870796 0.1708233 16711746
-0.0146557 -0.2567107 0.1320847 16711746
-0.0020329 -0.4660015 0.4315527 16711746
-0.0931157 -0.5068572 0.2510641 16711746
-0.1126945 -0.4101335 0.4213090 16711746
0.0595239 -0.3209095 0.1054719 16711746
-0.0379583 -0.1858742 0.0490710 16711746
0.0924554 -0.3010375 0.1094373 16711746
0.1315005 -0.3428984 0.1494108 16711746
-0.0435255 -0.1590373 0.0315220 16711746
0.1172180 -0.2630822 0.4399347 16711746
-0.1078150 -0.4463319 0.3818446 16711746
-0.2390521 -0.1998735 0.4088700 16711746
0.0426071 -0.2403248 0.2448540 16711746
0.0911111 -0.2861537 0.1793419 16711746
-0.0257366 -0.1881762 0.0518854 16711746
0.0686382 -0.3047296 0.0929393 16711746
-0.0547489 -0.1550752 0.0453085 16711746
-0.0768406 -0.1869230 0.0655093 16711746
-0.0074935 -0.2826438 0.1143568 16711746
0.0333388 -0.3556784 0.1870426 16711746
0.0415032 -0.3738947 0.1691941 16711746
-0.0231864 -0.2641929 0.1152252 16711746
-0.0029299 -0.3572987 0.1985340 16711746
-0.0018502 -0.2716336 0.0977414 16711746
-0.0443491 -0.1898917 0.0586890 16711746
-0.0076132 -0.1889245 0.0542466 16711746
-0.0567586 -0.1858999 0.0602488 16711746
-0.0003563 -0.2830411 0.1037542 16711746
-0.0285161 -0.1437465 0.0297041 16711746
-0.0353046 -0.1269071 0.0269089 16711746
0.0597702 -0.3907575 0.1539473 16711746
-0.0565905 -0.1534029 0.0771132 16711746
0.1626442 -0.4233494 0.1430801 16711746
0.2267558 -0.4144549 0.1667404 16711746
0.2044638 -0.4182857 0.1365843 16711746
-0.0507402 -0.3590089 0.1990767 16711746
0.3142430 -0.3511348 0.1361168 16711746
-0.0666862 -0.2236569 0.1018222 16711746
-0.0378841 -0.1663899 0.0489132 16711746
-0.0163070 -0.2290476 0.0982051 16711746
-0.0355907 -0.1820382 0.0461398 16711746
0.0901625 -0.3094857 0.1152140 16711746
