# .PCD v0.7 - Point Cloud Data file format
VERSION 0.7
FIELDS x y z rgb
SIZE 4 4 4 4
TYPE F F F F
COUNT 1 1 1 1
WIDTH 1229
HEIGHT 1
VIEWPOINT 0 0 0 1 0 0 0
POINTS 1229
DATA ascii
13.231474 3.8437812 28.118166 16711746
11.38342 3.7293823 22.107706 16711746
11.09043 3.7459519 23.167534 16711746
10.052078 3.5067763 20.648705 16711746
10.957327 3.4791424 21.27236 16711746
10.414539 3.1788952 20.573627 16711746
5.4170613 3.5346682 21.424351 16711746
10.814436 3.5934827 21.185219 16711746
16.446875 -4.1393881 28.637659 16711746
9.5076828 3.8386791 22.856758 16711746
4.7361531 3.9779916 25.826138 16711746
11.086397 3.6104643 20.13201 16711746
7.8441143 -1.3001419 24.690802 16711746
11.242774 3.9544928 25.490902 16711746
5.1629305 3.3024828 25.578011 16711746
11.011445 3.5619543 20.021948 16711746
7.0095534 3.437254 21.714769 16711746
13.915764 3.3194079 24.961565 16711746
8.4947519 3.6392944 23.479874 16711746
14.165653 -5.3542008 36.375038 16711746
4.5291166 3.2747941 26.087723 16711746
10.82748 3.7762618 23.086115 16711746
11.926541 4.0139031 25.93362 16711746
5.8941908 2.986316 20.831835 16711746
10.450351 3.6722484 22.113218 16711746
9.1403131 3.7566607 21.727057 16711746
4.9159689 3.6232681 22.929771 16711746
61.470993 12.620544 79.472923 16711746
4.9575009 3.7227666 25.108654 16711746
6.0566964 3.8129008 25.960165 16711746
15.131155 -3.6254697 34.984035 16711746
14.20786 -3.9717705 29.807585 16711746
12.876826 -4.1457572 35.632843 16711746
7.9521294 3.5387914 23.895098 16711746
13.600204 -3.2699528 32.83144 16711746
10.640217 4.2082534 26.598465 16711746
7.9306703 2.4708183 22.747257 16711746
9.1480923 3.7201226 21.490797 16711746
4.6745744 3.1363015 21.024553 16711746
7.7095971 3.234262 20.892477 16711746
5.0874457 3.2167134 22.189396 16711746
4.7139683 3.4072838 22.719643 16711746
6.6046214 3.4999993 22.122177 16711746
6.9608607 2.5550401 20.847391 16711746
4.1954551 -0.69933802 25.402016 16711746
4.720067 2.8849425 29.189613 16711746
9.7484417 3.853344 24.892035 16711746
11.01347 3.7592871 21.229425 16711746
12.878222 3.9064107 24.898506 16711746
6.2684813 3.4336631 20.796665 16711746
9.4470959 3.7256315 21.366003 16711746
10.516297 4.0705214 25.309778 16711746
4.2215962 3.3742487 23.617079 16711746
4.2718382 3.2185993 28.616196 16711746
12.513489 3.7792888 25.844646 16711746
7.3356519 3.5637238 23.080364 16711746
10.050912 3.9241886 23.731663 16711746
9.6845818 3.6097641 21.872475 16711746
-2.7587092 -4.2100773 30.527199 16711746
10.523215 4.11415 25.448803 16711746
24.569059 -4.204432 29.212168 16711746
16.565977 -0.64949888 34.442352 16711746
8.3822775 3.5477121 24.926952 16711746
0.82894909 -1.4628812 24.500643 16711746
13.957809 -3.7526429 32.541576 16711746
9.295969 3.9608488 26.87018 16711746
1.3092376 3.3898828 25.749769 16711746
10.772655 3.640075 20.599472 16711746
11.277238 3.7269456 21.353039 16711746
4.7834096 3.6807687 20.858629 16711746
9.3569984 3.6648185 20.841846 16711746
12.664417 3.5090766 23.130308 16711746
13.029748 4.1455011 23.430145 16711746
8.6380033 3.7786725 22.31955 16711746
7.2942719 3.4252083 21.948906 16711746
4.1188011 -2.5218563 28.577456 16711746
10.30686 3.633817 22.382557 16711746
16.265429 3.5780926 22.76623 16711746
11.509171 3.7014134 20.852335 16711746
4.4504948 3.5055265 25.339474 16711746
13.765412 3.144417 27.809845 16711746
15.346208 4.4574594 31.582315 16711746
12.421869 -4.663722 36.196869 16711746
8.6856556 3.7462058 25.902914 16711746
4.9276614 3.3263755 21.127203 16711746
6.0496593 3.3284986 21.994234 16711746
4.4099822 3.6705983 21.809322 16711746
3.6478574 3.1253834 23.96834 16711746
5.5862246 3.3789668 21.109715 16711746
6.6088457 3.5740349 21.947639 16711746
12.888289 -6.1719122 35.230331 16711746
8.8693123 4.6750336 29.172838 16711746
12.078003 -3.5472317 35.4589 16711746
-4.0086083 -3.7281387 31.351637 16711746
4.428659 3.7643142 25.540255 16711746
8.5321636 3.5775867 22.69327 16711746
11.851309 3.9568543 23.725183 16711746
9.2349672 3.8569007 26.500763 16711746
13.895252 -2.8494473 32.261131 16711746
10.581263 -0.3390989 30.627583 16711746
5.5217323 3.2599747 45.323009 16711746
10.023127 2.1430478 27.510685 16711746
11.241903 3.7413411 22.95825 16711746
7.6547484 3.5522692 23.079298 16711746
7.5605755 3.6713691 22.367012 16711746
10.358836 3.8671074 21.585932 16711746
7.6334543 3.5145395 23.013226 16711746
8.4572725 3.5691757 22.298189 16711746
4.6739645 3.5806792 24.877743 16711746
5.2262678 3.5295367 21.015869 16711746
4.4861865 3.2148089 25.903847 16711746
1.4931902 -2.843271 33.100739 16711746
7.9307618 3.543376 22.656748 16711746
1.1368947 3.9281788 32.075981 16711746
16.369728 -3.9860253 30.579994 16711746
16.76 -3.6313987 37.749981 16711746
3.8584485 3.5611961 23.737724 16711746
4.5305591 3.2121456 20.63138 16711746
7.3167739 3.3808086 21.140314 16711746
2.8635631 3.3692801 22.028946 16711746
4.4374995 3.2625885 20.712372 16711746
7.7280674 2.8032632 23.244209 16711746
4.5553203 3.5550981 21.618835 16711746
7.5736737 3.4140472 22.003551 16711746
6.9962268 2.5295761 20.337479 16711746
4.7907252 3.1055908 21.897165 16711746
17.98966 -3.3006527 35.144176 16711746
10.953074 3.6557398 20.71661 16711746
11.757513 -2.8410177 37.728497 16711746
-2.4336305 -4.1879525 29.939032 16711746
11.240881 4.1329484 27.941818 16711746
8.499754 3.6172221 24.330357 16711746
9.8339787 3.9177601 27.446983 16711746
14.547873 -4.3104758 34.134094 16711746
11.324816 3.7000122 23.126583 16711746
13.210891 -3.9027474 30.730326 16711746
11.503609 4.2900624 30.311401 16711746
11.974365 3.9157515 23.723951 16711746
1.2515994 -3.8950334 39.602432 16711746
12.68775 3.7160425 24.277138 16711746
7.9357429 3.6104255 22.806002 16711746
9.3301067 3.7632229 23.562014 16711746
4.8364553 3.3938792 21.239658 16711746
7.4144058 3.5590475 23.488091 16711746
5.1318245 3.8032587 25.706545 16711746
3.4681911 3.3369808 22.76086 16711746
7.275362 3.5709503 23.082832 16711746
5.8802238 3.3656006 21.318392 16711746
10.095205 3.639991 21.182163 16711746
9.0905733 3.7196369 21.650227 16711746
4.1393061 3.3887367 23.258669 16711746
8.4417133 3.5474768 22.275883 16711746
-0.71193653 3.7082882 27.844534 16711746
9.2624083 3.8847547 22.708355 16711746
5.5368538 3.506794 22.354706 16711746
2.9245076 3.4921143 22.634995 16711746
12.816854 3.0480151 22.806248 16711746
4.0995703 3.643492 27.743561 16711746
2.7458782 3.4101427 26.875004 16711746
17.416658 4.3473482 25.890831 16711746
8.5613489 3.6273534 23.411718 16711746
8.6970434 3.6640224 23.880224 16711746
5.2059464 3.275176 25.410393 16711746
9.9379272 3.63585 22.096586 16711746
12.382501 3.845161 25.215691 16711746
13.123763 -3.7911928 30.313097 16711746
4.9454093 3.7347956 25.226355 16711746
7.6475344 3.4565475 22.118505 16711746
7.7215943 3.5007675 21.476387 16711746
5.9113359 3.3572335 21.780819 16711746
5.6361856 3.3279924 20.993019 16711746
5.2604241 3.2528331 21.322876 16711746
8.3180351 3.2028477 21.239065 16711746
4.5179749 3.3013201 21.877598 16711746
4.8823686 3.0386107 20.34684 16711746
5.4320903 3.1264064 21.093458 16711746
7.1363096 3.4343257 23.312332 16711746
3.8181584 3.2766175 23.519417 16711746
3.2772634 -0.35581487 28.274927 16711746
3.9006214 3.1738997 23.325445 16711746
9.7418032 3.7460966 22.528477 16711746
11.297481 3.73879 21.364212 16711746
10.554855 2.9990132 20.17598 16711746
6.4738626 3.2049434 20.68922 16711746
7.5913506 3.5234747 22.750828 16711746
9.3539619 3.7831101 22.879145 16711746
9.9366302 3.8449655 23.461994 16711746
1.2372031 -3.7500274 33.351418 16711746
7.7467127 2.9457467 23.704762 16711746
-0.69340903 3.6694131 27.830479 16711746
10.87869 3.7395959 21.889889 16711746
0.39191225 3.5786419 26.255844 16711746
1.1060746 -3.7574728 33.525532 16711746
1.9875518 3.701093 28.266844 16711746
3.9529705 3.3096476 26.587637 16711746
3.5005417 2.9737127 23.801586 16711746
4.0773277 3.3169799 29.373913 16711746
6.0858359 3.462285 21.68335 16711746
10.5227 3.1683576 24.116446 16711746
16.855949 -3.5663757 37.726421 16711746
15.590458 4.073535 30.736738 16711746
-14.144252 -2.0544536 38.100758 16711746
9.0276031 3.719388 24.716164 16711746
9.0459309 3.731118 24.71439 16711746
7.6441627 3.4530427 22.109667 16711746
14.066154 3.4177661 24.095739 16711746
3.2356122 3.2432218 21.924221 16711746
11.208751 3.7031789 22.604004 16711746
13.959992 -2.7243364 26.874228 16711746
1.0547161 3.4083722 25.618961 16711746
3.3035128 1.3127064 30.333155 16711746
0.81781524 -4.0199175 33.035355 16711746
7.936789 3.3808959 23.480345 16711746
7.6938324 3.5533121 22.090055 16711746
4.1613045 -2.3358314 27.407059 16711746
0.04638217 -3.0775602 36.930702 16711746
10.738313 3.7104533 21.865263 16711746
10.46991 3.9813294 25.029743 16711746
7.7334251 3.3831441 21.258972 16711746
7.2699494 3.61428 22.717093 16711746
7.0443897 3.3796413 21.552839 16711746
4.0025215 3.2159638 21.790409 16711746
3.296711 3.4529576 25.906115 16711746
3.5490441 3.0050859 24.113298 16711746
8.4336033 3.5866694 21.942755 16711746
3.9601431 3.2336023 21.823898 16711746
7.9169545 2.3805885 22.150129 16711746
7.1942997 3.3897979 23.059389 16711746
6.936368 3.6650355 25.182045 16711746
5.8441358 3.3374674 21.905279 16711746
4.1880131 3.4387088 23.550631 16711746
7.4864292 3.4904425 22.800903 16711746
8.5564327 3.6507616 22.413979 16711746
7.8855305 3.2326682 21.581724 16711746
7.1778436 3.0972521 21.169743 16711746
7.6149087 3.3845122 22.433125 16711746
-1.6008688 0.75355536 24.110445 16711746
6.0584488 3.4055057 22.052137 16711746
4.9664817 3.1558616 20.935699 16711746
3.074321 2.9987855 21.601482 16711746
12.060444 0.52384299 26.001831 16711746
8.112462 3.5985157 24.245647 16711746
11.754767 3.5749886 21.662205 16711746
8.3910856 3.3894529 24.498392 16711746
10.072075 -1.228976 29.864527 16711746
12.037869 -3.1982446 40.899303 16711746
11.975341 3.6890805 21.872473 16711746
0.2784093 -4.5769343 34.273338 16711746
12.69633 -4.0918903 35.272751 16711746
15.769464 -3.6851604 33.097412 16711746
13.491304 -0.42321408 35.56039 16711746
11.793106 -2.9752595 39.924236 16711746
20.097383 4.9763989 38.279266 16711746
-6.3370523 -2.5990734 42.89193 16711746
9.5995464 3.7693901 23.833792 16711746
8.1533394 3.5544074 24.126635 16711746
1.804494 3.6789818 30.776852 16711746
9.6781244 3.6946023 22.427692 16711746
8.1329384 3.5900922 24.220209 16711746
8.4772043 2.8356595 24.16153 16711746
0.37399542 -0.31494734 27.954435 16711746
5.6908479 3.282316 20.928665 16711746
3.5741863 3.6459424 28.016626 16711746
11.880121 3.593648 22.412535 16711746
7.8290534 3.36608 22.689859 16711746
6.0643444 3.3514688 21.216301 16711746
8.5574493 3.3018029 25.963091 16711746
-3.4321654 -5.1089106 43.656952 16711746
7.0558095 3.3314631 21.598698 16711746
5.6621943 3.1937802 20.467352 16711746
7.8758898 3.4555478 22.295727 16711746
4.1098795 2.8081391 23.308311 16711746
4.5215387 3.4714558 22.877344 16711746
3.5735455 3.3859022 23.752815 16711746
6.9228301 3.6809974 25.162046 16711746
7.3442965 3.4026506 22.69721 16711746
8.0197201 3.4816177 22.564337 16711746
7.0441031 3.360677 21.650799 16711746
15.266557 -3.5713489 28.761564 16711746
11.955639 -3.1479239 40.51395 16711746
11.172402 3.896585 25.340178 16711746
5.5365095 3.3890464 29.350626 16711746
5.721169 3.4501429 28.433281 16711746
11.121683 3.8529913 23.692875 16711746
12.819063 4.1123943 23.484129 16711746
8.5888023 3.8919733 25.877745 16711746
6.0827003 3.3175697 20.913536 16711746
4.3334155 3.383873 22.059317 16711746
0.71857482 3.368783 26.284765 16711746
8.6879692 3.6367188 23.768045 16711746
7.016901 3.5055227 23.207874 16711746
-2.761534 2.40483 29.8486 16711746
4.3172088 3.3967166 22.070042 16711746
-4.9060245 -3.1164391 28.303482 16711746
5.8003311 3.6090918 30.221901 16711746
10.844311 3.7821889 21.9881 16711746
11.057486 3.8868201 22.104855 16711746
5.5963902 3.1939921 20.879528 16711746
7.1287003 3.4695787 25.723202 16711746
11.385971 3.7756259 22.25457 16711746
6.8845592 3.7427859 25.356737 16711746
0.24644791 1.7834066 27.673727 16711746
13.758565 -1.5076795 24.851767 16711746
-2.7285457 -4.4784842 37.622799 16711746
7.6296196 3.0354457 24.033575 16711746
10.203938 3.7739999 25.078611 16711746
9.3970327 3.8055599 25.428701 16711746
11.320296 3.9314775 26.181669 16711746
12.535331 3.9494765 22.312386 16711746
10.78338 3.7228439 21.878984 16711746
8.4663248 3.5424929 22.614325 16711746
2.9067013 2.9246836 24.82724 16711746
12.256637 2.4620216 22.278751 16711746
-3.2138574 -2.2318275 31.44153 16711746
8.3191013 2.6047688 23.108709 16711746
0.78944468 -2.3181217 28.470465 16711746
9.752986 3.7835226 26.558567 16711746
11.177652 3.6696727 22.381313 16711746
3.4508374 3.2578311 22.855017 16711746
12.771962 3.8918667 24.333338 16711746
10.889983 3.9867229 26.15485 16711746
7.5697794 2.5486355 24.546814 16711746
15.000122 -3.3751757 29.77618 16711746
18.639824 -4.7025466 42.14603 16711746
12.449723 3.8159356 25.420153 16711746
23.481285 -4.6448612 56.334553 16711746
12.084342 -1.3822844 35.087269 16711746
11.875099 -3.4340403 36.160591 16711746
10.918223 4.2714343 30.377485 16711746
7.0877051 4.3904061 29.32523 16711746
11.691399 -1.6541404 27.892666 16711746
4.9380078 3.3351254 21.129532 16711746
6.6886539 3.4782455 22.426474 16711746
4.6741505 3.286406 21.139326 16711746
9.6620541 3.904043 24.15053 16711746
8.0088606 3.5378995 22.688879 16711746
7.439106 3.4944496 22.048447 16711746
4.8256149 3.5024233 22.62989 16711746
8.0123739 3.5769887 22.754044 16711746
10.881454 3.3966131 21.296059 16711746
4.5346394 3.4059629 22.064756 16711746
3.2901764 3.5313275 23.595249 16711746
2.8699472 2.731385 22.309893 16711746
9.873003 -0.55043823 28.674585 16711746
8.5705957 3.5982492 23.324678 16711746
15.786521 -1.2998264 31.936237 16711746
10.120564 4.0564513 23.934029 16711746
-6.1123161 -3.1677058 34.823074 16711746
6.2028284 3.9183016 28.540451 16711746
9.0400429 3.7477975 24.787598 16711746
16.892015 -2.382529 31.130013 16711746
6.2291265 3.9220097 28.549809 16711746
5.4954762 3.7121222 24.979115 16711746
10.233434 4.0096092 28.571497 16711746
18.537138 5.0825372 35.537075 16711746
1.5942491 -3.711962 33.087379 16711746
3.8940983 3.4260857 23.358463 16711746
8.5103102 3.515362 22.109735 16711746
7.3132167 3.4636636 22.449352 16711746
11.241944 3.2613397 21.190395 16711746
9.0643024 3.634279 22.555256 16711746
7.8160467 2.0617201 21.938316 16711746
9.5481129 3.6758423 22.526756 16711746
7.3008533 3.4956932 22.507019 16711746
6.9366579 3.5840871 23.691563 16711746
11.772697 3.5140681 22.453382 16711746
11.72936 3.9563406 22.53775 16711746
10.780722 4.0467181 26.561783 16711746
12.170652 -3.3162949 41.681946 16711746
6.297061 3.3762274 22.574903 16711746
7.1911445 2.2496202 19.996544 16711746
6.0917611 3.612144 24.205254 16711746
7.6245489 3.3923795 22.464634 16711746
3.5377498 -0.091447227 22.114042 16711746
5.3667278 3.3044457 24.533268 16711746
10.074407 -0.74173069 29.780785 16711746
-5.8571711 -3.0341191 34.433327 16711746
10.305671 -0.27090433 28.082493 16711746
13.42927 3.8179808 25.992788 16711746
-0.48202282 -1.0902615 24.299038 16711746
6.9132199 3.4828467 23.502167 16711746
9.9999208 4.0387516 25.843269 16711746
5.7000337 3.8184171 26.425621 16711746
-3.6806073 2.4855683 30.861519 16711746
6.5514164 3.4706469 22.541801 16711746
11.200377 3.6739554 22.420986 16711746
12.613309 2.9706986 23.948223 16711746
11.105734 3.8898208 23.731194 16711746
6.3795819 -3.0791771 31.155733 16711746
11.678752 3.3995423 22.133532 16711746
10.32769 3.9582605 25.419125 16711746
11.994915 -4.4802489 36.282833 16711746
12.835819 3.8989797 24.368578 16711746
9.3052931 3.7289808 23.481316 16711746
9.8261223 3.6051307 27.031113 16711746
6.0258117 3.7798195 25.620544 16711746
6.2530522 3.8315375 28.496565 16711746
9.2572861 3.6466548 22.588911 16711746
-0.27999705 -1.0232403 24.18222 16711746
0.39851049 3.2849841 25.100462 16711746
12.581235 3.547637 26.898022 16711746
-4.2314014 -2.1382806 28.815271 16711746
16.828632 4.8305683 27.552263 16711746
11.183738 4.2467794 29.408646 16711746
5.1597986 3.595257 24.483805 16711746
11.336178 4.1807189 28.120802 16711746
4.8092527 3.4702022 27.926054 16711746
16.986248 -2.4431522 31.221397 16711746
12.577712 4.0714025 26.237774 16711746
4.7058735 3.2343702 25.282906 16711746
5.8902383 3.5627575 23.424273 16711746
6.0252504 3.4419236 23.183529 16711746
6.2912965 3.3477044 22.534212 16711746
5.7242126 3.6659307 23.826464 16711746
5.3676162 3.3901057 25.398424 16711746
5.7231789 3.6244984 23.75778 16711746
7.6924224 2.5422792 22.402599 16711746
7.1485877 3.2427468 22.64241 16711746
5.662909 3.627671 23.796646 16711746
7.7192097 2.5050337 22.18996 16711746
10.868504 3.6402595 22.414009 16711746
5.6421514 3.6897869 24.825605 16711746
10.89064 4.1004438 27.84754 16711746
7.8314977 -2.0014839 43.828197 16711746
5.6511393 3.8363996 26.453123 16711746
11.004884 3.972652 25.506752 16711746
9.6694298 3.8396239 22.826418 16711746
12.789631 3.8973258 24.334059 16711746
13.31109 -3.4479012 33.357662 16711746
8.5316763 1.4463899 19.899313 16711746
6.2515631 3.4251516 22.429939 16711746
12.664823 3.7006562 23.671 16711746
4.6459093 3.6803808 28.621218 16711746
10.593095 3.8389428 23.379635 16711746
5.4790602 2.3585389 28.778387 16711746
8.4711494 2.7679269 23.995975 16711746
5.181097 3.9252684 26.618225 16711746
13.488034 4.8701334 25.75049 16711746
10.516087 -0.29883912 28.841112 16711746
5.9720654 3.7846093 25.560848 16711746
17.117905 -3.6938624 32.854614 16711746
15.049346 -3.7506213 34.254547 16711746
9.9288435 3.7885919 27.688854 16711746
16.875544 -2.3937948 31.047007 16711746
16.334898 -4.0485339 34.173874 16711746
14.527357 -4.6367717 36.811852 16711746
15.500807 -2.9180336 29.023722 16711746
16.022329 -2.7815337 37.6647 16711746
14.589204 -3.0711043 38.345379 16711746
13.53425 -0.49546358 35.870674 16711746
5.6573858 3.4227004 22.52669 16711746
6.5149002 3.4847794 22.515495 16711746
8.5258942 3.5697885 23.797915 16711746
5.1957927 3.6621189 24.742102 16711746
11.915396 3.951504 23.775085 16711746
10.552259 3.7919607 23.285074 16711746
11.851425 2.9313807 22.26186 16711746
5.3612561 3.5575368 24.204533 16711746
11.879585 3.9046497 23.699684 16711746
4.0513015 2.7196124 29.841236 16711746
10.391639 3.6199813 22.956419 16711746
8.226326 3.552634 24.466183 16711746
14.641914 -3.1152229 38.418167 16711746
10.769622 -2.3645496 32.013489 16711746
13.949211 4.4620352 31.509138 16711746
11.616376 3.9074266 25.107979 16711746
5.2658167 2.4375985 29.458599 16711746
8.2046471 3.5947824 23.471628 16711746
4.2198777 3.4087894 23.755344 16711746
14.704485 2.1201537 30.055986 16711746
7.8376088 3.1195228 22.095772 16711746
8.4609118 3.3231549 23.485603 16711746
5.5636168 3.3233876 22.334846 16711746
-1.0511721 -4.294642 38.380611 16711746
4.6678901 3.7049572 28.604532 16711746
7.9895782 3.5620313 23.354216 16711746
8.6222496 3.6875155 23.432013 16711746
4.3146653 3.356065 23.600639 16711746
3.3585353 3.4375334 25.831161 16711746
8.1848354 3.5628357 24.221596 16711746
7.9182878 2.4127269 22.138908 16711746
7.5106893 3.4105384 22.653378 16711746
4.6185598 3.4191241 22.961987 16711746
4.760798 3.5452278 22.70895 16711746
4.2024837 3.4405985 23.669336 16711746
5.015605 3.6730692 24.71917 16711746
4.8478003 3.1075516 23.019911 16711746
6.2661715 3.8306024 28.471725 16711746
17.275175 -0.8675459 28.754972 16711746
0.12514001 3.659735 28.070183 16711746
9.0253477 3.751193 26.017349 16711746
4.8768539 3.5171275 23.725138 16711746
10.285117 3.8884692 25.250582 16711746
6.9930115 3.8393974 27.279661 16711746
9.0820532 3.6729286 24.820431 16711746
9.2901945 3.7898016 25.624928 16711746
10.62162 -2.3640642 30.199589 16711746
3.3410618 3.549984 23.609308 16711746
8.3547802 3.5675824 23.707228 16711746
11.904124 3.1958871 22.394316 16711746
11.575092 3.3148487 22.001101 16711746
4.5882754 3.692049 28.746956 16711746
6.0240903 3.7055795 23.749743 16711746
9.2175169 4.2557473 27.598528 16711746
16.716042 -1.8112184 28.033094 16711746
5.5764999 3.3955891 22.254498 16711746
4.9157629 3.5115945 23.6992 16711746
9.6706371 3.8208179 25.01779 16711746
8.3413582 1.6663755 27.197687 16711746
11.233442 2.5123806 21.530365 16711746
8.5702229 3.1564372 25.707716 16711746
4.2917829 2.6671896 28.53791 16711746
11.195245 -0.80203044 32.039963 16711746
4.5361929 3.4447472 23.035406 16711746
3.5725331 3.4728901 23.417561 16711746
14.189904 -3.1479716 33.683899 16711746
14.297368 -2.9963145 33.555439 16711746
4.6147408 3.4288313 22.922544 16711746
12.218766 4.4695411 33.095634 16711746
12.168944 3.8294857 25.619511 16711746
8.3616619 3.5719409 23.711134 16711746
8.149024 3.59779 23.432337 16711746
5.8519878 3.4575694 23.567741 16711746
8.5386896 2.7144182 24.077412 16711746
8.6597719 3.2639585 24.52865 16711746
7.8602543 3.5689082 24.106583 16711746
2.7993402 3.2432129 25.031664 16711746
11.590743 3.6123533 22.86338 16711746
5.6618829 3.2870274 24.596252 16711746
5.1659441 3.5926757 24.535542 16711746
7.875392 3.5023737 24.399878 16711746
5.844491 3.1097157 24.904171 16711746
5.6568165 3.8196554 26.419271 16711746
3.1112676 2.9891124 27.12689 16711746
15.498064 -4.357625 34.547817 16711746
9.5275936 3.1991932 27.12089 16711746
11.900806 4.534399 25.229753 16711746
4.6288919 3.4566178 23.448048 16711746
1.1509198 3.4322493 27.087065 16711746
10.657634 -9.2839527 52.218349 16711746
12.855976 -4.4789162 38.409893 16711746
13.077061 4.5595121 32.849327 16711746
7.8732038 3.5944805 23.824636 16711746
8.3907461 3.6196871 23.554758 16711746
6.8252959 3.5051906 23.591864 16711746
12.675841 3.9332511 24.178324 16711746
5.3596539 3.6100726 25.143709 16711746
1.5731021 3.901191 32.133781 16711746
-3.047168 -4.6057768 37.859001 16711746
0.12377992 2.9651594 30.43062 16711746
8.2208853 3.0419865 22.988319 16711746
9.5232086 -0.33205411 31.455791 16711746
12.299315 3.3938158 22.779175 16711746
13.423735 -0.35048386 26.493444 16711746
10.608618 -4.0022354 31.74152 16711746
6.3825459 3.4740062 23.279856 16711746
9.1907024 3.5736909 26.339046 16711746
12.002973 3.9174905 23.416733 16711746
7.860023 2.9783342 22.107937 16711746
-3.1971912 3.3812914 28.271971 16711746
13.067214 3.8561649 23.889048 16711746
14.642513 -3.922796 32.098385 16711746
18.474094 -3.0510762 28.185915 16711746
5.7703104 3.5200851 24.551868 16711746
5.605659 3.5537605 28.98671 16711746
12.30552 -5.0808625 37.782394 16711746
6.2646551 3.5443511 23.412691 16711746
6.1643314 3.4281545 22.618069 16711746
7.9657393 3.445437 24.414242 16711746
4.1585898 2.8753016 23.700827 16711746
4.7039595 3.540483 23.641748 16711746
5.2637501 3.618372 24.362873 16711746
7.8849044 3.5137255 23.95282 16711746
3.0977075 3.5168834 26.127798 16711746
-1.5020242 3.4344556 31.728399 16711746
-3.6070204 4.4996791 31.673492 16711746
9.049468 3.7268469 25.425751 16711746
8.662735 3.2021294 24.396435 16711746
-0.93282688 3.2642527 30.98008 16711746
6.368917 3.648088 24.136774 16711746
8.8454037 3.3203392 26.409054 16711746
2.6765795 1.2409277 31.829241 16711746
8.4268789 3.6809945 24.84996 16711746
10.693671 3.7172804 30.062071 16711746
6.036335 3.7842271 27.307619 16711746
-3.0511739 -4.5795012 38.130592 16711746
12.582051 -6.6319714 40.500278 16711746
13.09167 4.2045617 37.990593 16711746
15.721503 -4.2682219 37.443192 16711746
12.126057 4.1713772 30.110838 16711746
15.588417 4.3452463 27.395956 16711746
12.034867 4.0245748 25.552876 16711746
5.5344324 3.3699348 24.01088 16711746
10.947665 4.0810165 28.457861 16711746
11.921 3.965179 23.832207 16711746
16.11487 -3.8476028 36.440472 16711746
11.302552 3.8858058 23.17626 16711746
6.2809339 2.8957901 24.149975 16711746
8.0695686 0.67677122 23.578114 16711746
3.0823107 3.5318708 26.161383 16711746
10.73037 3.6014881 22.632868 16711746
5.7084246 3.412571 24.56636 16711746
6.6316662 3.4627733 22.89184 16711746
12.522223 3.9342906 25.395947 16711746
12.893003 3.7044599 24.079775 16711746
20.419817 -0.47408989 37.380898 16711746
15.376091 3.7724779 26.931835 16711746
11.952918 -3.2139649 34.770184 16711746
17.508884 1.4950994 36.767761 16711746
9.6809206 1.1726881 22.817289 16711746
13.822342 -0.70022327 35.885612 16711746
10.690285 -1.7086412 31.920059 16711746
13.369078 3.9347851 25.040007 16711746
11.560152 3.6213062 22.923101 16711746
7.9097323 3.4680028 23.559357 16711746
11.003523 3.7601478 23.800663 16711746
8.5535526 2.6557891 23.841795 16711746
9.5729675 3.7091305 23.755016 16711746
7.8632455 3.3413131 26.585726 16711746
14.973849 4.1844926 25.405817 16711746
15.994074 3.2504082 27.664446 16711746
5.4128966 3.4557326 25.018993 16711746
11.412461 -0.17388478 27.021652 16711746
8.7884731 3.6870446 25.172216 16711746
7.339942 3.891247 25.403715 16711746
4.3307414 2.8256979 23.486277 16711746
4.6381507 3.5478108 23.576233 16711746
11.590802 3.6505446 22.98237 16711746
11.976005 3.8939848 24.201397 16711746
1.8404155 3.1843023 25.905277 16711746
8.0211067 3.7812061 25.468269 16711746
2.8873355 3.7700603 26.194695 16711746
4.9272695 2.7008181 23.094151 16711746
12.420942 3.7669816 24.759056 16711746
9.5535955 3.6324177 24.57103 16711746
11.53063 3.9355266 26.34972 16711746
9.0126476 2.9755507 26.107748 16711746
10.296176 3.9396589 25.357504 16711746
14.352972 -3.6721215 35.865719 16711746
8.7526188 3.5381877 24.164665 16711746
15.495884 4.3297515 26.287615 16711746
11.846066 3.8809848 27.174416 16711746
13.854509 -0.69456398 35.901363 16711746
14.649397 4.2914419 29.72995 16711746
7.2356529 3.7583022 24.993353 16711746
12.747608 3.7342005 23.823689 16711746
8.5964108 3.6367891 24.531017 16711746
7.324235 3.7304788 26.501968 16711746
8.5855207 3.7041531 24.712231 16711746
13.179954 3.9257147 25.624821 16711746
1.9954045 -3.9242423 34.150394 16711746
8.9638414 2.3701134 24.98921 16711746
11.014972 3.7770562 23.84203 16711746
12.408446 3.7694879 24.808838 16711746
13.225387 3.4709058 24.267126 16711746
4.267705 2.6638179 28.54509 16711746
9.7280798 3.6467006 24.199636 16711746
11.030521 3.813051 23.896521 16711746
8.4358044 3.5466511 24.523674 16711746
16.481647 -0.82242709 39.628574 16711746
8.5457659 2.0968835 22.551516 16711746
6.6038036 4.044971 26.089174 16711746
9.3001671 3.7449932 25.511967 16711746
7.9880395 3.8031182 27.169573 16711746
5.1652255 2.631191 22.859211 16711746
5.6351666 3.0836287 22.76482 16711746
4.3239017 2.8307807 23.501585 16711746
1.3480318 3.2112644 26.137211 16711746
3.4329236 2.8011079 24.461082 16711746
7.3350492 3.7176554 26.49312 16711746
8.3600655 3.5618675 24.049416 16711746
5.2400441 3.5522099 24.41502 16711746
8.6753054 2.8043725 24.64327 16711746
-0.095534377 -0.87278795 31.767082 16711746
9.8562202 3.8935256 24.705742 16711746
8.0470676 -1.0611609 29.19108 16711746
11.584082 3.800694 25.044655 16711746
8.9936476 3.6798325 25.782097 16711746
14.09732 -2.4981573 33.349968 16711746
10.318001 3.9855924 25.86595 16711746
14.097383 4.0862508 28.102329 16711746
11.57862 3.8941014 25.10095 16711746
6.0951252 3.6212885 24.204498 16711746
12.376273 -4.5118117 39.428242 16711746
12.084421 4.0934653 27.927673 16711746
11.979181 3.9779859 27.535418 16711746
15.325173 4.7663341 31.277956 16711746
12.30016 -4.2082152 34.657696 16711746
10.927361 3.7860513 23.512381 16711746
10.484883 2.7832363 21.395172 16711746
7.9156866 3.500536 24.176739 16711746
8.5289898 3.5024536 23.665405 16711746
7.9750657 3.4540508 24.265791 16711746
9.9691868 3.9780562 25.609627 16711746
9.3691998 3.7347076 25.326916 16711746
4.8932967 3.7283154 24.555756 16711746
17.574974 4.2780209 29.876255 16711746
10.9094 4.1359491 26.799631 16711746
9.9481249 3.8258011 26.268682 16711746
5.8447876 3.693923 29.5473 16711746
11.682261 4.2034702 28.785418 16711746
15.004872 -1.4664025 31.592773 16711746
-8.338191 -3.0953403 39.032742 16711746
7.4029427 4.2351122 36.728249 16711746
8.5654907 3.9316018 28.883564 16711746
7.3320656 3.731024 26.487242 16711746
6.3784857 3.8470633 27.279654 16711746
12.09255 3.9079807 25.511379 16711746
7.2828588 3.7099004 25.345873 16711746
11.74524 3.6832681 24.977924 16711746
9.9502735 4.1428971 24.624079 16711746
8.999362 3.087075 26.108528 16711746
9.868125 3.8861613 24.711327 16711746
9.4446239 3.6993506 24.845268 16711746
10.029565 4.0355263 26.81979 16711746
8.9713526 3.3682072 26.921326 16711746
10.282624 3.9215446 25.304491 16711746
10.985488 3.8323467 23.938068 16711746
6.9667301 3.7487423 25.251802 16711746
8.2014322 3.5476937 24.633333 16711746
7.9025359 3.499542 23.63143 16711746
9.8444357 3.912564 24.248751 16711746
6.1467309 3.8050184 26.948732 16711746
11.279817 3.4495037 22.711664 16711746
11.843273 3.6805117 23.196598 16711746
8.5612211 3.5752397 24.083157 16711746
8.1729622 3.5461664 24.201984 16711746
8.6200857 3.1422019 24.176044 16711746
7.5761185 3.6973372 25.741064 16711746
7.8013039 3.5471015 24.363356 16711746
7.1970825 3.5526195 24.809654 16711746
5.8934288 3.0429099 28.658709 16711746
7.0801167 3.754601 25.998789 16711746
13.050062 4.0354304 24.584562 16711746
8.4211426 2.8901222 24.423008 16711746
12.580768 3.8868814 25.095518 16711746
-8.5804663 -0.47217283 34.672165 16711746
12.504577 3.898113 25.315216 16711746
5.9876533 3.7916617 27.349024 16711746
9.8823814 3.9202764 28.211313 16711746
13.427826 3.4613938 26.37187 16711746
17.392204 4.1944394 37.950966 16711746
10.875732 4.0643687 25.466177 16711746
11.301669 4.5586739 26.499186 16711746
10.032183 3.965018 26.56184 16711746
9.0695848 3.7212727 25.26181 16711746
10.482115 3.8801064 24.232384 16711746
9.8432207 3.8792133 24.681793 16711746
9.2568178 3.7502589 24.905378 16711746
6.900528 3.6883039 25.183689 16711746
-4.5720539 -1.3537252 30.101513 16711746
5.48734 3.6377263 29.030821 16711746
9.1715508 3.6688395 24.508446 16711746
18.449911 3.8306513 28.359438 16711746
-9.6805534 -4.292552 38.102238 16711746
10.330624 3.9994581 25.878622 16711746
9.6315346 3.8710549 27.136036 16711746
9.8281126 3.795018 25.698807 16711746
9.5109415 3.851306 25.911575 16711746
6.895556 3.670558 25.164583 16711746
8.7722712 3.7019205 24.685917 16711746
9.3340645 3.697293 24.643291 16711746
10.03111 3.9519467 25.045708 16711746
9.478941 3.8289726 25.86729 16711746
5.6587329 3.1217625 29.368563 16711746
9.217371 3.5247664 26.382336 16711746
8.844883 3.7025194 25.551851 16711746
10.653931 3.977252 24.820745 16711746
13.822874 3.9721947 27.698812 16711746
9.3860102 3.7096033 25.252596 16711746
9.18466 3.5772223 26.421793 16711746
12.234391 3.6740894 23.737062 16711746
15.065195 3.65222 30.633654 16711746
12.286272 3.717037 23.819511 16711746
18.888712 0.52013397 40.532528 16711746
16.205694 4.7259922 33.120007 16711746
12.571197 -3.6227338 34.381943 16711746
8.4304905 3.4659126 23.794657 16711746
8.7621841 3.6598268 24.680235 16711746
5.7419691 3.3826487 29.407885 16711746
5.0832939 2.7489688 28.143101 16711746
9.8284693 3.8766077 24.188818 16711746
9.465291 3.8026237 26.29813 16711746
7.057785 3.7926908 26.108255 16711746
8.0255566 3.699595 25.328522 16711746
6.8381004 3.6364648 29.665524 16711746
5.9056277 3.8441978 25.789715 16711746
7.7024307 3.7683496 28.508554 16711746
8.9957905 2.9715593 26.459557 16711746
11.168722 3.9863079 26.077044 16711746
1.1424689 3.8054934 31.483952 16711746
11.56616 3.9691012 26.414146 16711746
3.9018514 3.9557474 30.227932 16711746
0.8068074 3.8326213 31.834358 16711746
5.6149521 3.7700038 25.654282 16711746
6.7206249 3.7425449 24.460979 16711746
12.051382 3.961514 24.281849 16711746
7.3893557 3.5778105 23.943035 16711746
7.3031096 3.6895058 24.834408 16711746
8.1914501 3.5324032 24.168179 16711746
6.7930174 3.6904933 24.379562 16711746
7.8964691 3.507782 23.956646 16711746
7.3784704 3.5966837 23.94203 16711746
6.7971425 3.6748297 24.324444 16711746
5.0208154 3.5202494 25.806387 16711746
7.9461198 3.8394754 25.604801 16711746
6.7971873 3.5163832 24.274734 16711746
12.204951 1.307983 29.849403 16711746
5.5593538 3.7188749 25.132957 16711746
7.530745 3.7313817 25.836975 16711746
16.332872 4.7984591 33.273575 16711746
12.431456 3.964545 26.303223 16711746
7.9326468 3.8720739 33.759853 16711746
9.0939817 3.7303214 24.914707 16711746
8.987381 3.9021463 29.544689 16711746
8.0410805 3.6331465 25.135887 16711746
7.4169788 3.5501246 23.891953 16711746
6.7861209 3.9217076 29.855145 16711746
9.9849195 3.8832223 26.412432 16711746
12.162558 1.2579085 29.985466 16711746
9.1611185 3.6065338 25.940168 16711746
9.7058601 3.816005 25.566645 16711746
8.5728998 3.2867408 24.468203 16711746
14.458556 2.1238012 29.798136 16711746
7.3516464 3.7070971 26.419189 16711746
8.237525 3.6215563 24.407677 16711746
9.9763556 3.830761 24.812305 16711746
8.2124128 3.4873052 24.495596 16711746
6.4705734 3.7296345 24.822628 16711746
8.6552219 3.7557561 25.030493 16711746
6.856504 3.6137094 24.242588 16711746
4.2898526 3.5599298 27.631369 16711746
7.3854418 3.4783726 26.183708 16711746
4.8821177 3.3488896 26.699669 16711746
8.7041283 3.5309944 24.591555 16711746
6.6486859 3.7580874 26.204491 16711746
10.355863 3.9785399 25.431032 16711746
9.2592354 3.7539737 25.083582 16711746
5.4906368 3.512635 24.197006 16711746
11.204477 4.0808249 27.824917 16711746
5.4417167 3.3653092 31.018629 16711746
10.454014 4.0021658 26.265558 16711746
11.66768 4.1492677 27.830784 16711746
11.74367 4.2239971 28.806175 16711746
-8.8303413 -3.4221728 38.607681 16711746
10.471404 -8.9960814 51.357479 16711746
9.2451982 3.6298559 24.844969 16711746
9.7311506 3.8625503 25.471964 16711746
5.0048394 3.8425786 30.04286 16711746
12.893841 3.8452091 25.195715 16711746
8.9976606 3.2345755 25.798832 16711746
13.007993 3.9788311 25.989874 16711746
12.639708 3.9454763 26.71525 16711746
9.7878065 3.7486281 25.173101 16711746
11.341358 4.1413503 25.437471 16711746
11.147892 3.9149747 25.018459 16711746
10.68887 3.9354916 24.941298 16711746
10.743652 4.0745044 26.738754 16711746
10.832334 3.8999813 24.866322 16711746
9.2250042 3.6751738 25.303041 16711746
4.0809293 3.3343484 25.640598 16711746
5.8092451 3.6903324 24.913902 16711746
5.8373156 3.8706446 25.770382 16711746
12.544439 4.0439095 25.562004 16711746
8.5867825 2.8833745 24.652634 16711746
5.0319867 2.9752126 27.437475 16711746
9.2371378 3.6798716 25.312664 16711746
11.493131 3.6441174 25.473854 16711746
2.3729253 3.6971679 30.514149 16711746
12.815364 3.9430189 26.813116 16711746
9.9791412 3.8460581 26.309402 16711746
16.023048 4.0169244 29.784002 16711746
14.115143 -2.6765246 36.936584 16711746
10.965726 4.1345978 27.908817 16711746
10.606071 3.9133995 31.475807 16711746
9.8258247 3.8119869 26.338238 16711746
10.013744 3.94664 25.233969 16711746
-0.59661323 3.074321 27.70039 16711746
18.540394 4.9134517 37.482956 16711746
19.622114 0.21997187 50.217316 16711746
8.8728857 2.9485252 28.501236 16711746
8.911067 3.8765333 27.255541 16711746
10.665062 4.0049152 25.753464 16711746
11.995481 3.5574822 23.70245 16711746
8.6976213 3.5940006 25.741285 16711746
11.618027 3.8446686 25.138252 16711746
5.1648173 2.4628894 29.427761 16711746
9.1608934 3.5781806 25.880167 16711746
11.595644 3.9739213 25.443403 16711746
7.1767974 3.9013374 27.014109 16711746
9.7811804 3.7577538 27.179604 16711746
9.3233576 3.1662519 28.185453 16711746
9.3041792 3.3461156 29.12764 16711746
10.105963 3.8188617 26.971594 16711746
9.0237837 3.6415887 25.595606 16711746
6.4114628 3.8283339 27.227442 16711746
8.8373299 3.6320717 24.815228 16711746
3.298471 3.8463092 28.953165 16711746
7.3327813 3.6189566 25.595228 16711746
8.7865458 3.6487925 25.111158 16711746
3.5849459 2.0518272 29.822657 16711746
9.1598158 3.7846749 26.368135 16711746
10.18606 4.0847449 26.069193 16711746
8.1061096 3.4226096 24.52387 16711746
5.9929585 3.8581896 26.538176 16711746
7.576776 3.6973977 25.73295 16711746
7.538271 3.7434895 25.855234 16711746
10.736712 4.0508609 26.669853 16711746
9.2254925 3.5987465 25.13842 16711746
6.4771399 3.7204947 24.842613 16711746
8.9262047 3.4574287 28.749107 16711746
10.676667 0.218559 28.636726 16711746
5.9312739 4.1672215 28.230221 16711746
10.765609 4.0403342 25.691008 16711746
8.9876919 3.0621679 26.98126 16711746
9.2144842 3.0115092 26.829084 16711746
12.491838 3.8691983 26.578255 16711746
9.9325752 3.8249052 27.752987 16711746
7.3109407 3.6707525 25.686577 16711746
11.189186 0.95181543 26.931068 16711746
14.523567 4.2638612 28.681459 16711746
9.7656927 3.0573344 27.355307 16711746
9.1680489 3.5703201 25.871832 16711746
13.802704 3.2841761 27.761765 16711746
19.628851 -0.22193189 36.329842 16711746
12.871838 3.8021898 24.424397 16711746
9.837327 2.3864775 27.567522 16711746
14.251218 4.0873165 29.114902 16711746
14.833409 0.024025515 37.322662 16711746
10.276196 3.9545555 25.819063 16711746
17.186394 -3.1297784 36.020973 16711746
5.7385902 3.7253423 24.928806 16711746
9.9151335 3.7661755 27.527187 16711746
9.7073336 3.7740734 25.296724 16711746
5.6119747 3.3041301 25.344397 16711746
12.68446 3.7162106 24.259167 16711746
5.5176821 3.8942242 26.647373 16711746
5.6233587 3.316885 25.366564 16711746
7.6072111 3.6505485 25.308596 16711746
7.4184542 3.5818281 25.494303 16711746
5.7601447 3.4137375 25.123817 16711746
4.5289731 3.6725748 28.882288 16711746
13.558848 4.5194321 28.108402 16711746
1.1216034 -3.9488559 35.394653 16711746
11.115833 3.9121265 25.918207 16711746
9.4265938 -0.39546296 27.939249 16711746
12.452232 3.9784548 26.116417 16711746
-17.759062 2.5008209 52.643261 16711746
-5.2504277 -4.2166295 39.413059 16711746
16.618822 3.9701447 36.411449 16711746
16.032248 1.7306598 35.464031 16711746
16.372164 2.2584219 36.162518 16711746
13.101785 3.9294629 26.681879 16711746
9.9291887 3.7917387 25.814671 16711746
6.9511266 3.6849241 25.277575 16711746
11.993619 4.0097814 25.507967 16711746
9.1839771 3.5140488 26.231916 16711746
9.0050097 3.6418142 25.768669 16711746
1.7977922 -3.9497244 34.296154 16711746
2.1479645 -3.7131152 33.66008 16711746
10.020345 3.8750706 26.724632 16711746
8.9960232 3.7154005 25.927286 16711746
-4.9664507 -2.7690988 32.804173 16711746
11.201838 4.3500214 30.126633 16711746
9.3688993 3.7618823 25.7763 16711746
9.1351442 3.749316 26.485662 16711746
9.3328199 1.7597016 25.196592 16711746
9.8108091 3.788707 26.893303 16711746
8.7827587 3.6419117 25.634495 16711746
20.231888 -1.9160438 40.389034 16711746
11.157228 4.3047891 29.786301 16711746
11.668343 4.1274347 27.856085 16711746
12.222277 3.9611497 26.342657 16711746
13.47125 4.273922 28.669893 16711746
13.69826 -1.6391705 34.416542 16711746
13.396413 -1.6971712 38.637413 16711746
9.2572737 2.5494356 26.139481 16711746
12.918422 3.8636913 25.222733 16711746
12.397313 3.7403617 24.732649 16711746
13.011932 3.7649179 25.015862 16711746
11.690613 3.9130383 25.676041 16711746
15.984791 4.39745 29.617075 16711746
6.2022009 3.8767402 26.50201 16711746
12.137463 3.961899 26.57686 16711746
11.457015 -1.9501997 34.298454 16711746
12.497405 4.0097303 27.079641 16711746
11.160613 4.0619144 26.632273 16711746
13.457153 -1.3202826 33.42717 16711746
11.117576 4.1378384 29.014488 16711746
8.0207319 3.7754567 27.095087 16711746
6.1815648 3.5055199 25.115795 16711746
1.5507591 3.6416433 29.655539 16711746
9.9347982 2.4295835 27.850281 16711746
9.5657597 4.0552793 31.554756 16711746
12.32294 3.5212607 24.683212 16711746
8.0160093 3.7737498 27.085962 16711746
9.1321335 3.7170107 26.424982 16711746
1.8168992 3.5717409 29.360523 16711746
4.7472515 3.6780787 27.588097 16711746
12.404586 3.8802052 25.256453 16711746
10.984221 4.1439786 28.016188 16711746
9.7857409 3.7310162 27.152979 16711746
7.9257312 3.8874347 28.499598 16711746
10.18856 3.9531112 28.371792 16711746
8.0480442 3.7445526 27.008968 16711746
1.7047818 3.5790954 29.397339 16711746
7.0626869 3.5919468 25.14056 16711746
9.7772493 3.4678571 26.119564 16711746
9.8116541 3.7108843 27.403473 16711746
8.9488926 3.0287576 26.203341 16711746
1.9618896 3.5186 28.937361 16711746
8.8675175 3.2022703 26.704384 16711746
5.8709049 3.393157 25.089285 16711746
11.542916 -3.2408249 35.553417 16711746
13.611584 3.5257545 26.900167 16711746
15.068989 -2.5206339 38.270905 16711746
15.241161 -0.99997497 37.789738 16711746
13.609294 4.2374535 30.634354 16711746
-7.5480976 -4.108273 40.329998 16711746
3.2135105 4.6972923 25.84107 16711746
0.17519602 -2.7523437 32.273987 16711746
12.851753 3.8182445 26.894835 16711746
9.1903772 3.2691505 25.840929 16711746
12.247046 -1.7704251 36.490814 16711746
-5.4735456 -2.8802509 33.844135 16711746
6.9797978 3.6253738 25.210962 16711746
17.447365 -2.963119 36.537731 16711746
7.4431992 3.6598539 27.38216 16711746
7.4755015 3.6341567 27.318174 16711746
5.8129635 3.2933929 30.090651 16711746
5.8937154 3.6174967 25.499411 16711746
6.0349984 3.5521705 25.346273 16711746
10.818855 3.9870822 30.644796 16711746
6.9188333 3.7140296 25.122965 16711746
10.11456 3.8669519 27.127008 16711746
12.218657 4.3181987 30.685469 16711746
10.639647 3.947114 26.547668 16711746
12.012421 4.1135082 26.066193 16711746
3.9978547 2.6409149 28.831148 16711746
12.658424 4.122807 26.14007 16711746
11.748816 3.9724634 25.762402 16711746
9.6540289 3.9276006 26.793056 16711746
11.33915 3.9380572 25.902121 16711746
9.1468515 3.7088363 26.963863 16711746
8.7837486 3.6396139 25.640694 16711746
9.0711422 2.8532917 25.610842 16711746
9.1887474 1.6322381 25.553223 16711746
9.1147976 1.5741924 26.164452 16711746
12.927282 4.0599437 25.518225 16711746
8.6633558 3.7001081 26.74408 16711746
6.0583758 3.6553674 26.045511 16711746
7.3006082 3.5126524 30.634455 16711746
5.8715177 3.1200652 29.553162 16711746
10.47956 3.258903 30.533987 16711746
11.464986 3.8897552 26.206848 16711746
11.835064 3.9533243 26.383177 16711746
-1.3827065 3.2532504 30.79896 16711746
6.4496727 3.8061733 27.958944 16711746
5.5606904 3.7982337 29.797298 16711746
10.898376 4.1501765 28.7391 16711746
6.8187637 3.4704709 31.502779 16711746
5.9288659 3.6401169 29.242355 16711746
12.500415 4.0066309 26.360441 16711746
8.7739115 3.6539819 25.661602 16711746
14.389194 4.1738958 27.73934 16711746
11.693916 4.1777878 27.964766 16711746
4.556231 3.6359088 27.68679 16711746
9.2268953 2.7283318 25.903824 16711746
18.875153 -3.1848495 36.997841 16711746
7.4693165 4.1960311 36.622223 16711746
-8.968729 -4.3974442 44.803211 16711746
10.934605 4.1282825 28.703461 16711746
8.0955915 3.6039505 25.7876 16711746
8.7882614 3.6329989 25.622812 16711746
7.3119826 3.6880898 26.980209 16711746
12.919193 4.0071507 25.862103 16711746
9.0755749 2.7212439 27.200647 16711746
10.927072 4.1284442 31.262251 16711746
7.5155044 3.9576018 29.267357 16711746
14.131777 4.258441 27.830479 16711746
17.386829 4.9919968 32.590458 16711746
14.720771 2.1358683 30.119986 16711746
13.736451 4.2781687 29.776573 16711746
13.612921 4.2511873 28.989454 16711746
9.0280132 2.977241 25.963713 16711746
12.789787 4.1722097 26.518881 16711746
11.647814 4.1237512 27.752443 16711746
9.8425446 3.8015559 25.987513 16711746
10.409038 3.973068 27.453358 16711746
10.043588 3.7895746 27.181877 16711746
12.288239 4.0231075 26.458015 16711746
12.759767 4.1942506 28.237835 16711746
11.142964 4.0276666 26.554886 16711746
13.512362 4.067471 26.566454 16711746
6.9799423 3.8393745 29.322464 16711746
10.93442 4.1375399 27.536907 16711746
14.080001 3.4962337 28.986778 16711746
8.0245295 3.773025 26.280781 16711746
11.05074 3.9510124 26.521818 16711746
12.539725 4.089098 27.215324 16711746
10.91178 0.71598357 27.971863 16711746
6.6353183 4.1959672 29.916782 16711746
9.0045929 3.394913 25.806686 16711746
19.796206 -2.7900023 42.085873 16711746
7.4749999 3.657433 27.352772 16711746
8.3718491 3.7484004 27.254309 16711746
12.720452 3.9825919 25.769976 16711746
7.9795752 3.7332048 26.027744 16711746
8.6384363 3.7404821 26.058512 16711746
12.871904 3.8326728 26.93232 16711746
12.154573 3.9532948 25.663223 16711746
10.269469 3.9329314 26.309452 16711746
7.5776272 3.7864332 25.945311 16711746
5.6056786 3.3046627 29.326817 16711746
14.042411 4.0038795 27.631056 16711746
5.6753416 3.2941043 29.229076 16711746
6.1063542 3.5638654 28.974718 16711746
11.191913 4.0012422 26.031855 16711746
10.738117 4.0142231 26.606052 16711746
5.341433 -0.75478166 32.747631 16711746
13.69127 4.0130877 26.260092 16711746
7.4674959 3.6391919 27.319313 16711746
19.515684 -2.4409842 37.817978 16711746
12.022924 4.0394688 26.339682 16711746
20.385372 -1.9319048 40.444977 16711746
6.8425422 -5.0298233 47.528828 16711746
19.956215 -3.7833333 47.224789 16711746
17.150383 -1.2170166 51.930553 16711746
16.032436 1.7037685 35.463123 16711746
13.821692 4.3631301 30.970478 16711746
10.664534 4.0097222 26.978481 16711746
10.159694 3.8517017 26.753941 16711746
11.495724 4.1280336 27.458105 16711746
6.8822441 3.6399381 29.852894 16711746
10.113691 1.7783239 27.36108 16711746
9.448123 3.7542112 26.07736 16711746
7.0530519 3.3801005 30.839283 16711746
10.005028 3.8215499 26.313841 16711746
12.019503 4.1832747 28.410097 16711746
10.169293 1.7351552 27.873962 16711746
12.518045 4.1587658 28.370884 16711746
10.887094 4.3019047 27.173204 16711746
9.8148775 3.818352 26.957005 16711746
5.9466023 3.440536 28.632992 16711746
13.790077 4.106226 26.997501 16711746
9.1896639 3.176573 25.918058 16711746
13.499038 4.3138251 30.184261 16711746
11.196166 4.1712155 28.857365 16711746
8.0061808 3.7019382 25.98019 16711746
6.2397079 3.9701359 33.155464 16711746
13.434469 4.2632232 30.103449 16711746
10.773498 4.1158385 27.831514 16711746
11.480697 3.9028859 26.242439 16711746
14.971215 4.4100084 30.06369 16711746
13.387033 3.9996235 26.429852 16711746
13.089769 4.0732622 26.595043 16711746
6.9020352 3.859446 26.607508 16711746
7.0361848 3.657686 25.827646 16711746
7.3170609 3.7034378 27.008053 16711746
7.2016168 3.6715672 26.090864 16711746
5.9633069 3.0829234 29.262989 16711746
10.648935 4.0071802 26.979385 16711746
12.609828 4.186379 27.350151 16711746
10.997801 3.8301706 26.212954 16711746
6.8081803 3.8428023 26.701117 16711746
9.1799479 2.3656354 26.504499 16711746
7.4461489 3.6539693 27.384378 16711746
13.751017 4.2520547 27.390909 16711746
8.6306763 3.7661843 26.63732 16711746
7.0472622 3.7688138 26.427797 16711746
9.3453016 3.789434 26.820148 16711746
7.9841123 3.6977327 25.975599 16711746
10.428182 3.7948666 26.523535 16711746
8.9047461 3.0016639 26.150471 16711746
9.1728754 3.6031706 26.743135 16711746
7.0981069 3.8725095 27.37294 16711746
13.47232 4.4207163 31.633156 16711746
10.653812 4.1323981 28.116318 16711746
14.767587 4.6101866 28.65254 16711746
5.8780336 4.4397149 28.231495 16711746
10.66258 4.0541611 27.824202 16711746
16.599922 4.4093585 32.892448 16711746
10.785854 4.0994215 29.696842 16711746
13.380255 4.1789145 30.553482 16711746
11.434428 3.9004357 29.825247 16711746
15.178378 4.5990663 34.18438 16711746
22.321726 -5.7980585 52.693291 16711746
-25.08239 -8.0751657 64.613602 16711746
-22.675114 -7.1880584 61.789738 16711746
20.342518 -0.47970617 50.793182 16711746
16.340513 2.5185146 36.711937 16711746
8.1909771 3.7670286 26.975264 16711746
17.012234 4.6058345 33.602695 16711746
7.8256001 3.7379515 25.765497 16711746
10.369089 3.8676887 27.177607 16711746
9.811059 3.7886367 26.896927 16711746
3.6757269 -2.831888 36.019753 16711746
6.3947458 4.0252552 29.588789 16711746
10.906933 4.0626969 28.053934 16711746
9.8850174 3.7789471 26.921923 16711746
12.021929 3.4939101 24.732004 16711746
10.607029 3.9961088 27.272711 16711746
8.1532803 3.7950034 27.046732 16711746
9.947979 3.7810183 26.980026 16711746
12.285777 4.0223289 26.46102 16711746
20.216671 -0.45254809 50.622643 16711746
5.3378778 3.3523114 26.591381 16711746
7.4294472 3.7846961 26.653091 16711746
7.4576035 3.6635916 25.713833 16711746
9.947876 3.7815335 26.980078 16711746
9.6703663 3.8479447 26.958191 16711746
9.1571941 3.7257507 26.996721 16711746
9.6699953 3.8098922 26.880751 16711746
9.1696043 3.6975529 26.943626 16711746
12.320849 3.9935656 25.841549 16711746
11.972079 3.9125836 26.21772 16711746
9.7921343 3.7642782 27.210398 16711746
9.0026989 3.8504403 27.982824 16711746
5.0667529 3.3383975 27.386129 16711746
10.069397 2.9749126 27.726212 16711746
9.0110016 3.825335 27.918205 16711746
6.7540469 3.8210292 26.816622 16711746
17.649374 -2.2988517 36.055904 16711746
10.443995 3.9801099 29.384281 16711746
15.285931 4.6207147 29.560028 16711746
18.440836 -2.7909324 37.480675 16711746
12.357153 4.406745 30.745958 16711746
12.097113 4.2813616 28.922964 16711746
5.642417 3.5744638 29.081711 16711746
