# .PCD v.7 - Point Cloud Data file format
VERSION .7
FIELDS x y z rgb
SIZE 4 4 4 4
TYPE F F F F
COUNT 1 1 1 1
WIDTH 154
HEIGHT 1
VIEWPOINT 0 0 0 1 0 0 0
POINTS 154
DATA ascii

 -0.0179617 -0.0412979 -0.0070654 16777215
 -0.0174762 -0.0461717 -0.0021478 16777215
 -0.0176126 -0.0467163 -0.0030184 16777215
 -0.0166112 -0.0500652 -0.0026739 16777215
 -0.0138112 -0.0515951 -0.0023359 16777215
 -0.0108817 -0.0534280 -0.0023360 16777215
 0.0019003 -0.0647590 0.0102722 16777215
 0.0165226 -0.1012940 0.0571087 16777215
 0.0093115 -0.1471368 0.1047650 16777215
 0.0177205 -0.1908496 0.1130156 16777215
 0.0082371 -0.2347016 0.1447295 16777215
 -0.0001822 -0.2727811 0.1772239 16777215
 -0.0671474 -0.3216423 0.2291121 16777215
 -0.1474132 -0.3545837 0.3603931 16777215
 -0.1210216 -0.4128687 0.3991938 16777215
 -0.0671485 -0.4924251 0.4557275 16777215
 -0.0170344 -0.5027449 0.4530636 16777215
 0.0211163 -0.5846670 0.4698474 16777215
 -0.0770813 -0.6197038 0.6079738 16777215
 -0.1241502 -0.6603178 0.7243572 16777215
 -0.2224181 -0.6657050 0.7333779 16777215
 -0.1674295 -0.6821005 0.7991544 16777215
 -0.1056958 -0.7123833 0.8320326 16777215
 -0.0905345 -0.8344733 0.8276567 16777215
 -0.0174623 -0.8646169 0.8504095 16777215
 0.0370488 -0.9140390 0.9238229 16777215
 0.0141544 -0.9867373 1.0220881 16777215
 -0.1871631 -1.0760207 1.1725671 16777215
 -0.1269049 -1.1754390 1.3406940 16777215
 -0.0271576 -1.1960285 1.3903282 16777215
 -0.0096259 -1.2874618 1.3970222 16777215
 -0.2034529 -1.2772882 1.8053916 16777215
 -0.3133070 -1.4321100 1.8493936 16777215
 -0.1770256 -1.5021966 1.8977240 16777215
 -0.1368399 -1.5427976 1.9192718 16777215
 -0.2447914 -1.5829325 2.0211751 16777215
 -0.1800595 -1.6302924 2.0317945 16777215
 -0.1764410 -1.6892394 2.1422315 16777215
 -0.3231600 -1.6842439 2.4070866 16777215
 -0.4669227 -1.8402936 2.4805946 16777215
 -0.5306417 -1.7432762 2.7308183 16777215
 -0.3587469 -1.8598801 2.6568775 16777215
 -0.2858778 -1.9492604 2.6703272 16777215
 -0.4187991 -1.7654998 2.7956433 16777215
 -0.3668064 -1.8250425 2.8071077 16777215
 -0.3032233 -1.9658290 2.9171793 16777215
 -0.3001708 -2.0278151 2.9770701 16777215
 -0.3118241 -1.9574476 3.1285360 16777215
 -0.6073674 -2.3041494 3.2040420 16777215
 -0.4569352 -2.1911607 3.2711997 16777215
 -0.3951845 -2.2411981 3.2795687 16777215
 -0.3244705 -2.2184057 3.3087060 16777215
 -0.4109181 -2.2153244 3.5229168 16777215
 -0.4643701 -2.2322772 3.5233898 16777215
 -0.3294491 -2.2755046 3.5620077 16777215
 -0.2645995 -2.3016031 3.5791116 16777215
 -0.2538704 -2.3323648 3.6059711 16777215
 -0.3473778 -2.3902991 3.8690457 16777215
 -0.3150994 -2.4226604 3.8495741 16777215
 -0.3049329 -2.3852696 3.8110776 16777215
 -0.3200580 -2.3776114 3.9291425 16777215
 -0.3890119 -2.3778355 4.0338840 16777215
 -0.4640967 -2.5139160 4.0875211 16777215
 -0.4651347 -2.5843835 4.2571101 16777215
 -0.4531818 -2.5717845 4.2905903 16777215
 -0.5431499 -2.6808457 4.3320231 16777215
 -0.5461282 -2.5136790 4.4274707 16777215
 -0.4844273 -2.7192111 4.4031200 16777215
 -0.3398888 -2.4050629 4.5108051 16777215
 -0.3177094 -2.4825485 4.4986963 16777215
 -0.3438194 -2.5424643 4.5684052 16777215
 -0.3169320 -2.5450203 4.5661578 16777215
 -0.4560261 -2.6731071 4.5529122 16777215
 -0.3887560 -2.6603181 4.5751772 16777215
 -0.4619595 -2.7188432 4.8556795 16777215
 -0.5110955 -2.7186990 4.8572469 16777215
 -0.4830840 -2.7473350 4.8949738 16777215
 -0.4343308 -2.7636566 4.8997989 16777215
 -0.4167110 -2.8004503 4.9322963 16777215
 -0.4391184 -2.8711219 5.0585375 16777215
 -0.4745265 -2.8315895 5.0827694 16777215
 -0.6489490 -2.8791807 5.2178497 16777215
 -0.5062928 -2.9083917 5.3117795 16777215
 -0.4975964 -2.9842408 5.2656298 16777215
 -0.4783123 -2.9720151 5.2889299 16777215
 -0.5519882 -2.8967025 5.3525004 16777215
 -0.6217251 -3.0735083 5.4496088 16777215
 -0.5891947 -3.0615788 5.5321207 16777215
 -0.5497475 -3.0519271 5.6161036 16777215
 -0.5321782 -3.0933099 5.6690826 16777215
 -0.7152708 -2.9773660 5.8648005 16777215
 -0.6406264 -3.1623225 5.8645520 16777215
 -0.6039428 -3.1151421 5.8981838 16777215
 -0.6617059 -3.0655551 5.9479899 16777215
 -0.6417906 -3.1254086 5.9675040 16777215
 -0.8028088 -3.1013153 6.1275077 16777215
 -0.7220116 -3.1245546 6.1661429 16777215
 -0.6608722 -3.1726162 6.1790099 16777215
 -0.6398932 -3.2226307 6.2078066 16777215
 -0.7492772 -3.2745237 6.3645043 16777215
 -0.7339505 -3.3163619 6.4584069 16777215
 -0.7044440 -3.3379016 6.4575739 16777215
 -0.7186964 -3.3388166 6.5168700 16777215
 -0.7365402 -3.4353471 6.5312624 16777215
 -0.9094830 -3.2551234 6.6571417 16777215
 -0.8749516 -3.3601322 6.7873344 16777215
 -0.8717762 -3.3496389 6.8103781 16777215
 -0.8516894 -3.3663685 6.8097177 16777215
 -0.9806169 -3.4098616 6.9275966 16777215
 -0.8921577 -3.3442779 6.9863210 16777215
 -0.8567613 -3.3994226 7.0168529 16777215
 -0.8328412 -3.4305041 7.0267158 16777215
 -0.8045310 -3.4648657 7.0531855 16777215
 -0.7854050 -3.4857917 7.0972972 16777215
 -0.7559729 -3.4551201 7.1545172 16777215
 -0.9847926 -3.3375115 7.3272705 16777215
 -0.9540809 -3.4153290 7.3691821 16777215
 -0.9400553 -3.4426136 7.3769970 16777215
 -0.9456846 -3.4547682 7.3899202 16777215
 -0.9246678 -3.4871683 7.3969665 16777215
 -0.9115321 -3.4876506 7.4179726 16777215
 -0.8883536 -3.5142889 7.4526386 16777215
 -0.9080626 -3.5242352 7.5606008 16777215
 -0.9335461 -3.5078094 7.5395255 16777215
 -1.0541378 -3.5291495 7.8309145 16777215
 -1.0495944 -3.5715988 7.8546104 16777215
 -1.0364444 -3.5569792 7.9004436 16777215
 -1.0192424 -3.5637388 7.9177575 16777215
 -1.0095283 -3.5514917 7.9698610 16777215
 -0.9645846 -3.6146228 8.0019169 16777215
 -0.9352078 -3.6640973 8.0617695 16777215
 -0.9433641 -3.6425390 8.0817213 16777215
 -0.9131093 -3.6757035 8.1204033 16777215
 -0.9687579 -3.7015033 8.1757345 16777215
 -0.9020079 -3.7189841 8.1593552 16777215
 -0.8602921 -3.6910872 8.1736965 16777215
 -0.9937971 -3.7739449 8.2880802 16777215
 -1.1051646 -3.7775824 8.3689365 16777215
 -1.1143384 -3.5426548 8.4795752 16777215
 -1.1432536 -3.6779485 8.5115757 16777215
 -1.1058826 -3.6759272 8.5296793 16777215
 -1.0901572 -3.6894450 8.5420723 16777215
 -1.0651580 -3.7098465 8.5732203 16777215
 -1.0516790 -3.7262001 8.5635529 16777215
 -1.0724684 -3.7338717 8.6146803 16777215
 -1.0521448 -3.7426493 8.6393566 16777215
 -1.0326332 -3.7510662 8.6819801 16777215
 -1.0346620 -3.7786057 8.6986370 16777215
 -1.0360491 -3.8096886 8.7580662 16777215
 -1.1650641 -3.7192006 8.8513470 16777215
 -1.1711328 -3.6318698 8.9306698 16777215
 -1.1152514 -3.6459041 8.9659386 16777215
 -1.1148196 -3.6863222 8.9930544 16777215
 -1.1776805 -3.7366998 9.0400181 16777215
