# .PCD v.7 - Point Cloud Data file format
VERSION .7
FIELDS x y z rgb
SIZE 4 4 4 4
TYPE F F F F
COUNT 1 1 1 1
WIDTH 1177
HEIGHT 1
VIEWPOINT 0 0 0 1 0 0 0
POINTS 1177
DATA ascii
4.3508573 -3.3425233 -0.7795615 16711746
5.0193715 -3.9470572 -0.9440942 16711746
8.3952513 -8.8068657 1.8550023 16711746
3.4757805 -2.9867015 -1.6429875 16711746
3.8944566 -7.2076068 0.9130390 16711746
4.8776202 -3.4810195 -1.0314558 16711746
1.7299020 -8.5276146 2.0387998 16711746
5.5942588 -5.0263824 0.1991143 16711746
5.8181782 -3.8122978 -0.5365692 16711746
4.2047510 -2.8667846 -0.7321799 16711746
5.1798229 -4.5121593 -1.0108764 16711746
2.5317681 -2.3722384 -1.3924998 16711746
13.5921774 -13.1205378 0.6351846 16711746
4.1138587 -2.5711050 -0.6826809 16711746
5.9221210 -3.7005703 -0.8960114 16711746
3.3125725 -2.2573435 -1.3877854 16711746
4.2783294 -2.1566992 -1.3267816 16711746
6.9232774 -5.0145040 -0.3741383 16711746
5.8749371 -5.5976706 0.5225686 16711746
2.9822338 -4.2053876 -2.0767484 16711746
4.8436561 -6.2153087 0.4762718 16711746
7.2745667 -7.6378222 1.4562893 16711746
5.0842018 -6.7372985 0.4972269 16711746
5.7213178 -5.8430338 0.6488184 16711746
6.2700820 -4.4566298 0.0534133 16711746
5.2392716 -6.8893542 0.8582530 16711746
4.7363267 -7.6881914 1.2398512 16711746
9.2720785 -8.9828701 2.4609179 16711746
2.5145578 -11.8699913 3.7049749 16711746
3.2457438 -15.4049892 4.6756492 16711746
5.0206566 -2.2433672 -1.2581377 16711746
6.0556016 -12.9588413 3.0589485 16711746
3.8256516 -8.1841059 2.8946600 16711746
1.9307301 -9.6238050 2.2537558 16711746
5.1078191 -6.8758783 2.2248745 16711746
5.2475958 -5.2957754 0.4554203 16711746
4.7245150 -6.3029227 2.0474389 16711746
7.5550013 -7.9333792 1.5560236 16711746
10.2255735 -7.8555374 2.2823083 16711746
7.3676076 -9.7023573 3.0821581 16711746
5.9635210 -9.6513767 1.5086381 16711746
-1.4929327 -2.9957616 -0.7443641 16711746
5.9667268 -3.7973092 -0.5491033 16711746
0.8279467 -16.0917912 0.0025018 16711746
2.6319749 -2.0933683 -1.6561561 16711746
6.6092234 -7.0038710 1.4917846 16711746
5.6351414 -5.7040181 0.4799442 16711746
5.8457203 -5.9309545 0.4758803 16711746
5.7335463 -6.3418574 0.5904756 16711746
4.0874910 -2.0203056 -1.5865502 16711746
7.7790666 -7.9162402 1.2275735 16711746
3.4459884 -2.3235712 -1.5160370 16711746
7.2562661 -7.3671527 1.1899521 16711746
4.0200324 -3.8079598 -1.1827554 16711746
4.6771312 -2.9891450 -1.8290095 16711746
4.3925991 -4.0050039 -1.2197726 16711746
3.5990560 -3.0859711 -1.1649842 16711746
6.5275111 -8.2698936 2.2492979 16711746
5.0698338 -2.1556642 -1.1229695 16711746
3.0228150 -1.3620224 -1.9109122 16711746
5.1045237 -2.4158196 -1.4236412 16711746
4.4979744 -3.1120942 -1.1231519 16711746
4.9584055 -5.0408125 -1.2241776 16711746
0.7958724 -1.4390652 -0.3294018 16711746
3.7581327 -11.0653000 1.0808722 16711746
0.8345448 -1.6814138 -0.1817284 16711746
1.7126032 -13.5011377 1.8568997 16711746
1.1021414 -9.7779331 1.1030782 16711746
-2.8936343 -7.5214524 2.3818491 16711746
5.8846917 -7.0503597 2.4439080 16711746
6.2260890 -7.4031711 2.5466275 16711746
3.6856945 -5.4992247 0.6161279 16711746
5.8894811 -8.2266903 0.8179806 16711746
3.2882173 -15.4481115 3.7886727 16711746
7.2012515 -7.0999393 -4.5565262 16711746
7.5772114 -12.8949518 0.5649139 16711746
1.9531635 -3.1252851 -1.0766171 16711746
1.6495106 -3.0361650 -0.9654267 16711746
0.8576437 -1.6715829 -0.3204105 16711746
-0.6826619 -2.3122849 -0.2920661 16711746
-1.4229400 -2.7626281 -0.2280824 16711746
1.6755742 -2.9507382 -0.9757922 16711746
0.2203870 -13.4838371 -0.4924503 16711746
2.8553522 -14.3116217 3.4355206 16711746
3.5270128 -1.4530083 -1.8668245 16711746
5.5358047 -5.3478727 0.7568442 16711746
-1.5454587 -2.8096426 -0.6275784 16711746
2.1013262 -5.0302033 -2.2879851 16711746
0.4115035 -1.8211634 0.6116750 16711746
0.1309745 -3.3412309 -0.9104666 16711746
2.2479463 -5.5182486 -2.2756133 16711746
6.1355577 -7.8150110 2.1496642 16711746
2.1177318 -10.7642584 1.9455221 16711746
4.6047459 -6.4316640 -2.0989764 16711746
5.2670546 -4.5458112 -1.4184254 16711746
3.7209132 -6.3776178 0.8363475 16711746
6.7954783 -8.7820768 -1.8866508 16711746
1.5575131 -8.4378500 2.1340039 16711746
2.2184916 -4.6564245 -0.5316103 16711746
1.1458195 -5.8842320 -0.3693798 16711746
6.0026050 -5.4492574 -0.2407544 16711746
5.3742714 -3.5614209 -0.8731741 16711746
6.9246392 -6.9058375 0.5745127 16711746
2.5687425 -12.8638620 2.9604883 16711746
2.7750487 -3.7058332 -1.7185712 16711746
5.1399364 -7.0408216 0.0130714 16711746
5.8896132 -5.7983384 0.7191021 16711746
8.0431271 -8.0179949 0.5149902 16711746
9.8991442 -9.9263363 1.1594272 16711746
8.1332397 -9.5689716 3.2485356 16711746
11.3740349 -10.9791212 3.0950885 16711746
5.4847140 -4.6905394 -0.6937316 16711746
5.6597838 -5.6347284 0.0502825 16711746
12.0577726 -9.3190365 2.7448065 16711746
4.4133916 -6.1367173 0.0645645 16711746
0.8654850 -4.7644162 1.4014424 16711746
0.1869434 -3.7319393 0.2855693 16711746
0.0561392 -3.2288406 0.2895625 16711746
2.9134464 -5.3351135 -0.0515583 16711746
2.8801451 -5.0319929 -0.5753476 16711746
4.2595406 -6.2182283 -1.9951117 16711746
0.1630010 -3.3995495 0.3044010 16711746
3.3530283 -4.4389625 -0.8802927 16711746
1.5797563 -3.6170809 0.5241570 16711746
2.6851535 -4.4143867 -1.6941237 16711746
0.1985001 -4.0499096 0.3864315 16711746
1.4891971 -3.9131546 0.2759990 16711746
3.0343578 -5.6391277 0.1499440 16711746
1.9167951 -4.6431804 -0.7881021 16711746
4.2953706 -5.2137895 -1.6704768 16711746
2.8202693 -5.3810840 -1.0826408 16711746
-1.6373905 -2.7331767 -0.3250600 16711746
2.3140488 -5.0587902 -1.0628326 16711746
0.6811305 -3.6744688 -0.0068487 16711746
2.7295754 -4.0786319 -1.2970074 16711746
0.8822332 -3.5993495 -0.0243035 16711746
0.4831017 -3.0692105 0.8180199 16711746
-1.3257012 -2.9806032 -0.4166973 16711746
-1.5491606 -3.3509302 -0.0742828 16711746
0.9397041 -3.8558295 -0.7239242 16711746
3.4234393 -3.6401620 -2.1911297 16711746
4.4602656 -4.4874024 -1.3663169 16711746
1.2543483 -3.6938663 -0.7726306 16711746
2.9046440 -4.4675660 -2.2675247 16711746
1.1909829 -3.8438101 0.9626027 16711746
1.0909252 -3.6739779 -0.4300299 16711746
1.8380678 -3.4392059 -1.2434764 16711746
0.1094427 -2.9906836 0.3983130 16711746
0.0855750 -4.3285875 0.2945634 16711746
0.0251800 -3.7954373 0.7359785 16711746
0.4961932 -1.8531903 -0.3125800 16711746
-0.0232080 -3.5477278 0.7046596 16711746
-0.0922747 -3.2724035 -0.4420498 16711746
0.6297616 -3.5550492 -0.6801203 16711746
0.0660437 -2.2459221 0.4159670 16711746
-0.1371883 -3.9236481 0.5649601 16711746
-0.1453244 -4.4474959 0.5674628 16711746
1.0984262 -1.4774523 0.4208626 16711746
3.1793070 -5.2267375 -0.8782955 16711746
4.7955770 -4.1217194 -2.3724029 16711746
4.3849273 -4.1992807 -0.8134180 16711746
5.2820716 -4.3664045 -1.3121146 16711746
8.2029476 -7.6451640 0.7818413 16711746
-2.4297130 -4.1942296 0.9942333 16711746
4.0365834 -2.3204050 -1.9724735 16711746
1.0363890 -3.3885996 -0.0308961 16711746
-0.0256575 -2.4419463 0.1492145 16711746
0.6947858 -1.9114512 -0.4202627 16711746
2.1772523 -3.6532507 -0.9011170 16711746
0.6919807 -1.9132968 -0.4199208 16711746
0.8857483 -2.4994984 -0.7261068 16711746
0.7196682 -2.3664167 -0.6004709 16711746
0.1112942 -3.0018392 -0.8296008 16711746
0.5565979 -2.0039308 -0.4045819 16711746
0.7269877 -1.9468102 -0.5009173 16711746
-0.0505462 -3.0791497 0.0698578 16711746
-1.0157634 -2.1991985 -0.0639842 16711746
1.3728582 -3.5959837 -0.7708436 16711746
0.5145065 -2.2902436 0.1676439 16711746
0.9255170 -3.1160710 -0.1146187 16711746
-0.6991655 -1.6480525 0.2171183 16711746
0.7662954 -1.6442586 -0.0394066 16711746
0.4633015 -1.9555875 -0.1390763 16711746
1.0918499 -2.0473475 0.2112196 16711746
-0.7866427 -4.2795501 0.4841162 16711746
0.0830458 -2.8711078 0.0458895 16711746
0.3605772 -1.3461200 0.1199184 16711746
0.4175150 -1.5366802 0.0215579 16711746
-1.2590152 -2.4589040 0.1881381 16711746
-0.0187785 -2.0212934 0.2379138 16711746
0.8023835 -2.7945616 -0.0434651 16711746
0.6109807 -1.5134509 0.2164129 16711746
0.7032303 -1.6713598 0.1311652 16711746
0.6657660 -2.4900877 -0.0962109 16711746
0.3628130 -2.3360975 -0.0841639 16711746
0.7145595 -2.5780811 -0.0016424 16711746
0.8451586 -1.8496556 -0.1588050 16711746
1.1164595 -2.2778893 0.3108510 16711746
1.4526099 -2.6384280 0.3924983 16711746
1.0683690 -1.8113008 -0.0346063 16711746
0.4466419 -2.6815000 -0.1814185 16711746
1.2840353 -2.5919621 -0.1689205 16711746
0.8289393 -2.0158417 0.2123110 16711746
0.5129499 -2.3101668 -0.5093892 16711746
0.5948921 -2.0792575 -0.3065040 16711746
1.4285501 -3.3860044 0.5250752 16711746
1.1322072 -1.9191493 0.1019034 16711746
0.6929414 -1.4719862 -0.0951667 16711746
1.2071667 -2.7145686 0.5429333 16711746
-1.4710692 -3.0728958 0.1905460 16711746
0.8090364 -3.9610484 0.1621886 16711746
1.7072994 -4.7674952 -1.0077883 16711746
0.9787667 -4.6470022 0.0873586 16711746
1.6812897 -5.3403192 0.2932737 16711746
0.6822222 -3.1064129 -0.0355908 16711746
0.9137125 -5.1492300 1.1366450 16711746
0.1654140 -3.7509165 0.2922969 16711746
1.9311540 -3.1967192 -0.7928871 16711746
3.3330827 -3.5593889 -2.0311160 16711746
1.9201839 -3.2486892 -1.0146332 16711746
0.0373500 -4.2703743 0.7889952 16711746
0.9359554 -4.2691770 0.3480312 16711746
3.0850136 -4.5612764 -1.2283133 16711746
7.9885402 -5.8141098 -0.2993630 16711746
5.7159486 -3.6372895 -1.1203237 16711746
7.9940825 -7.0320139 -1.4048479 16711746
13.0292225 -11.3685207 -1.0088105 16711746
-0.4118653 -17.2932606 0.4595679 16711746
6.3625827 -5.2623610 -1.4377688 16711746
7.0715356 -4.5405698 -0.7112060 16711746
1.6957507 -3.1706645 -1.0121572 16711746
2.3142998 -2.7460797 -1.2146425 16711746
0.5500104 -2.2820656 -0.2866017 16711746
1.4621838 -2.8817046 -0.6933413 16711746
1.2759351 -2.7006023 -0.7630273 16711746
0.0809658 -0.9002997 0.5181019 16711746
-0.1505604 -2.6326063 0.3588958 16711746
-0.1391828 -3.6530499 0.6298328 16711746
3.0689175 -5.9507513 -1.2508433 16711746
4.7036080 -4.6011405 -1.0080602 16711746
4.5482678 -4.0738273 -2.5352130 16711746
0.3815298 -2.9795001 0.6880759 16711746
0.7148563 -3.7074950 0.1957866 16711746
2.4046838 -3.8488526 -0.9980042 16711746
4.7718639 -4.6444926 -1.0241201 16711746
-1.5810280 -3.5276558 -0.0843358 16711746
0.6565431 -4.0011129 1.2435116 16711746
4.3548946 -4.2280903 -2.4391551 16711746
-0.0623662 -1.6191200 0.0818648 16711746
8.6506357 -9.3446789 1.7218654 16711746
6.6849246 -4.3026366 -0.6663356 16711746
3.5741940 -4.1797938 -1.8868984 16711746
6.8854575 -4.6123624 -0.7408153 16711746
3.7077622 -3.4846835 -1.8645742 16711746
5.5674829 -6.1869421 -2.2083242 16711746
3.6119337 -4.0306625 -2.1758814 16711746
1.4331223 -8.9689856 -2.9334674 16711746
3.5041900 -3.2842073 -1.7162260 16711746
1.7992579 -3.5254462 -1.2794023 16711746
-0.2378599 -9.8121424 -1.3863099 16711746
4.1724739 -4.6451769 -2.7935858 16711746
0.4677573 -2.2920935 0.7617643 16711746
4.0622115 -5.5252233 -1.1361314 16711746
7.6683316 -5.7988153 -0.4377662 16711746
5.7742214 -2.6422751 -1.5069442 16711746
1.4318750 -6.4756613 1.5007521 16711746
3.0327797 -9.0125332 1.0720068 16711746
1.3349956 -2.4092023 0.0927019 16711746
4.6105661 -6.6140838 1.2988435 16711746
0.7192726 -3.9326735 1.4008232 16711746
1.2848746 -2.8680174 -0.4144473 16711746
0.3140277 -4.1240344 1.6065264 16711746
0.3257579 -5.1933150 1.6961318 16711746
0.3247800 -3.2047138 0.2790085 16711746
0.3325725 -2.2936392 0.1380926 16711746
0.3581161 -3.6264200 -0.2568161 16711746
0.3670294 -4.2525463 0.6568558 16711746
0.3156867 -3.0430939 -0.3284881 16711746
0.1492599 -3.2514415 -0.3762066 16711746
0.4498839 -3.4076452 0.5641052 16711746
0.5424300 -3.9638329 0.4398366 16711746
0.4840323 -2.6277025 -0.0068887 16711746
0.4126595 -2.8340786 -0.3423814 16711746
0.4395783 -2.6066623 0.1357182 16711746
0.1585899 -2.7650564 -0.1546254 16711746
-0.4231535 -2.6713822 0.8685097 16711746
0.3658442 -2.6008749 -0.1502961 16711746
-0.2505360 -2.3068011 0.2041497 16711746
0.4534607 -2.6482363 0.1229599 16711746
0.4806528 -2.7239914 0.0387121 16711746
-0.5364445 -3.9308281 0.0675349 16711746
-0.3213034 -3.5734026 0.3566323 16711746
0.4375739 -3.0045071 0.1705919 16711746
0.5093072 -4.1847563 0.4265900 16711746
0.4247881 -3.3662741 0.7482945 16711746
0.6566632 -4.5534716 0.5018409 16711746
0.3806153 -3.2685101 0.5504021 16711746
0.4182462 -2.6733055 0.0684606 16711746
0.4576927 -2.8673625 -0.1103749 16711746
0.7555431 -4.0412340 0.3008904 16711746
0.4111660 -3.5422444 0.4792041 16711746
0.2653227 -3.0076590 0.4494138 16711746
-0.2598180 -2.6975009 0.4384218 16711746
-0.7046093 -3.5706325 0.5706739 16711746
-0.2501178 -2.5773077 0.6639791 16711746
0.1807342 -3.4283545 0.4327611 16711746
-0.2906058 -3.3967009 -0.1537594 16711746
-0.3142106 -2.8879242 0.2400287 16711746
0.5012290 -3.2287626 0.1987940 16711746
0.4398197 -2.9011257 -0.1848484 16711746
0.2896731 -2.6392298 -0.1638435 16711746
0.9315945 -3.4025230 -0.1282391 16711746
0.3579979 -5.2874799 0.9472975 16711746
0.4032127 -3.9967594 0.7542971 16711746
1.2626834 -3.9077377 0.5837986 16711746
0.5658347 -2.7635858 -0.1249069 16711746
1.7557021 -5.1850991 1.8836048 16711746
0.5986428 -2.6011794 0.1133936 16711746
1.6338742 -3.1595318 0.2532040 16711746
2.9636328 -3.3712163 0.3780379 16711746
1.1503792 -3.0496728 0.2075058 16711746
2.4500539 -4.6995516 1.3079544 16711746
-0.2525183 -2.8856959 -0.1138767 16711746
1.5715284 -4.1562371 0.3996803 16711746
3.0468345 -4.0361772 0.7791973 16711746
1.5482883 -2.8819995 -0.2681178 16711746
1.5481781 -4.2139392 0.6191680 16711746
2.6308033 -4.4896207 1.1986240 16711746
0.7883890 -2.4429963 -0.0171354 16711746
1.2952118 -2.8740840 -0.4164240 16711746
-0.6852124 -3.1151385 0.6019418 16711746
1.2292979 -4.1895118 1.7573861 16711746
2.9058590 -3.9842403 1.4773853 16711746
0.3620083 -3.2915714 -0.2338819 16711746
1.0597591 -3.2737615 -0.7227620 16711746
1.1520231 -3.0992982 -0.6471122 16711746
1.5435069 -3.2943120 -0.2362328 16711746
3.0910580 -5.0285006 2.0775256 16711746
1.5779665 -3.9968722 0.9456401 16711746
1.1222557 -3.6105258 1.0309213 16711746
-0.0889362 -3.3887291 -0.1443186 16711746
0.2053644 -4.8583059 1.4247754 16711746
1.6709791 -2.9491727 -0.2406472 16711746
2.0218556 -3.0825269 -0.1708834 16711746
1.6248314 -3.9638045 0.2243574 16711746
1.5672115 -3.4436789 0.2356273 16711746
4.0097904 -4.5976458 0.8500684 16711746
1.5117900 -2.3980880 -0.4344990 16711746
0.4849935 -2.7686851 -0.1444947 16711746
2.4245870 -4.2197194 0.2155499 16711746
1.5911766 -3.3540909 -0.2613346 16711746
0.7169751 -2.8543074 0.0482746 16711746
0.4950646 -2.8948252 0.5845256 16711746
2.3286731 -2.8247330 -0.7142205 16711746
-0.8980086 -3.0236533 0.8076628 16711746
1.5037936 -2.3844094 -0.4265682 16711746
0.7038143 -3.0247605 0.0883707 16711746
0.3719166 -3.5075450 0.3427829 16711746
5.1829877 -5.6831117 1.2804101 16711746
0.4051393 -2.9614246 -0.0532702 16711746
1.6265501 -2.9902279 -0.3231553 16711746
-0.5784844 -3.0907171 -0.0385650 16711746
-0.4987092 -3.3704057 0.1884100 16711746
0.4973957 -3.1698959 0.2254827 16711746
0.4945692 -3.6209440 -0.0361984 16711746
1.1953396 -3.3888619 0.0242921 16711746
0.7793198 -2.3949978 -0.0068814 16711746
1.9790249 -5.6568289 2.0136223 16711746
1.0110298 -3.2888422 0.9949675 16711746
2.8231757 -3.5348418 -0.3125525 16711746
1.7533041 -4.0523787 0.6334044 16711746
0.9326267 -2.5193009 -0.1545905 16711746
-0.4417189 -2.9200234 0.6484200 16711746
1.8267159 -4.9573131 0.9008487 16711746
2.1997240 -4.1969419 1.0593909 16711746
0.5335019 -3.2218466 0.6067279 16711746
0.4977273 -2.9017158 0.5918466 16711746
0.5523479 -3.3259735 -0.3687498 16711746
2.2170079 -2.7641640 -0.6709285 16711746
-1.8431922 -3.6320808 -0.1996119 16711746
1.6097963 -2.1695528 0.2330446 16711746
2.5425212 -3.1728344 0.1525865 16711746
-0.8248697 -3.9611044 0.4476652 16711746
0.0881987 -3.0712807 -0.1138803 16711746
0.6658258 -2.7620542 0.0877988 16711746
0.7454137 -2.3644130 0.0117486 16711746
-0.6630375 -3.9738042 1.0670471 16711746
-0.4103669 -3.5416598 1.0977428 16711746
2.1898425 -4.2793417 0.5750318 16711746
4.3019800 -6.9062128 1.4017762 16711746
2.7695203 -4.8149571 0.9496917 16711746
6.4441109 -5.1835895 0.9191623 16711746
0.7850795 -3.5632617 1.0098372 16711746
1.9819456 -3.9939241 1.2648652 16711746
1.1929651 -2.9211841 -0.2992125 16711746
1.4270906 -2.6890373 -0.1191606 16711746
0.4260204 -2.8609672 -0.1669377 16711746
1.6758455 -3.6660664 -0.4960511 16711746
2.1526637 -4.2852745 -1.0287253 16711746
-0.2761362 -2.4632361 0.3051416 16711746
-0.3812705 -2.3933308 0.3702810 16711746
-1.2730181 -4.5899720 0.4281120 16711746
-2.0065100 -3.7497134 0.4931517 16711746
-1.5481687 -2.6882255 0.3644248 16711746
1.6508621 -4.5074601 -0.2659165 16711746
1.3264252 -3.5344522 0.2123042 16711746
1.1325238 -2.6516821 -0.3015595 16711746
-0.3484832 -2.8654580 0.9008729 16711746
-0.7665958 -4.7757306 1.5060397 16711746
-0.7064651 -4.9422865 1.3590797 16711746
4.0539432 -5.2128596 1.7679896 16711746
3.0210698 -4.0098190 0.9168031 16711746
2.2443354 -4.0877190 0.9178299 16711746
2.3225980 -4.5366788 1.3088930 16711746
1.3801202 -2.8153806 0.2941908 16711746
2.7646537 -4.5938468 -0.3312401 16711746
2.9168856 -3.2227106 -1.1931062 16711746
2.9353187 -4.7924256 0.2469158 16711746
2.3352559 -4.1414270 0.2307941 16711746
0.7434438 -2.2625642 0.4167321 16711746
1.9877783 -4.2772813 0.7807084 16711746
1.4564292 -3.8457382 0.8439152 16711746
-1.4425375 -5.0509944 0.3924021 16711746
-1.0049773 -3.3404536 0.4621982 16711746
2.1548181 -4.0965333 -1.0502497 16711746
-1.1115884 -3.4300139 0.3810553 16711746
2.7212987 -3.4006329 -0.3868794 16711746
0.2528901 -3.4210749 0.3164710 16711746
1.8423815 -4.8544002 0.2798652 16711746
1.6927145 -3.0949845 -0.1623520 16711746
0.8410876 -2.5279512 -0.0742408 16711746
0.5276108 -2.7235670 -0.0930729 16711746
-0.0562816 -5.8137512 2.1604643 16711746
4.4783940 -4.5586567 0.1889897 16711746
1.2852592 -3.8554463 0.6107454 16711746
2.3501005 -4.7136483 0.9413100 16711746
0.4476733 -2.6538243 -0.1262671 16711746
0.2915093 -2.9625139 -0.2564679 16711746
0.4012840 -3.5852127 -0.6127039 16711746
0.2685712 -3.8013771 1.5243031 16711746
0.4972546 -3.1008337 0.4438001 16711746
-0.7633788 -2.8222742 0.5895039 16711746
-0.3803772 -2.6697068 0.4539267 16711746
0.5000933 -2.6399834 -0.0514066 16711746
-0.6918586 -4.0995874 1.7722454 16711746
-0.4786499 -3.5938945 0.3239069 16711746
0.2773472 -3.2231345 0.2627662 16711746
-0.4074700 -2.6440604 0.6558041 16711746
-0.4693829 -3.5883498 0.3334963 16711746
-0.4241981 -4.4741454 0.7545655 16711746
0.3375491 -2.9101448 -0.1845296 16711746
1.0543749 -2.5283144 -0.1637962 16711746
39.7961540 -30.0310936 -2.0311399 16711746
13.0110674 -12.2874699 0.4548422 16711746
1.6419878 -1.7304630 0.3196770 16711746
11.2670317 -7.4192624 -2.1867359 16711746
0.8512601 -2.5405223 -0.0632846 16711746
1.3823966 -2.0000691 0.5795653 16711746
1.9156394 -4.3075314 0.6106675 16711746
0.5507753 -3.0274110 -0.0166703 16711746
1.3614480 -2.6281664 0.1874969 16711746
0.7984054 -2.7424641 0.2106749 16711746
1.1290252 -2.5911443 -0.2983259 16711746
0.5497900 -2.7403412 -0.0853292 16711746
1.1886309 -2.9338610 0.2778258 16711746
0.7605752 -3.1344166 0.1275224 16711746
0.6618087 -3.4590058 0.6611095 16711746
0.3394658 -3.4643848 -0.2070072 16711746
1.9278122 -2.7028863 0.1740948 16711746
1.3399214 -2.3099074 0.1323865 16711746
1.0107858 -3.0541139 0.7200418 16711746
0.4686847 -2.7367313 0.0908335 16711746
1.9868401 -3.7964840 0.7155865 16711746
0.2055823 -3.7509480 0.3813181 16711746
1.0357010 -2.3938062 0.1138413 16711746
1.2461963 -3.4061208 0.9154256 16711746
1.6510949 -3.3508935 -0.3169188 16711746
1.7068611 -2.7334983 -0.0393957 16711746
1.6880331 -2.7741585 -0.1209841 16711746
-1.7496054 -2.9770482 0.3216191 16711746
1.2009608 -2.4977570 0.2419107 16711746
0.2288235 -2.7710376 0.0755475 16711746
0.3667468 -3.3288994 -0.2509084 16711746
0.4171537 -3.9744725 0.3672433 16711746
0.3365107 -3.6140516 0.2029997 16711746
1.0715957 -3.7317936 0.8446487 16711746
0.7100856 -5.0653896 0.7158338 16711746
1.8668727 -3.3536105 -0.4999422 16711746
1.2432140 -3.9746668 1.6124778 16711746
1.6782291 -3.4722095 0.6746529 16711746
0.5638418 -3.6203148 -0.1948397 16711746
0.3711881 -3.6586823 0.4382639 16711746
-1.3354496 -3.6780043 0.6307083 16711746
0.9445643 -4.8216953 0.3723845 16711746
0.8120466 -5.4299202 0.7069373 16711746
1.6749703 -3.7478077 1.3294202 16711746
1.4859154 -3.0383644 -0.0797459 16711746
2.5575862 -4.2128496 0.0466074 16711746
2.9403203 -3.3546512 0.3763370 16711746
3.4679756 -5.0311060 1.3798789 16711746
2.5504098 -4.3292022 0.5560042 16711746
2.0021839 -4.2559304 0.3306006 16711746
2.8973343 -3.5805655 0.3736471 16711746
1.2098812 -3.4406259 0.0106949 16711746
-2.4048493 -5.0363140 1.9145586 16711746
5.1581888 -6.3911071 2.0103779 16711746
2.0755420 -4.3439837 0.3216296 16711746
0.5386318 -3.3198791 0.1905071 16711746
2.6683528 -2.6826513 -0.7327782 16711746
0.4984481 -3.1087327 -0.2825955 16711746
1.2322292 -3.2461274 0.1449037 16711746
3.3620007 -4.2391968 1.3095883 16711746
3.2359352 -5.8341360 1.5469488 16711746
4.2244282 -5.4682593 1.6407224 16711746
2.9525752 -4.3816333 1.2748942 16711746
2.5416503 -3.3265402 0.0683900 16711746
3.3562317 -2.9835827 -0.1586995 16711746
2.2466209 -4.5404382 0.7805611 16711746
3.9335349 -4.1551642 0.2479890 16711746
2.5627873 -4.2307215 0.0395490 16711746
1.1950963 -3.6326666 0.6040492 16711746
2.5323801 -2.2235591 -0.4016007 16711746
3.0806892 -4.0793996 0.9233118 16711746
3.1106150 -2.8494496 -0.0899883 16711746
4.4852500 -4.6391668 0.1779561 16711746
0.3453651 -3.1662850 -0.1919918 16711746
5.6631761 -4.7248316 0.5076328 16711746
2.0079620 -2.9525485 1.1729932 16711746
3.1545782 -6.6722593 1.7136160 16711746
-3.8181698 -7.7440720 2.9283495 16711746
1.5137337 -4.0508466 0.7417781 16711746
1.1761191 -3.9832649 0.7368693 16711746
3.3573048 -5.0238557 1.3433446 16711746
1.6757714 -6.5390830 2.2548623 16711746
1.9439139 -5.2859473 0.8963165 16711746
5.7241826 -4.7995806 0.4371480 16711746
2.3888414 -5.1811872 0.5433980 16711746
2.2981837 -2.9764011 0.1730229 16711746
3.6018622 -4.1610293 -0.1243740 16711746
2.8607161 -3.2512863 -0.5234442 16711746
-0.6206424 -2.8422196 0.4500093 16711746
3.1664250 -5.2230225 -0.8286911 16711746
2.2167451 -9.3548269 1.8402939 16711746
-0.3776750 -2.5269134 0.5375137 16711746
1.7049576 -1.7711639 0.3605731 16711746
2.6087103 -3.0555167 -0.9316753 16711746
0.0845965 -1.9224350 1.1289614 16711746
1.4642156 -3.1609657 -0.1697785 16711746
4.1790123 -3.6925383 0.3217908 16711746
0.9975554 -2.4862494 -0.1309040 16711746
-0.5396374 -5.6465106 0.6393552 16711746
2.9949715 -2.9907527 0.1387670 16711746
0.6657660 -4.6351814 -0.5912805 16711746
0.7768922 -2.4254558 0.4929970 16711746
3.0125685 -4.8970766 0.2425332 16711746
1.4588205 -3.1211300 0.0541968 16711746
1.4732124 -3.0245886 -0.0736849 16711746
2.4008350 -4.2425323 -0.0640178 16711746
2.9514194 -5.0049553 -0.2647436 16711746
1.0345088 -5.3568020 1.5359830 16711746
3.9226065 -4.5984979 0.2074089 16711746
3.4310091 -4.4378629 -0.3836673 16711746
1.0893259 -3.5176103 0.6305472 16711746
3.6756039 -3.1255159 0.9542072 16711746
2.4729731 -2.2472479 0.1091281 16711746
2.0036075 -4.1090221 -0.6970080 16711746
0.5804001 -3.3932040 0.4098633 16711746
0.5825156 -3.0999351 0.6395040 16711746
0.5930078 -3.1314592 0.6337619 16711746
-1.0803624 -10.4581223 -0.4680561 16711746
-1.2143335 -5.1015420 0.4663240 16711746
0.3161989 -3.2229066 0.0145798 16711746
2.2835519 -3.1438024 1.5920789 16711746
2.2254608 -3.2129951 1.2046927 16711746
0.4547234 -3.1749680 -0.0290204 16711746
2.3960366 -2.2291961 -0.3304096 16711746
0.3216524 -2.6049478 0.1739612 16711746
2.8578370 -3.6967671 1.7926595 16711746
4.5807891 -3.9870486 1.3439239 16711746
2.1402674 -2.2659826 0.3614437 16711746
1.0693426 -2.2841513 1.3449903 16711746
-0.1820005 -3.0669885 0.8025500 16711746
0.5006862 -2.9083705 1.2711089 16711746
1.0406461 -2.6385493 -0.0828488 16711746
-0.3459050 -3.6228843 0.5586023 16711746
-0.2870515 -3.3450117 0.3209913 16711746
3.0484512 -5.1212707 -0.1680541 16711746
0.2975633 -2.5626819 0.1923522 16711746
0.0552431 -2.6237826 1.1057589 16711746
3.2010963 -3.7625339 0.4888769 16711746
3.0080104 -3.4784713 0.2207338 16711746
3.1360793 -6.2480164 -0.4827794 16711746
-1.1249460 -5.3604150 0.6626913 16711746
-0.7901391 -5.5357571 1.4870471 16711746
-0.4824563 -3.3448808 0.6722822 16711746
2.4160233 -2.4989836 0.7259499 16711746
-0.5436343 -3.9400926 0.3455880 16711746
-0.9521626 -4.0897107 0.1104792 16711746
5.0095978 -4.2349024 0.5482132 16711746
1.6398739 -4.0085306 0.2117916 16711746
1.7025461 -4.4122953 0.2683490 16711746
2.4112821 -3.3083310 1.3457630 16711746
3.6899679 -4.1037273 0.9813898 16711746
3.8099277 -4.4930229 0.6916114 16711746
3.4884720 -3.9177673 0.0637174 16711746
-3.1293182 -7.1101546 0.9944960 16711746
2.3719316 -3.8097389 1.0797596 16711746
-0.9936540 -4.3103704 0.0686696 16711746
0.0853254 -3.9235814 -0.1214851 16711746
2.4785080 -4.7242942 1.2425321 16711746
3.6682026 -3.2848492 0.5524384 16711746
1.7124590 -3.9756041 0.2672862 16711746
3.2780206 -6.3280821 1.8220289 16711746
3.5617778 -4.5047960 0.9339839 16711746
-0.5562277 -4.8393769 0.7828900 16711746
2.1894898 -4.3207722 -0.7218475 16711746
2.7795007 -3.2330861 -0.1389761 16711746
1.9958054 -2.7218697 0.4400426 16711746
3.3750165 -3.1443527 -0.4416177 16711746
3.1397634 -3.9312260 0.7134818 16711746
2.7702889 -4.4700336 0.8392760 16711746
3.0915530 -3.6301913 -0.4173915 16711746
2.8773701 -3.2454455 -0.0923093 16711746
1.6629039 -4.8433065 0.7432570 16711746
2.9338517 -3.5563438 0.5454861 16711746
-0.2592341 -4.4875851 0.6579426 16711746
2.5657494 -4.3486710 1.0649577 16711746
-0.4597374 -4.7241387 0.1876564 16711746
1.0719720 -3.6255441 0.1649120 16711746
-0.2820970 -3.0235207 0.4616866 16711746
-0.4423600 -3.7926137 0.8075386 16711746
2.0051377 -2.5947874 0.1129178 16711746
1.6804792 -3.1309912 0.2891506 16711746
2.7031233 -3.8240967 0.5236472 16711746
0.5095531 -6.7500854 2.0724080 16711746
5.8641791 -6.5973830 1.4704311 16711746
3.8915393 -7.6083374 2.1697230 16711746
2.5403163 -2.3265049 0.0768744 16711746
-0.6542562 -6.0895009 1.2832042 16711746
4.8241711 -5.5110250 0.6518400 16711746
2.9382691 -3.7112343 -0.1004190 16711746
-1.4917014 -5.4876924 1.2533787 16711746
2.3116436 -2.9364176 0.3430117 16711746
-2.9398203 -7.7299461 3.3959675 16711746
-0.8265008 -4.0495911 0.3083603 16711746
2.7887568 -2.7500451 -0.0936975 16711746
3.2650156 -2.6504335 -0.1761601 16711746
2.1703470 -4.1838717 1.1798234 16711746
2.0738249 -5.3176403 1.4482718 16711746
1.9235777 -4.4539118 0.5106213 16711746
0.6276423 -3.5175481 0.6305552 16711746
1.4778541 -3.3546093 -0.3508963 16711746
0.9708821 -3.4828060 0.9689508 16711746
1.6266358 -2.8044295 -0.0142544 16711746
3.0203979 -3.2977464 -0.1221619 16711746
4.6127839 -3.9678233 -0.1485933 16711746
1.1120249 -4.2096901 0.9596224 16711746
2.7297828 -2.8731315 0.5371807 16711746
-0.3459534 -3.8285685 0.3451551 16711746
2.1135104 -4.5656743 -0.0861651 16711746
0.9128120 -4.9348035 0.4963575 16711746
-0.9410313 -6.3508029 1.6234275 16711746
-1.0759186 -6.6362309 1.8651400 16711746
2.5176761 -4.0040479 1.8533585 16711746
4.1152658 -3.1773539 0.3715420 16711746
3.1860533 -6.5473247 -0.6758059 16711746
2.1290231 -2.8823476 -0.1007103 16711746
-0.4843101 -4.9006562 0.7424151 16711746
-0.2796106 -4.5686216 0.4728570 16711746
2.2807219 -5.6793079 -0.3396758 16711746
0.3788450 -2.4334788 0.3517265 16711746
1.0356116 -4.7509584 -0.0916618 16711746
3.7527301 -3.6095819 0.4908028 16711746
0.5364494 -3.5624464 0.0794551 16711746
2.6314600 -4.4509807 1.2043674 16711746
2.1311061 -2.9721038 -0.0580074 16711746
-0.7661288 -5.3352156 1.0177661 16711746
0.4697225 -6.1889548 -0.1030582 16711746
2.1533105 -3.9987268 0.5796852 16711746
0.9204480 -3.8103526 0.6954214 16711746
2.3469837 -2.4941697 -0.0088575 16711746
2.5781426 -2.7963157 -0.2263446 16711746
0.4537019 -4.4646239 -0.4415461 16711746
4.5848784 -5.6735439 2.1047568 16711746
1.6966305 -3.5726337 -0.1032787 16711746
-1.3903683 -8.5876026 3.4226389 16711746
3.2116375 -5.5681329 1.0113101 16711746
1.9988787 -3.8699269 -0.5941179 16711746
3.3517258 -3.9037812 0.4619370 16711746
1.8759931 -6.4263525 -1.1154766 16711746
1.7603523 -6.2056665 -1.0626031 16711746
3.1927321 -3.8793387 -0.1496425 16711746
2.0405352 -4.5707102 -1.2449708 16711746
3.9216628 -7.5426450 1.3245870 16711746
5.0351863 -5.3239875 -0.0674885 16711746
1.7822125 -3.3627186 -0.0970705 16711746
4.1608667 -5.0584822 1.7775584 16711746
-0.1508474 -6.5363460 -0.7165847 16711746
0.7097629 -8.6758833 -1.3478285 16711746
-0.3330453 -4.6637712 -0.0703672 16711746
0.9501795 -5.7627516 0.0801262 16711746
-1.4229523 -5.1446052 0.8732532 16711746
2.1010914 -4.0175123 -0.6219417 16711746
1.7139704 -5.7358127 -0.8220518 16711746
1.5011822 -3.7740743 0.0065720 16711746
2.9986410 -3.4231231 0.3721133 16711746
3.0838821 -4.9464650 -0.4430096 16711746
4.1841278 -5.7452736 1.6221081 16711746
2.8615100 -2.7783577 0.5014884 16711746
1.4871694 -4.8228145 0.0722658 16711746
0.6532576 -9.3249903 2.9980376 16711746
3.6554918 -10.0976105 3.1610167 16711746
3.6470916 -5.9304671 1.3291800 16711746
1.3843713 -4.1652088 0.4516766 16711746
5.9333925 -8.6881819 2.8859200 16711746
6.9153743 -7.9497442 1.7020836 16711746
3.5775564 -3.0145769 0.2955927 16711746
3.0453317 -3.6911383 0.8315434 16711746
2.1233597 -4.3570724 0.3066961 16711746
4.2881694 -4.8542061 0.8759451 16711746
5.5550866 -10.5886898 2.2592361 16711746
-1.7475713 -6.0893736 0.6890063 16711746
-2.6892180 -7.2413993 3.1140113 16711746
3.9819739 -10.5401621 3.2876501 16711746
5.2647786 -6.0857244 1.3183984 16711746
9.6740389 -10.9080029 3.2896624 16711746
7.9420853 -9.4194994 2.5824955 16711746
4.3226066 -3.2689035 0.2706775 16711746
9.1133423 -15.9540768 3.9821424 16711746
8.0024395 -8.6799994 2.1893036 16711746
9.6312876 -7.1448846 0.6874930 16711746
3.7335258 -8.0645027 1.4417003 16711746
7.0977678 -10.0823889 3.2878077 16711746
8.9377480 -11.6759634 5.1075459 16711746
-4.7754240 -18.2901592 -0.2997841 16711746
-2.9467332 -15.7102013 -3.2598181 16711746
15.6224108 -15.7068443 3.2696486 16711746
7.5031633 -10.0307484 4.5063968 16711746
11.2990208 -12.0113430 4.5782614 16711746
4.5091496 -4.0734005 -0.3457378 16711746
7.8606777 -14.1313400 3.3913779 16711746
9.3666945 -13.8128138 5.5152707 16711746
8.6593275 -9.1985931 0.0353642 16711746
-1.2611247 -14.0757504 0.1979017 16711746
4.9715586 -7.9033151 1.5303594 16711746
4.3997660 -6.8234119 0.4764645 16711746
4.1229987 -6.6937733 0.3221676 16711746
4.1222291 -4.9908562 -0.5891787 16711746
4.1317983 -6.7832341 1.4889594 16711746
2.9269853 -6.2083602 -0.0147521 16711746
3.1525149 -5.5649099 1.1759278 16711746
3.3407142 -6.6721072 -0.4152579 16711746
5.7589469 -5.1578159 -1.0325768 16711746
5.6061883 -6.1281624 -0.3085517 16711746
4.6442237 -7.0461884 2.6043003 16711746
4.2545891 -6.0561399 1.7488823 16711746
2.6152611 -5.7933860 1.9962610 16711746
3.3700039 -6.4273410 1.4342790 16711746
2.7678339 -5.6768856 -0.2558456 16711746
0.5633020 -5.7056632 0.7572579 16711746
7.0757327 -4.7759919 -0.1302386 16711746
-1.6502665 -4.5786042 0.5377742 16711746
5.0120940 -5.5180883 -0.4678729 16711746
2.5062127 -5.7726579 -0.0428776 16711746
2.5964439 -6.4124599 1.5971799 16711746
2.8875387 -5.9628758 0.0671864 16711746
2.9511096 -3.9208996 1.6807481 16711746
5.8233356 -4.8084149 0.9277021 16711746
3.2545826 -6.5248981 2.2343638 16711746
4.0244985 -6.5807238 0.3394264 16711746
3.8462954 -6.3487129 0.0653409 16711746
5.5001817 -5.6152487 -0.7807648 16711746
5.7733998 -6.9095058 0.5848117 16711746
3.7202580 -4.7229466 -0.8165956 16711746
0.6711181 -5.5919094 0.6333112 16711746
5.3683019 -5.2792468 -1.0915953 16711746
3.6407499 -4.7672420 -0.5293934 16711746
4.0010428 -6.4885163 1.3228712 16711746
4.6291537 -7.1037745 1.1097848 16711746
0.3018835 -5.5902081 0.6558465 16711746
1.2725687 -4.3351111 1.4159920 16711746
2.3461637 -7.0272593 1.4549125 16711746
0.5831325 -5.9299459 1.1673092 16711746
2.8070700 -6.3914070 1.7202629 16711746
-1.9150367 -7.1790686 -0.3373130 16711746
2.2516448 -5.6002188 -0.0516009 16711746
3.9995430 -5.5977626 1.2260649 16711746
-1.8159271 -7.1621680 0.9790595 16711746
1.3513488 -4.4941278 1.4157045 16711746
1.8285658 -5.8699489 1.4183449 16711746
2.5219710 -5.3811383 0.9683092 16711746
5.6806555 -4.5765057 -0.6279197 16711746
3.9341216 -6.4364905 -0.0519809 16711746
3.6644757 -4.4861903 -0.8696240 16711746
3.9787931 -4.9182463 -1.2629387 16711746
0.3480448 -4.4790483 0.6038094 16711746
0.1548471 -5.5928431 0.2580991 16711746
5.0386157 -8.3333673 0.9446383 16711746
-1.0644859 -4.4087377 0.3614577 16711746
-0.6355625 -4.5087333 0.1394731 16711746
4.5212679 -5.2725949 -0.7220742 16711746
4.1205678 -5.3815198 -0.8151638 16711746
0.7367612 -5.1084414 0.8217723 16711746
0.2827082 -5.9328060 1.2845417 16711746
4.4258385 -4.7964001 -1.0452057 16711746
2.7841849 -4.2544937 -0.7347249 16711746
3.0637872 -6.4181757 -0.0801895 16711746
3.3606923 -6.1662765 -0.2718192 16711746
0.4145132 -6.0584426 1.1504633 16711746
-1.0457882 -5.0198116 0.2793533 16711746
-0.7360262 -4.6940184 1.0481545 16711746
3.6320875 -4.3024774 0.9147946 16711746
0.2685261 -5.4222784 0.6822289 16711746
-1.1885732 -7.8742194 0.6030999 16711746
-1.1928267 -4.7424507 0.5189160 16711746
3.3036594 -4.2160735 -0.6504356 16711746
0.8521327 -7.2964072 -0.6059545 16711746
5.4873147 -4.9096675 -0.2997921 16711746
1.5024024 -4.9936242 1.3299360 16711746
-0.5514155 -5.1801267 0.7268683 16711746
-0.0140645 -5.3784456 0.3277624 16711746
3.7938218 -4.6440172 -0.4219483 16711746
4.2064152 -6.8270454 -0.1144569 16711746
6.9394994 -5.9269552 -3.2558868 16711746
0.3416718 -6.0153317 2.1243446 16711746
0.0745263 -5.4967647 1.8067503 16711746
2.4032047 -5.2307982 0.9766248 16711746
2.9228721 -7.6956806 1.7417028 16711746
3.8443532 -6.4591527 1.4293272 16711746
1.6767029 -5.2337656 -0.2799102 16711746
-1.9590003 -6.5471029 0.5909061 16711746
-1.3027694 -5.0315781 0.4050038 16711746
3.3671839 -6.8324671 -0.1741734 16711746
-1.9146078 -6.2683220 1.2817515 16711746
-1.3449762 -5.1015334 1.1555061 16711746
2.3202775 -5.7412920 -0.1311626 16711746
0.8794191 -5.8450499 0.7347802 16711746
2.6893551 -6.2857409 0.4253703 16711746
-1.3545080 -5.1082416 0.4700250 16711746
0.3031843 -6.6908650 0.2820829 16711746
0.4735126 -5.5120993 0.8013690 16711746
-2.5510683 -5.4085474 1.2131850 16711746
-0.0186798 -3.9626353 0.1688690 16711746
3.3803272 -4.2134724 0.5477044 16711746
4.1560211 -6.7305460 -0.1202575 16711746
0.7144523 -5.2096553 0.5512857 16711746
2.9279830 -7.5251794 -0.3446268 16711746
1.8085074 -5.9208875 0.4691339 16711746
2.5075369 -5.0807004 -1.1040183 16711746
4.8839889 -6.4103127 1.9138042 16711746
1.2155594 -4.0207696 0.4959760 16711746
0.2857006 -5.4027734 0.6765283 16711746
1.5210737 -4.7732105 1.1358222 16711746
1.3985438 -5.2245140 0.7549967 16711746
2.5371945 -7.5042896 0.2062459 16711746
-1.9042511 -5.8089480 0.5968977 16711746
0.2704840 -3.9586143 0.7217754 16711746
-0.9124835 -4.6046987 0.8507065 16711746
-0.9413615 -4.9562263 0.7609631 16711746
-0.8160585 -5.5515223 0.9899837 16711746
-1.1743413 -4.6461191 0.2633977 16711746
-0.7669520 -4.4330277 0.6140795 16711746
-1.3219943 -5.0481763 0.4725063 16711746
4.8197212 -4.8525496 -0.3817701 16711746
1.0015544 -4.7817545 0.9826362 16711746
8.1111040 -5.6239228 -3.2461488 16711746
5.3648806 -4.7401414 -0.9879577 16711746
1.0880972 -3.8805614 -0.0871925 16711746
0.2769567 -5.9499855 1.3205986 16711746
7.0730510 -5.5079832 0.7752632 16711746
1.3662300 -4.5851746 1.3382508 16711746
6.9415603 -9.3116341 4.2647934 16711746
6.4335036 -7.0460129 0.9122733 16711746
5.9611006 -7.4449735 1.9212427 16711746
5.9290228 -6.3163972 0.0224798 16711746
-2.3444328 -5.0296345 2.1682913 16711746
9.2126961 -10.1565619 4.1165299 16711746
-2.9262612 -7.6417103 3.3165870 16711746
4.8288488 -9.8485270 2.0546758 16711746
8.1068373 -8.4539042 2.0132248 16711746
6.6463113 -5.4279299 0.7232993 16711746
6.9153299 -9.2365541 4.2536306 16711746
6.3223772 -11.7527246 2.3200893 16711746
3.3282733 -9.5922070 3.2106376 16711746
1.3395803 -16.7198219 3.7527492 16711746
5.9827724 -4.3522768 -0.2628180 16711746
0.8851029 -8.0027533 3.5385029 16711746
3.3092508 -4.0635285 1.3100687 16711746
6.0923758 -5.0857053 0.7756496 16711746
5.7773771 -7.6649637 1.9159950 16711746
6.3908167 -5.1117940 0.3810514 16711746
3.5742369 -11.6528406 -2.2435577 16711746
6.3165855 -4.9640679 -0.0702645 16711746
2.9733772 -6.0142522 -0.3722600 16711746
3.6931193 -6.4375014 -0.2438948 16711746
-1.1419342 -4.2241206 1.3259350 16711746
3.0630069 -3.7147522 -0.3526795 16711746
2.5246150 -4.5631199 0.8022299 16711746
0.6094657 -5.1526189 0.7031747 16711746
3.0099816 -6.3290138 -0.0495325 16711746
0.3755631 -5.7494226 1.0968091 16711746
1.4811232 -3.9673486 -0.4683871 16711746
2.2559016 -6.3152728 -0.4772373 16711746
0.4789648 -3.7584550 -0.0359858 16711746
0.0019138 -5.5511618 0.2986418 16711746
0.4057586 -6.6436548 0.6437176 16711746
1.5736266 -4.1444449 -0.5865810 16711746
3.1058588 -3.5636015 -0.2127323 16711746
0.5570773 -3.6911983 0.7177671 16711746
0.2274617 -3.7692764 0.5483119 16711746
0.5763643 -4.6252203 0.7172166 16711746
0.1806469 -5.4737468 0.6780108 16711746
0.6178612 -5.2124100 0.6920687 16711746
2.4665425 -4.6192122 -0.5566429 16711746
1.9551654 -6.2538080 0.1907384 16711746
-1.9192483 -5.0696096 0.0076416 16711746
1.7126946 -4.7960930 0.1553260 16711746
-1.2617918 -4.8658395 0.3068527 16711746
0.3654708 -5.6882577 0.8902535 16711746
3.0321658 -3.6797395 -0.6066089 16711746
2.6074531 -5.8920002 1.0745503 16711746
2.0161750 -2.8284414 0.7083662 16711746
2.6052229 -6.0631337 0.3375190 16711746
0.2649762 -5.1351404 0.7243896 16711746
1.3824662 -4.8656974 0.5057730 16711746
0.5437602 -3.6242311 0.7301024 16711746
2.9922776 -4.1471853 1.1667885 16711746
1.6842853 -7.7287898 -0.9007825 16711746
2.8396349 -4.4047656 -1.0126085 16711746
0.1953839 -5.0537419 0.4983467 16711746
-1.6205755 -5.9547725 1.0917829 16711746
0.9844087 -4.0246143 0.9373767 16711746
4.4155040 -4.7476444 0.1734180 16711746
0.4698114 -4.8884950 0.6919701 16711746
0.7295720 -5.0656300 0.8366014 16711746
2.1777663 -3.6725111 -0.3008974 16711746
2.0646760 -3.5408678 -0.3622774 16711746
0.5422665 -4.1680074 0.0327959 16711746
0.2997670 -3.7650228 0.5055744 16711746
-1.2459586 -4.8056555 0.7040101 16711746
0.0136677 -7.7058301 -0.4543940 16711746
-1.7664444 -4.9747586 0.2020006 16711746
3.3992264 -3.5216556 0.3269055 16711746
2.4425313 -6.3388786 -0.7300396 16711746
2.7701709 -4.6797109 1.1417558 16711746
2.4571850 -4.2733660 1.5251077 16711746
1.1734142 -4.7215257 0.7283356 16711746
0.3684751 -4.0645056 0.2656010 16711746
0.0549489 -4.7425294 0.7737611 16711746
0.1916760 -3.7732329 0.4788287 16711746
3.4806988 -5.8475947 0.5011208 16711746
3.1376202 -6.0786738 -0.2822536 16711746
0.7553459 -5.0562406 1.7106656 16711746
3.0337849 -6.3822947 -0.6455925 16711746
2.7779677 -6.2200017 -0.2137874 16711746
3.8322587 -7.8747382 2.3300252 16711746
3.0297334 -6.0899320 -0.3926129 16711746
3.5959241 -6.1332035 -0.1678304 16711746
5.4402981 -7.3098450 1.9279661 16711746
5.8081684 -7.5773878 1.2149190 16711746
4.9220214 -7.7982793 1.4866385 16711746
4.3819904 -7.0577507 1.3278569 16711746
3.0440676 -5.8863120 -0.1606146 16711746
3.9990678 -6.7020102 -0.3307143 16711746
0.2981927 -5.4714861 0.6675440 16711746
7.8594623 -8.7756939 3.6447327 16711746
0.6149815 -4.7204213 0.6759332 16711746
-0.5213569 -5.7349548 0.9787004 16711746
4.7015972 -5.5381522 -0.8562763 16711746
4.0097318 -6.7690873 -0.7985472 16711746
8.3544178 -8.8901320 2.3111539 16711746
9.7541199 -6.2457952 -1.1876869 16711746
7.2923083 -7.2531672 1.1588010 16711746
3.3085320 -6.4982481 -0.3760633 16711746
7.9981384 -8.5286436 0.1715546 16711746
0.4810716 -6.0465178 0.4212423 16711746
0.7725681 -5.5927558 0.5025424 16711746
0.5427431 -6.9212327 2.6837647 16711746
-1.1670238 -5.9869571 1.6806164 16711746
3.9735749 -7.4558916 1.0926380 16711746
-1.4311385 -5.2698231 0.1743357 16711746
4.5924258 -4.9758081 -1.1456803 16711746
-1.2713166 -7.7193232 3.2774408 16711746
8.8896837 -6.8529916 0.4830165 16711746
0.5491878 -4.3863459 0.6803156 16711746
0.3508320 -6.2072020 2.1276963 16711746
3.3193128 -6.7860589 1.8832575 16711746
9.7575445 -10.1359081 2.5232093 16711746
-2.2557971 -4.8617525 2.1380303 16711746
14.1769924 -9.1849518 3.3667743 16711746
5.8151150 -6.7963147 3.0504861 16711746
3.8522480 -5.2152085 -0.6559612 16711746
7.2429218 -10.4438238 3.7690318 16711746
1.2004265 -13.0082960 4.7277751 16711746
2.3065650 -6.6987000 1.0571097 16711746
3.1489069 -4.8428307 -0.4457215 16711746
3.1981905 -3.1725445 -0.1562443 16711746
0.1215320 -3.7408445 0.8538822 16711746
-0.0627864 -2.4060977 1.6663440 16711746
-0.0626741 -2.4029236 1.6641291 16711746
1.1618488 -2.5848141 0.7222256 16711746
-0.4531571 -2.7965467 1.9237164 16711746
-0.0074031 -2.0695288 1.5416127 16711746
-0.0338420 -2.1624978 1.4509704 16711746
-1.4864645 -5.3377094 1.4538151 16711746
1.3669496 -4.8863530 0.5039877 16711746
5.3845105 -4.3830495 -1.2611296 16711746
1.0156360 -5.0837145 0.7476370 16711746
1.3031172 -3.6585839 1.2140239 16711746
0.1162559 -3.6668141 1.3316386 16711746
2.9849253 -4.0524349 -0.7791026 16711746
4.3650999 -4.5681829 -0.7315370 16711746
7.8998437 -5.3184075 -0.6467277 16711746
5.7171955 -8.0625553 1.3075188 16711746
7.7335496 -4.9426694 -0.8259812 16711746
1.6938502 -6.1940894 -0.3408949 16711746
4.7129149 -3.9171619 -1.0251343 16711746
1.2882162 -6.4148059 -0.5710511 16711746
5.4297047 -5.6215119 -0.7748472 16711746
-1.1549008 -6.0951333 1.3181742 16711746
0.9407479 -5.3800411 -0.1895966 16711746
7.8739867 -9.0984478 0.7465678 16711746
-1.4976442 -12.0954828 -2.0180225 16711746
7.8910408 -8.8377523 1.2296044 16711746
16.9396114 -17.3581333 6.2925081 16711746
6.0461559 -6.0904322 0.9826697 16711746
-4.7684760 -10.1673927 3.1579506 16711746
7.5395761 -5.8478584 0.9044820 16711746
0.0568571 -2.3719046 1.6094590 16711746
8.6781387 -10.1422100 0.6466626 16711746
4.5105944 -16.7214546 3.9687202 16711746
-0.5454256 -3.6830750 0.8949733 16711746
8.5501928 -16.3047466 3.5414002 16711746
-1.5132759 -15.2716322 0.0275418 16711746
11.0483618 -19.9488163 3.9544129 16711746
6.5342846 -8.2333403 1.3124472 16711746
-2.0906830 -19.0815945 -0.3134266 16711746
6.0431218 -3.8639216 0.2699215 16711746
5.5294313 -4.2349267 0.0251941 16711746
4.7902703 -7.4902334 1.1208987 16711746
-5.1951246 -16.2185955 7.1808529 16711746
-5.0650921 -15.8365860 7.0390763 16711746
-1.2503989 -14.1417799 5.8567767 16711746
4.5149727 -4.2251225 -0.0753970 16711746
-8.9671230 -16.2701530 6.1853042 16711746
4.7103119 -13.0465918 5.8650222 16711746
7.8712873 -7.2122779 -0.4888417 16711746
7.1584435 -8.7633390 2.2961318 16711746
5.0448380 -5.5948896 -0.4697976 16711746
9.5337524 -11.4645367 3.1897385 16711746
6.1660938 -5.1011386 0.7414507 16711746
13.2471409 -23.5741844 4.8450537 16711746
3.1605034 -2.9407718 0.7237079 16711746
-3.5407994 -14.3891153 6.1201758 16711746
12.4437580 -8.5971298 0.5051171 16711746
0.0108766 -6.2254491 0.5951006 16711746
-1.7329756 -11.6104498 0.5221909 16711746
0.1892126 -6.8533692 0.0999282 16711746
6.6068063 -7.4060612 1.4882697 16711746
8.1641216 -9.4253416 1.9892050 16711746
12.5497665 -12.7186785 2.9793622 16711746
5.6568542 -10.9726639 2.3950269 16711746
10.3891525 -16.4844303 4.8200340 16711746
10.0164804 -13.3111820 1.9595569 16711746
8.0040398 -9.4970798 1.4516126 16711746
5.8455863 -12.6260309 2.1894727 16711746
7.9490504 -11.5775909 4.3910489 16711746
1.4013349 -3.6596272 1.7817703 16711746
12.2401199 -14.7172709 3.8555880 16711746
12.4871435 -17.4612446 5.9355388 16711746
9.1644211 -10.2536659 -0.5601605 16711746
3.4496763 -11.4597397 -3.0897224 16711746
3.3114057 -11.0680790 -3.1417639 16711746
11.8261271 -13.4646807 1.2107807 16711746
3.6721053 -11.7998962 -3.1862562 16711746
8.4703760 -5.4456830 -0.3303087 16711746
10.6534624 -10.3949871 1.8084333 16711746
1.5323669 -6.1910772 -0.0954509 16711746
4.1057129 -9.2381516 2.3610365 16711746
0.9758309 -4.7575269 0.4522638 16711746
9.3074274 -11.9885168 5.6756506 16711746
9.4304876 -10.7709684 0.6808051 16711746
8.9535322 -11.4836407 2.2062235 16711746
13.3896637 -18.6102810 6.1845875 16711746
7.7806330 -11.2395859 4.2005959 16711746
8.5346918 -10.7423172 1.9755210 16711746
13.2032490 -12.2102327 1.1206508 16711746
13.5741320 -22.1037407 1.6772715 16711746
-1.7714852 -12.5787210 0.2871262 16711746
6.8951497 -6.9871945 0.6803921 16711746
7.5765147 -5.8452353 0.9069793 16711746
7.5198889 -7.4193850 1.1356783 16711746
2.2040205 -9.7409363 4.3200812 16711746
7.1282911 -5.7797127 0.7872491 16711746
2.1181402 -5.5044174 1.3403999 16711746
5.8498168 -16.5122623 -2.5975428 16711746
-0.2094983 -3.7605598 1.2704751 16711746
-0.1880819 -6.7469225 0.6659708 16711746
-0.3169577 -7.7188072 -0.1375895 16711746
-1.4028900 -6.3390932 1.3452330 16711746
2.0900950 -5.2270799 0.5972775 16711746
2.3772578 -5.4504986 0.3043354 16711746
0.6262504 -4.9061904 0.2208861 16711746
3.6892717 -3.7728930 -0.1369536 16711746
1.1121081 -5.7462835 -0.0049018 16711746
1.7977291 -4.5154085 1.4596477 16711746
1.8796911 -4.7990918 0.5234921 16711746
1.4124439 -5.0086975 0.1768333 16711746
-0.8928688 -5.4994793 1.2994730 16711746
2.5555553 -5.5299573 0.5849210 16711746
-1.6884853 -6.0865531 0.3140731 16711746
-1.0290550 -6.6200233 -0.1902186 16711746
3.1990256 -5.8862224 -0.0121702 16711746
2.0510783 -4.6378937 -0.1550682 16711746
1.7592907 -5.5211134 0.2460027 16711746
-2.6257694 -6.4854021 0.7869108 16711746
2.4742899 -5.8975739 0.0842642 16711746
1.8552117 -5.9391356 1.5107068 16711746
1.7983714 -4.5519495 1.1396930 16711746
-1.1180056 -6.8598619 0.2197103 16711746
1.1523985 -3.3612785 0.6258041 16711746
2.0076737 -5.8084188 -0.0761382 16711746
2.7365232 -5.8041825 0.6430256 16711746
-0.6824284 -7.7351975 1.0289216 16711746
-2.9666383 -7.5616813 0.4403439 16711746
0.7984759 -4.3553972 1.2503875 16711746
1.5289598 -5.2712765 0.1766649 16711746
-1.1572218 -6.7887650 0.2689987 16711746
-3.1555080 -6.6376200 0.7421039 16711746
-2.8597090 -7.5064530 1.4665511 16711746
-1.9181600 -7.8091841 -0.6835411 16711746
-1.4151500 -5.9074368 0.3647457 16711746
-1.1708713 -5.6765633 1.0376287 16711746
-2.4264591 -8.8975840 0.4924423 16711746
-2.5851657 -6.3551908 0.8301576 16711746
1.8622082 -4.0123887 0.3616292 16711746
-2.2074931 -7.3737206 2.3176053 16711746
2.1672039 -4.6878352 1.7301983 16711746
2.1591623 -6.7479129 -0.4336148 16711746
-1.7860664 -6.8046341 1.5599774 16711746
1.1919340 -5.5280714 0.8292599 16711746
1.1100347 -5.9623332 0.8506950 16711746
-2.3778133 -5.9322257 0.9165576 16711746
-1.1561941 -5.7917657 1.1545355 16711746
-1.4846957 -5.8461051 1.1250165 16711746
-3.2877324 -7.9769359 1.1728493 16711746
-3.4280956 -7.4145823 0.7340500 16711746
-2.1919479 -8.1364002 0.6265087 16711746
-0.1275198 -5.2936792 0.1579506 16711746
-1.1409209 -5.6543589 0.6923828 16711746
2.7520487 -5.8940163 0.6549321 16711746
0.8603424 -4.0584826 1.3043876 16711746
0.8746916 -4.5176959 1.4809873 16711746
1.7301741 -4.1700134 0.1323751 16711746
-4.5559702 -10.5386353 0.8394344 16711746
0.9905269 -5.2100449 1.4242299 16711746
-1.3401372 -6.7679749 1.1647046 16711746
-1.3115335 -5.6931238 1.3654959 16711746
-1.6850737 -8.2756739 0.7366909 16711746
-3.4577949 -10.6605215 0.4327582 16711746
-0.8392137 -7.9495482 1.2220104 16711746
-1.7953160 -7.1469116 2.0184085 16711746
-4.7568574 -7.1782508 1.6097891 16711746
-3.1957943 -7.3060365 1.8350600 16711746
-1.0987329 -5.8749900 0.4083962 16711746
-0.0102893 -4.7058077 0.5843772 16711746
-1.0267292 -5.7294278 0.7731184 16711746
-0.3144325 -8.0092001 -0.2068493 16711746
-2.1786685 -5.3664169 1.2326918 16711746
-2.5082304 -5.4718237 1.0031406 16711746
1.0683906 -5.9702272 1.0335325 16711746
1.5330093 -7.4183955 0.5222600 16711746
2.2794030 -4.4262047 0.1129917 16711746
2.1336355 -8.3844995 -0.3087826 16711746
-0.5199405 -5.4199934 1.3186588 16711746
-3.0928864 -6.3873210 0.5623215 16711746
12.0399265 -16.8407497 5.7770734 16711746
