# .PCD v0.7 - Point Cloud Data file format
VERSION 0.7
FIELDS x y z rgb
SIZE 4 4 4 4
TYPE F F F F
COUNT 1 1 1 1
WIDTH 1191
HEIGHT 1
VIEWPOINT 0 0 0 1 0 0 0
POINTS 1191
DATA ascii
-6.8188515 -11.527317 4.3572164 16711746
-6.7597742 -11.429413 4.3396835 16711746
3.377178 -17.477026 7.1206498 16711746
6.7979894 -17.906639 8.355052 16711746
2.2530904 -15.519891 7.0343752 16711746
4.6051717 -10.968034 2.4744711 16711746
-14.800514 -15.726645 15.958999 16711746
13.334903 -23.18795 6.6713228 16711746
4.9304776 -15.330216 7.809701 16711746
6.579576 -23.550804 10.391319 16711746
-6.9269361 -15.751863 3.9300337 16711746
5.575665 -15.844923 6.7447205 16711746
-5.7504191 -13.201592 8.8273363 16711746
-9.5116844 -11.162008 5.5884986 16711746
-11.675274 -12.622095 14.986131 16711746
-5.8961735 -12.318107 9.1490612 16711746
3.3309898 -16.015812 10.754318 16711746
2.509305 -22.550341 14.770899 16711746
0.68110305 -12.072009 3.4521554 16711746
10.206268 -13.233958 3.0983419 16711746
-0.4080756 -10.330995 2.5404842 16711746
12.208235 -16.922871 9.2747993 16711746
-8.0240231 -14.388203 9.8725204 16711746
-8.5109472 -11.679642 5.5824509 16711746
3.6924949 -11.970984 0.75807923 16711746
8.518301 -15.998125 6.8745065 16711746
10.384265 -16.576958 10.738696 16711746
7.9349627 -16.671436 6.0339189 16711746
9.9578886 -12.514581 8.2615776 16711746
5.0625715 -14.475984 5.2126803 16711746
12.938168 -16.060312 10.553307 16711746
8.3448114 -16.02972 9.0590801 16711746
3.5610969 -21.377687 5.2974153 16711746
-25.102604 -16.704588 12.123454 16711746
-10.430209 -10.907478 7.4566226 16711746
-7.3013248 -14.587299 10.468576 16711746
11.701714 -14.573486 8.513195 16711746
16.503819 -14.462655 6.6426735 16711746
1.4682156 -11.842021 1.1977092 16711746
20.790173 -14.808893 11.664959 16711746
7.3679824 -11.36556 3.6586373 16711746
-4.9457846 -12.779251 4.0911441 16711746
19.905355 -15.253789 12.919946 16711746
19.938736 -15.553667 16.971659 16711746
3.3385303 -15.903767 5.4795108 16711746
-4.3232923 -12.928115 7.5904818 16711746
13.071351 -18.165281 9.27705 16711746
20.907019 -19.523628 15.655337 16711746
7.0022783 -15.429355 4.4355764 16711746
9.2492876 -14.827454 3.5804842 16711746
11.125607 -18.505459 15.254025 16711746
20.00635 -16.981125 11.853789 16711746
-2.9770112 -16.085196 3.1546254 16711746
1.0775131 -2.3096972 2.3381481 16711746
-26.909044 -20.711014 26.401857 16711746
14.451598 -15.060842 7.3853264 16711746
6.6113701 -13.076936 5.4364038 16711746
-4.1269188 -10.418031 3.74037 16711746
-13.68908 -12.377539 6.2501731 16711746
-3.4033477 -10.053474 3.0335422 16711746
8.0698633 -12.051363 9.0047903 16711746
-10.985632 -13.1585 8.3471251 16711746
-12.338284 -13.435381 4.3796411 16711746
-1.6654035 -11.967921 6.3552399 16711746
0.42671171 -13.938868 12.231797 16711746
-3.408097 -8.987855 3.0617635 16711746
-5.7271867 -17.397324 4.9871678 16711746
-7.2963796 -17.336842 10.644605 16711746
-0.67931461 -11.22606 2.2035975 16711746
-8.380064 -15.180549 9.5414896 16711746
-0.6048162 -14.635574 3.3021436 16711746
-7.8883042 -15.685308 4.5915666 16711746
3.0914869 -15.794535 3.0316505 16711746
12.209419 -16.872375 9.7273397 16711746
4.9026704 -17.837307 7.1817141 16711746
13.664327 -19.211924 10.71289 16711746
11.69102 -19.688475 10.847753 16711746
2.5356324 -9.7117176 1.5267668 16711746
-1.8177803 -13.346627 3.2315712 16711746
5.4342132 -12.765544 3.3124838 16711746
-1.5839649 -17.603991 5.8464866 16711746
-2.9617958 -17.849041 4.3583112 16711746
4.7489648 -14.636157 4.4487047 16711746
2.2391536 -17.825724 3.4059556 16711746
6.7071357 -18.137812 7.8928685 16711746
9.9153032 -13.626962 3.4026151 16711746
7.0245099 -17.151585 1.2091993 16711746
-2.9085553 -12.876745 5.1833234 16711746
12.413197 -20.620201 9.1715679 16711746
11.128243 -18.213465 6.9652839 16711746
-8.1637239 -14.909265 5.1553526 16711746
-11.550332 -15.074088 10.415539 16711746
-7.9804349 -14.774425 1.3553431 16711746
9.8929129 -19.171812 9.3086596 16711746
-7.9088631 -13.603854 2.4469965 16711746
3.9463031 -16.867958 2.7296937 16711746
3.7443323 -15.948707 6.862133 16711746
22.577555 -21.514006 15.518652 16711746
20.892822 -19.829908 14.45012 16711746
-8.7418537 -20.690281 13.514359 16711746
1.7927574 -16.005135 5.5806861 16711746
-1.795236 -14.474964 5.2572436 16711746
4.6604724 -14.490836 6.3441806 16711746
-0.088676684 -15.815239 8.0734024 16711746
6.2783871 -12.239246 6.3456674 16711746
1.9556271 -16.92135 17.316555 16711746
1.8703148 -13.69747 7.395678 16711746
5.8571715 -16.448627 14.826495 16711746
5.1965694 -16.841772 17.995567 16711746
17.148949 -15.983562 11.897759 16711746
-2.4114757 -16.232893 3.8287601 16711746
-11.97996 -18.407883 10.627548 16711746
-2.267982 -13.835723 2.3992884 16711746
-6.3241701 -20.952988 3.2809949 16711746
6.1864643 -17.765392 7.7020674 16711746
6.1611214 -17.562836 6.3258991 16711746
10.173889 -17.062111 10.036613 16711746
-0.16333783 -14.453674 2.0969973 16711746
12.719891 -16.822296 9.7716055 16711746
12.788375 -16.148365 9.1647959 16711746
4.6263933 -18.101622 14.048015 16711746
4.4191809 -16.705524 4.0420947 16711746
-5.3634415 -16.765587 2.5518866 16711746
5.5629902 -18.715664 19.852404 16711746
4.5930119 -18.61939 5.9518652 16711746
14.658409 -21.39307 4.7181482 16711746
13.079157 -28.845501 11.426218 16711746
-8.971221 -15.849035 9.1895905 16711746
2.0199878 -4.7272763 4.8772144 16711746
9.4559345 -17.697643 8.7764893 16711746
5.4728136 -16.041189 5.4717999 16711746
15.189672 -15.871035 4.5784564 16711746
0.1505311 -16.553024 3.034919 16711746
8.1713638 -18.176628 2.5968926 16711746
8.1909552 -17.041933 6.1128826 16711746
11.414696 -20.443302 16.40354 16711746
8.3529654 -13.352481 10.727471 16711746
12.933953 -17.090776 11.151908 16711746
13.32637 -15.698792 11.85261 16711746
8.3142433 -19.505594 13.39736 16711746
-13.9122 -20.673908 6.5972967 16711746
-4.9635558 -24.529701 4.5142145 16711746
12.429708 -16.888102 5.2956991 16711746
-14.904298 -32.01088 -1.0443124 16711746
5.6303864 -21.313948 13.328963 16711746
8.4098358 -18.963482 8.2308617 16711746
10.058596 -19.57115 10.013252 16711746
7.2837763 -12.451613 1.3785025 16711746
3.2312317 -20.737925 6.4014297 16711746
4.9202418 -16.680162 3.2873206 16711746
3.6644483 -19.827061 9.7249842 16711746
-14.702024 -20.672529 1.7524248 16711746
-9.4835815 -24.709703 0.049176242 16711746
-9.2409477 -20.210003 4.4014244 16711746
3.7653334 -20.975712 9.2580729 16711746
14.437063 -16.173409 11.329861 16711746
-5.4450645 -21.425896 3.0680573 16711746
3.2898362 -19.162643 5.0869398 16711746
1.9222623 -17.31509 7.6239381 16711746
17.303549 -12.63977 6.7337465 16711746
2.1443152 -20.516857 10.128113 16711746
-0.48710099 -23.643196 19.381697 16711746
-9.7800398 -24.211405 0.66344833 16711746
12.433105 -11.115941 6.8075223 16711746
9.9011097 -19.005243 6.2109346 16711746
-15.394844 -19.428169 7.1896262 16711746
15.31348 -15.468299 3.6658947 16711746
18.678171 -15.669772 11.170142 16711746
0.035399944 -15.813034 4.3254666 16711746
-11.833953 -30.601885 8.1413078 16711746
7.709549 -13.812601 5.0224133 16711746
13.158834 -15.863562 8.5941572 16711746
3.7394867 -20.52354 9.9976473 16711746
3.2717419 -18.032507 9.8736849 16711746
-8.3827524 -20.87689 2.6286294 16711746
-8.0876179 -19.888781 2.0995243 16711746
13.593643 -15.115128 10.723407 16711746
3.2636418 -19.133623 5.015028 16711746
11.035343 -14.200942 9.679431 16711746
6.9101877 -16.113989 9.8184061 16711746
13.676503 -14.834229 13.016271 16711746
6.117229 -21.26021 8.8950863 16711746
-7.499526 -18.782236 2.1423466 16711746
8.5256281 -14.732744 4.8042154 16711746
8.909708 -17.413334 5.3878975 16711746
4.5943117 -16.27957 4.5875597 16711746
6.0252461 -17.402624 10.133502 16711746
4.5815582 -21.509529 9.8841228 16711746
3.4472668 -18.115036 9.84307 16711746
-4.2582884 -21.843954 8.3796902 16711746
17.137108 -12.486448 6.7294393 16711746
14.457321 -15.295995 9.7612629 16711746
-0.29659024 -17.443451 8.6207514 16711746
0.14475074 -17.274746 1.6027868 16711746
4.1595521 -19.876484 7.8733783 16711746
-6.0608888 -23.026598 6.672008 16711746
9.454977 -20.724018 0.43891141 16711746
7.8658466 -18.423605 8.8044577 16711746
-2.0200984 -20.03783 4.9256802 16711746
14.090557 -14.450197 5.1574302 16711746
-7.8532662 -22.772793 1.5247525 16711746
7.1101499 -16.720373 10.190966 16711746
8.9078016 -15.745909 10.158134 16711746
9.3780918 -12.452069 1.9923519 16711746
6.0914106 -14.267552 3.5638824 16711746
6.0766368 -18.491238 5.7892385 16711746
0.12666367 -18.789465 9.8869247 16711746
3.7866137 -20.899921 10.110537 16711746
-7.3650689 -21.704811 2.5289621 16711746
-9.0984144 -20.351707 2.2369559 16711746
14.23406 -14.76612 5.2689409 16711746
12.58411 -15.45985 11.786583 16711746
7.4165754 -16.267776 4.4815912 16711746
6.1409955 -14.53631 3.580092 16711746
-12.311496 -21.798983 7.2124104 16711746
7.2011271 -17.501177 5.3087049 16711746
8.1273766 -19.614286 11.557044 16711746
6.2448254 -17.618738 13.113173 16711746
8.6262512 -16.740831 9.0633688 16711746
-8.8257284 -24.730959 1.3241076 16711746
13.525196 -12.164808 5.2834268 16711746
-6.6032696 -20.060249 2.7477927 16711746
-7.2908978 -24.439131 8.8504934 16711746
-0.86876667 -18.31879 0.93057579 16711746
3.9077773 -19.91643 9.5888281 16711746
4.4198542 -16.151295 6.1073871 16711746
15.077602 -22.654577 4.7553115 16711746
-10.832441 -19.941544 3.7323956 16711746
16.828499 -15.928173 11.705291 16711746
2.9080145 -20.901409 8.6412153 16711746
9.7465887 -9.9548531 3.5725968 16711746
10.261774 -20.020393 8.6215515 16711746
4.2454672 -15.066909 2.1256771 16711746
-0.8208676 -22.400743 15.088504 16711746
1.9019114 -18.105085 17.444359 16711746
13.573002 -16.29306 8.2730427 16711746
16.736341 -13.336432 8.61936 16711746
6.9392095 -16.741743 12.147701 16711746
-14.872995 -16.211708 7.3546162 16711746
4.9767075 -14.410014 5.626687 16711746
1.0036989 -13.776714 1.2085263 16711746
4.8995962 -16.051497 5.457675 16711746
-25.193386 -21.801229 22.154509 16711746
-6.3068175 -15.862872 9.556407 16711746
-6.6266351 -17.593504 5.6149235 16711746
9.2599707 -15.50593 11.022895 16711746
14.106384 -29.164604 8.7945366 16711746
8.9039326 -16.170649 12.52485 16711746
8.6705599 -13.776276 9.6986217 16711746
1.6996815 -14.849113 5.0337696 16711746
10.597652 -13.749129 7.1515269 16711746
9.7308998 -31.684233 -1.2534578 16711746
-10.471319 -12.778634 4.2922249 16711746
-0.32260934 -15.668498 12.478728 16711746
7.4658508 -15.497523 8.534071 16711746
5.1347094 -12.071191 7.022192 16711746
2.479568 -13.384695 2.8617871 16711746
-20.751724 -18.226593 3.1571863 16711746
4.0690546 -12.285163 4.7413273 16711746
13.557893 -11.729798 3.9317861 16711746
-6.411962 -21.307673 8.430419 16711746
-3.0214422 -17.689589 2.6523871 16711746
7.7984872 -20.950069 10.531752 16711746
-13.697328 -22.872116 0.44992238 16711746
-14.096943 -20.387491 2.09198 16711746
-13.496485 -22.654728 6.1328764 16711746
-7.3015413 -26.582796 3.1010611 16711746
4.2851582 -13.090928 2.4541612 16711746
-11.601658 -24.554016 4.2401118 16711746
4.5682607 -14.247848 2.6378505 16711746
-6.9544659 -18.555096 6.717401 16711746
-11.481995 -20.450401 6.0658188 16711746
9.4704914 -18.447266 11.642576 16711746
1.8779376 -21.062519 7.9526024 16711746
4.6904001 -15.354173 3.6912639 16711746
-7.4408846 -19.01339 6.5286174 16711746
2.1448905 -15.99298 7.3541341 16711746
-21.907839 -24.786299 6.3161011 16711746
9.7718401 -18.61846 13.873091 16711746
8.2671909 -17.891882 8.3468876 16711746
6.8051286 -14.805444 8.6955233 16711746
-2.2888246 -17.914682 11.760327 16711746
5.0948472 -15.314265 4.1565585 16711746
-2.8976707 -24.024822 24.1061 16711746
1.4300511 -16.148924 7.3699346 16711746
7.2605429 -15.483658 9.1269464 16711746
-5.1735239 -14.932716 1.1519929 16711746
14.309603 -17.909498 15.518693 16711746
-4.402276 -13.878111 1.3521446 16711746
7.6239419 -20.031727 5.6176987 16711746
-23.495447 -26.475468 15.502765 16711746
-0.74993026 -27.205807 18.811499 16711746
-13.537989 -20.423254 9.961791 16711746
5.6607585 -26.906153 7.1072583 16711746
-3.1997092 -25.17996 22.149342 16711746
-12.916283 -16.120064 4.6812253 16711746
7.5505013 -19.537373 5.3850446 16711746
7.3668995 -24.099394 9.2976093 16711746
14.784452 -31.794411 8.8227406 16711746
-16.648352 -20.936129 0.81006616 16711746
7.2848911 -17.354 7.8637404 16711746
-17.083076 -20.670963 5.1832466 16711746
12.458774 -23.956749 18.505312 16711746
5.9109654 -17.681715 4.9046731 16711746
-7.2251449 -16.429001 2.0265496 16711746
-8.6035633 -17.696175 2.5203123 16711746
4.2726336 -18.129721 2.7424529 16711746
6.8381968 -23.113689 3.9561327 16711746
8.6652107 -14.128167 4.5538774 16711746
-8.429388 -17.297815 2.6874793 16711746
10.447426 -20.557367 12.691648 16711746
11.809951 -25.832058 12.297116 16711746
-17.048409 -20.276657 5.5356045 16711746
-10.974279 -17.824575 2.1654768 16711746
1.0207422 -18.511238 1.2316908 16711746
1.544746 -19.940224 7.4067535 16711746
-6.9109879 -19.966398 2.4904408 16711746
4.5656228 -23.711639 6.9830217 16711746
9.0239611 -32.346489 18.002813 16711746
-2.2178481 -14.767715 3.4755244 16711746
-6.4241886 -17.217827 6.7448258 16711746
-1.0456438 -22.683372 2.2502909 16711746
-3.5325911 -18.107292 2.6357949 16711746
-0.71985674 -15.089537 4.6008606 16711746
12.762119 -23.293625 17.504234 16711746
-9.4379787 -17.089443 10.111364 16711746
-11.550565 -18.361073 3.0610979 16711746
2.5277991 -30.216909 18.711893 16711746
-16.708933 -18.138706 7.8723345 16711746
33.11755 -29.853958 26.461658 16711746
-26.312943 -21.608326 10.029859 16711746
-1.123947 -14.54309 10.571774 16711746
7.0947065 -16.155415 6.4628716 16711746
14.475474 -17.044237 12.891888 16711746
10.031883 -14.807487 13.139297 16711746
20.014109 -20.251431 11.315001 16711746
8.2711744 -16.420694 11.845862 16711746
23.505884 -26.91901 30.882914 16711746
10.467169 -22.628656 20.883013 16711746
17.993189 -16.429667 6.1367698 16711746
4.1460109 -13.997053 5.5288591 16711746
9.8366203 -36.283298 26.92642 16711746
7.2810831 -12.431653 5.9628377 16711746
-26.866522 -22.768064 26.684805 16711746
2.3230996 -18.94101 18.743876 16711746
21.099663 -23.258991 27.568748 16711746
15.288487 -12.371427 2.9949133 16711746
-3.4145875 -14.729262 7.9878321 16711746
-13.154517 -23.78484 14.973246 16711746
4.3386555 -17.930283 4.2032061 16711746
11.612751 -24.182142 14.487743 16711746
-26.252218 -25.487034 12.179027 16711746
-11.148066 -19.545458 3.9672074 16711746
9.4897051 -24.297483 6.4790053 16711746
4.7993231 -17.20252 3.4741514 16711746
-35.396271 -29.756987 11.744948 16711746
15.153006 -23.642025 8.94034 16711746
2.2987628 -19.574642 1.947542 16711746
2.2442496 -19.642498 5.4286036 16711746
-9.9412994 -16.760376 0.56321019 16711746
1.4663671 -17.472134 8.8991909 16711746
2.3207638 -16.623499 2.2245853 16711746
-1.8116863 -19.755049 7.5589228 16711746
-3.6536653 -17.000277 2.4231164 16711746
-0.73154151 -16.739702 7.3880377 16711746
2.7567346 -19.986643 1.4716103 16711746
-3.6645656 -19.361198 1.0653112 16711746
4.1214161 -16.993208 2.7757831 16711746
1.7108516 -19.363117 6.3041615 16711746
10.556236 -14.745033 3.4968197 16711746
6.5969868 -17.828907 2.3738029 16711746
1.546299 -21.076176 6.809186 16711746
-13.884811 -21.405655 5.2901807 16711746
12.475946 -18.624413 9.1609135 16711746
5.2488923 -26.799664 10.395104 16711746
0.9542731 -17.714853 8.9057598 16711746
19.005703 -18.295559 4.7927256 16711746
-0.92041403 -21.382341 10.881645 16711746
4.4287229 -20.877876 3.3475621 16711746
-4.6840143 -17.795845 2.8897209 16711746
5.3091497 -19.42993 5.7151461 16711746
-0.92097723 -20.741278 10.669086 16711746
-10.728889 -28.059566 3.8500693 16711746
-0.6790598 -20.192278 10.384942 16711746
-11.486456 -15.419846 1.74307 16711746
7.0823441 -21.836281 7.0477014 16711746
9.5828438 -18.753145 1.098358 16711746
-11.503202 -26.907804 2.6585357 16711746
2.7349601 -20.17527 9.0898428 16711746
9.3209009 -26.627676 6.0914502 16711746
5.271811 -20.837908 4.9475083 16711746
-10.060748 -14.967492 1.0583249 16711746
-2.0358808 -26.199701 10.401904 16711746
11.441318 -25.127209 6.7708879 16711746
-6.7188363 -16.028641 1.265497 16711746
1.9004848 -25.782309 4.6761022 16711746
-12.094547 -25.75795 5.529645 16711746
4.9219322 -13.522497 15.318968 16711746
-18.033878 -20.642183 3.9293468 16711746
13.117668 -24.982098 6.2554646 16711746
3.8181739 -18.140673 4.3998981 16711746
-7.4190979 -21.573248 2.6809127 16711746
5.7685142 -26.697342 4.9953704 16711746
-3.9402564 -21.246962 11.165256 16711746
5.6327972 -7.975472 8.1444626 16711746
9.2916889 -18.771067 11.899167 16711746
3.4544749 -19.546658 8.1070681 16711746
-6.7202797 -25.539589 22.616583 16711746
16.165358 -25.366549 23.525658 16711746
4.8532395 -16.895733 5.2457066 16711746
-13.37792 -20.986418 16.187103 16711746
12.613314 -19.590509 7.3518715 16711746
-0.61695647 -16.49966 9.0363894 16711746
0.1499709 -14.961133 6.6003866 16711746
16.563829 -25.886028 21.491613 16711746
1.3393885 -14.113034 7.4407701 16711746
31.736334 -24.899967 26.727673 16711746
-4.8124118 -15.02179 5.6212878 16711746
0.37013838 -16.043507 6.1115561 16711746
9.8914385 -14.93927 1.8330573 16711746
1.93495 -17.67996 4.5344305 16711746
2.4547577 -17.18918 2.6598518 16711746
3.7223384 -12.633465 2.4565773 16711746
7.8394518 -16.566748 3.4436922 16711746
2.9728909 -15.677154 7.1520023 16711746
-11.057316 -13.781377 3.3558047 16711746
3.946923 -15.796375 3.9461236 16711746
4.1626177 -14.801085 3.3223698 16711746
-2.8818579 -15.366672 8.1356268 16711746
2.2087808 -15.17415 4.9799051 16711746
4.0502372 -14.053987 8.5807114 16711746
8.9931259 -15.06397 4.2504268 16711746
2.5740771 -16.602724 4.4397497 16711746
5.4306693 -13.679277 2.78512 16711746
7.9762454 -14.459708 4.8930588 16711746
3.8101401 -13.165788 2.4079828 16711746
2.2398193 -14.182784 7.9976916 16711746
4.8924408 -12.982899 2.77391 16711746
-3.247817 -14.868292 8.4534712 16711746
1.2774627 -11.581661 6.1567097 16711746
1.2091495 -13.535643 4.0514932 16711746
-0.75598925 -15.329116 6.5462236 16711746
0.43947831 -15.050512 5.6911721 16711746
2.1136365 -8.6800203 9.0328627 16711746
5.4714537 -14.186466 2.7626946 16711746
4.6850271 -15.199372 5.5029716 16711746
0.40469947 -17.058224 5.5873628 16711746
9.2301102 -13.709573 2.0238726 16711746
0.16240613 -15.516063 1.5895032 16711746
6.7885084 -14.618402 3.3849828 16711746
3.5520704 -17.516047 5.175694 16711746
1.5987204 -13.663121 6.2568097 16711746
1.0855728 -15.964933 4.8753462 16711746
5.3249688 -16.242666 8.4421244 16711746
8.0555525 -14.339279 1.9988521 16711746
7.1269798 -14.334311 3.0888426 16711746
3.6861289 -20.417372 4.7913628 16711746
-1.6663233 -10.671918 11.900181 16711746
3.1438484 -13.289447 3.9574935 16711746
0.25598943 -8.5944996 3.8967974 16711746
1.7315331 -10.753592 5.6268439 16711746
1.7465457 -13.66599 3.8468208 16711746
4.9489899 -20.800838 7.0577416 16711746
-6.586081 -19.831593 8.4103489 16711746
15.717263 -25.333488 8.4655628 16711746
5.3527832 -15.810228 3.0235136 16711746
5.9112072 -19.959911 6.3594685 16711746
14.175042 -27.509304 11.751781 16711746
3.4908462 -27.245094 6.5320406 16711746
6.6099734 -25.526661 9.1823664 16711746
5.0294986 -13.534286 10.712427 16711746
5.8818212 -21.340662 7.6069436 16711746
9.2881641 -21.061295 11.342132 16711746
-17.837339 -22.668526 4.0230861 16711746
-7.9274263 -16.77993 10.206093 16711746
5.3591266 -19.319332 6.295228 16711746
-12.93462 -18.912674 2.1207192 16711746
11.058832 -23.488724 5.9513774 16711746
14.730679 -22.98175 10.572279 16711746
5.5013728 -27.278803 10.317372 16711746
-3.7408302 -18.860209 2.9177647 16711746
-10.482415 -15.551044 0.93546164 16711746
-3.1577141 -28.498173 15.809037 16711746
-3.587122 -22.914352 12.955849 16711746
12.342764 -19.783646 4.4310083 16711746
9.1948528 -27.480825 11.435713 16711746
13.345925 -21.588291 4.5233979 16711746
-3.8053627 -19.098825 2.8999622 16711746
26.829144 -28.11191 3.5113411 16711746
-7.2381115 -29.812609 23.106712 16711746
-13.51282 -17.127054 6.6971755 16711746
-15.871123 -14.76423 2.6688602 16711746
-27.143103 -23.224621 23.281418 16711746
8.103116 -20.166668 5.1690192 16711746
-2.4878514 -15.840028 3.2010713 16711746
5.603013 -21.347446 8.0573301 16711746
10.300632 -16.051472 3.8191056 16711746
0.056181785 -20.961309 8.1665287 16711746
3.8898256 -17.006485 12.273319 16711746
-6.4611964 -22.668411 22.191315 16711746
0.69202626 -16.682241 7.2549429 16711746
-0.17165546 -13.176556 4.5405874 16711746
-8.5814524 -15.908603 5.4413085 16711746
25.363995 -30.928728 26.867001 16711746
10.957887 -20.136002 15.880492 16711746
-4.4426136 -13.803373 1.4840522 16711746
16.788555 -15.949353 6.2961502 16711746
-2.3574009 -18.829649 9.1675024 16711746
11.324847 -15.844072 7.8243532 16711746
34.6315 -64.807007 40.237724 16711746
19.486679 -20.59989 10.875688 16711746
18.497969 -19.375736 10.566745 16711746
21.28018 -18.106989 16.342794 16711746
24.575148 -27.376238 32.240734 16711746
-2.5432019 -8.08776 3.1307817 16711746
-9.4320917 -19.587294 9.0658045 16711746
5.6478672 -21.837711 9.3122435 16711746
8.8950987 -21.750959 6.5258989 16711746
-7.8291407 -25.806526 14.249081 16711746
-2.1213121 -18.151237 7.8735576 16711746
8.5582352 -16.051384 9.592721 16711746
-11.713585 -18.512112 -0.20201057 16711746
9.5206032 -19.106445 12.116585 16711746
3.6775253 -19.880142 5.3792696 16711746
-11.418255 -19.765589 4.0613613 16711746
8.2141171 -17.733953 9.9763937 16711746
-5.0025377 -23.473433 18.661707 16711746
-19.30114 -23.230604 15.399645 16711746
-9.5308657 -17.052378 3.9315109 16711746
10.921547 -17.462582 8.320528 16711746
12.906595 -18.030439 7.9974747 16711746
3.7871058 -19.638144 8.0476036 16711746
-5.0957417 -24.034445 19.031069 16711746
3.5763814 -17.026049 10.198731 16711746
15.6166 -14.8187 6.547678 16711746
7.4917183 -17.412441 5.9039063 16711746
9.8579454 -28.488098 5.5573606 16711746
4.9529753 -20.079918 12.155336 16711746
0.35707015 -15.449863 4.8738871 16711746
12.052443 -16.322077 7.5161328 16711746
20.537846 -19.657663 13.699966 16711746
3.2087514 -18.391773 4.5740008 16711746
3.1769958 -19.155024 3.2674806 16711746
0.97263873 -17.054544 4.7950001 16711746
6.1034369 -19.68145 7.508204 16711746
5.6608315 -17.046585 3.8853741 16711746
8.2901411 -17.67968 3.4051428 16711746
-0.041039146 -11.240131 4.2805319 16711746
-1.1477371 -17.12859 11.293602 16711746
3.4070826 -17.084423 5.8541813 16711746
2.2451673 -13.976115 5.2281308 16711746
0.68553042 -16.185026 8.8079309 16711746
-1.3780768 -17.961817 9.2491379 16711746
5.4834375 -15.948833 4.1042104 16711746
11.701349 -24.435085 6.4354644 16711746
3.2957757 -21.985439 6.1566453 16711746
0.074761443 -15.266624 7.7483888 16711746
-2.4848647 -20.048693 11.056623 16711746
3.381392 -19.914101 3.0476847 16711746
6.0369987 -18.689774 5.8388181 16711746
4.6907396 -13.234138 2.7910483 16711746
4.0888424 -12.526944 2.6680229 16711746
4.1167064 -14.886164 3.3115468 16711746
11.433445 -18.065714 4.4029808 16711746
-2.310262 -18.542198 7.9994817 16711746
3.2633312 -19.534122 8.044878 16711746
1.2062215 -21.001602 5.8717093 16711746
11.978333 -16.311323 4.2473502 16711746
9.7423687 -26.995127 11.493843 16711746
19.874519 -19.493858 7.4953799 16711746
5.9634156 -23.586767 9.7350712 16711746
-6.8770261 -20.302925 7.6122303 16711746
5.925724 -17.885685 3.8977122 16711746
17.954098 -30.682882 14.66785 16711746
4.9410281 -16.679947 3.5668936 16711746
-6.5895839 -22.699335 7.3695292 16711746
10.715421 -33.754036 12.263203 16711746
-4.0945654 -19.187511 6.1236262 16711746
16.679148 -31.121571 9.5625896 16711746
-7.9901843 -15.590787 2.1714876 16711746
24.37258 -21.888565 6.3212132 16711746
-18.266365 -21.864189 15.569857 16711746
-0.96486056 -13.815153 3.9030986 16711746
13.598914 -18.975529 5.5838718 16711746
-13.622926 -16.814777 10.769773 16711746
-10.503164 -18.69047 12.859224 16711746
-1.2665393 -18.267862 10.844923 16711746
2.4895847 -24.687759 24.726715 16711746
-12.083869 -22.839499 19.340633 16711746
-5.3909259 -5.2604833 2.3515022 16711746
-10.875614 -28.357317 29.264629 16711746
10.332777 -17.49408 15.18418 16711746
18.325649 -19.072733 10.437936 16711746
0.29734731 -14.450279 4.2274704 16711746
-4.6525116 -12.787895 11.252155 16711746
2.9980791 -17.297461 5.6129017 16711746
2.5209899 -17.101864 9.952096 16711746
-0.75110567 -17.027124 7.7050824 16711746
-7.2287025 -22.983091 10.162734 16711746
-1.9425739 -14.481151 8.9537716 16711746
-3.0453601 -11.859403 7.8415971 16711746
5.1818275 -17.622217 4.6132512 16711746
2.1649716 -16.897842 5.22787 16711746
-4.4768004 -17.386887 7.2384634 16711746
-2.6338353 -16.853447 5.6460752 16711746
4.8086696 -20.929497 10.769448 16711746
1.9284499 -14.39022 9.7334824 16711746
4.8566961 -16.154797 4.4793539 16711746
-0.98516089 -12.997948 5.3147449 16711746
-7.3282681 -12.962252 7.421 16711746
5.9112353 -15.574305 3.109745 16711746
-0.82814437 -14.338466 5.0857811 16711746
-1.0445523 -16.434727 6.5570669 16711746
3.1100683 -14.891622 2.2460997 16711746
2.1184626 -17.422134 5.8216667 16711746
-0.70105344 -15.195272 6.3478084 16711746
1.5328845 -16.1012 7.1375704 16711746
2.1110094 -15.379206 3.0823619 16711746
4.0358677 -16.437365 4.8403659 16711746
2.7769666 -16.644478 2.2171185 16711746
-1.8490202 -16.832142 7.1467733 16711746
8.7817707 -22.640951 11.356434 16711746
7.0761294 -18.531841 8.4900141 16711746
3.5821114 -21.286314 11.144347 16711746
4.8963366 -24.15905 15.197739 16711746
-2.1397016 -17.775923 7.3225312 16711746
25.084961 -25.457458 7.021203 16711746
5.3287601 -20.393265 8.9618196 16711746
10.819079 -21.598175 7.3512111 16711746
13.88243 -28.589537 12.241718 16711746
16.197016 -28.998001 9.8793488 16711746
-6.356319 -15.353576 1.3391172 16711746
13.299851 -21.859331 1.6305934 16711746
2.7552261 -4.0715499 5.2845812 16711746
-3.887378 -14.930512 2.4877186 16711746
9.3840065 -22.569807 11.370958 16711746
-12.323023 -19.255526 7.7363281 16711746
-4.7340002 -19.181864 14.802169 16711746
5.9452262 -23.720367 8.7522001 16711746
-13.073238 -19.938646 21.489105 16711746
6.1775036 -14.012464 4.4766517 16711746
16.506702 -27.854565 11.281517 16711746
-2.6680548 -19.920519 9.6494703 16711746
16.188364 -30.064409 16.963167 16711746
6.5708423 -20.112513 7.4040828 16711746
11.945243 -24.945221 3.407073 16711746
0.2374187 -17.865906 5.6672096 16711746
15.446367 -28.987623 16.224632 16711746
26.02001 -25.582033 5.2514787 16711746
-1.9706547 -15.808079 4.8966274 16711746
4.2414918 -26.634892 12.88903 16711746
-5.8101249 -17.895136 8.6716003 16711746
10.302014 -29.324572 12.285442 16711746
-0.39538553 -17.844748 9.3815441 16711746
16.551098 -31.277864 15.921165 16711746
3.3766763 -18.244101 3.5852995 16711746
-0.62165958 -19.740339 10.050744 16711746
-9.4749155 -17.915556 11.088723 16711746
8.4307566 -24.082952 10.570931 16711746
15.57716 -32.735729 13.726256 16711746
-2.3174689 -17.223713 4.1310368 16711746
24.050688 -34.264294 14.08826 16711746
-3.9145508 -20.252384 8.6194048 16711746
-5.6260118 -19.91527 8.7172995 16711746
-4.7108603 -27.23774 17.065283 16711746
-1.8347543 -16.849546 8.610549 16711746
7.9383783 -16.613407 9.8525257 16711746
9.4446697 -16.275848 7.4635029 16711746
-1.768384 -12.788465 5.3395371 16711746
1.1279131 -12.80055 3.5192859 16711746
3.3651891 -12.218994 2.8742611 16711746
-4.6147981 -13.824424 8.3526678 16711746
-5.3983006 -13.132007 9.5180779 16711746
6.7847338 -15.698788 3.0059414 16711746
-0.083934247 -13.909167 4.3669748 16711746
-5.877563 -11.678442 12.201421 16711746
-0.27368346 -10.330406 5.6024833 16711746
1.4804578 -13.069302 3.596277 16711746
5.9741364 -13.157098 3.608484 16711746
-2.756808 -14.00058 8.1453695 16711746
-6.747643 -10.054498 7.6189713 16711746
5.2933993 -22.340124 7.5845981 16711746
-2.5282769 -16.362776 8.0119648 16711746
10.575994 -24.432741 8.5492067 16711746
4.1849647 -16.831938 4.3590546 16711746
5.8303189 -23.454712 8.3962345 16711746
-5.0153275 -20.99136 12.592935 16711746
4.1697969 -17.164087 5.2205367 16711746
-0.21220647 -13.473805 4.6142993 16711746
7.1233854 -29.036226 13.564428 16711746
2.8573411 -21.454069 10.468805 16711746
-5.2720675 -20.604303 11.708997 16711746
2.8894355 -27.984438 16.924845 16711746
2.0411975 -13.33646 2.4517019 16711746
3.6906977 -13.609331 2.9627171 16711746
5.06425 -14.885383 3.7295456 16711746
0.36347237 -12.108104 3.9737182 16711746
-0.8706702 -13.058517 4.6741586 16711746
0.6582408 -11.576937 4.2320099 16711746
0.39488399 -13.280334 4.2606039 16711746
-7.5189767 -10.715893 8.3295965 16711746
-0.53239667 -11.189116 5.2061796 16711746
-6.6422777 -21.625059 14.37965 16711746
-5.5379338 -16.159761 11.322948 16711746
-1.4651382 -19.121119 9.3242836 16711746
-3.2958097 -17.436464 9.1325321 16711746
-5.2810059 -28.852852 17.742188 16711746
-6.7000699 -17.532106 11.76714 16711746
1.983072 -19.382376 7.4162617 16711746
-4.8149934 -16.935091 13.991331 16711746
-9.0513086 -21.362995 13.729089 16711746
-4.5651207 -16.561174 11.786844 16711746
8.8832436 -24.627184 15.219938 16711746
-6.2759008 -14.651646 7.7769322 16711746
-4.574029 -22.172274 12.120098 16711746
-11.118207 -15.173997 11.788351 16711746
16.050249 -24.540634 4.7984471 16711746
11.296953 -26.127966 7.3063974 16711746
5.9470057 -34.320343 12.278217 16711746
17.493343 -31.132103 7.6727066 16711746
5.6317568 -28.879711 18.319551 16711746
-2.7657638 -23.722969 11.965057 16711746
-1.5768718 -13.6043 5.3909659 16711746
1.3783866 -21.29759 2.4482491 16711746
-5.5889106 -18.83086 11.046403 16711746
15.970712 -31.862326 18.401339 16711746
19.791716 -36.074635 16.611065 16711746
7.0077848 -21.106131 7.3619313 16711746
4.7118173 -18.842226 4.0977826 16711746
-2.4315524 -22.763695 11.574699 16711746
2.0698371 -21.146145 4.9957848 16711746
3.5759349 -3.6270065 4.8693342 16711746
-8.4688854 -27.026388 26.120892 16711746
3.5994287 -16.296885 3.5244606 16711746
12.851498 -20.559256 3.9210474 16711746
-1.3812716 -13.748623 4.4560871 16711746
10.69144 -39.608757 24.526587 16711746
-12.847222 -32.771149 33.07407 16711746
8.1143513 -19.956682 7.0008974 16711746
-0.99942839 -20.756092 8.0279999 16711746
-11.487151 -17.988413 10.391006 16711746
-0.93431884 -20.469137 7.9477868 16711746
17.096775 -24.843054 22.797583 16711746
3.5027776 -19.221338 9.5041971 16711746
12.192504 -28.679098 14.989149 16711746
-12.098397 -15.680253 9.5628786 16711746
13.701063 -39.254524 25.416361 16711746
2.1359644 -19.828314 3.0288198 16711746
34.762203 -43.50069 17.445732 16711746
7.1923599 -26.992702 9.5240126 16711746
18.299623 -36.806408 28.103779 16711746
4.3374877 -5.2831087 6.2220893 16711746
21.976326 -22.587917 8.7307215 16711746
13.530043 -21.358017 4.4217854 16711746
-0.57117343 -17.653278 7.7546487 16711746
-0.99602473 -16.829678 6.9480553 16711746
-3.9034548 -19.766701 9.030261 16711746
-11.580907 -21.176262 20.387247 16711746
-2.2491207 -16.823324 7.7845936 16711746
2.1768994 -17.550043 5.24684 16711746
13.398667 -19.768265 4.6679754 16711746
2.2924006 -19.630959 5.4934883 16711746
-4.51156 -19.431429 7.2314072 16711746
-1.1554426 -15.712485 4.2723055 16711746
-5.615696 -12.054546 13.801027 16711746
-7.0182686 -13.119531 14.300894 16711746
6.378674 -31.689817 14.921476 16711746
-8.8122969 -12.050461 4.2969656 16711746
3.3323665 -19.72921 3.0664041 16711746
2.7841468 -22.579567 11.209991 16711746
20.060759 -36.131916 19.21159 16711746
-5.4511051 -20.051329 8.7239504 16711746
-9.6740389 -18.522427 11.229366 16711746
12.145288 -42.393608 25.663563 16711746
14.332234 -32.490803 14.645581 16711746
-4.4705858 -12.466967 5.198041 16711746
1.0117543 -37.363045 34.954102 16711746
-5.6515346 -19.666901 7.848588 16711746
7.1793399 -18.422255 6.9041519 16711746
19.374084 -36.734013 20.373327 16711746
3.3807621 -51.68932 47.249271 16711746
-2.2179987 -32.491032 24.850925 16711746
25.769833 -25.975134 6.3366823 16711746
31.466949 -56.051983 47.428959 16711746
-6.8731046 -15.824819 3.2251058 16711746
6.8483658 -16.943501 6.734046 16711746
11.054765 -19.83918 7.2917676 16711746
12.829855 -30.821863 11.510098 16711746
13.033263 -26.753235 12.624241 16711746
11.476148 -16.224298 1.6814467 16711746
16.524479 -27.663212 10.105915 16711746
-1.7550974 -23.80015 17.218344 16711746
17.614016 -30.367687 12.172268 16711746
-12.336578 -18.761066 9.4573545 16711746
-14.174438 -24.96557 23.325989 16711746
26.336931 -27.695568 6.5666099 16711746
15.708773 -32.345081 15.163329 16711746
-0.61036259 -12.808411 3.9544125 16711746
3.8784137 -13.865559 3.8198225 16711746
5.7700477 -13.336164 3.4343383 16711746
5.0859485 -13.819616 4.0855556 16711746
2.3567111 -14.045959 2.9279985 16711746
6.4111433 -14.781164 3.4404693 16711746
6.7933354 -13.442874 3.2195809 16711746
6.5534267 -13.014025 5.9163556 16711746
7.0343027 -12.368824 3.8860817 16711746
-4.4813395 -18.00322 8.6137285 16711746
-8.2326231 -16.609106 9.2260714 16711746
6.2148733 -20.400131 9.7803993 16711746
-6.6718302 -17.230368 9.5229092 16711746
3.8798256 -25.590332 12.523805 16711746
4.8770533 -14.008208 3.9984987 16711746
8.9499922 -10.136411 5.0767541 16711746
8.8352709 -13.944663 6.3169756 16711746
5.3830266 -8.9252853 5.4907775 16711746
-0.50179338 -21.702173 4.1175008 16711746
18.384693 -34.504822 20.439934 16711746
19.020962 -39.270016 21.329475 16711746
-1.8977194 -16.249201 4.2419896 16711746
-18.861832 -19.587509 5.2512197 16711746
-5.0524592 -17.516712 5.4959445 16711746
0.60578358 -18.164343 5.7613807 16711746
-8.3105879 -15.568143 3.4822855 16711746
14.771159 -29.082085 9.0479612 16711746
-7.6747675 -15.414921 4.5229716 16711746
20.893724 -18.709352 5.8064857 16711746
27.73838 -148.23123 34.553745 16711746
13.488642 -31.069016 28.686255 16711746
-18.944027 -44.493298 -0.055123784 16711746
1.0739906 -11.615158 5.7263079 16711746
12.186886 -25.373949 15.010488 16711746
-17.983738 -16.819939 9.3470345 16711746
-9.4159536 -16.613623 10.178051 16711746
17.908882 -19.822731 9.2253866 16711746
7.3962317 -22.141388 10.311723 16711746
5.5103021 -14.957006 2.709533 16711746
11.702439 -21.61237 9.5347214 16711746
-4.0885897 -16.721352 6.438714 16711746
18.178434 -30.51639 10.613668 16711746
18.146143 -35.073551 12.586986 16711746
11.120401 -19.034399 8.1357384 16711746
10.368236 -18.916611 8.6350279 16711746
-2.6786752 -19.002695 6.5970383 16711746
4.6129255 -16.701185 5.6403284 16711746
-0.76225924 -16.563217 3.1622305 16711746
-1.2713263 -15.879541 5.1225414 16711746
12.112381 -22.275551 9.7055521 16711746
6.9723811 -16.703964 7.1031051 16711746
4.0142131 -16.449402 3.9176264 16711746
5.3862414 -14.197131 2.9046073 16711746
-8.069232 -18.175241 4.3475909 16711746
4.0147333 -16.924887 3.8920252 16711746
-0.11617579 -11.238919 5.4201016 16711746
11.107108 -14.059488 5.5235868 16711746
11.044392 -20.103844 8.6141815 16711746
-6.2235441 -19.171455 6.1677399 16711746
6.9469142 -15.871844 6.952323 16711746
3.6075723 -18.902008 4.8344154 16711746
12.948143 -14.063912 2.1449449 16711746
9.2454672 -15.362932 5.2207241 16711746
-5.3965797 -13.923778 5.1955423 16711746
-6.1104236 -18.832912 2.7409804 16711746
11.259538 -16.369884 13.360938 16711746
-0.41033721 -17.267048 4.7893066 16711746
1.58968 -16.81794 3.5079205 16711746
14.231194 -29.264345 14.824379 16711746
19.818907 -29.434534 15.725628 16711746
-4.6914253 -48.888737 36.747673 16711746
-5.1508355 -19.02417 6.6783152 16711746
-10.342124 -18.845398 2.6600018 16711746
35.898628 -56.478893 51.51379 16711746
13.50578 -16.022831 10.408322 16711746
-0.1399132 -10.765977 4.1795373 16711746
-0.11750275 -10.832109 4.1456108 16711746
7.7094107 -33.260361 27.274162 16711746
47.832809 -118.65261 59.634678 16711746
-19.663719 -22.860634 16.092751 16711746
16.263002 -18.579588 11.769127 16711746
4.7844477 -16.322479 3.3289466 16711746
-3.1717138 -19.567549 8.5556374 16711746
-3.3978853 -20.349375 8.5258417 16711746
10.394765 -13.873442 5.0967231 16711746
7.4158239 -21.389372 11.00561 16711746
7.7734337 -22.254541 11.369892 16711746
-6.1170855 -15.833363 6.7691226 16711746
1.5544591 -25.680586 3.5663912 16711746
4.2730742 -14.15949 2.5233324 16711746
-0.085530914 -13.828676 3.934278 16711746
0.74914199 -16.684412 2.3905666 16711746
5.078474 -14.249337 4.6129913 16711746
10.661485 -15.791334 3.9229658 16711746
-5.1889515 -14.947635 5.3793254 16711746
2.9858875 -15.709683 5.1573558 16711746
3.8539217 -17.376238 2.5391417 16711746
-0.61543113 -12.770955 4.1259298 16711746
-4.5718422 -12.727741 5.2111073 16711746
13.637711 -13.495392 6.7285633 16711746
-2.2495694 -11.093537 5.5194864 16711746
-18.962305 -15.952235 10.570865 16711746
6.3267293 -23.837111 11.807308 16711746
7.098496 -16.44241 4.9267468 16711746
7.3967032 -31.049946 25.479776 16711746
2.5866616 -20.124733 11.309532 16711746
12.172643 -49.830734 40.27121 16711746
16.022909 -25.431267 16.545084 16711746
2.0957046 -4.0170374 5.6875629 16711746
-1.4975344 -9.3252668 4.9422398 16711746
-4.3202558 -16.677372 2.3035045 16711746
-0.18361592 -21.352983 15.585581 16711746
-1.432595 -23.582964 18.841164 16711746
42.577229 -69.743065 62.541969 16711746
31.561773 -54.016407 46.792625 16711746
20.042831 -34.459637 26.050972 16711746
15.11576 -13.084615 4.1867352 16711746
17.792156 -24.342745 0.8810637 16711746
-2.6072843 -14.885822 3.6161933 16711746
25.58308 -40.037514 37.372955 16711746
2.4253974 -8.1236734 5.844183 16711746
-3.3940361 -9.8761759 3.3900313 16711746
-0.33595544 -11.871296 2.8504329 16711746
1.7951587 -13.628544 2.6630175 16711746
2.3478136 -14.344057 4.8273487 16711746
-3.2255354 -12.927342 4.7571259 16711746
-2.9181347 -9.9589834 3.9859028 16711746
6.0200815 -12.936934 2.808538 16711746
1.7418195 -14.579418 2.8069868 16711746
-2.5052891 -11.608841 4.1707745 16711746
7.1465745 -15.953925 8.2035379 16711746
2.3811264 -14.376078 6.6877446 16711746
-4.5386815 -10.946275 4.0175405 16711746
-3.2831421 -10.513371 3.9063647 16711746
1.8440251 -13.86832 4.2166986 16711746
0.44910508 -11.899835 3.3574326 16711746
10.430362 -16.703497 6.1976552 16711746
0.28027219 -12.672819 3.2262523 16711746
1.8249291 -13.729339 2.9509499 16711746
7.4625063 -13.335836 3.8322804 16711746
-1.9709214 -15.990485 6.6090727 16711746
1.6931188 -16.960306 6.5491304 16711746
7.3169603 -18.425362 7.962503 16711746
-1.3779683 -12.192655 3.6915073 16711746
-2.3866847 -14.32302 3.7047303 16711746
-4.3290691 -12.021994 4.1054697 16711746
6.4758391 -13.663941 2.4584873 16711746
2.3349748 -16.838028 6.9102263 16711746
-2.2015901 -11.278011 4.0788932 16711746
12.438262 -23.207544 10.793512 16711746
-5.0755458 -11.561951 3.9603245 16711746
-2.2758737 -11.129093 4.2078528 16711746
-2.4278135 -11.068136 4.2488213 16711746
2.059968 -13.460553 4.178606 16711746
-4.5244694 -11.091609 4.383184 16711746
9.0721893 -14.761312 2.7155995 16711746
13.088042 -14.786407 1.292774 16711746
-1.1341341 -12.708801 3.5621564 16711746
7.902153 -16.646309 7.0978875 16711746
7.7016273 -12.651769 6.194911 16711746
9.254158 -15.168783 2.5876355 16711746
-0.38848844 -12.64084 5.0954766 16711746
-0.71355253 -13.911518 4.6882429 16711746
1.8695399 -17.102192 6.508667 16711746
1.1167297 -14.2238 4.6566291 16711746
0.96771801 -14.755976 4.0782995 16711746
-4.0368776 -11.870553 4.7524066 16711746
9.7356682 -16.94676 5.3019013 16711746
3.2917747 -12.969983 3.6024652 16711746
-1.2686867 -12.161625 3.7885759 16711746
-3.7005873 -13.535653 4.8761826 16711746
-4.3594713 -10.380593 4.4611893 16711746
10.084712 -20.060072 3.5644596 16711746
7.780077 -16.388044 7.0464821 16711746
8.136055 -12.883866 3.3732889 16711746
2.3178537 -15.515575 8.7609091 16711746
5.4234343 -7.6343408 4.4303594 16711746
2.5804346 -17.925631 6.3117414 16711746
1.0234095 -18.156422 4.9801426 16711746
11.770341 -13.471367 6.1550193 16711746
-11.54055 -20.08749 8.6123447 16711746
1.0402639 -18.577209 2.632261 16711746
2.317286 -14.850951 4.8305821 16711746
1.6135852 -20.94735 20.735876 16711746
4.1773977 -16.897835 5.1814713 16711746
4.6108208 -12.818138 3.0861673 16711746
-2.948853 -15.905556 6.674583 16711746
-3.1747186 -17.392832 6.0854292 16711746
0.95197505 -21.021948 2.3256335 16711746
-3.0635934 -16.562897 6.2534938 16711746
7.261838 -16.207647 8.263876 16711746
5.7749429 -15.674202 7.3668513 16711746
12.716678 -16.467669 5.4087276 16711746
9.2136421 -17.025394 4.1773157 16711746
5.4439912 -17.877518 9.306942 16711746
8.8238649 -18.182829 6.2794299 16711746
-8.7294178 -9.3937359 6.9908628 16711746
1.547371 -16.688437 3.9428799 16711746
3.3761568 -10.436597 3.5870848 16711746
-7.9807677 -11.928894 9.5661659 16711746
2.6681998 -20.377802 9.1399059 16711746
8.7852182 -11.305052 5.4313617 16711746
-6.1296778 -14.474978 3.0858827 16711746
4.8123994 -15.273274 3.7885144 16711746
18.005487 -29.007214 19.355854 16711746
2.6890767 -2.857738 5.1556749 16711746
4.9047518 -21.993269 8.7666883 16711746
4.0574474 -20.445648 5.8981862 16711746
4.8780923 -8.240921 8.6397762 16711746
19.477179 -21.222189 1.7904208 16711746
9.1748753 -10.605028 2.5598326 16711746
-19.317541 -18.560551 12.158962 16711746
-15.746392 -15.494326 9.6204433 16711746
18.546705 -28.831331 17.26338 16711746
4.2923446 -11.506393 3.3895938 16711746
3.5377548 -11.940321 3.3050888 16711746
-6.0698237 -14.495166 3.674228 16711746
8.1219587 -17.317148 7.2109232 16711746
-6.7525845 -14.03083 4.2184415 16711746
0.47957459 -12.616085 4.6071367 16711746
0.5256207 -13.795685 3.7796805 16711746
1.7370207 -14.843005 2.7730327 16711746
1.5253379 -14.562893 3.2133179 16711746
5.2530432 -15.842835 7.0059528 16711746
2.8287017 -16.465172 4.8377957 16711746
2.7233088 -17.522236 8.3937111 16711746
0.87681907 -12.973025 2.8765919 16711746
0.10436467 -12.708971 3.6291752 16711746
1.5053853 -14.751745 3.2065744 16711746
-4.9455781 -13.161529 6.8155689 16711746
0.65117586 -18.560991 12.825121 16711746
1.6512661 -13.787717 5.020072 16711746
1.7103878 -15.648923 4.0253401 16711746
-4.2026949 -6.8470206 6.1626768 16711746
3.1796741 -11.711927 3.7461002 16711746
9.6034889 -17.407438 4.1298199 16711746
9.3102112 -10.821157 5.3580713 16711746
-6.9894266 -16.757401 4.2190628 16711746
-0.91259122 -9.720417 5.3563261 16711746
-10.225105 -15.271673 6.4942803 16711746
5.3962531 -10.031879 5.1368318 16711746
-12.14353 -17.78014 7.0281997 16711746
7.0083623 -16.946991 7.0151958 16711746
9.3432064 -17.306986 10.385929 16711746
-3.1001093 -20.108276 9.3751898 16711746
10.934493 -18.80125 11.491198 16711746
-15.344058 -16.906816 7.3743243 16711746
2.373059 -5.2319927 7.3587494 16711746
7.0165157 -21.322845 9.2871552 16711746
6.5656595 -12.965675 3.8825004 16711746
-4.579071 -11.430093 2.5128787 16711746
0.19254206 -11.835952 3.1705623 16711746
2.444437 -2.6328154 5.3115253 16711746
7.581553 -15.767805 6.2262988 16711746
12.37558 -22.063799 8.0342903 16711746
-4.1607895 -14.281936 6.5715113 16711746
12.951728 -20.32663 12.368694 16711746
-13.399611 -17.099436 12.150324 16711746
20.801834 -24.663433 13.745092 16711746
-0.97456604 -12.048858 5.6546574 16711746
7.7998805 -20.822687 10.516656 16711746
-2.6592789 -27.654314 13.116655 16711746
10.762159 -16.949232 16.10018 16711746
22.928957 -25.330593 15.834185 16711746
6.6589527 -16.976009 6.5479093 16711746
7.8399167 -17.795712 8.4766884 16711746
-1.3927692 -15.986444 3.8699577 16711746
-3.8855698 -15.890047 6.0188069 16711746
-0.35950264 -12.941262 3.9292388 16711746
-10.826779 -15.603683 0.88648075 16711746
7.1703157 -19.99481 8.5780973 16711746
9.4362478 -13.060673 14.480074 16711746
7.8079634 -22.322838 9.4018526 16711746
5.0325761 -14.797987 6.6584973 16711746
6.9859095 -19.127487 8.451581 16711746
12.364773 -20.302778 5.5008259 16711746
-4.0095811 -14.813707 4.373354 16711746
-5.4857068 -17.621815 2.9072309 16711746
14.449369 -24.52939 9.1264715 16711746
6.9441652 -14.685053 8.491745 16711746
5.3684139 -19.1938 6.8088465 16711746
-17.75507 -16.781404 10.229982 16711746
8.1830473 -21.344896 2.6063848 16711746
10.071672 -20.195686 6.9958735 16711746
9.3156872 -19.646673 9.7600012 16711746
-7.7123361 -15.891404 8.7180271 16711746
-1.6149397 -13.365517 3.0605533 16711746
3.3342218 -16.835186 3.499047 16711746
-1.8784378 -15.124668 4.235424 16711746
5.1046152 -18.641859 5.5930963 16711746
5.1114945 -16.437344 2.706929 16711746
7.8793526 -17.856247 2.6150255 16711746
-3.3702264 -15.045176 6.3032742 16711746
3.5778682 -18.030766 3.7696385 16711746
1.6144218 -15.954198 3.5976269 16711746
-1.1482476 -15.271929 3.7199068 16711746
-8.2261524 -14.717071 7.9228969 16711746
-4.2755804 -19.026644 6.8556256 16711746
2.2710326 -17.636185 3.2525909 16711746
2.233741 -18.830532 10.824879 16711746
-3.3218393 -12.702346 3.9920473 16711746
5.2148843 -17.994402 4.4158621 16711746
-0.76839328 -15.632656 8.4646797 16711746
-0.50088322 -26.624332 12.969849 16711746
7.5635972 -21.449579 8.9037733 16711746
0.66790181 -21.357273 11.098424 16711746
2.8822191 -17.323496 7.310885 16711746
-20.657385 -29.609974 25.774986 16711746
4.8575678 -3.854352 5.9852419 16711746
0.23042057 -12.56756 3.9956431 16711746
9.5759516 -29.164883 13.399789 16711746
19.456799 -21.236795 4.519743 16711746
16.224596 -19.578058 12.711287 16711746
17.879808 -34.455414 12.09108 16711746
-12.824259 -12.423128 3.2085769 16711746
6.907207 -14.145179 4.8454924 16711746
14.310205 -27.770329 11.708738 16711746
22.880566 -21.828419 1.4974548 16711746
26.933744 -45.985077 4.5422192 16711746
19.134884 -43.966915 24.162413 16711746
63.889145 -92.882866 -9.459837 16711746
1.1615678 -33.802036 26.312166 16711746
4.9620514 -17.886988 16.176386 16711746
-2.1833804 -21.235371 14.81373 16711746
6.7926822 -21.399015 18.21224 16711746
6.1210151 -23.211226 10.748379 16711746
6.918891 -23.432945 14.543701 16711746
0.06493704 -18.504248 16.383062 16711746
-1.3372694 -18.552975 17.45397 16711746
3.7494366 -24.390371 12.952822 16711746
0.086654291 -21.709019 11.446853 16711746
4.8689294 -22.211836 8.6473351 16711746
-1.3854189 -17.287563 11.690431 16711746
-1.2803714 -17.745787 17.054169 16711746
10.055163 -32.490402 17.879606 16711746
11.038903 -33.187622 17.838957 16711746
13.774396 -29.162596 14.525991 16711746
0.40238959 -20.997028 16.443382 16711746
21.730442 -35.104591 20.924986 16711746
-0.86911809 -30.604298 17.771122 16711746
14.937466 -35.865902 19.252228 16711746
18.585741 -37.394886 16.253675 16711746
12.97543 -31.066179 13.687239 16711746
21.94776 -34.288296 19.708925 16711746
8.9544926 -32.219193 21.011538 16711746
14.685935 -33.042751 20.830647 16711746
8.4858294 -32.375305 19.981791 16711746
11.673601 -36.48473 16.055721 16711746
-2.2942135 -16.291698 3.0301166 16711746
10.451649 -41.294216 26.764269 16711746
5.7906675 -28.064211 19.47859 16711746
10.451632 -22.407709 8.6787271 16711746
11.335391 -33.576065 19.375336 16711746
12.281309 -38.75153 20.356955 16711746
21.784277 -36.231461 25.564037 16711746
-1.9226047 -21.045977 10.566593 16711746
4.6671071 -24.816952 11.197956 16711746
-11.215478 -14.732128 4.3761172 16711746
7.4383011 -16.431084 5.4649787 16711746
17.215633 -43.80373 25.341324 16711746
0.052170448 -20.621506 10.76548 16711746
-6.5489874 -16.628771 4.6282105 16711746
0.24571924 -31.071424 20.415716 16711746
16.2789 -34.630516 12.718272 16711746
9.4191065 -28.019089 12.474943 16711746
5.930748 -24.342686 7.3193994 16711746
-2.1476879 -30.360645 22.279308 16711746
10.920079 -26.600811 8.2252121 16711746
8.4935274 -28.694929 14.258811 16711746
2.2398186 -23.565496 6.8051405 16711746
16.195856 -33.575897 18.846651 16711746
-1.2697067 -22.180311 14.912721 16711746
-6.0775857 -21.717335 15.696821 16711746
-0.80466843 -25.003311 17.73851 16711746
13.007474 -30.273142 6.6326594 16711746
15.042401 -33.362354 9.5937185 16711746
5.0951419 -29.420475 17.918804 16711746
6.9144621 -32.368843 15.175181 16711746
14.549864 -33.902714 21.582022 16711746
13.575039 -35.072704 22.866854 16711746
-2.5102448 -23.605688 14.347467 16711746
11.002859 -33.370171 18.005543 16711746
7.9351454 -32.015018 18.881191 16711746
5.3599353 -24.10391 19.070009 16711746
2.5978599 -32.056297 11.973807 16711746
11.710528 -24.38814 7.4618187 16711746
17.086267 -21.421261 6.3301435 16711746
-3.4269335 -20.782238 11.712583 16711746
11.914058 -37.625957 28.4893 16711746
8.2211599 -37.649075 20.676746 16711746
-5.4310241 -31.631237 15.22003 16711746
-1.897186 -17.309967 10.410173 16711746
-6.3806176 -13.119694 4.3721638 16711746
10.979877 -31.657467 27.327381 16711746
