# .PCD v.7 - Point Cloud Data file format
VERSION .7
FIELDS x y z rgb
SIZE 4 4 4 4
TYPE F F F F
COUNT 1 1 1 1
WIDTH 1195
HEIGHT 1
VIEWPOINT 0 0 0 1 0 0 0
POINTS 1195
DATA ascii
0.2855157 -0.0515340 0.9804893 16711746
0.2975697 -0.0419396 0.9734231 16711746
0.2955440 -0.0423434 0.9776182 16711746
0.3008788 -0.0411315 0.9721251 16711746
0.3045308 -0.0478667 0.9779727 16711746
0.3108896 -0.0516626 0.9786329 16711746
0.2981782 -0.0420253 0.9748304 16711746
0.2974607 -0.0418029 0.9730955 16711746
0.2806046 -0.0631212 0.9982851 16711746
0.3081000 -0.0523997 0.9851695 16711746
0.3001394 -0.0422769 0.9768449 16711746
0.3075980 -0.0538614 0.9836388 16711746
0.2954458 -0.0417980 0.9751621 16711746
0.2998177 -0.0415822 0.9724500 16711746
0.2941918 -0.0549131 0.9890513 16711746
0.3071217 -0.0484986 0.9810931 16711746
0.3081495 -0.0431930 0.9818612 16711746
0.3026825 -0.0465975 0.9792077 16711746
0.3097275 -0.0443980 0.9926751 16711746
0.2934367 -0.0438006 0.9749357 16711746
0.2951591 -0.0444895 0.9715111 16711746
0.2937582 -0.0432356 0.9742603 16711746
0.2923475 -0.0426383 0.9763241 16711746
0.2938457 -0.0428888 0.9762734 16711746
0.2918420 -0.0433556 0.9778740 16711746
0.2950013 -0.0416718 0.9732567 16711746
0.2943874 -0.0424366 0.9776837 16711746
0.2970215 -0.0434557 0.9699891 16711746
0.2954291 -0.0443505 0.9708716 16711746
0.2951976 -0.0448924 0.9713544 16711746
0.2951276 -0.0417615 0.9729546 16711746
0.3031618 -0.0426730 0.9718307 16711746
0.2972010 -0.0417826 0.9730161 16711746
0.2993983 -0.0421373 0.9744004 16711746
0.2948045 -0.0433888 0.9771277 16711746
0.2950862 -0.0440951 0.9786041 16711746
0.2946799 -0.0432985 0.9795809 16711746
0.2957277 -0.0416756 0.9740071 16711746
0.3121093 -0.0492485 0.9773799 16711746
0.2951589 -0.0436636 0.9768544 16711746
0.2915791 -0.0422197 0.9750313 16711746
0.2974111 -0.0419347 0.9730583 16711746
0.2942265 -0.0421679 0.9711682 16711746
0.2916408 -0.0439589 0.9799705 16711746
0.2934379 -0.0429257 0.9795097 16711746
0.3073389 -0.0509504 0.9793693 16711746
0.2946725 -0.0419043 0.9743090 16711746
0.3032883 -0.0414949 0.9750909 16711746
0.3071813 -0.0506800 0.9771518 16711746
0.2988498 -0.0419473 0.9747550 16711746
0.2990868 -0.0417590 0.9732682 16711746
0.2989363 -0.0438237 0.9764055 16711746
0.3058615 -0.0439105 0.9789081 16711746
0.3035107 -0.0463211 0.9766408 16711746
0.3128352 -0.0512064 0.9818726 16711746
0.3073247 -0.0539605 0.9829585 16711746
0.2997374 -0.0419472 0.9752914 16711746
0.2916580 -0.0427443 0.9778013 16711746
0.3197483 -0.0430188 0.9884013 16711746
0.3253424 -0.0507428 0.9806557 16711746
0.3188154 -0.0406810 0.9826041 16711746
0.2997608 -0.0417731 0.9733925 16711746
0.2941799 -0.0438819 0.9761285 16711746
0.2924354 -0.0439103 0.9772418 16711746
0.2950096 -0.0445675 0.9713598 16711746
0.2937190 -0.0434077 0.9772440 16711746
0.2984187 -0.0437807 0.9742679 16711746
0.2979726 -0.0434866 0.9751433 16711746
0.2992129 -0.0426823 0.9729876 16711746
0.2952618 -0.0444126 0.9712249 16711746
0.3003113 -0.0422293 0.9753746 16711746
0.2950335 -0.0426880 0.9752717 16711746
0.2987269 -0.0416786 0.9728219 16711746
0.2927054 -0.0436930 0.9754234 16711746
0.2981889 -0.0422074 0.9733536 16711746
0.3054028 -0.0524280 0.9797360 16711746
0.3140097 -0.0511470 0.9814730 16711746
0.3000220 -0.0423117 0.9765754 16711746
0.3050534 -0.0426014 0.9761567 16711746
0.2984473 -0.0418633 0.9740531 16711746
0.3070533 -0.0431844 0.9789851 16711746
0.3099040 -0.0514552 0.9783485 16711746
0.2874558 -0.0553222 0.9843401 16711746
0.3031956 -0.0406992 0.9728280 16711746
0.2989936 -0.0438657 0.9763175 16711746
0.2974364 -0.0424651 0.9730648 16711746
0.3042044 -0.0409786 0.9713755 16711746
0.2929042 -0.0449313 0.9827360 16711746
0.2988702 -0.0432578 0.9762241 16711746
0.2904278 -0.0450307 0.9847465 16711746
0.2991121 -0.0418430 0.9767351 16711746
0.2934662 -0.0424683 0.9749009 16711746
0.3203411 -0.0472057 0.9832379 16711746
0.2967049 -0.0461752 1.0066296 16711746
0.3080375 -0.0519803 0.9777063 16711746
0.3087696 -0.0489034 0.9840543 16711746
0.2997693 -0.0420941 0.9748235 16711746
0.2969018 -0.0449550 0.9905283 16711746
0.3083760 -0.0555804 0.9852589 16711746
0.3079040 -0.0522603 0.9853773 16711746
0.3038021 -0.0424175 0.9790189 16711746
0.3025191 -0.0447053 0.9854655 16711746
0.3000955 -0.0427259 0.9787509 16711746
0.3007898 -0.0451471 1.0028114 16711746
0.2956592 -0.0446154 0.9706015 16711746
0.2944285 -0.0438654 0.9724960 16711746
0.2979704 -0.0430939 0.9721964 16711746
0.3003024 -0.0413200 0.9734372 16711746
0.2970925 -0.0434812 0.9693005 16711746
0.2972164 -0.0420567 0.9722356 16711746
0.2912016 -0.0440780 0.9800333 16711746
0.2985690 -0.0426144 0.9771367 16711746
0.2975696 -0.0430942 0.9724228 16711746
0.2906107 -0.0441043 0.9811411 16711746
0.3032891 -0.0425586 0.9755394 16711746
0.3085457 -0.0446825 0.9729306 16711746
0.3045472 -0.0412378 0.9724568 16711746
0.2977981 -0.0418381 0.9732316 16711746
0.3075347 -0.0512143 0.9768021 16711746
0.2998198 -0.0421403 0.9755371 16711746
0.2893489 -0.0520047 0.9807418 16711746
0.2993709 -0.0419535 0.9735692 16711746
0.2972085 -0.0418462 0.9728213 16711746
0.3022170 -0.0410094 0.9740883 16711746
0.3012889 -0.0445733 0.9906003 16711746
0.3003780 -0.0421412 0.9754949 16711746
0.2938260 -0.0423599 0.9748889 16711746
0.3075998 -0.0512518 0.9792711 16711746
0.2991425 -0.0422911 0.9759168 16711746
0.2862007 -0.0446690 0.9849544 16711746
0.3072473 -0.0520884 0.9789189 16711746
0.3026546 -0.0436461 0.9835789 16711746
0.2946220 -0.0439560 0.9846723 16711746
0.2908034 -0.0421975 0.9762602 16711746
0.3025074 -0.0416373 0.9703712 16711746
0.3040431 -0.0448911 0.9900616 16711746
0.2999270 -0.0449159 0.9982262 16711746
0.3164929 -0.0424744 0.9854842 16711746
0.3103874 -0.0530909 0.9900019 16711746
0.3006973 -0.0443844 0.9689476 16711746
0.2969200 -0.0419445 0.9730488 16711746
0.3009683 -0.0412128 0.9733134 16711746
0.2978346 -0.0422560 0.9740769 16711746
0.3037089 -0.0414747 0.9716954 16711746
0.3047453 -0.0449285 0.9709732 16711746
0.2952429 -0.0420762 0.9731174 16711746
0.2974408 -0.0423795 0.9746396 16711746
0.2992833 -0.0420322 0.9732434 16711746
0.3012488 -0.0432353 0.9790089 16711746
0.2881228 -0.0547079 0.9841602 16711746
0.3028266 -0.0411150 0.9746286 16711746
0.2928799 -0.0425411 0.9751239 16711746
0.3029514 -0.0413937 0.9751714 16711746
0.2929231 -0.0426776 0.9775757 16711746
0.3005838 -0.0440358 0.9761757 16711746
0.3042749 -0.0412361 0.9731696 16711746
0.3001020 -0.0414707 0.9730856 16711746
0.3058097 -0.0481484 0.9732479 16711746
0.3147564 -0.0538396 0.9816099 16711746
0.3007170 -0.0478584 0.9771037 16711746
0.2966330 -0.0422593 0.9765453 16711746
0.3033729 -0.0479624 0.9795859 16711746
0.3027993 -0.0446559 0.9858414 16711746
0.3054714 -0.0421596 0.9794033 16711746
0.2992376 -0.0420971 0.9755942 16711746
0.3015266 -0.0412891 0.9732110 16711746
0.3023864 -0.0423583 0.9731165 16711746
0.2984371 -0.0424670 0.9753646 16711746
0.2978026 -0.0418071 0.9733209 16711746
0.3112262 -0.0503090 0.9800798 16711746
0.2985043 -0.0421771 0.9752808 16711746
0.2975234 -0.0436045 0.9726595 16711746
0.2974047 -0.0426311 0.9731916 16711746
0.2994907 -0.0421254 0.9750621 16711746
0.2991317 -0.0425700 0.9758940 16711746
0.2997604 -0.0420105 0.9755149 16711746
0.2983243 -0.0426441 0.9762558 16711746
0.2980734 -0.0423606 0.9754174 16711746
0.2974601 -0.0422091 0.9742870 16711746
0.3168390 -0.0484238 0.9755357 16711746
0.2968822 -0.0452503 0.9967821 16711746
0.3046510 -0.0418013 0.9735738 16711746
0.2992368 -0.0416747 0.9736089 16711746
0.3007693 -0.0413356 0.9730046 16711746
0.2972455 -0.0418521 0.9730644 16711746
0.2965289 -0.0417411 0.9735885 16711746
0.3024840 -0.0413896 0.9718766 16711746
0.2972396 -0.0417611 0.9733236 16711746
0.3022594 -0.0425762 0.9728241 16711746
0.3013892 -0.0430298 0.9710207 16711746
0.3043911 -0.0412219 0.9720736 16711746
0.2908071 -0.0420665 0.9784739 16711746
0.3014453 -0.0418004 0.9734653 16711746
0.3048599 -0.0418512 0.9715683 16711746
0.3023671 -0.0424372 0.9703257 16711746
0.3055639 -0.0432460 0.9730387 16711746
0.3051623 -0.0411782 0.9724756 16711746
0.3049316 -0.0415458 0.9735253 16711746
0.3017181 -0.0422038 0.9707622 16711746
0.2950090 -0.0437504 0.9788610 16711746
0.3040179 -0.0414920 0.9763514 16711746
0.3078607 -0.0479778 0.9779960 16711746
0.3076992 -0.0418977 0.9785908 16711746
0.3072850 -0.0434182 0.9772209 16711746
0.3042727 -0.0420036 0.9775740 16711746
0.3088814 -0.0430928 0.9776801 16711746
0.3063204 -0.0426661 0.9833174 16711746
0.3058980 -0.0525997 0.9849969 16711746
0.2906722 -0.0457046 0.9919041 16711746
0.3051607 -0.0424684 0.9731956 16711746
0.2994508 -0.0419822 0.9750653 16711746
0.2980777 -0.0423519 0.9753904 16711746
0.2955638 -0.0422562 0.9749667 16711746
0.2972612 -0.0419577 0.9732876 16711746
0.3016714 -0.0415977 0.9705670 16711746
0.3025302 -0.0413354 0.9721784 16711746
0.2942407 -0.0437502 0.9818423 16711746
0.2992448 -0.0418559 0.9753431 16711746
0.2984951 -0.0420869 0.9745983 16711746
0.3084198 -0.0533457 0.9834687 16711746
0.3012323 -0.0427669 0.9783835 16711746
0.3076715 -0.0531331 0.9835579 16711746
0.3099744 -0.0525489 0.9829910 16711746
0.3003539 -0.0453955 0.9739241 16711746
0.3032037 -0.0469492 0.9797644 16711746
0.2991094 -0.0447476 0.9713721 16711746
0.3087790 -0.0421891 0.9747104 16711746
0.2966121 -0.0419006 0.9735823 16711746
0.3038043 -0.0430460 0.9726083 16711746
0.2972146 -0.0419863 0.9745103 16711746
0.2976926 -0.0419899 0.9731343 16711746
0.3048323 -0.0430213 0.9765520 16711746
0.2975960 -0.0423072 0.9726710 16711746
0.3029626 -0.0432008 0.9745116 16711746
0.2944363 -0.0429416 0.9719338 16711746
0.3095341 -0.0458018 0.9727550 16711746
0.3032268 -0.0431911 0.9748173 16711746
0.3061832 -0.0427995 0.9741942 16711746
0.2971064 -0.0418573 0.9750180 16711746
0.2979636 -0.0426503 0.9739504 16711746
0.3049748 -0.0460917 0.9758223 16711746
0.3093888 -0.0440326 0.9763797 16711746
0.2991572 -0.0421483 0.9761200 16711746
0.3092239 -0.0485639 0.9793194 16711746
0.3037477 -0.0417963 0.9762129 16711746
0.3079652 -0.0432977 0.9817054 16711746
0.3005975 -0.0428674 0.9793987 16711746
0.2942403 -0.0451594 0.9950076 16711746
0.3032568 -0.0493715 0.9840707 16711746
0.2957813 -0.0420477 0.9745471 16711746
0.2956884 -0.0420162 0.9741484 16711746
0.3104508 -0.0486550 0.9763719 16711746
0.3160784 -0.0424967 0.9846441 16711746
0.2976499 -0.0424364 0.9742081 16711746
0.2978542 -0.0418265 0.9742325 16711746
0.2976652 -0.0425659 0.9737841 16711746
0.2981755 -0.0435630 0.9729421 16711746
0.2986126 -0.0429606 0.9727677 16711746
0.2976760 -0.0425239 0.9739804 16711746
0.2962258 -0.0419974 0.9745622 16711746
0.3000130 -0.0423179 0.9737734 16711746
0.3038899 -0.0426621 0.9727406 16711746
0.3060313 -0.0521100 0.9812480 16711746
0.2994410 -0.0418806 0.9734533 16711746
0.3029677 -0.0432900 0.9776070 16711746
0.2932504 -0.0430648 0.9806936 16711746
0.3016144 -0.0449340 0.9819295 16711746
0.2978534 -0.0418530 0.9741907 16711746
0.3009897 -0.0429443 0.9795988 16711746
0.2985980 -0.0425871 0.9773052 16711746
0.2996399 -0.0421848 0.9743908 16711746
0.2997344 -0.0421790 0.9752641 16711746
0.3089006 -0.0434505 0.9769536 16711746
0.2987269 -0.0434716 0.9754394 16711746
0.2979183 -0.0421110 0.9747953 16711746
0.3090432 -0.0457180 0.9726958 16711746
0.2909428 -0.0456089 0.9901854 16711746
0.2985874 -0.0421207 0.9743136 16711746
0.3028120 -0.0416456 0.9744912 16711746
0.2976238 -0.0428262 0.9736003 16711746
0.2978528 -0.0426981 0.9746096 16711746
0.2964807 -0.0417181 0.9734353 16711746
0.2965867 -0.0417953 0.9734183 16711746
0.3030720 -0.0422755 0.9707596 16711746
0.2967159 -0.0423831 0.9757473 16711746
0.2964411 -0.0418505 0.9735000 16711746
0.2940027 -0.0428628 0.9724050 16711746
0.2968522 -0.0420085 0.9744005 16711746
0.2976458 -0.0424470 0.9741467 16711746
0.2964253 -0.0421676 0.9740027 16711746
0.2960943 -0.0419463 0.9739179 16711746
0.2988927 -0.0420388 0.9728354 16711746
0.2981092 -0.0419674 0.9744154 16711746
0.2952796 -0.0419625 0.9741538 16711746
0.2974897 -0.0431894 0.9735453 16711746
0.2964886 -0.0424171 0.9733386 16711746
0.2984467 -0.0423973 0.9754509 16711746
0.2942246 -0.0437655 0.9825962 16711746
0.2990285 -0.0420942 0.9749340 16711746
0.2997819 -0.0423325 0.9763613 16711746
0.2955815 -0.0419617 0.9742486 16711746
0.2989902 -0.0419069 0.9732024 16711746
0.2957533 -0.0420073 0.9746922 16711746
0.2980117 -0.0421914 0.9748085 16711746
0.2992614 -0.0420573 0.9729922 16711746
0.2948410 -0.0417865 0.9738652 16711746
0.2990739 -0.0425867 0.9751775 16711746
0.3050090 -0.0428136 0.9744803 16711746
0.2985168 -0.0423945 0.9757443 16711746
0.3160445 -0.0420731 0.9778683 16711746
0.2985114 -0.0421709 0.9754418 16711746
0.2963876 -0.0418474 0.9739841 16711746
0.2990959 -0.0419230 0.9747942 16711746
0.2950773 -0.0446179 0.9804739 16711746
0.2988546 -0.0438210 0.9761319 16711746
0.2985125 -0.0427348 0.9787366 16711746
0.2976864 -0.0424159 0.9734103 16711746
0.2985542 -0.0428128 0.9770476 16711746
0.3021592 -0.0412832 0.9717133 16711746
0.2988733 -0.0419357 0.9738545 16711746
0.3051263 -0.0424930 0.9721116 16711746
0.2960335 -0.0422665 0.9740391 16711746
0.2958552 -0.0421350 0.9746879 16711746
0.3021411 -0.0420468 0.9759784 16711746
0.3102252 -0.0530566 0.9807118 16711746
0.3043878 -0.0419881 0.9775352 16711746
0.3050602 -0.0424477 0.9778610 16711746
0.3003025 -0.0429184 0.9786704 16711746
0.3078772 -0.0430484 0.9791172 16711746
0.3033218 -0.0436899 0.9854760 16711746
0.3018461 -0.0429292 0.9795776 16711746
0.2980193 -0.0421295 0.9751347 16711746
0.3111845 -0.0504792 0.9867800 16711746
0.2971928 -0.0424689 0.9730409 16711746
0.2976460 -0.0422249 0.9729755 16711746
0.2983182 -0.0429746 0.9758564 16711746
0.2985602 -0.0423927 0.9760193 16711746
0.2953395 -0.0441463 0.9793457 16711746
0.2998555 -0.0425804 0.9751750 16711746
0.2984067 -0.0421541 0.9750435 16711746
0.2960905 -0.0418339 0.9731620 16711746
0.2959812 -0.0416845 0.9734762 16711746
0.3000346 -0.0422000 0.9744101 16711746
0.2964168 -0.0418928 0.9743637 16711746
0.2968932 -0.0418589 0.9733015 16711746
0.3010688 -0.0426339 0.9782844 16711746
0.2981772 -0.0424082 0.9771696 16711746
0.2951052 -0.0423039 0.9751039 16711746
0.3024253 -0.0488465 0.9782093 16711746
0.2899162 -0.0440443 0.9835846 16711746
0.2872559 -0.0443660 0.9866105 16711746
0.2933449 -0.0428035 0.9784777 16711746
0.2933280 -0.0428074 0.9785177 16711746
0.3003501 -0.0424460 0.9763153 16711746
0.3009541 -0.0419418 0.9739585 16711746
0.2986252 -0.0420417 0.9739140 16711746
0.3003852 -0.0421711 0.9739726 16711746
0.2988703 -0.0421043 0.9742996 16711746
0.3033218 -0.0521877 0.9825495 16711746
0.2941867 -0.0430620 0.9775000 16711746
0.2997556 -0.0427449 0.9774472 16711746
0.2998430 -0.0425020 0.9756774 16711746
0.2976545 -0.0420877 0.9743875 16711746
0.2943758 -0.0423856 0.9731740 16711746
0.2988172 -0.0422355 0.9751797 16711746
0.3000207 -0.0428318 0.9783090 16711746
0.2932679 -0.0423749 0.9753691 16711746
0.2980946 -0.0423102 0.9760537 16711746
0.3019319 -0.0416863 0.9734608 16711746
0.2938237 -0.0422796 0.9753437 16711746
0.2992150 -0.0423684 0.9757956 16711746
0.3008321 -0.0419360 0.9746248 16711746
0.3091953 -0.0499132 0.9789073 16711746
0.3043917 -0.0428630 0.9748132 16711746
0.3010543 -0.0432146 0.9791601 16711746
0.3002293 -0.0420937 0.9749178 16711746
0.3036959 -0.0414198 0.9716507 16711746
0.3097730 -0.0495768 0.9813860 16711746
0.2913043 -0.0442124 0.9847699 16711746
0.3057061 -0.0436215 0.9787112 16711746
0.3013554 -0.0466645 0.9764583 16711746
0.2948525 -0.0417975 0.9737756 16711746
0.3009635 -0.0419273 0.9726863 16711746
0.2959436 -0.0421649 0.9740308 16711746
0.2976468 -0.0420859 0.9744124 16711746
0.2977267 -0.0426678 0.9757193 16711746
0.2977146 -0.0423871 0.9744595 16711746
0.2949882 -0.0420591 0.9751379 16711746
0.2979918 -0.0423511 0.9742010 16711746
0.2957411 -0.0415918 0.9762461 16711746
0.2939457 -0.0428759 0.9757354 16711746
0.2979803 -0.0425541 0.9732945 16711746
0.2969292 -0.0421528 0.9739369 16711746
0.2976442 -0.0420340 0.9736021 16711746
0.2993879 -0.0419564 0.9732594 16711746
0.2980464 -0.0420851 0.9752697 16711746
0.2979080 -0.0429935 0.9741504 16711746
0.2946153 -0.0418606 0.9743831 16711746
0.2956285 -0.0423999 0.9765860 16711746
0.2978715 -0.0422623 0.9740249 16711746
0.3030127 -0.0439014 0.9791867 16711746
0.2833891 -0.0569235 0.9883690 16711746
0.3036221 -0.0452757 0.9852142 16711746
0.3028017 -0.0493285 0.9821818 16711746
0.2985754 -0.0454222 0.9835085 16711746
0.2986169 -0.0420475 0.9738803 16711746
0.2966387 -0.0418994 0.9735867 16711746
0.2964287 -0.0418015 0.9736207 16711746
0.3018084 -0.0421662 0.9741448 16711746
0.3003786 -0.0423370 0.9743978 16711746
0.2968608 -0.0420687 0.9741014 16711746
0.3004133 -0.0421147 0.9746342 16711746
0.2990310 -0.0423905 0.9754484 16711746
0.3031125 -0.0419809 0.9751804 16711746
0.3036247 -0.0432615 0.9822398 16711746
0.3042795 -0.0418188 0.9719458 16711746
0.3013147 -0.0439868 0.9817221 16711746
0.3031153 -0.0412366 0.9754253 16711746
0.2948984 -0.0418316 0.9737020 16711746
0.2922824 -0.0426977 0.9778233 16711746
0.2919583 -0.0426642 0.9782324 16711746
0.2930264 -0.0425879 0.9771003 16711746
0.3014502 -0.0441146 0.9907287 16711746
0.3046796 -0.0423312 0.9805670 16711746
0.3037826 -0.0424074 0.9796954 16711746
0.3037810 -0.0419051 0.9756727 16711746
0.3036652 -0.0418135 0.9760886 16711746
0.3037917 -0.0417806 0.9762639 16711746
0.3089277 -0.0433515 0.9785717 16711746
0.2924970 -0.0445240 0.9793833 16711746
0.2945850 -0.0429290 0.9776474 16711746
0.2941834 -0.0430130 0.9774964 16711746
0.2950667 -0.0423072 0.9751588 16711746
0.2868018 -0.0443585 0.9830646 16711746
0.3003991 -0.0483281 0.9774866 16711746
0.2978480 -0.0420737 0.9752957 16711746
0.3047898 -0.0415889 0.9732443 16711746
0.2944503 -0.0446020 0.9763278 16711746
0.3040379 -0.0418829 0.9731296 16711746
0.2962483 -0.0423928 0.9737480 16711746
0.2935037 -0.0430751 0.9792545 16711746
0.2958001 -0.0422273 0.9737541 16711746
0.3014022 -0.0430788 0.9801399 16711746
0.2962126 -0.0421595 0.9746130 16711746
0.2986652 -0.0436107 0.9831209 16711746
0.2891847 -0.0445138 0.9814842 16711746
0.2976460 -0.0421122 0.9743100 16711746
0.2985960 -0.0423785 0.9754990 16711746
0.3038335 -0.0422594 0.9744161 16711746
0.3059790 -0.0418962 0.9729949 16711746
0.2998907 -0.0422929 0.9754556 16711746
0.2977815 -0.0423526 0.9766164 16711746
0.2977701 -0.0423645 0.9765780 16711746
0.2899694 -0.0441491 0.9826455 16711746
0.2920438 -0.0427224 0.9778909 16711746
0.3000735 -0.0529660 0.9865404 16711746
0.3008350 -0.0419496 0.9748040 16711746
0.3054624 -0.0539871 0.9846619 16711746
0.2984730 -0.0423297 0.9758267 16711746
0.2976605 -0.0420499 0.9741371 16711746
0.3042202 -0.0427210 0.9788977 16711746
0.2953065 -0.0419699 0.9741332 16711746
0.3124915 -0.0523294 0.9809407 16711746
0.2868714 -0.0445874 0.9841086 16711746
0.3032778 -0.0434019 0.9749543 16711746
0.2890617 -0.0463202 0.9973333 16711746
0.3029904 -0.0418419 0.9761909 16711746
0.3017127 -0.0417614 0.9739301 16711746
0.3082550 -0.0528789 0.9842587 16711746
0.2894077 -0.0433318 0.9826970 16711746
0.3147452 -0.0432086 0.9828821 16711746
0.3015502 -0.0454129 0.9736400 16711746
0.3022496 -0.0416299 0.9743150 16711746
0.2987593 -0.0476645 1.0065072 16711746
0.3024131 -0.0423433 0.9717933 16711746
0.2937859 -0.0431818 0.9795444 16711746
0.2977934 -0.0423282 0.9754811 16711746
0.3019230 -0.0417212 0.9734024 16711746
0.3019360 -0.0421354 0.9756066 16711746
0.2960092 -0.0421921 0.9740224 16711746
0.3006716 -0.0420056 0.9745649 16711746
0.2977507 -0.0427011 0.9756867 16711746
0.2976494 -0.0431727 0.9720217 16711746
0.2976209 -0.0433306 0.9717786 16711746
0.2978148 -0.0427844 0.9742076 16711746
0.2975630 -0.0430988 0.9723563 16711746
0.2986169 -0.0421221 0.9773350 16711746
0.2990808 -0.0441741 0.9752911 16711746
0.3049028 -0.0431566 0.9750304 16711746
0.3002638 -0.0420443 0.9742219 16711746
0.2946215 -0.0580129 0.9990028 16711746
0.3105657 -0.0475860 0.9761794 16711746
0.2986636 -0.0569974 0.9973394 16711746
0.2986540 -0.0421094 0.9745214 16711746
0.3038495 -0.0423200 0.9789775 16711746
0.2994663 -0.0448352 0.9912388 16711746
0.2895894 -0.0432716 0.9829342 16711746
0.2977870 -0.0425978 0.9771338 16711746
0.2963766 -0.0419346 0.9740685 16711746
0.3017885 -0.0430309 0.9813535 16711746
0.3041950 -0.0415190 0.9737184 16711746
0.3025613 -0.0418878 0.9773348 16711746
0.3010921 -0.0422532 0.9767154 16711746
0.3114176 -0.0489746 0.9770262 16711746
0.3003925 -0.0441384 0.9798850 16711746
0.3019044 -0.0535026 0.9895726 16711746
0.3225164 -0.0499817 0.9832432 16711746
0.2987397 -0.0422257 0.9752036 16711746
0.2962134 -0.0417138 0.9742407 16711746
0.2986904 -0.0421650 0.9741306 16711746
0.3030166 -0.0420439 0.9752653 16711746
0.2979956 -0.0421914 0.9744245 16711746
0.2941482 -0.0425379 0.9748425 16711746
0.3029305 -0.0417125 0.9722820 16711746
0.3014279 -0.0427638 0.9724106 16711746
0.3087428 -0.0425397 0.9759390 16711746
0.3030247 -0.0437402 0.9752344 16711746
0.2977533 -0.0424746 0.9741732 16711746
0.3006265 -0.0426871 0.9733530 16711746
0.3002828 -0.0425783 0.9756436 16711746
0.2980246 -0.0426313 0.9770181 16711746
0.3019963 -0.0427734 0.9754636 16711746
0.2986117 -0.0426005 0.9766175 16711746
0.2863864 -0.0544824 0.9866540 16711746
0.2975271 -0.0436322 0.9720845 16711746
0.2982891 -0.0420777 0.9736755 16711746
0.2988131 -0.0435031 0.9820628 16711746
0.3082796 -0.0498440 0.9787788 16711746
0.3035149 -0.0423572 0.9776590 16711746
0.3035668 -0.0423953 0.9791152 16711746
0.3095492 -0.0500543 0.9793448 16711746
0.3180650 -0.0489777 0.9807258 16711746
0.3094230 -0.0538707 0.9859684 16711746
0.3037379 -0.0432493 0.9825015 16711746
0.3084728 -0.0429235 0.9771299 16711746
0.3051425 -0.0420409 0.9751211 16711746
0.3067133 -0.0534931 0.9855224 16711746
0.3077229 -0.0528339 0.9822333 16711746
0.2974170 -0.0423059 0.9757088 16711746
0.3079601 -0.0521241 0.9841375 16711746
0.3072673 -0.0507391 0.9874480 16711746
0.3035169 -0.0418320 0.9744416 16711746
0.3010422 -0.0440521 0.9878611 16711746
0.2943492 -0.0446670 0.9764432 16711746
0.2951967 -0.0428570 0.9734250 16711746
0.2984160 -0.0421107 0.9744818 16711746
0.2985597 -0.0424551 0.9751451 16711746
0.2975464 -0.0436349 0.9720236 16711746
0.2978086 -0.0426951 0.9768547 16711746
0.2987700 -0.0421039 0.9753352 16711746
0.2989998 -0.0419415 0.9759159 16711746
0.2855293 -0.0445779 0.9855250 16711746
0.2988429 -0.0423697 0.9753962 16711746
0.3028862 -0.0420293 0.9738237 16711746
0.2998347 -0.0428505 0.9755300 16711746
0.2902636 -0.0445953 0.9785968 16711746
0.2934626 -0.0431724 0.9803718 16711746
0.3051283 -0.0428820 0.9746850 16711746
0.2993468 -0.0428959 0.9739078 16711746
0.3007258 -0.0440185 0.9741724 16711746
0.2992158 -0.0422005 0.9741780 16711746
0.3041513 -0.0422457 0.9747381 16711746
0.2981794 -0.0424375 0.9768147 16711746
0.3045665 -0.0423529 0.9758609 16711746
0.2998767 -0.0422559 0.9747398 16711746
0.2987136 -0.0491472 0.9806718 16711746
0.3046270 -0.0426076 0.9751799 16711746
0.3011787 -0.0429470 0.9814220 16711746
0.2855876 -0.0446542 0.9855615 16711746
0.3073767 -0.0475932 0.9810379 16711746
0.3010224 -0.0427878 0.9790187 16711746
0.3044063 -0.0422015 0.9744328 16711746
0.3086707 -0.0519305 0.9799507 16711746
0.2987317 -0.0454252 0.9736878 16711746
0.2934381 -0.0433052 0.9762391 16711746
0.2985712 -0.0426996 0.9777049 16711746
0.2965734 -0.0422325 0.9739124 16711746
0.2992824 -0.0425179 0.9763171 16711746
0.3025330 -0.0416336 0.9749390 16711746
0.2988144 -0.0421469 0.9744002 16711746
0.2992634 -0.0427379 0.9770883 16711746
0.2945988 -0.0424919 0.9767146 16711746
0.2924609 -0.0434604 0.9788604 16711746
0.2989848 -0.0423264 0.9745592 16711746
0.2946393 -0.0426000 0.9744884 16711746
0.2965617 -0.0422266 0.9739375 16711746
0.2998713 -0.0422070 0.9768309 16711746
0.2913086 -0.0434730 0.9795892 16711746
0.2904809 -0.0434513 0.9808552 16711746
0.2934838 -0.0435163 0.9776757 16711746
0.2975878 -0.0425814 0.9745689 16711746
0.2937016 -0.0429798 0.9784965 16711746
0.2998114 -0.0427300 0.9776219 16711746
0.2994168 -0.0425422 0.9786308 16711746
0.2986534 -0.0430081 0.9753623 16711746
0.3067194 -0.0437593 0.9796302 16711746
0.2944495 -0.0430523 0.9787551 16711746
0.2959809 -0.0421618 0.9747890 16711746
0.2996919 -0.0425138 0.9758922 16711746
0.2852735 -0.0497405 0.9867328 16711746
0.2977223 -0.0422972 0.9748434 16711746
0.3006381 -0.0428206 0.9771832 16711746
0.2850451 -0.0444452 0.9853081 16711746
0.3110780 -0.0489018 0.9769031 16711746
0.2853306 -0.0555035 0.9858618 16711746
0.2998214 -0.0429003 0.9775252 16711746
0.3124087 -0.0522684 0.9802228 16711746
0.3027306 -0.0430200 0.9799749 16711746
0.3011695 -0.0439845 0.9809330 16711746
0.3026080 -0.0504296 0.9819054 16711746
0.2947091 -0.0425339 0.9764696 16711746
0.3021142 -0.0544079 0.9910685 16711746
0.2986901 -0.0456575 0.9864342 16711746
0.3003288 -0.0425493 0.9773033 16711746
0.2951894 -0.0452348 0.9912497 16711746
0.3114081 -0.0537583 0.9917855 16711746
0.3029539 -0.0421817 0.9763749 16711746
0.2977219 -0.0423422 0.9758323 16711746
0.2942121 -0.0425561 0.9748123 16711746
0.2937210 -0.0426530 0.9756655 16711746
0.2996030 -0.0423142 0.9747258 16711746
0.2991781 -0.0424736 0.9750630 16711746
0.3047162 -0.0452409 0.9758805 16711746
0.2970763 -0.0428143 0.9789621 16711746
0.2948501 -0.0425857 0.9762306 16711746
0.2977390 -0.0423588 0.9746349 16711746
0.2974990 -0.0425469 0.9739785 16711746
0.2959384 -0.0425521 0.9741399 16711746
0.3010836 -0.0425536 0.9775013 16711746
0.3015650 -0.0419575 0.9736103 16711746
0.3021644 -0.0419283 0.9738840 16711746
0.2975334 -0.0424383 0.9761370 16711746
0.3054328 -0.0437424 0.9781431 16711746
0.3063828 -0.0434098 0.9787320 16711746
0.2991933 -0.0422505 0.9747379 16711746
0.3008718 -0.0424788 0.9762323 16711746
0.2960090 -0.0421974 0.9740793 16711746
0.2919143 -0.0433045 0.9784410 16711746
0.2986331 -0.0441624 0.9755367 16711746
0.2954828 -0.0423127 0.9733360 16711746
0.2954870 -0.0423176 0.9733273 16711746
0.3025495 -0.0422818 0.9742411 16711746
0.2900372 -0.0445773 0.9818643 16711746
0.2951269 -0.0421381 0.9748414 16711746
0.2980845 -0.0423285 0.9755382 16711746
0.3228529 -0.0503539 0.9868243 16711746
0.3128698 -0.0521124 0.9825419 16711746
0.3239202 -0.0503214 0.9840090 16711746
0.2853757 -0.0446061 0.9856124 16711746
0.3005712 -0.0425086 0.9750363 16711746
0.2958442 -0.0424014 0.9744669 16711746
0.3019353 -0.0421668 0.9744270 16711746
0.3024428 -0.0428236 0.9755198 16711746
0.2998164 -0.0426375 0.9740741 16711746
0.2999407 -0.0424664 0.9758990 16711746
0.2940381 -0.0425398 0.9755765 16711746
0.2975869 -0.0427599 0.9771073 16711746
0.2980561 -0.0423459 0.9743463 16711746
0.3050959 -0.0422183 0.9745013 16711746
0.2977762 -0.0424406 0.9745018 16711746
0.3026493 -0.0419660 0.9750662 16711746
0.2907794 -0.0445177 0.9811254 16711746
0.2982189 -0.0427380 0.9753679 16711746
0.2981982 -0.0426909 0.9755853 16711746
0.2981924 -0.0426650 0.9757283 16711746
0.3006898 -0.0432314 0.9738631 16711746
0.2930316 -0.0428346 0.9768198 16711746
0.2997783 -0.0424987 0.9758641 16711746
0.3036415 -0.0424421 0.9757866 16711746
0.3032078 -0.0417279 0.9753129 16711746
0.3023917 -0.0423215 0.9761909 16711746
0.3005136 -0.0420962 0.9742437 16711746
0.2958964 -0.0423014 0.9744313 16711746
0.2985940 -0.0428392 0.9757974 16711746
0.3051943 -0.0423316 0.9760692 16711746
0.3017610 -0.0418898 0.9738107 16711746
0.3064552 -0.0419038 0.9754455 16711746
0.2978515 -0.0498718 0.9825872 16711746
0.3077534 -0.0459377 0.9788562 16711746
0.3058705 -0.0434881 0.9782655 16711746
0.3027784 -0.0433686 0.9745954 16711746
0.2965646 -0.0439415 0.9812928 16711746
0.3053933 -0.0419609 0.9752427 16711746
0.3139315 -0.0418439 0.9790655 16711746
0.2982781 -0.0437279 0.9834004 16711746
0.2902831 -0.0432530 0.9807515 16711746
0.3177203 -0.0490624 0.9832720 16711746
0.2984719 -0.0423685 0.9749461 16711746
0.3050021 -0.0579380 0.9954952 16711746
0.2956577 -0.0553271 0.9907800 16711746
0.3194063 -0.0472191 0.9843557 16711746
0.3027848 -0.0476901 0.9775591 16711746
0.2896473 -0.0585905 0.9994479 16711746
0.3081265 -0.0431206 0.9864069 16711746
0.3011497 -0.0419646 0.9742440 16711746
0.3029867 -0.0420358 0.9767340 16711746
0.3001257 -0.0421652 0.9746323 16711746
0.2995566 -0.0425288 0.9753226 16711746
0.3010778 -0.0420204 0.9741162 16711746
0.2950197 -0.0420458 0.9758326 16711746
0.2943083 -0.0419374 0.9760442 16711746
0.3044066 -0.0423018 0.9746304 16711746
0.3029447 -0.0426042 0.9765408 16711746
0.2999864 -0.0424457 0.9743704 16711746
0.3074300 -0.0428075 0.9754150 16711746
0.3020807 -0.0419750 0.9738153 16711746
0.2991330 -0.0425514 0.9750378 16711746
0.3044700 -0.0473200 0.9750073 16711746
0.2996718 -0.0437318 0.9739963 16711746
0.3054692 -0.0473823 0.9763129 16711746
0.2986216 -0.0426106 0.9758170 16711746
0.3033530 -0.0434961 0.9784661 16711746
0.3123988 -0.0504003 0.9783304 16711746
0.3047019 -0.0409419 0.9768419 16711746
0.2974369 -0.0422965 0.9756928 16711746
0.3028183 -0.0433470 0.9802321 16711746
0.3114935 -0.0422892 0.9778872 16711746
0.3083708 -0.0427100 0.9760095 16711746
0.3001456 -0.0427870 0.9752569 16711746
0.2993535 -0.0425009 0.9765989 16711746
0.3049958 -0.0421301 0.9750051 16711746
0.3027685 -0.0425946 0.9776404 16711746
0.2993139 -0.0423827 0.9749286 16711746
0.2971295 -0.0428402 0.9784684 16711746
0.3111811 -0.0422113 0.9775244 16711746
0.3178397 -0.0491216 0.9833599 16711746
0.2987728 -0.0429597 0.9781139 16711746
0.2987162 -0.0430229 0.9775952 16711746
0.2996520 -0.0424264 0.9757461 16711746
0.2939740 -0.0427221 0.9752809 16711746
0.3042411 -0.0516276 0.9823303 16711746
0.3007634 -0.0427516 0.9768629 16711746
0.2945566 -0.0428947 0.9741899 16711746
0.3089378 -0.0518784 0.9839916 16711746
0.3077953 -0.0462423 0.9792721 16711746
0.2973468 -0.0434783 0.9813718 16711746
0.2981937 -0.0425602 0.9761336 16711746
0.2996798 -0.0423481 0.9750410 16711746
0.2973831 -0.0434957 0.9811081 16711746
0.2886333 -0.0522646 0.9822950 16711746
0.2987688 -0.0432907 0.9808300 16711746
0.3042211 -0.0422355 0.9760256 16711746
0.2999815 -0.0424273 0.9752247 16711746
0.3043080 -0.0422110 0.9761224 16711746
0.3079202 -0.0483146 0.9831930 16711746
0.3037759 -0.0420517 0.9752063 16711746
0.3087761 -0.0527430 0.9869459 16711746
0.3094520 -0.0518453 0.9860705 16711746
0.3053782 -0.0435460 0.9829881 16711746
0.3017516 -0.0425815 0.9775012 16711746
0.2958423 -0.0552463 0.9903476 16711746
0.3038845 -0.0428611 0.9731364 16711746
0.3041021 -0.0422152 0.9747834 16711746
0.2983064 -0.0423423 0.9762239 16711746
0.2977382 -0.0424842 0.9763833 16711746
0.2971943 -0.0423726 0.9758040 16711746
0.3003368 -0.0422351 0.9739440 16711746
0.3032541 -0.0422750 0.9731393 16711746
0.3009633 -0.0426345 0.9741601 16711746
0.3019198 -0.0422014 0.9744347 16711746
0.2971359 -0.0428783 0.9781066 16711746
0.2971062 -0.0428670 0.9782164 16711746
0.3022804 -0.0417420 0.9746206 16711746
0.3024379 -0.0423112 0.9762869 16711746
0.3054912 -0.0438448 0.9770101 16711746
0.3093344 -0.0417645 0.9757747 16711746
0.3039145 -0.0421762 0.9740193 16711746
0.3045938 -0.0424914 0.9753257 16711746
0.3035592 -0.0423794 0.9770705 16711746
0.2991962 -0.0425012 0.9752532 16711746
0.2988023 -0.0428981 0.9782128 16711746
0.3054889 -0.0432854 0.9783614 16711746
0.3035881 -0.0423247 0.9784702 16711746
0.2980773 -0.0426871 0.9767034 16711746
0.3089789 -0.0438125 0.9827616 16711746
0.2999885 -0.0422731 0.9743131 16711746
0.3042145 -0.0429677 0.9807081 16711746
0.2992882 -0.0429705 0.9787424 16711746
0.3025173 -0.0435307 0.9820194 16711746
0.3001852 -0.0423336 0.9748890 16711746
0.3044649 -0.0422069 0.9746144 16711746
0.3008419 -0.0423630 0.9760717 16711746
0.2987780 -0.0429063 0.9783328 16711746
0.2994018 -0.0428372 0.9798990 16711746
0.2992972 -0.0424983 0.9765130 16711746
0.3101820 -0.0444008 0.9873386 16711746
0.3023205 -0.0418500 0.9739935 16711746
0.2959141 -0.0430259 0.9727135 16711746
0.2944200 -0.0446918 0.9883717 16711746
0.3007494 -0.0432339 0.9805754 16711746
0.2946082 -0.0427220 0.9747972 16711746
0.3042865 -0.0423327 0.9775541 16711746
0.2993430 -0.0426134 0.9778709 16711746
0.3114133 -0.0420432 0.9794023 16711746
0.3052691 -0.0490450 0.9831410 16711746
0.3015908 -0.0426228 0.9771940 16711746
0.3023172 -0.0471551 0.9777037 16711746
0.3012341 -0.0446514 0.9912418 16711746
0.3020223 -0.0434286 0.9729877 16711746
0.2988966 -0.0425103 0.9750546 16711746
0.3036021 -0.0423998 0.9750256 16711746
0.2983604 -0.0425274 0.9760755 16711746
0.3035049 -0.0421456 0.9742336 16711746
0.3033356 -0.0424286 0.9758004 16711746
0.2985051 -0.0425021 0.9756270 16711746
0.2998264 -0.0424140 0.9746586 16711746
0.2988721 -0.0425914 0.9748275 16711746
0.3019322 -0.0422742 0.9747968 16711746
0.3078963 -0.0420208 0.9750513 16711746
0.2971685 -0.0431590 0.9760594 16711746
0.2973299 -0.0425559 0.9752228 16711746
0.2972493 -0.0424349 0.9755468 16711746
0.2978910 -0.0427921 0.9760801 16711746
0.3042042 -0.0431118 0.9743646 16711746
0.3025498 -0.0428140 0.9754606 16711746
0.3049962 -0.0425497 0.9747874 16711746
0.2974248 -0.0423671 0.9758882 16711746
0.3003221 -0.0423558 0.9745464 16711746
0.3012583 -0.0427855 0.9763014 16711746
0.3044785 -0.0428857 0.9800804 16711746
0.3091213 -0.0417700 0.9755244 16711746
0.2968309 -0.0426308 0.9762162 16711746
0.2998081 -0.0429000 0.9773881 16711746
0.2957037 -0.0434266 0.9801564 16711746
0.2958432 -0.0438370 0.9778503 16711746
0.2964235 -0.0426492 0.9778734 16711746
0.2984981 -0.0431555 0.9750959 16711746
0.2962783 -0.0437092 0.9805936 16711746
0.3092653 -0.0539448 0.9853725 16711746
0.2991785 -0.0430275 0.9779963 16711746
0.3112395 -0.0447500 0.9876849 16711746
0.3109718 -0.0422743 0.9774624 16711746
0.2883425 -0.0452718 0.9883434 16711746
0.2950732 -0.0432505 0.9784822 16711746
0.3019125 -0.0421021 0.9754644 16711746
0.2982538 -0.0424809 0.9756463 16711746
0.2974225 -0.0422688 0.9749391 16711746
0.3012231 -0.0432142 0.9817004 16711746
0.3027673 -0.0416293 0.9744337 16711746
0.2961401 -0.0426168 0.9758611 16711746
0.3002690 -0.0441668 0.9747699 16711746
0.3020498 -0.0460648 0.9777315 16711746
0.3052247 -0.0408154 0.9777943 16711746
0.3120203 -0.0423634 0.9792176 16711746
0.3210593 -0.0510242 0.9842749 16711746
0.2990677 -0.0430503 0.9754668 16711746
0.2988932 -0.0436570 0.9749504 16711746
0.2951213 -0.0431954 0.9773353 16711746
0.2977836 -0.0423488 0.9753664 16711746
0.2974904 -0.0423584 0.9747052 16711746
0.2968149 -0.0427371 0.9754514 16711746
0.3004707 -0.0424828 0.9761743 16711746
0.2967734 -0.0428400 0.9766796 16711746
0.3004892 -0.0423215 0.9756810 16711746
0.3003884 -0.0424030 0.9754221 16711746
0.2980735 -0.0425852 0.9759777 16711746
0.2973962 -0.0422792 0.9756334 16711746
0.2978778 -0.0427568 0.9761987 16711746
0.2990732 -0.0425371 0.9755798 16711746
0.2980666 -0.0427577 0.9764212 16711746
0.3114273 -0.0488659 0.9775943 16711746
0.3018375 -0.0427245 0.9767551 16711746
0.3044119 -0.0492431 0.9785966 16711746
0.2975649 -0.0427063 0.9767727 16711746
0.2991022 -0.0425319 0.9754192 16711746
0.2955452 -0.0438462 0.9778142 16711746
0.2960440 -0.0433415 0.9789037 16711746
0.3041623 -0.0431871 0.9759318 16711746
0.2998165 -0.0425541 0.9760995 16711746
0.2979758 -0.0426979 0.9761111 16711746
0.2980647 -0.0424524 0.9753231 16711746
0.3021173 -0.0423168 0.9724397 16711746
0.2971778 -0.0424344 0.9748385 16711746
0.3037307 -0.0423376 0.9762757 16711746
0.3014430 -0.0423202 0.9754899 16711746
0.3017488 -0.0421034 0.9746287 16711746
0.3060440 -0.0485316 0.9774053 16711746
0.2984324 -0.0511509 0.9850057 16711746
0.3083543 -0.0421029 0.9760049 16711746
0.2971864 -0.0424334 0.9748130 16711746
0.2980151 -0.0431851 0.9785215 16711746
0.2998465 -0.0430155 0.9788973 16711746
0.3030471 -0.0419834 0.9740584 16711746
0.3085939 -0.0434177 0.9830713 16711746
0.3004568 -0.0428960 0.9783773 16711746
0.3017768 -0.0421455 0.9757940 16711746
0.2978226 -0.0427944 0.9765644 16711746
0.3045693 -0.0425951 0.9771256 16711746
0.2976364 -0.0446793 0.9825967 16711746
0.3035393 -0.0432800 0.9819704 16711746
0.2843396 -0.0562209 0.9909848 16711746
0.2949538 -0.0431462 0.9776139 16711746
0.2950035 -0.0431586 0.9774548 16711746
0.3032043 -0.0419268 0.9741665 16711746
0.3127828 -0.0536124 0.9870991 16711746
0.3093765 -0.0448471 0.9865933 16711746
0.2941571 -0.0437446 0.9821444 16711746
0.3056341 -0.0517909 0.9847591 16711746
0.3028043 -0.0419044 0.9748144 16711746
0.2976155 -0.0464781 0.9929504 16711746
0.3052655 -0.0579676 0.9952893 16711746
0.3014448 -0.0521031 0.9865336 16711746
0.3045359 -0.0508985 0.9870562 16711746
0.3015922 -0.0429101 0.9741750 16711746
0.2953650 -0.0433635 0.9759153 16711746
0.2989669 -0.0425800 0.9758497 16711746
0.3013418 -0.0425375 0.9765313 16711746
0.2968420 -0.0424626 0.9753591 16711746
0.2959741 -0.0427526 0.9757806 16711746
0.2956513 -0.0428189 0.9762814 16711746
0.2948950 -0.0436053 0.9763680 16711746
0.2973874 -0.0430622 0.9770301 16711746
0.2985703 -0.0429469 0.9762568 16711746
0.2959253 -0.0427303 0.9758876 16711746
0.3005565 -0.0426880 0.9774420 16711746
0.3013663 -0.0425251 0.9765870 16711746
0.3049244 -0.0429970 0.9747908 16711746
0.3045307 -0.0419147 0.9744529 16711746
0.3046397 -0.0430392 0.9746480 16711746
0.2962357 -0.0426562 0.9754164 16711746
0.3003805 -0.0440647 0.9777259 16711746
0.2995019 -0.0426258 0.9757981 16711746
0.2989596 -0.0422751 0.9769344 16711746
0.3052478 -0.0421892 0.9764518 16711746
0.3067707 -0.0436905 0.9775015 16711746
0.2920524 -0.0446772 0.9852600 16711746
0.2950641 -0.0456120 0.9862209 16711746
0.3009190 -0.0422771 0.9762702 16711746
0.2945103 -0.0458904 0.9896091 16711746
0.3014033 -0.0423410 0.9754195 16711746
0.3002945 -0.0429431 0.9762828 16711746
0.2997850 -0.0430470 0.9789036 16711746
0.2998272 -0.0428582 0.9775484 16711746
0.3096462 -0.0433936 0.9778455 16711746
0.3091536 -0.0443048 0.9791352 16711746
0.3055813 -0.0435321 0.9780067 16711746
0.2947197 -0.0446075 0.9856611 16711746
0.2975953 -0.0427478 0.9765499 16711746
0.3032457 -0.0422268 0.9752958 16711746
0.3234206 -0.0447061 0.9867312 16711746
0.3029804 -0.0423599 0.9760834 16711746
0.3052867 -0.0430790 0.9824350 16711746
0.3022665 -0.0532025 0.9863302 16711746
0.3030091 -0.0507561 0.9830993 16711746
0.2954107 -0.0435330 0.9833457 16711746
0.3007053 -0.0440393 0.9846371 16711746
0.2946898 -0.0466576 0.9958417 16711746
0.2954986 -0.0427558 0.9765436 16711746
0.3097335 -0.0522479 0.9891412 16711746
0.2951948 -0.0425609 0.9762869 16711746
0.2861702 -0.0540023 0.9909037 16711746
0.3028946 -0.0420745 0.9749118 16711746
0.3055987 -0.0446210 0.9840771 16711746
0.3131036 -0.0435782 0.9835728 16711746
0.2995417 -0.0431159 0.9784802 16711746
0.3030856 -0.0441541 0.9878255 16711746
0.3052569 -0.0479122 0.9837816 16711746
0.2959789 -0.0454076 0.9926546 16711746
0.3063155 -0.0443669 0.9811035 16711746
0.2947322 -0.0431894 0.9768004 16711746
0.2944681 -0.0433156 0.9783003 16711746
0.2941240 -0.0435154 0.9774430 16711746
0.2935105 -0.0434484 0.9784704 16711746
0.2949702 -0.0425527 0.9776908 16711746
0.2947331 -0.0432227 0.9760651 16711746
0.2950596 -0.0429814 0.9768208 16711746
0.2984236 -0.0425619 0.9769821 16711746
0.3000602 -0.0425276 0.9764220 16711746
0.2968276 -0.0426660 0.9795832 16711746
0.2954007 -0.0434292 0.9782526 16711746
0.2967309 -0.0427939 0.9757038 16711746
0.2940830 -0.0460196 0.9898685 16711746
0.3050673 -0.0424041 0.9758837 16711746
0.3003622 -0.0426188 0.9763684 16711746
0.2923172 -0.0446843 0.9848849 16711746
0.3042065 -0.0425779 0.9778345 16711746
0.2920682 -0.0444700 0.9830679 16711746
0.2995060 -0.0425958 0.9751033 16711746
0.3011381 -0.0422899 0.9752535 16711746
0.2962196 -0.0426589 0.9756857 16711746
0.3009749 -0.0437942 0.9796262 16711746
0.3064871 -0.0488424 0.9807480 16711746
0.2945932 -0.0533463 0.9860753 16711746
0.2930935 -0.0465196 0.9956369 16711746
0.3006605 -0.0424885 0.9756126 16711746
0.3029802 -0.0435824 0.9837252 16711746
0.2898116 -0.0449778 0.9850690 16711746
0.3225537 -0.0491250 0.9861938 16711746
0.3207480 -0.0461859 0.9996121 16711746
0.3017403 -0.0444180 0.9780623 16711746
0.3133627 -0.0596373 1.0001326 16711746
0.2966011 -0.0425973 0.9759789 16711746
0.2993057 -0.0427892 0.9758010 16711746
0.3002706 -0.0433599 0.9752457 16711746
0.3016126 -0.0422785 0.9750391 16711746
0.3033695 -0.0421475 0.9749708 16711746
0.2925233 -0.0441952 0.9773121 16711746
0.3006774 -0.0426845 0.9771233 16711746
0.2910647 -0.0440385 0.9816143 16711746
0.3027281 -0.0427213 0.9746490 16711746
0.2978967 -0.0427203 0.9755798 16711746
0.3024202 -0.0422839 0.9745346 16711746
0.2981876 -0.0428884 0.9759022 16711746
0.2970848 -0.0426173 0.9752144 16711746
0.2963922 -0.0433896 0.9793821 16711746
0.3053734 -0.0422641 0.9761438 16711746
0.3002618 -0.0425698 0.9768038 16711746
0.3051544 -0.0427848 0.9758945 16711746
0.3050983 -0.0435589 0.9774791 16711746
0.2988430 -0.0435853 0.9743555 16711746
0.2930867 -0.0445013 0.9825906 16711746
0.2970022 -0.0443954 0.9786430 16711746
0.2956476 -0.0430390 0.9772593 16711746
0.3004311 -0.0427002 0.9762798 16711746
0.3027816 -0.0431463 0.9800950 16711746
0.3041252 -0.0424601 0.9783631 16711746
0.3012351 -0.0429315 0.9777032 16711746
0.2954580 -0.0455156 0.9896274 16711746
0.3064089 -0.0493256 0.9798667 16711746
0.2932172 -0.0445617 0.9826993 16711746
0.2957672 -0.0430891 0.9769889 16711746
0.3048389 -0.0495898 0.9796873 16711746
0.3022178 -0.0421462 0.9751375 16711746
0.3113014 -0.0433283 0.9788464 16711746
0.2960393 -0.0433455 0.9788547 16711746
0.3240770 -0.0517717 0.9864557 16711746
0.3162105 -0.0428434 0.9832302 16711746
0.2955575 -0.0433523 0.9787624 16711746
0.3013571 -0.0430845 0.9785706 16711746
0.3035357 -0.0421109 0.9755103 16711746
0.2968857 -0.0430017 0.9771630 16711746
0.2830127 -0.0572200 0.9924602 16711746
0.2851152 -0.0556460 0.9898242 16711746
0.3041204 -0.0423525 0.9764287 16711746
0.2999270 -0.0431511 0.9805585 16711746
0.2884363 -0.0451388 0.9877540 16711746
0.3024564 -0.0521692 0.9879695 16711746
0.3091914 -0.0520663 0.9833195 16711746
0.3036326 -0.0441250 0.9850913 16711746
0.3151354 -0.0574603 0.9967559 16711746
0.3028821 -0.0441653 0.9872549 16711746
0.2912453 -0.0439122 0.9885897 16711746
0.3021466 -0.0426152 0.9735103 16711746
0.3035628 -0.0419800 0.9744258 16711746
0.3052824 -0.0442751 0.9882325 16711746
0.3016228 -0.0526512 0.9876019 16711746
0.3031234 -0.0522489 0.9865373 16711746
0.3030838 -0.0422882 0.9747752 16711746
0.2967314 -0.0425563 0.9763648 16711746
0.3006755 -0.0426067 0.9762754 16711746
0.2973101 -0.0429925 0.9774863 16711746
0.2951986 -0.0447706 0.9794572 16711746
0.2998211 -0.0431935 0.9772371 16711746
0.2959312 -0.0446822 0.9780755 16711746
0.2975388 -0.0426684 0.9768607 16711746
0.3027349 -0.0421776 0.9751388 16711746
0.2947951 -0.0439997 0.9805906 16711746
0.2986007 -0.0439850 0.9743237 16711746
0.2960913 -0.0434914 0.9765049 16711746
0.3026148 -0.0423540 0.9756741 16711746
0.3089703 -0.0428075 0.9776994 16711746
0.3007030 -0.0426049 0.9757327 16711746
0.2996998 -0.0426090 0.9755025 16711746
0.2993288 -0.0427219 0.9760346 16711746
0.3025557 -0.0422186 0.9746649 16711746
0.2951169 -0.0432758 0.9783447 16711746
0.3010502 -0.0430264 0.9772157 16711746
0.2913681 -0.0440538 0.9812912 16711746
0.3075229 -0.0427359 0.9773407 16711746
0.3086456 -0.0425597 0.9781111 16711746
0.3003268 -0.0428239 0.9764016 16711746
0.2998016 -0.0447969 0.9730501 16711746
0.3004664 -0.0437683 0.9749124 16711746
0.2888291 -0.0550812 0.9886278 16711746
0.2949448 -0.0432383 0.9764005 16711746
0.2953758 -0.0437258 0.9813154 16711746
0.3046683 -0.0423460 0.9759437 16711746
0.2889987 -0.0533171 0.9850804 16711746
0.2946308 -0.0444598 0.9834141 16711746
0.2963794 -0.0430438 0.9746014 16711746
0.3004832 -0.0436938 0.9762926 16711746
0.2949992 -0.0430995 0.9773185 16711746
0.2979136 -0.0425828 0.9759752 16711746
0.3012352 -0.0431218 0.9782801 16711746
0.3031902 -0.0421665 0.9753116 16711746
0.3174867 -0.0434064 0.9825671 16711746
0.3011940 -0.0451509 0.9809716 16711746
0.2932338 -0.0530958 0.9885619 16711746
0.2955601 -0.0431311 0.9778392 16711746
0.2947264 -0.0432138 0.9785972 16711746
0.3053181 -0.0498515 0.9803723 16711746
0.2993523 -0.0426892 0.9761249 16711746
0.3198384 -0.0441084 0.9826507 16711746
0.2910767 -0.0457225 0.9909611 16711746
0.3026632 -0.0433119 0.9807380 16711746
0.3009515 -0.0510811 0.9914438 16711746
0.3248382 -0.0511436 0.9879663 16711746
0.3009225 -0.0429657 0.9831634 16711746
0.3030784 -0.0451987 0.9933231 16711746
0.3025401 -0.0448220 0.9795956 16711746
0.3008299 -0.0426782 0.9767439 16711746
0.3014056 -0.0427440 0.9765624 16711746
0.2935910 -0.0449322 0.9856843 16711746
0.2976504 -0.0427126 0.9759929 16711746
0.3007389 -0.0429131 0.9779004 16711746
0.3005780 -0.0431801 0.9788367 16711746
0.2889267 -0.0450545 0.9873977 16711746
0.3028100 -0.0424198 0.9766297 16711746
0.2940384 -0.0439614 0.9824127 16711746
0.2957850 -0.0431512 0.9775841 16711746
0.2963132 -0.0433639 0.9796271 16711746
0.3005332 -0.0432392 0.9805013 16711746
0.2946755 -0.0431284 0.9776545 16711746
0.2940926 -0.0432215 0.9788028 16711746
0.2918758 -0.0444917 0.9835052 16711746
0.2990060 -0.0433683 0.9757410 16711746
0.2985850 -0.0428026 0.9771220 16711746
0.2993226 -0.0432517 0.9769961 16711746
0.3004221 -0.0428084 0.9768471 16711746
0.3004268 -0.0427969 0.9769099 16711746
0.2968706 -0.0429223 0.9763936 16711746
0.2951804 -0.0433441 0.9763289 16711746
0.2970859 -0.0428523 0.9748490 16711746
0.2948258 -0.0432505 0.9784258 16711746
0.2933801 -0.0434327 0.9780892 16711746
0.2943362 -0.0433067 0.9785437 16711746
0.2956287 -0.0433338 0.9764628 16711746
0.2961961 -0.0432691 0.9779320 16711746
0.3097495 -0.0502998 0.9781330 16711746
0.3059125 -0.0451832 0.9771386 16711746
0.2842163 -0.0557978 0.9906770 16711746
0.2869303 -0.0571962 0.9920015 16711746
0.2997144 -0.0447585 0.9848010 16711746
0.2963906 -0.0430434 0.9745871 16711746
0.2991552 -0.0441253 0.9782711 16711746
0.2969612 -0.0428158 0.9753250 16711746
0.2976997 -0.0428407 0.9762400 16711746
0.2970184 -0.0428586 0.9752156 16711746
0.2991776 -0.0428918 0.9762865 16711746
0.2970122 -0.0429883 0.9761291 16711746
0.3023521 -0.0427735 0.9769319 16711746
0.3076200 -0.0477251 0.9778145 16711746
0.3018284 -0.0431765 0.9792024 16711746
0.2967584 -0.0427790 0.9759696 16711746
0.3039993 -0.0507455 0.9812140 16711746
0.3049183 -0.0509059 0.9817376 16711746
0.3013130 -0.0437576 0.9808791 16711746
0.2986850 -0.0462066 0.9916312 16711746
0.3138681 -0.0486288 0.9803537 16711746
0.3062594 -0.0523056 0.9859625 16711746
0.3011514 -0.0458212 0.9908774 16711746
0.3232918 -0.0522043 0.9938676 16711746
0.3211735 -0.0422320 0.9924255 16711746
0.2998833 -0.0454501 0.9917163 16711746
0.2798444 -0.0472353 1.0012987 16711746
0.3243326 -0.0517622 0.9865384 16711746
0.2972557 -0.0427473 0.9754643 16711746
0.2969292 -0.0427981 0.9753664 16711746
0.2992355 -0.0429328 0.9763451 16711746
0.2992478 -0.0427141 0.9771948 16711746
0.2959722 -0.0429692 0.9760702 16711746
0.2987922 -0.0432626 0.9762086 16711746
0.2966551 -0.0428060 0.9767967 16711746
0.2977313 -0.0432850 0.9761021 16711746
0.2977090 -0.0427649 0.9758617 16711746
0.2976252 -0.0432199 0.9764447 16711746
0.2991932 -0.0434347 0.9825775 16711746
0.3020741 -0.0422342 0.9761255 16711746
0.3018191 -0.0424117 0.9757543 16711746
0.2976601 -0.0428433 0.9767318 16711746
0.2991897 -0.0429793 0.9780251 16711746
0.3038920 -0.0417604 0.9771132 16711746
0.3021913 -0.0433052 0.9762132 16711746
0.3037024 -0.0425047 0.9788924 16711746
0.3035913 -0.0425419 0.9767516 16711746
0.3035543 -0.0422444 0.9767348 16711746
0.3002757 -0.0513985 0.9880083 16711746
0.2955064 -0.0431503 0.9762292 16711746
0.3007559 -0.0429612 0.9777384 16711746
0.3011526 -0.0442556 0.9757330 16711746
0.2920207 -0.0451571 0.9899218 16711746
0.3008397 -0.0427449 0.9776397 16711746
0.3051654 -0.0429675 0.9765472 16711746
0.3090361 -0.0419076 0.9789612 16711746
0.3167098 -0.0494866 0.9821113 16711746
0.2967175 -0.0427538 0.9760405 16711746
0.3145798 -0.0432757 0.9831142 16711746
0.3227319 -0.0511841 0.9838827 16711746
0.3181783 -0.0422583 0.9834798 16711746
0.3019306 -0.0443754 0.9873945 16711746
0.3061871 -0.0432499 0.9831074 16711746
0.3046408 -0.0483587 0.9813610 16711746
0.2987384 -0.0433140 0.9802482 16711746
0.2948661 -0.0431281 0.9774081 16711746
0.2998438 -0.0461336 0.9964567 16711746
