# .PCD v.7 - Point Cloud Data file format
VERSION .7
FIELDS x y z rgb
SIZE 4 4 4 4
TYPE F F F F
COUNT 1 1 1 1
WIDTH 1183
HEIGHT 1
VIEWPOINT 0 0 0 1 0 0 0
POINTS 1183
DATA ascii
0.0870741 -0.1512550 1.8658079 16711746
0.0320499 -0.1432336 1.8423060 16711746
-0.0183101 -0.1400412 1.8304424 16711746
0.0721631 -0.1497671 1.8800907 16711746
0.0846059 -0.1454016 1.8430978 16711746
0.1043660 -0.1514678 1.8664215 16711746
-0.0720439 -0.1362919 1.8508286 16711746
0.0751431 -0.1719839 1.8489933 16711746
-0.0782491 -0.1542431 1.8691026 16711746
-0.0443332 -0.1477076 1.8708421 16711746
-0.0044149 -0.1782849 1.8056188 16711746
-0.0087752 -0.1482772 1.8504616 16711746
-0.0090790 -0.1537292 1.8290008 16711746
-0.0216047 -0.1590498 1.8360987 16711746
0.1004530 -0.1442393 1.8415731 16711746
0.0859236 -0.1592118 1.9198996 16711746
-0.0963923 -0.1364968 1.8644985 16711746
0.1066318 -0.1528348 1.9101424 16711746
-0.0212440 -0.1416032 1.8807425 16711746
0.1200433 -0.1509016 1.8752987 16711746
-0.0158328 -0.1371753 1.8319498 16711746
-0.0084814 -0.1541167 1.9068683 16711746
-0.0168520 -0.1495378 1.8353169 16711746
0.1695320 -0.1568711 1.9377952 16711746
0.0332540 -0.1451371 1.8988571 16711746
0.0624383 -0.1450517 1.8860524 16711746
0.0564624 -0.1423521 1.8634856 16711746
-0.0180860 -0.1748038 1.8763828 16711746
0.0260291 -0.1443718 1.8481950 16711746
0.0233971 -0.1465068 1.8724949 16711746
0.0697044 -0.1447237 1.8453479 16711746
-0.0766965 -0.1376897 1.9067855 16711746
-0.0212847 -0.1744768 1.8867918 16711746
0.0044218 -0.1390183 1.8453847 16711746
-0.0212912 -0.1389737 1.8423133 16711746
-0.0142131 -0.1466584 1.9040961 16711746
0.0941486 -0.1443386 1.8386272 16711746
0.0879528 -0.1477298 1.8467054 16711746
-0.0129970 -0.1506564 1.8671836 16711746
0.0759790 -0.1694316 1.9099003 16711746
0.0833389 -0.1458630 1.8416165 16711746
-0.0596815 -0.1377749 1.8670026 16711746
0.0384798 -0.1432998 1.8881314 16711746
-0.0117936 -0.1419166 1.8663720 16711746
-0.1197594 -0.1385931 1.8592883 16711746
0.0834033 -0.1749303 1.9504820 16711746
-0.0093212 -0.1534531 1.8534117 16711746
-0.0371806 -0.1399363 1.8395617 16711746
-0.0100413 -0.1416669 1.8707784 16711746
0.0971325 -0.2743953 1.9854854 16711746
0.0847377 -0.1481245 1.8300704 16711746
0.1033047 -0.2908799 2.0677612 16711746
-0.1308064 -0.1158855 1.9093105 16711746
-0.0681323 -0.1375500 1.8732672 16711746
-0.0692192 -0.1371482 1.8922495 16711746
0.0751213 -0.1540286 1.9181317 16711746
0.2026855 -0.3150863 1.9967799 16711746
0.0149068 -0.1439868 1.8656411 16711746
0.0611994 -0.1454576 1.8720376 16711746
-0.0756013 -0.3316648 2.1366503 16711746
0.0264620 -0.3087719 2.1109149 16711746
-0.0131466 -0.1637527 1.9714936 16711746
0.0441469 -0.1495749 1.9443212 16711746
0.2272470 -0.1755872 2.0777161 16711746
-0.2340301 -0.1101759 1.9891366 16711746
0.0577754 -0.1417924 1.8512222 16711746
-0.1191593 -0.1398841 1.9500763 16711746
-0.4075984 -0.3727885 2.1461148 16711746
0.2778936 -0.3233806 2.2193933 16711746
-0.0833218 -0.1430044 1.9363647 16711746
0.0518426 -0.1460569 1.8986557 16711746
0.0740627 -0.1513010 1.8707677 16711746
0.0022282 -0.2340456 2.0547121 16711746
-0.0261866 -0.1888333 2.0846176 16711746
0.1502974 -0.3627484 2.2329273 16711746
0.1918272 -0.1825284 2.1714878 16711746
0.0242931 -0.1635661 2.1631479 16711746
-0.2186859 -0.1481576 2.0563939 16711746
0.0235928 -0.1645636 1.9939353 16711746
-0.2984066 -0.1076045 2.0316195 16711746
0.0752332 -0.3731602 2.3167236 16711746
-0.0682165 -0.1361069 1.8780305 16711746
-0.2288559 -0.1766257 2.5879488 16711746
-0.1981187 -0.1813182 2.4887908 16711746
-0.1971615 -0.1528535 1.9850162 16711746
0.1813732 -0.3627883 2.2530913 16711746
-0.0269635 -0.4186394 2.4976513 16711746
-0.0039871 -0.1409916 1.8470674 16711746
0.0466670 -0.1408513 1.8483758 16711746
-0.0677690 -0.1492880 1.8776859 16711746
0.0950765 -0.1489271 1.8528141 16711746
-0.0277726 -0.1430950 1.8889940 16711746
0.0660270 -0.1415764 1.8815957 16711746
0.0578561 -0.1475178 1.8793284 16711746
-0.0058156 -0.1439618 1.8649943 16711746
0.0892823 -0.1570779 1.8750033 16711746
-0.0735961 -0.1403011 1.8707231 16711746
-0.0524454 -0.1371774 1.8372267 16711746
0.0293823 -0.1470868 1.8741564 16711746
-0.0987561 -0.1637998 1.9052144 16711746
-0.0045598 -0.1461582 1.8589847 16711746
0.0886860 -0.1535037 1.8799444 16711746
0.0931305 -0.1474287 1.8446897 16711746
0.0458502 -0.1426578 1.8499234 16711746
-0.0630332 -0.1365522 1.8519981 16711746
-0.0893507 -0.1494210 1.8597853 16711746
-0.0731092 -0.1451708 1.9004208 16711746
0.0677982 -0.1439876 1.8544066 16711746
0.1019714 -0.1519585 1.8646176 16711746
0.0823817 -0.1483784 1.8510699 16711746
0.0871218 -0.1493741 1.8564948 16711746
0.0598968 -0.1460319 1.8835267 16711746
0.0920477 -0.1476807 1.8438468 16711746
-0.0787773 -0.1379817 1.8770658 16711746
0.2142927 -0.1729952 1.9863914 16711746
0.0066367 -0.1461565 1.8592331 16711746
-0.0438927 -0.1369168 1.8491001 16711746
-0.0531031 -0.1368729 1.8376429 16711746
0.0515573 -0.1432276 1.8839037 16711746
0.1166261 -0.1515346 1.8727199 16711746
0.0825211 -0.1528470 1.8605895 16711746
0.0763539 -0.1457134 1.8335981 16711746
-0.0921808 -0.1540510 1.8537354 16711746
0.0972120 -0.1503849 1.8375685 16711746
-0.0026514 -0.1425919 1.8507853 16711746
-0.0496607 -0.1344674 1.8437352 16711746
0.1180784 -0.1500508 1.8515481 16711746
0.0295367 -0.1468042 1.8514795 16711746
0.0488130 -0.1459910 1.8754226 16711746
0.1150232 -0.1483060 1.8625541 16711746
0.1110339 -0.1528303 1.8860034 16711746
0.1052589 -0.1513508 1.8524483 16711746
-0.0531337 -0.1668888 1.8583106 16711746
0.0258549 -0.1478452 1.8715081 16711746
-0.0112797 -0.1744682 1.8123034 16711746
-0.0133084 -0.1487929 1.8596932 16711746
0.0663429 -0.1730952 1.8617440 16711746
-0.0231645 -0.1436381 1.8500410 16711746
-0.0005489 -0.1505146 1.8499951 16711746
0.0979634 -0.1543818 1.8875827 16711746
-0.0128469 -0.1523390 1.8927945 16711746
0.1014614 -0.1616504 1.9366671 16711746
0.2724455 -0.3459882 2.0333445 16711746
-0.0145406 -0.1683950 1.8858824 16711746
-0.0673612 -0.1383984 1.8762072 16711746
0.0520296 -0.1529803 1.9102014 16711746
-0.1481648 -0.1576143 1.9497981 16711746
-0.0102677 -0.1881595 1.8137274 16711746
0.0378284 -0.1444077 1.8431224 16711746
0.1193386 -0.1501898 1.8658166 16711746
-0.0225436 -0.1438733 1.9299163 16711746
-0.0130582 -0.1435569 1.8802462 16711746
-0.0703967 -0.1364885 1.8627497 16711746
0.0908684 -0.1545562 1.9352310 16711746
-0.0153527 -0.1524670 1.9375070 16711746
0.1374782 -0.1632168 1.9683167 16711746
0.0712604 -0.1461316 1.8505836 16711746
0.0102241 -0.2302465 1.8882781 16711746
0.0374022 -0.1456618 1.8824567 16711746
0.0866016 -0.1560872 1.9237038 16711746
0.0648186 -0.1407124 1.8447506 16711746
-0.0093486 -0.1655163 1.8661052 16711746
-0.0041276 -0.1449957 1.8756109 16711746
-0.0821357 -0.1353407 1.8586768 16711746
-0.0948611 -0.1395257 1.8760093 16711746
0.0556230 -0.1468149 1.9215684 16711746
0.0714675 -0.1460819 1.8511580 16711746
-0.0162049 -0.1490328 1.9073161 16711746
0.0036441 -0.1447232 1.8832949 16711746
-0.1057803 -0.1449567 1.8747087 16711746
0.0390662 -0.1431455 1.8908154 16711746
0.1824795 -0.1549830 1.9767100 16711746
0.0812628 -0.1461630 1.8451865 16711746
-0.0936300 -0.1553251 1.9134277 16711746
-0.0749513 -0.1349752 1.8487967 16711746
0.1862007 -0.3089054 2.0360568 16711746
0.0975073 -0.1498102 1.8392376 16711746
0.0547562 -0.1546519 1.8498952 16711746
-0.0174550 -0.1496673 1.9924809 16711746
-0.0029283 -0.1397936 1.9908279 16711746
0.1278131 -0.3510177 2.0994360 16711746
-0.0024102 -0.2797352 2.0580611 16711746
0.0959546 -0.1515740 1.8630219 16711746
0.0071595 -0.1488798 1.9492726 16711746
0.0062168 -0.1547098 1.8870013 16711746
0.2347772 -0.1593691 1.9501851 16711746
0.2452477 -0.1840916 2.0546486 16711746
0.1352867 -0.3658518 2.1477952 16711746
0.0563308 -0.3392214 2.1496363 16711746
0.1371295 -0.3382665 2.1965766 16711746
0.0053917 -0.1454348 1.9094875 16711746
-0.0120636 -0.1750990 1.8537523 16711746
0.1483751 -0.3501794 2.2282765 16711746
0.0922003 -0.1648975 1.9239596 16711746
-0.0744672 -0.1348880 1.8547996 16711746
0.0721723 -0.1456193 1.8458413 16711746
-0.1091661 -0.1549795 2.0577967 16711746
0.0687280 -0.3504927 2.2527788 16711746
0.2574230 -0.3199177 2.0266695 16711746
-0.1423579 -0.1305217 1.8762603 16711746
0.0253479 -0.2878718 2.0550599 16711746
0.8576052 -0.3079630 2.6614437 16711746
-0.0915555 -0.1469430 2.1240869 16711746
-0.1211891 -0.1431884 2.1944814 16711746
-0.0943558 -0.3299071 2.1376519 16711746
0.1140208 -0.1518175 1.8896639 16711746
-0.1947376 -0.1729927 1.9872059 16711746
-0.0499739 -0.1647610 2.0270469 16711746
-0.0018946 -0.2771815 2.1349227 16711746
0.4388056 -0.2182067 2.2586899 16711746
-0.0831913 -0.3370177 2.1937633 16711746
0.0373695 -0.3473916 2.3654308 16711746
-0.1054828 -0.1262042 1.8928577 16711746
-0.0121816 -0.1447888 1.8721684 16711746
-0.1339613 -0.1416259 1.9210066 16711746
-0.0170945 -0.1412496 1.8627476 16711746
-0.0089326 -0.1658581 1.8651085 16711746
0.0930806 -0.1497867 1.8504370 16711746
0.0481507 -0.1478438 1.8756390 16711746
-0.0129395 -0.1429717 1.8621953 16711746
-0.0687364 -0.1526019 1.8350401 16711746
0.0937196 -0.1506818 1.8535544 16711746
-0.0838263 -0.1348452 1.8727965 16711746
0.0766355 -0.1529619 1.8609161 16711746
0.0790734 -0.1440610 1.8336544 16711746
0.0667471 -0.1575328 1.8841311 16711746
-0.0147457 -0.1463749 1.8785760 16711746
-0.0259762 -0.1447390 1.8841391 16711746
0.0753693 -0.1503547 1.8573575 16711746
0.0687273 -0.1501444 1.8617166 16711746
0.1153180 -0.1522527 1.8704196 16711746
0.0715960 -0.1558368 1.8945863 16711746
-0.0467410 -0.1327406 1.8546954 16711746
0.0581225 -0.1431776 1.8469396 16711746
0.0529616 -0.1439448 1.8449404 16711746
0.0508212 -0.1473664 1.8663946 16711746
0.0667792 -0.1429129 1.8455514 16711746
0.0709854 -0.1465475 1.8440874 16711746
0.0745326 -0.1448327 1.8407369 16711746
0.0091264 -0.1457802 1.8703284 16711746
0.0018836 -0.1438753 1.8623686 16711746
0.0550498 -0.1438759 1.8590102 16711746
0.0538013 -0.1554117 1.9185259 16711746
0.0175618 -0.1536533 1.9117478 16711746
-0.0442226 -0.1318815 1.8513778 16711746
0.0412322 -0.1426175 1.8558391 16711746
-0.0113156 -0.1424934 1.8640971 16711746
0.0656414 -0.1426086 1.8522142 16711746
0.1053044 -0.1509783 1.8682675 16711746
-0.0110353 -0.1438824 1.8548598 16711746
-0.0738670 -0.1420363 1.8824991 16711746
0.0749126 -0.1396674 1.8660750 16711746
0.0776080 -0.1543659 1.8607153 16711746
-0.0186932 -0.1456194 1.8670115 16711746
-0.0803889 -0.1366135 1.8688933 16711746
0.1046107 -0.1826389 1.8855741 16711746
-0.0723365 -0.1427268 1.8690572 16711746
0.0786639 -0.1477002 1.8421721 16711746
0.1025563 -0.1521938 1.8718045 16711746
0.1054881 -0.1552780 1.8395795 16711746
0.0782715 -0.1508149 1.8387827 16711746
0.0768311 -0.1506776 1.8543637 16711746
0.0943721 -0.1510383 1.8369370 16711746
0.0411866 -0.1579268 1.8434958 16711746
0.1937130 -0.3220006 2.0278089 16711746
-0.1421292 -0.1371786 1.9407552 16711746
0.1020116 -0.1797791 1.9386621 16711746
0.0899738 -0.1550383 1.8981537 16711746
-0.0114109 -0.1767497 1.8688495 16711746
0.0572442 -0.1488615 1.8696018 16711746
0.0710326 -0.1511965 1.8649817 16711746
-0.0125648 -0.1498578 1.8689418 16711746
0.1781445 -0.1556446 1.9464625 16711746
0.1543904 -0.1758086 1.9786135 16711746
0.0483109 -0.1605213 1.9067031 16711746
0.0584793 -0.1524467 1.9730256 16711746
0.1588634 -0.1583490 1.9240661 16711746
0.0056596 -0.1482751 1.8972483 16711746
0.0125841 -0.1454724 1.8795381 16711746
0.0026739 -0.1474735 1.8831226 16711746
0.1242480 -0.1590305 1.9378108 16711746
0.0466949 -0.1509367 1.9184426 16711746
-0.1692831 -0.1457429 1.9612442 16711746
0.0793901 -0.1445825 1.8275902 16711746
0.0002798 -0.1415877 1.8525701 16711746
0.0044396 -0.1443579 1.8664531 16711746
0.0417636 -0.1529642 1.9262305 16711746
0.0487329 -0.1453954 1.8764997 16711746
-0.0131039 -0.1788833 1.8589606 16711746
-0.0560898 -0.1393604 1.8631332 16711746
0.0831662 -0.1483656 1.8239748 16711746
0.0466335 -0.1511453 1.9170020 16711746
0.0788335 -0.1446910 1.8276674 16711746
0.0493621 -0.1447698 1.8671029 16711746
-0.0093310 -0.1429328 1.8534707 16711746
0.1073870 -0.1490779 1.8582931 16711746
-0.1484939 -0.1353633 1.9480888 16711746
-0.0977780 -0.1534843 1.9064125 16711746
-0.1197674 -0.1418768 1.9071866 16711746
-0.0947668 -0.1355043 1.8825626 16711746
0.2315331 -0.1715969 2.0486810 16711746
0.0718889 -0.1447651 1.8431685 16711746
0.0700495 -0.1501429 1.8663727 16711746
0.0630272 -0.1483576 1.9320326 16711746
0.0900684 -0.1497645 1.8979154 16711746
0.0812711 -0.1499295 1.8192177 16711746
0.0564680 -0.1669389 1.9395155 16711746
-0.1211588 -0.1473960 1.8535484 16711746
0.0869970 -0.1468309 1.8418956 16711746
0.0060287 -0.1499750 1.9385127 16711746
0.0370543 -0.3301796 2.1019537 16711746
-0.0127919 -0.1644109 2.0175540 16711746
-0.0807839 -0.3289034 2.1660221 16711746
-0.0193701 -0.1701442 1.9973794 16711746
0.0910199 -0.1600394 1.8885032 16711746
0.0675533 -0.2886917 2.0450487 16711746
0.1799189 -0.2680091 2.0361705 16711746
-0.2134328 -0.3215102 2.1190240 16711746
0.0245766 -0.1585111 2.0003030 16711746
0.0088699 -0.2946229 2.0649519 16711746
0.0557570 -0.3273886 2.1483738 16711746
0.0553897 -0.1621598 2.0571241 16711746
0.0040128 -0.2282462 1.9801866 16711746
0.0480387 -0.1538877 1.9405144 16711746
0.0004566 -0.1391288 1.9660342 16711746
-0.0997064 -0.1534345 1.9979825 16711746
0.0858836 -0.1498867 1.8151643 16711746
0.0635471 -0.1653507 1.9103279 16711746
-0.0224839 -0.1868598 2.0585563 16711746
-0.0907294 -0.1356495 1.8857884 16711746
0.0146120 -0.1818229 1.8399645 16711746
-0.0844004 -0.1345818 1.8731495 16711746
-0.0825211 -0.1353619 1.8882734 16711746
0.0214673 -0.1456459 1.8877124 16711746
0.0236863 -0.3570530 2.1534626 16711746
0.1631080 -0.1935073 2.1659257 16711746
-0.0155456 -0.1866210 2.2284074 16711746
0.0670964 -0.1562564 1.9713762 16711746
0.0016638 -0.1448432 1.8537351 16711746
0.0169475 -0.1428160 1.8493590 16711746
0.0205161 -0.1440116 1.8676261 16711746
-0.0175547 -0.1456798 1.8540601 16711746
-0.0111439 -0.1418365 1.8529791 16711746
0.1070668 -0.1582042 1.9126281 16711746
-0.0839733 -0.1402918 1.8673973 16711746
0.0549286 -0.1438545 1.8765883 16711746
0.0878596 -0.1516089 1.8455745 16711746
0.0784996 -0.1472953 1.8757876 16711746
0.0458986 -0.1449700 1.8608366 16711746
0.0516773 -0.1446467 1.8856087 16711746
0.0612454 -0.1461123 1.8767678 16711746
-0.0219762 -0.1408601 1.8786027 16711746
-0.0202548 -0.1427723 1.8606399 16711746
0.0761417 -0.1470890 1.8346194 16711746
0.0952686 -0.1554626 1.8836257 16711746
0.0830207 -0.1561927 1.8788308 16711746
-0.0729545 -0.1512746 1.8382553 16711746
0.0275242 -0.1470527 1.8728827 16711746
0.0151086 -0.1394780 1.8648679 16711746
0.0578239 -0.1415920 1.8644234 16711746
0.0768561 -0.1642164 1.8920313 16711746
-0.0186197 -0.1514398 1.8644372 16711746
0.0753709 -0.1535821 1.8706897 16711746
0.0458170 -0.1442121 1.8843071 16711746
0.0025882 -0.1801380 1.8216265 16711746
0.0599512 -0.1584317 1.9457258 16711746
0.0780573 -0.1491397 1.8570981 16711746
0.0842564 -0.1555804 1.8958026 16711746
-0.0091119 -0.1464844 1.8771739 16711746
-0.0565068 -0.1503728 1.9428855 16711746
-0.0020686 -0.1438487 1.8637569 16711746
-0.0704614 -0.1538363 1.9791051 16711746
0.0064320 -0.1442299 1.8640039 16711746
0.1319917 -0.1575704 1.9499139 16711746
-0.0080973 -0.1456848 1.8861870 16711746
-0.0010779 -0.1487323 1.9050051 16711746
0.0860656 -0.1515023 1.8649563 16711746
0.0062867 -0.1442294 1.8641869 16711746
-0.0464403 -0.1329079 1.8544754 16711746
0.0032024 -0.1487142 1.9017453 16711746
0.0854196 -0.1501213 1.8548321 16711746
0.0902317 -0.1549474 1.9132875 16711746
-0.0071774 -0.1423742 1.9341099 16711746
-0.0333719 -0.1427859 1.9062470 16711746
-0.0175670 -0.1747490 1.8701299 16711746
0.0257176 -0.1467412 1.8667364 16711746
0.0655592 -0.1496247 1.8581005 16711746
0.1978035 -0.1722332 2.0121200 16711746
0.2309957 -0.1757403 2.0022373 16711746
-0.0255411 -0.1452717 1.8804066 16711746
0.1070805 -0.1752287 1.9262867 16711746
0.1006418 -0.1688619 1.8905253 16711746
-0.0500933 -0.1473576 1.8262037 16711746
-0.0090408 -0.1561863 1.9399208 16711746
-0.0103957 -0.1490023 1.9018735 16711746
0.0782463 -0.1520582 1.8933899 16711746
0.0375137 -0.2513813 1.9762087 16711746
0.0418499 -0.1479714 1.9004318 16711746
0.0066296 -0.1501419 1.8913412 16711746
-0.0623391 -0.1383896 1.8456752 16711746
0.0613176 -0.1451748 1.8721529 16711746
0.0699536 -0.1586947 2.0112584 16711746
0.0855745 -0.1597707 1.9694672 16711746
0.2824080 -0.3723829 2.1150200 16711746
0.0856814 -0.1752470 1.9821212 16711746
0.1068932 -0.1562533 1.9249336 16711746
0.0804833 -0.1805113 1.9979284 16711746
0.0380897 -0.1501748 1.9204210 16711746
-0.0031584 -0.1519980 1.9276633 16711746
0.0034185 -0.2424020 1.9658155 16711746
-0.0861008 -0.1388977 1.8724300 16711746
0.2635976 -0.3106838 2.1034837 16711746
-0.0547800 -0.1457402 1.9094024 16711746
0.1494488 -0.3379585 2.1317542 16711746
0.2509196 -0.2080210 2.1913600 16711746
-0.0147285 -0.1797557 1.8811728 16711746
0.0869893 -0.1494163 1.8572396 16711746
0.0934949 -0.1495800 1.8507842 16711746
0.0866126 -0.1733327 2.0414469 16711746
0.2071631 -0.1742000 2.0634365 16711746
0.2696249 -0.3078242 2.0019438 16711746
0.2617986 -0.3159562 2.1287162 16711746
-0.0974132 -0.1406337 2.0622911 16711746
0.0224231 -0.1689096 2.0328288 16711746
0.0442356 -0.3327920 2.2241225 16711746
0.1736374 -0.1924870 2.2561381 16711746
0.0024711 -0.3135993 2.1647899 16711746
0.0166212 -0.3518908 2.4761229 16711746
-0.0071329 -0.2556994 2.1775255 16711746
0.0061695 -0.1516106 1.8931856 16711746
0.0672472 -0.1461946 1.8638916 16711746
0.0733477 -0.1540898 1.8839493 16711746
0.0722906 -0.1548205 1.8877363 16711746
0.0006084 -0.1417730 1.8596227 16711746
-0.0198931 -0.1429741 1.8929384 16711746
-0.0376006 -0.1430566 1.9042280 16711746
0.0707997 -0.1458372 1.8538455 16711746
-0.0269939 -0.1410549 1.8822167 16711746
-0.0134320 -0.1401315 1.8623400 16711746
0.0783112 -0.1518424 1.8657213 16711746
0.0405829 -0.1436781 1.8533701 16711746
0.1076804 -0.1549791 1.9031730 16711746
0.0952573 -0.1744680 1.9190446 16711746
0.0935685 -0.1547033 1.8566209 16711746
0.0885433 -0.1537407 1.8708493 16711746
-0.0211163 -0.1415418 1.8967228 16711746
0.0082596 -0.1463507 1.8800848 16711746
0.0288853 -0.1482266 1.8705403 16711746
-0.0025275 -0.1436389 1.8671455 16711746
-0.0033442 -0.1460660 1.8726269 16711746
-0.0038762 -0.1474225 1.8893818 16711746
0.0103583 -0.1501652 1.8902886 16711746
-0.0988985 -0.1501463 1.9584931 16711746
0.0904683 -0.1653212 1.9196181 16711746
-0.0384526 -0.1421078 1.9062669 16711746
-0.0420226 -0.1432918 1.8944193 16711746
0.0634268 -0.1420083 1.8420457 16711746
-0.0162350 -0.1390398 1.8558195 16711746
-0.0297346 -0.1412345 1.8944401 16711746
0.0505230 -0.1473475 1.8624214 16711746
0.0545205 -0.1476991 1.8728616 16711746
0.0765093 -0.1505134 1.8534038 16711746
0.0032674 -0.1491923 1.8792999 16711746
-0.0354842 -0.1397706 1.9029638 16711746
-0.0196364 -0.1444368 1.8699261 16711746
-0.0077937 -0.1489297 1.8631964 16711746
0.0142397 -0.1467379 1.8801177 16711746
-0.1113874 -0.1330553 1.8908571 16711746
-0.0136219 -0.1563885 1.8685355 16711746
0.0799395 -0.1483110 1.8664206 16711746
0.0633143 -0.1528764 1.8598672 16711746
0.0867108 -0.1483730 1.9076967 16711746
-0.0151358 -0.1710385 1.8653399 16711746
0.0324549 -0.1796695 1.8545110 16711746
0.0169089 -0.1522298 1.8660102 16711746
0.0698697 -0.1565798 1.8624778 16711746
0.1274285 -0.1572843 1.9343481 16711746
0.3385047 -0.3570871 2.0639720 16711746
-0.0848693 -0.1548594 1.9722950 16711746
0.0587666 -0.1504385 1.8846749 16711746
-0.0021853 -0.1693591 1.8753934 16711746
0.0045132 -0.1487805 1.8727213 16711746
0.0940629 -0.1602780 1.9233447 16711746
0.0280680 -0.1564486 1.9156389 16711746
0.0797996 -0.1919669 1.9726390 16711746
0.0230572 -0.1423684 1.8955624 16711746
0.0685341 -0.1555151 1.9042047 16711746
0.0828635 -0.1631815 1.9036582 16711746
0.0895211 -0.1717876 1.9317633 16711746
0.0573763 -0.1680002 1.9467173 16711746
-0.0498458 -0.2291630 1.9232292 16711746
0.0117299 -0.1517677 1.9111217 16711746
0.0880707 -0.1660155 1.9151901 16711746
0.0506616 -0.1519636 1.9497033 16711746
-0.0430012 -0.1360079 1.8346196 16711746
-0.1330231 -0.1379058 1.9216546 16711746
-0.1065746 -0.1646784 2.0465229 16711746
0.1891210 -0.1629983 1.9054540 16711746
0.0690270 -0.1480714 1.8611786 16711746
0.1355326 -0.1646135 1.9411756 16711746
0.0997497 -0.1515699 1.8510724 16711746
0.2825423 -0.1904074 1.9692186 16711746
0.0107831 -0.1448040 1.8716232 16711746
-0.1879020 -0.1349302 1.9620969 16711746
-0.0101854 -0.1437488 1.8609500 16711746
0.0893655 -0.1515642 1.8677042 16711746
-0.0351693 -0.1456868 1.9021221 16711746
-0.0228802 -0.1403443 1.8658068 16711746
0.0807887 -0.1490524 1.8494842 16711746
0.0149962 -0.1450470 1.8626429 16711746
-0.0419460 -0.1416940 1.9160416 16711746
0.0948700 -0.1603438 1.9226067 16711746
0.0864839 -0.1490240 1.8439509 16711746
0.0429364 -0.1460409 1.8713844 16711746
0.0707412 -0.1561913 1.9064393 16711746
-0.0164365 -0.1569477 1.9435123 16711746
0.0236066 -0.1464804 1.8664314 16711746
0.0611114 -0.1577359 1.9465700 16711746
0.0771854 -0.1525175 1.8909448 16711746
0.0767697 -0.1812005 1.9880772 16711746
0.0808010 -0.1463057 1.8406625 16711746
-0.0272598 -0.1408847 1.8828553 16711746
0.0429298 -0.1460324 1.8719985 16711746
0.0318753 -0.1514304 1.9378707 16711746
0.0174266 -0.1495316 1.9315678 16711746
0.0594908 -0.1595672 1.9397368 16711746
0.0721288 -0.1682445 2.0040119 16711746
0.0209528 -0.1473386 1.8955976 16711746
0.0729428 -0.1436043 1.8392457 16711746
0.0359928 -0.1571663 1.9591205 16711746
-0.0117781 -0.1682151 1.9538866 16711746
0.0857493 -0.1604820 1.9845777 16711746
-0.0142052 -0.1367776 2.0066795 16711746
-0.0707529 -0.1445497 1.9185644 16711746
0.0471077 -0.1500589 1.9198077 16711746
0.0660937 -0.1571389 2.0182629 16711746
0.0466131 -0.1501263 1.9183214 16711746
-0.0068894 -0.1464123 1.8925233 16711746
0.2825587 -0.3400821 2.1275403 16711746
-0.0706962 -0.1437154 1.9130570 16711746
0.0242023 -0.1477179 1.9142605 16711746
-0.0227586 -0.1795478 2.0608182 16711746
0.0510163 -0.1467260 1.9378074 16711746
-0.2264365 -0.3301493 2.1388817 16711746
0.0040265 -0.1430689 1.8702056 16711746
-0.2857869 -0.1528972 2.5382419 16711746
-0.0728483 -0.1513148 2.0051155 16711746
-0.0427085 -0.1405909 1.8955021 16711746
-0.0617967 -0.1400882 1.8919801 16711746
-0.0034357 -0.1455215 1.8985541 16711746
-0.0096813 -0.1750088 2.0529771 16711746
-0.0019368 -0.1671580 2.0479672 16711746
0.2107842 -0.1659899 1.9287800 16711746
-0.1087075 -0.1465542 2.0183220 16711746
-0.0625496 -0.1543762 2.0414999 16711746
0.0710466 -0.1807913 2.1137934 16711746
-0.0140014 -0.1424356 1.8775359 16711746
0.1281314 -0.1609072 1.8972800 16711746
-0.0408220 -0.1442912 1.8917702 16711746
-0.0529178 -0.1402141 1.8935337 16711746
-0.0637308 -0.1456560 1.9261413 16711746
0.0138490 -0.1440442 1.8825774 16711746
-0.0718666 -0.1446378 1.9483085 16711746
0.0730763 -0.1403266 1.8676136 16711746
-0.0285235 -0.1384423 1.8663559 16711746
-0.0579783 -0.1419454 1.9179651 16711746
-0.0365571 -0.1407353 1.8881534 16711746
0.1013087 -0.1533494 1.8915373 16711746
-0.0661681 -0.1455883 1.9145991 16711746
-0.0119245 -0.1481844 1.8972399 16711746
0.0718988 -0.1462190 1.8652692 16711746
0.0470811 -0.1459920 1.8792365 16711746
-0.0446311 -0.1411596 1.8840203 16711746
-0.0208329 -0.1411230 1.8712302 16711746
0.0728655 -0.1467673 1.8547854 16711746
0.0816059 -0.1578053 1.9129320 16711746
-0.0544997 -0.1438795 1.9115818 16711746
-0.0374505 -0.1427598 1.8931271 16711746
0.0641431 -0.1468682 1.8686944 16711746
0.0748650 -0.1685113 1.9043891 16711746
0.0899999 -0.1511541 1.8685452 16711746
0.0791666 -0.1517541 1.8666332 16711746
0.0574196 -0.1450278 1.8623121 16711746
-0.0088903 -0.1470140 1.8931975 16711746
0.0363212 -0.1531041 1.9073011 16711746
0.0890945 -0.1759863 1.9705989 16711746
0.0566209 -0.1469100 1.8743969 16711746
0.0122665 -0.1446268 1.8819648 16711746
-0.0610374 -0.1491990 1.9297816 16711746
0.0667380 -0.1526400 1.8706745 16711746
0.0964651 -0.1788018 1.9142014 16711746
0.0511883 -0.1465555 1.8891984 16711746
0.0803695 -0.1557913 1.8763534 16711746
-0.0652975 -0.1446908 1.9272692 16711746
0.1323424 -0.1636312 1.9296544 16711746
-0.0155762 -0.1535182 1.8898127 16711746
-0.0140729 -0.1480456 1.8907806 16711746
0.0857729 -0.1613045 1.8843466 16711746
0.1425367 -0.1749042 1.9462178 16711746
-0.0572872 -0.1427174 1.9174652 16711746
-0.0239524 -0.1488283 1.8954353 16711746
-0.0310495 -0.1466312 1.8923932 16711746
-0.0176526 -0.1776013 1.8660294 16711746
-0.0198280 -0.1854515 1.8831908 16711746
-0.0520199 -0.1366498 1.9109057 16711746
0.0501959 -0.1476430 1.8931550 16711746
0.0797403 -0.1756761 1.9026721 16711746
-0.0388361 -0.1481299 1.8971457 16711746
-0.0162928 -0.1437522 1.9129037 16711746
-0.0093029 -0.1614524 1.8980044 16711746
-0.0612010 -0.1341919 1.9397427 16711746
0.0226757 -0.1472146 1.8898770 16711746
0.1239207 -0.1667755 1.9277866 16711746
-0.0229701 -0.1584906 1.9362693 16711746
0.1906171 -0.1792634 1.9999660 16711746
-0.0261446 -0.1702964 1.9470439 16711746
0.1502582 -0.1777808 1.9910523 16711746
0.0539555 -0.1611975 1.9875050 16711746
0.1110964 -0.1604674 1.9179116 16711746
0.0962801 -0.1525065 1.8690107 16711746
0.0809598 -0.1549698 1.9111713 16711746
-0.0097234 -0.1579836 1.9098681 16711746
0.1238698 -0.1620069 1.9273680 16711746
0.0636048 -0.1473324 1.8679357 16711746
0.0339854 -0.1477956 1.8689308 16711746
-0.0363473 -0.1434966 1.9026825 16711746
-0.1439084 -0.1587798 1.9664750 16711746
-0.0032779 -0.1497573 1.9089056 16711746
-0.0903396 -0.1383702 1.9894543 16711746
0.0822942 -0.1530998 1.8837463 16711746
0.0836299 -0.1582890 1.9504324 16711746
-0.0175123 -0.1539325 1.9303051 16711746
0.0482014 -0.1456355 1.8761899 16711746
0.2327404 -0.1789266 2.0596228 16711746
-0.0391752 -0.1415875 1.8962139 16711746
0.0009807 -0.1439493 1.8935226 16711746
0.1021395 -0.1744742 2.0056574 16711746
0.2411233 -0.2870642 2.0849454 16711746
0.1291447 -0.1712391 1.9699675 16711746
-0.0141365 -0.1569804 1.9111297 16711746
-0.0958320 -0.1589788 1.9783163 16711746
0.0349931 -0.1469387 1.8719149 16711746
-0.0075789 -0.1800917 1.8545089 16711746
-0.0084567 -0.1798419 1.8572726 16711746
0.0029076 -0.1643924 1.9339372 16711746
-0.0383496 -0.1362611 1.9074661 16711746
0.0019773 -0.1605947 1.9747369 16711746
0.0743335 -0.1513307 1.8698163 16711746
0.1455887 -0.1634777 1.9546109 16711746
-0.0164628 -0.1578524 2.0065985 16711746
-0.0120843 -0.1687509 1.9537214 16711746
0.0392034 -0.1550504 1.9437599 16711746
-0.0489983 -0.1397878 1.8779851 16711746
-0.0109493 -0.1569820 1.9458920 16711746
-0.0849132 -0.1434831 1.9281852 16711746
0.3108229 -0.3343054 2.1080577 16711746
0.3564101 -0.3582147 2.1504123 16711746
-0.0542960 -0.1421657 1.8954122 16711746
0.0714288 -0.3812059 2.2874839 16711746
0.0791446 -0.1554647 1.9089303 16711746
0.2789037 -0.3122045 2.0854716 16711746
0.2522912 -0.3298894 2.1332381 16711746
-0.0720417 -0.1402944 1.8954521 16711746
0.0018517 -0.2312659 2.0100322 16711746
-0.0171360 -0.1776047 1.8672854 16711746
-0.0751999 -0.2951763 2.0490072 16711746
0.0094296 -0.3470915 2.2237906 16711746
-0.1720563 -0.1448638 2.0293932 16711746
0.2660144 -0.3010088 2.1493676 16711746
0.0828630 -0.4147008 2.3683352 16711746
-0.0556569 -0.1436166 1.8947564 16711746
-0.0051494 -0.1467131 1.9154685 16711746
-0.0865720 -0.1446682 1.9275508 16711746
0.2707651 -0.3263361 2.0832722 16711746
-0.0149525 -0.1757222 1.8640416 16711746
0.0566249 -0.1671819 2.1312258 16711746
-0.0588149 -0.1397669 1.8970723 16711746
-0.0573164 -0.1483988 1.9750642 16711746
0.1326458 -0.1992982 2.2258685 16711746
0.2222563 -0.3232108 2.0984812 16711746
0.2613116 -0.3256578 2.0732844 16711746
-0.0247390 -0.1517200 1.9791907 16711746
-0.0120401 -0.2860924 2.2806818 16711746
0.0461268 -0.1471998 1.8764228 16711746
0.0051233 -0.1523481 1.9044175 16711746
-0.0096619 -0.1460311 1.8685569 16711746
0.0991622 -0.1531774 1.8685414 16711746
0.0735373 -0.1519919 1.8724568 16711746
0.0712518 -0.1487473 1.8641456 16711746
0.0609474 -0.1593144 1.8935262 16711746
-0.0273321 -0.1396799 1.8644142 16711746
0.0673852 -0.1510059 1.8673352 16711746
-0.0034955 -0.1458951 1.8732475 16711746
-0.0084104 -0.1478361 1.8864369 16711746
-0.0391247 -0.1454817 1.8890373 16711746
0.0780609 -0.1518555 1.8581583 16711746
-0.0099516 -0.1695934 1.8646960 16711746
-0.0234113 -0.1498218 1.8920604 16711746
0.0721132 -0.1617412 1.8851831 16711746
-0.0494441 -0.1421342 1.8888186 16711746
0.0447113 -0.1577689 1.9226083 16711746
0.0230310 -0.1505804 1.8942466 16711746
-0.0093543 -0.1459228 1.8649840 16711746
0.0706218 -0.1489680 1.8579533 16711746
0.0848683 -0.1499807 1.8651019 16711746
0.0606620 -0.1609860 1.8862323 16711746
0.0856726 -0.1759216 1.9036186 16711746
0.0474858 -0.1550713 1.9332579 16711746
0.2025348 -0.1723428 2.0127604 16711746
0.0010144 -0.1517290 1.8869679 16711746
-0.0508206 -0.1374342 1.8911763 16711746
0.0637708 -0.1549882 1.8870213 16711746
-0.0484585 -0.1555878 1.8843451 16711746
0.0716614 -0.1758619 1.8819164 16711746
0.0526936 -0.1621828 1.9244295 16711746
-0.0334587 -0.1432893 1.9043045 16711746
0.1092049 -0.1585610 1.9092658 16711746
-0.0718254 -0.1430640 1.9229610 16711746
0.0145545 -0.1474795 1.8769300 16711746
-0.0389833 -0.1438384 1.9122777 16711746
0.0702767 -0.1586779 1.9400465 16711746
-0.0113132 -0.1438808 1.8979274 16711746
-0.0082608 -0.1557411 1.9514592 16711746
-0.0256465 -0.1650231 1.9538883 16711746
-0.0139545 -0.1450144 1.9002936 16711746
0.0747026 -0.1509325 1.8713156 16711746
0.1474598 -0.1687346 1.9623092 16711746
0.1299877 -0.1644737 1.9311429 16711746
0.2953844 -0.2899700 2.0334208 16711746
0.0557512 -0.1509330 1.9218640 16711746
0.0598199 -0.1703264 1.9411452 16711746
0.0728647 -0.1546517 1.8922127 16711746
0.0133298 -0.1833334 1.8489895 16711746
0.0789773 -0.1562160 1.8752886 16711746
0.0949732 -0.1503183 1.8705910 16711746
-0.0175283 -0.1472622 1.9514009 16711746
0.0683490 -0.1821930 1.9141452 16711746
0.0462619 -0.1700398 1.9022795 16711746
0.0346155 -0.1471998 1.8698151 16711746
0.0729164 -0.1525932 1.8405561 16711746
-0.0143477 -0.2248632 1.9056178 16711746
-0.0104984 -0.1792643 1.8616800 16711746
0.0041088 -0.2498095 1.9631349 16711746
0.0268137 -0.1489640 1.8680784 16711746
0.0054128 -0.1496050 1.9149510 16711746
0.0807531 -0.1526381 1.8716289 16711746
0.0019869 -0.1457070 1.8884423 16711746
0.0174099 -0.1483759 1.8776788 16711746
-0.0006270 -0.1491808 1.8980310 16711746
0.0476082 -0.1869320 1.9120079 16711746
0.2256125 -0.1999878 2.0309503 16711746
-0.0113164 -0.1567950 2.0056455 16711746
-0.1091378 -0.1409320 1.9512089 16711746
0.0747648 -0.1598801 1.9053795 16711746
-0.0069201 -0.1550846 1.9810379 16711746
-0.0034562 -0.1453037 1.8877561 16711746
-0.0010493 -0.1484738 1.9056023 16711746
0.0070965 -0.2224832 1.9126945 16711746
-0.0804665 -0.1350852 1.8915364 16711746
0.3084730 -0.3561468 2.3049240 16711746
0.2986492 -0.3747291 2.2082200 16711746
0.3113440 -0.3627606 2.0602999 16711746
-0.0001387 -0.1479595 1.8971112 16711746
-0.0068539 -0.1457391 1.8945677 16711746
0.3740542 -0.4156761 2.2128499 16711746
0.0779073 -0.1644207 1.9918616 16711746
-0.1160173 -0.1403317 1.9464418 16711746
-0.1116785 -0.1415651 1.9406477 16711746
0.0084372 -0.1463873 1.8799160 16711746
-0.0217703 -0.1666625 1.9726466 16711746
0.0228561 -0.1489570 1.9002769 16711746
0.3715272 -0.3599258 2.1924896 16711746
0.6536682 -0.5207416 2.4872479 16711746
-0.0035166 -0.1602344 2.0113091 16711746
0.0344635 -0.1550416 1.9539270 16711746
0.0560963 -0.1713821 2.0332541 16711746
0.0805802 -0.1602649 1.9072390 16711746
-0.0840448 -0.1377005 1.9187928 16711746
0.0782570 -0.1743768 2.0867817 16711746
0.0877626 -0.1558770 1.8941885 16711746
-0.0165016 -0.2697842 2.1403627 16711746
-0.0672740 -0.1422910 1.8869430 16711746
0.3072653 -0.3196404 2.1763339 16711746
-0.1175288 -0.1388154 1.9377474 16711746
-0.0554702 -0.1416352 1.8906292 16711746
-0.0103362 -0.2817433 2.2106969 16711746
0.6970252 -0.3640758 3.0162868 16711746
-0.2252216 -0.1500454 2.0357115 16711746
-0.0371381 -0.1376057 1.8766458 16711746
-0.0249315 -0.2884995 2.2167435 16711746
0.0677284 -0.1513488 1.8728304 16711746
0.0030468 -0.1484743 1.8809259 16711746
-0.0028441 -0.1468716 1.8708282 16711746
0.0470709 -0.1468457 1.8733860 16711746
-0.1213009 -0.1629597 1.9665638 16711746
-0.0151931 -0.1497616 1.9056979 16711746
-0.0361987 -0.1407379 1.8875996 16711746
-0.1060155 -0.1557014 1.9596393 16711746
-0.0764858 -0.1463932 1.8917512 16711746
-0.0197359 -0.1435228 1.8727280 16711746
-0.0770727 -0.1405011 1.8949131 16711746
0.0691173 -0.1459951 1.8637085 16711746
-0.0184800 -0.2269070 1.9086710 16711746
0.0703832 -0.2418640 1.9426651 16711746
-0.1083274 -0.1415259 1.9500211 16711746
0.0577560 -0.1487937 1.8709469 16711746
-0.0117203 -0.1488112 1.8959420 16711746
0.0555759 -0.1482053 1.8760544 16711746
-0.0058112 -0.1492514 1.8859123 16711746
0.1108124 -0.1573908 1.8970165 16711746
-0.1132595 -0.1394438 1.9562597 16711746
-0.0856026 -0.1472838 1.9345071 16711746
-0.0771423 -0.1514462 1.9536284 16711746
0.0692421 -0.1503578 1.8668498 16711746
0.1004039 -0.1546540 1.8991600 16711746
-0.0149463 -0.1498126 1.9058691 16711746
0.0783073 -0.1487546 1.8575265 16711746
0.0256121 -0.1582254 1.9299290 16711746
0.0667370 -0.1601319 1.9147570 16711746
0.0226376 -0.1518473 1.9184004 16711746
-0.0189100 -0.1446914 1.8702862 16711746
-0.0404357 -0.1425488 1.8724487 16711746
-0.0509480 -0.1389834 1.8793963 16711746
-0.1020332 -0.1651974 1.9417976 16711746
-0.0492202 -0.1429854 1.9076697 16711746
-0.0474681 -0.1461718 1.8868538 16711746
-0.0276384 -0.1432527 1.8891665 16711746
-0.0160866 -0.1431834 1.9112556 16711746
0.0612632 -0.1622653 1.9073292 16711746
-0.0069896 -0.1817732 1.8781937 16711746
-0.0602626 -0.1419989 1.8801930 16711746
-0.0663774 -0.1402826 1.9276785 16711746
-0.0719475 -0.1371864 1.9321294 16711746
0.1227373 -0.2573029 1.9607970 16711746
-0.0803338 -0.1447983 1.8962094 16711746
0.0745577 -0.1538345 1.8864030 16711746
0.0857310 -0.1743225 1.9033607 16711746
-0.0003967 -0.1767908 1.8572760 16711746
0.1301100 -0.1699027 1.9143000 16711746
-0.0127469 -0.1472184 1.9200606 16711746
-0.0024526 -0.1473361 1.8910403 16711746
0.0402732 -0.1547134 1.9204227 16711746
0.0608428 -0.1651208 1.9461910 16711746
0.0984291 -0.1882509 1.9839901 16711746
0.2241130 -0.2833507 2.0203803 16711746
0.0869542 -0.1630187 1.9095072 16711746
0.0651490 -0.1635911 1.9386396 16711746
0.0820317 -0.1925265 1.9691428 16711746
0.0376444 -0.1534244 1.8836977 16711746
0.0526718 -0.1825335 1.9332952 16711746
-0.1069454 -0.1669748 1.9436147 16711746
0.1807314 -0.2580526 1.9786191 16711746
0.0258127 -0.1617118 1.9461020 16711746
0.0632574 -0.1751670 1.9844640 16711746
0.0690412 -0.1467464 1.8610324 16711746
0.0337964 -0.2966444 2.0603037 16711746
0.0174934 -0.1567209 1.9234345 16711746
-0.1789222 -0.1647757 1.9981527 16711746
-0.0534513 -0.1444523 1.8922431 16711746
0.0100514 -0.1494736 1.9167199 16711746
0.0717892 -0.1614067 1.9108319 16711746
-0.0661178 -0.1477252 1.9181205 16711746
-0.0232656 -0.1480907 1.9739244 16711746
-0.0199029 -0.1540459 1.9627600 16711746
0.2540617 -0.3529563 2.0804822 16711746
-0.0034772 -0.1498652 1.9266731 16711746
0.2936973 -0.3060009 2.0840933 16711746
-0.0068366 -0.1481350 1.8883307 16711746
0.0003783 -0.1496562 1.8973972 16711746
-0.0396384 -0.1386482 1.8692787 16711746
0.0141508 -0.1468838 1.8752289 16711746
0.0567633 -0.1660024 1.9336624 16711746
-0.1477217 -0.1586691 1.9967012 16711746
0.1025129 -0.1562936 1.9008442 16711746
0.0499927 -0.1542116 1.9080664 16711746
-0.0459525 -0.1405571 1.8849761 16711746
-0.0192089 -0.1669842 1.9885968 16711746
0.1132914 -0.3418661 2.1334157 16711746
0.0503244 -0.1511398 1.9333962 16711746
0.2665716 -0.2946341 2.0568359 16711746
0.0179231 -0.1515969 1.9461111 16711746
0.0571915 -0.1627131 1.9755598 16711746
0.0648624 -0.1607499 1.9154717 16711746
0.0680982 -0.1700611 2.0232644 16711746
-0.1914179 -0.1393572 1.9397469 16711746
0.0789635 -0.1604801 1.9433070 16711746
0.0566244 -0.1496994 1.8723570 16711746
0.2602958 -0.3271094 2.2309573 16711746
-0.1349136 -0.1462729 1.9718267 16711746
0.0938959 -0.3349519 2.1529806 16711746
-0.0034620 -0.1492022 1.9108293 16711746
0.0674847 -0.1458551 1.8645865 16711746
0.0495859 -0.1485019 1.8891932 16711746
-0.0130823 -0.1508353 1.9297405 16711746
0.2220474 -0.3222552 2.2135439 16711746
0.0810427 -0.1545642 1.9130751 16711746
0.0675759 -0.1657522 1.9257073 16711746
0.0124947 -0.1996292 1.9170564 16711746
0.1978377 -0.3801394 2.2954488 16711746
0.1579384 -0.3587113 2.1898646 16711746
0.2709816 -0.3036956 2.0640190 16711746
0.0030580 -0.1487554 1.9164032 16711746
0.0106682 -0.3566520 2.1910224 16711746
0.1803827 -0.1796527 2.1128709 16711746
0.2266885 -0.3474954 2.2271397 16711746
0.0691985 -0.1643964 2.1147554 16711746
0.2067959 -0.3349243 2.2275498 16711746
0.7460424 -0.3517450 2.5664754 16711746
0.1503105 -0.1833479 2.2425215 16711746
0.1973276 -0.1946485 2.3085017 16711746
0.0763395 -0.1524989 1.8864715 16711746
0.0362729 -0.1564853 1.9379842 16711746
0.0766397 -0.1727097 1.9103775 16711746
0.1286970 -0.1612812 1.9271309 16711746
-0.0490988 -0.1432486 1.9025210 16711746
0.0787103 -0.1771757 1.9533637 16711746
-0.0530892 -0.1436405 1.8809055 16711746
0.1013992 -0.1575651 1.9217263 16711746
-0.0108699 -0.1497960 1.8904451 16711746
0.0125271 -0.1485877 1.8877240 16711746
0.0361404 -0.1589946 1.9319309 16711746
-0.0543258 -0.1440729 1.8935921 16711746
0.0900769 -0.1637961 1.9547479 16711746
-0.0482530 -0.1448253 1.9101299 16711746
0.0181790 -0.1538350 1.9119992 16711746
-0.0130472 -0.1473746 1.8966385 16711746
0.0660242 -0.1509912 1.8815504 16711746
0.0428835 -0.1547858 1.9051337 16711746
0.1176895 -0.1564538 1.9018710 16711746
0.0685549 -0.1590063 1.9221991 16711746
0.1901779 -0.1713672 1.9814291 16711746
-0.0473820 -0.1453585 1.9084487 16711746
0.0796253 -0.1639380 1.9081196 16711746
0.1874969 -0.2556067 1.9519176 16711746
0.0309150 -0.1539858 1.9253197 16711746
0.0076638 -0.1537333 1.9215457 16711746
0.1659147 -0.1668636 1.9505764 16711746
-0.0485107 -0.1435910 1.9016354 16711746
0.1444988 -0.1658190 1.9536515 16711746
-0.0409561 -0.1439450 1.8932990 16711746
-0.0128901 -0.1487824 1.9176309 16711746
0.0777582 -0.1516703 1.8652986 16711746
-0.0403818 -0.1439448 1.8881049 16711746
0.0141582 -0.1584662 1.9530039 16711746
0.0552501 -0.1576678 1.9327935 16711746
0.0229855 -0.1537076 1.8932148 16711746
0.0321351 -0.1520038 1.8831977 16711746
0.1500634 -0.1596635 1.9308404 16711746
-0.0314024 -0.1480034 1.9456321 16711746
-0.0058642 -0.1447705 1.9262097 16711746
-0.0473633 -0.1397537 1.8865688 16711746
-0.0606472 -0.1483046 1.8730578 16711746
-0.0329503 -0.1419701 1.8857358 16711746
-0.0076072 -0.1452640 1.9068983 16711746
-0.0159657 -0.1467426 1.8936346 16711746
0.0794853 -0.1569408 1.8709601 16711746
0.0336957 -0.1559878 1.9172510 16711746
0.1706519 -0.1737162 1.9839038 16711746
0.0919663 -0.1634543 1.9026865 16711746
0.1887929 -0.2678305 1.9615322 16711746
0.0691698 -0.1749647 1.9047719 16711746
-0.0004478 -0.1696642 1.8736163 16711746
-0.1176246 -0.1562124 1.9585580 16711746
0.0564459 -0.1494626 1.9079330 16711746
0.0360067 -0.1561195 1.9148637 16711746
0.0304939 -0.1595243 1.9462591 16711746
0.2321941 -0.1876563 2.0597129 16711746
-0.0969426 -0.1435195 1.9193000 16711746
0.0746516 -0.1534929 1.8848491 16711746
0.1292742 -0.1609415 1.9135660 16711746
-0.0160905 -0.1499839 1.9105363 16711746
0.0578971 -0.1511993 1.8902085 16711746
0.2278197 -0.1765704 1.9852343 16711746
0.2703448 -0.1868303 2.1046257 16711746
0.0422757 -0.1527390 1.9274029 16711746
-0.0007690 -0.1498382 1.9016770 16711746
-0.0619197 -0.1443956 1.8995650 16711746
0.0704299 -0.1499840 1.8627474 16711746
0.0612979 -0.1698729 1.9913980 16711746
-0.0819366 -0.1382533 1.9106275 16711746
0.0873922 -0.2626680 2.0023720 16711746
0.2540791 -0.2632569 2.0143251 16711746
0.0055386 -0.1494355 1.8986254 16711746
-0.1041253 -0.1541656 1.9052829 16711746
-0.0256233 -0.1577837 1.9496350 16711746
0.0799164 -0.1606678 1.9203700 16711746
0.2414616 -0.2702399 2.0608540 16711746
0.1693545 -0.2823742 1.9883434 16711746
0.1680527 -0.2930484 1.9844471 16711746
0.0660444 -0.1563922 1.8958271 16711746
-0.0716686 -0.1428691 1.8995268 16711746
0.0706877 -0.2674179 2.0190394 16711746
0.0487887 -0.1492664 1.8807948 16711746
0.2269485 -0.2691350 2.0291438 16711746
0.0776034 -0.1830005 1.9385877 16711746
-0.0858967 -0.1427360 1.9009910 16711746
-0.0534820 -0.1440827 1.8815043 16711746
0.0653449 -0.2515079 1.9665519 16711746
0.0948348 -0.1555383 1.9113449 16711746
-0.0134421 -0.2288151 1.9214373 16711746
0.0363483 -0.2608713 1.9924798 16711746
0.0827495 -0.1653523 1.9164187 16711746
0.0762653 -0.1656751 1.9056773 16711746
0.0168809 -0.1565365 1.9593271 16711746
-0.0198165 -0.1666957 1.9932755 16711746
-0.0575672 -0.1413565 1.8860037 16711746
0.0714676 -0.1587553 1.8963619 16711746
-0.1002009 -0.1568887 1.9257877 16711746
0.2708403 -0.2802578 2.0895572 16711746
0.2057623 -0.3127916 2.0136278 16711746
0.0459297 -0.1563220 1.9293185 16711746
-0.0411031 -0.1419532 1.8922334 16711746
-0.0986137 -0.1570309 1.9238446 16711746
0.0487592 -0.1657729 2.0126777 16711746
-0.0430184 -0.1464399 1.8867478 16711746
0.0148776 -0.3326861 2.1254103 16711746
0.0266083 -0.1636074 1.9731611 16711746
0.0821394 -0.1629848 1.9120384 16711746
0.0947841 -0.3422473 2.1658614 16711746
-0.0534550 -0.1445121 1.9105957 16711746
0.1016117 -0.3129219 2.1309679 16711746
-0.0124657 -0.1680193 2.0094912 16711746
0.1559393 -0.1706358 1.9444206 16711746
0.2415851 -0.3151320 2.0313375 16711746
0.1193775 -0.1560716 1.9033408 16711746
-0.0294734 -0.1445574 1.8893323 16711746
0.0934802 -0.3434475 2.1357827 16711746
0.0941166 -0.3467875 2.1420157 16711746
0.0722433 -0.1763784 1.9290485 16711746
0.0653750 -0.1733581 2.0276723 16711746
0.0312861 -0.1820997 2.0007184 16711746
-0.0001257 -0.1496609 1.8938445 16711746
0.0378114 -0.1711490 2.0215838 16711746
-0.1670463 -0.1290036 1.9546374 16711746
-0.0152597 -0.1643167 1.9750879 16711746
0.0553516 -0.1833404 2.2577844 16711746
-0.1456304 -0.4146382 2.3319771 16711746
0.0830669 -0.1587054 1.9258083 16711746
0.1454773 -0.2014298 2.2664945 16711746
0.1087708 -0.3961171 2.2258937 16711746
0.0041107 -0.1861023 2.2203579 16711746
-0.0027626 -0.1508008 1.9055358 16711746
0.0846006 -0.1653035 1.9181671 16711746
-0.0014700 -0.1545051 1.9052229 16711746
-0.0321550 -0.1423094 1.8857964 16711746
0.1585759 -0.1666697 1.9271659 16711746
0.0673151 -0.1515321 1.8723668 16711746
0.1000092 -0.1639656 1.9072248 16711746
0.0741264 -0.1628598 1.8980955 16711746
-0.0023132 -0.1534244 1.8859911 16711746
-0.0063469 -0.1523640 1.8964838 16711746
0.0544801 -0.1830043 1.8939168 16711746
0.1042536 -0.1691986 1.9093528 16711746
0.1028632 -0.1603217 1.8885370 16711746
0.0982975 -0.1575657 1.8960800 16711746
0.0441367 -0.1539933 1.9077536 16711746
-0.0855505 -0.1475012 1.9093102 16711746
0.0701387 -0.1573886 1.8944052 16711746
-0.0120037 -0.1505349 1.8939298 16711746
-0.0011724 -0.1494693 1.9021423 16711746
-0.0119060 -0.1483472 1.9098630 16711746
0.1067771 -0.1584951 1.8939559 16711746
0.0958266 -0.1586828 1.8962657 16711746
-0.0041018 -0.1495900 1.8942590 16711746
-0.0519994 -0.1413937 1.8999847 16711746
0.0743046 -0.1624736 1.9119917 16711746
0.0716876 -0.1567933 1.8963313 16711746
0.0645185 -0.1634472 1.9676933 16711746
0.0759312 -0.1811260 1.8984014 16711746
-0.0127623 -0.1561598 1.8926591 16711746
0.0584409 -0.1887546 1.9030638 16711746
0.1228670 -0.2289181 1.9376037 16711746
-0.0153338 -0.1547348 1.8823280 16711746
-0.0445878 -0.1555998 1.9014769 16711746
-0.0258333 -0.1634003 1.8497647 16711746
-0.0710538 -0.1495354 1.9005117 16711746
0.0588363 -0.1807774 1.9088064 16711746
0.0712812 -0.1535557 1.8758916 16711746
-0.0362747 -0.1497982 1.9566274 16711746
-0.0150897 -0.1534770 1.9323874 16711746
0.1238601 -0.1614688 1.9146136 16711746
0.2382106 -0.2999649 2.0192370 16711746
0.0666741 -0.1488335 1.8708791 16711746
0.1579104 -0.1676204 1.9435431 16711746
-0.0324318 -0.1421325 1.8857789 16711746
0.2319170 -0.2579765 2.0233333 16711746
0.2272694 -0.2842158 2.0198283 16711746
0.0862450 -0.1632166 1.9090873 16711746
0.0830166 -0.1538802 1.8865385 16711746
0.1459928 -0.1687636 1.9329817 16711746
0.1914883 -0.3062647 1.9926497 16711746
-0.0842161 -0.1478634 1.9326848 16711746
-0.0132901 -0.1491626 1.8971205 16711746
0.1821278 -0.2859796 1.9859802 16711746
0.0794168 -0.1532307 1.8701596 16711746
-0.0200705 -0.1599181 1.9669076 16711746
0.0653664 -0.1723293 2.0101330 16711746
0.2699620 -0.1963715 2.0075145 16711746
0.0381928 -0.1524517 1.8856392 16711746
0.0932609 -0.1557602 1.8833450 16711746
0.0890318 -0.1847818 1.9856200 16711746
0.3656867 -0.3691432 2.0703237 16711746
0.0836765 -0.1628754 1.9139867 16711746
0.2673126 -0.2920670 2.0820956 16711746
-0.0057768 -0.1472285 1.9470778 16711746
0.0714062 -0.1553737 1.8976371 16711746
0.0952627 -0.1546653 1.8860177 16711746
-0.0021502 -0.1477874 1.8896300 16711746
-0.0037674 -0.1503171 1.8923088 16711746
0.1766827 -0.2917846 2.1327608 16711746
-0.0067891 -0.1517793 1.8969172 16711746
-0.0788501 -0.1465079 1.9215242 16711746
0.0174652 -0.2926707 2.0539017 16711746
0.1450336 -0.2867312 2.0989008 16711746
-0.1101789 -0.1416128 1.9457365 16711746
-0.0174144 -0.1529877 1.9479132 16711746
0.0149763 -0.1563640 1.9633137 16711746
-0.0106864 -0.1621009 1.9703714 16711746
-0.0188265 -0.1677415 1.9830936 16711746
0.0762635 -0.1642988 1.9490017 16711746
0.0811769 -0.1527294 1.8710054 16711746
0.0627471 -0.1599075 1.9202245 16711746
0.1118608 -0.3482236 2.1885340 16711746
0.3125986 -0.2978764 2.1367598 16711746
0.0364944 -0.1768485 2.0563016 16711746
0.0442301 -0.1690028 2.0458004 16711746
0.0454910 -0.1779438 2.0846829 16711746
0.0735087 -0.1773975 1.9475402 16711746
0.0702916 -0.1816492 1.9081419 16711746
0.0709895 -0.1820211 1.9085560 16711746
0.0339560 -0.1603684 1.9435976 16711746
0.1128608 -0.3868462 2.2276599 16711746
0.0066383 -0.1736277 2.0360801 16711746
-0.1131789 -0.1556502 2.0875311 16711746
0.0249948 -0.1533310 1.9154218 16711746
0.0642122 -0.1770056 2.0554788 16711746
0.0454836 -0.1748744 2.1515317 16711746
-0.1533556 -0.1669432 2.2012851 16711746
-0.0874104 -0.1527654 1.8538679 16711746
0.0262321 -0.1594835 1.9793472 16711746
-0.1064167 -0.1558061 2.0524323 16711746
-0.0900031 -0.2812666 2.0695276 16711746
0.1503964 -0.3205036 2.1267407 16711746
-0.0282158 -0.3243290 2.1919286 16711746
0.1254429 -0.3287329 2.1400394 16711746
0.0544279 -0.1644119 1.9467242 16711746
0.0086301 -0.1556015 1.9188545 16711746
0.0661073 -0.1609987 1.9018004 16711746
0.0612433 -0.1563890 1.9109722 16711746
-0.0302236 -0.1533278 1.9305965 16711746
0.0690125 -0.1563161 1.8860621 16711746
0.0756638 -0.1516355 1.8682332 16711746
0.0708245 -0.1590485 1.9087640 16711746
-0.0614459 -0.1483540 1.9030445 16711746
-0.0070538 -0.1512353 1.8988882 16711746
-0.1429993 -0.1794771 1.9611336 16711746
-0.1339675 -0.1730985 1.9515274 16711746
0.0299471 -0.1503735 1.9113938 16711746
-0.0074630 -0.1491270 1.8874481 16711746
-0.0444451 -0.1540108 1.8694656 16711746
0.0756965 -0.1573401 1.8959072 16711746
0.0006040 -0.1538328 1.9094383 16711746
-0.0109281 -0.1540841 1.9167213 16711746
0.0386487 -0.1542829 1.9139020 16711746
0.0503318 -0.1564786 1.9138253 16711746
-0.0214642 -0.1559958 1.9189653 16711746
-0.0358236 -0.1491956 1.9441252 16711746
0.0760697 -0.1597924 1.8947834 16711746
0.0055626 -0.1541494 1.9024391 16711746
-0.0259734 -0.1523616 1.9292128 16711746
0.0702985 -0.1556585 1.8870368 16711746
-0.0084888 -0.1565432 1.9109485 16711746
-0.0017106 -0.1553619 1.9187609 16711746
-0.0136452 -0.1517493 1.9000015 16711746
-0.0074421 -0.1539669 1.9048856 16711746
0.0726335 -0.1584654 1.9112195 16711746
0.0764147 -0.1674465 1.9066365 16711746
-0.0173639 -0.1482698 1.9014741 16711746
0.0775953 -0.1525038 1.8960371 16711746
0.0131421 -0.1556288 1.9076102 16711746
0.1529254 -0.1678420 1.9383454 16711746
-0.0145490 -0.1779589 1.9331262 16711746
-0.0272288 -0.1772535 1.9403390 16711746
