# .PCD v.7 - Point Cloud Data file format
VERSION .7
FIELDS x y z rgb
SIZE 4 4 4 4
TYPE F F F F
COUNT 1 1 1 1
WIDTH 151
HEIGHT 1
VIEWPOINT 0 0 0 1 0 0 0
POINTS 151
DATA ascii

 0.0355161 -0.0934139 0.0630953 16777215
 0.0320513 -0.0944242 0.0620573 16777215
 0.0341013 -0.1038002 0.0648803 16777215
 0.0354205 -0.1073984 0.0676367 16777215
 0.0373452 -0.1056773 0.0696510 16777215
 0.0375452 -0.1059692 0.0691264 16777215
 0.0406363 -0.1075127 0.0709290 16777215
 0.0483058 -0.1051219 0.0776326 16777215
 0.0582301 -0.1077710 0.0841826 16777215
 0.0618862 -0.1087126 0.0846139 16777215
 0.0639993 -0.1112928 0.1003490 16777215
 0.0657057 -0.1154318 0.1080720 16777215
 0.0729330 -0.1121597 0.1185927 16777215
 0.0644791 -0.1122384 0.1545482 16777215
 0.0685545 -0.1309427 0.1695438 16777215
 0.0768242 -0.1650757 0.2055970 16777215
 0.0634476 -0.1685238 0.2680154 16777215
 0.0974011 -0.1959453 0.2775129 16777215
 0.1018773 -0.2045554 0.3098765 16777215
 0.0702009 -0.1739552 0.3403756 16777215
 0.0463952 -0.2094613 0.4651655 16777215
 0.0775878 -0.2265964 0.4635026 16777215
 0.0835453 -0.2201536 0.4756670 16777215
 0.0341098 -0.1462786 0.5283408 16777215
 0.0341416 -0.1863234 0.5908542 16777215
 0.0432160 -0.1875252 0.6017740 16777215
 0.0541769 -0.1910393 0.6032850 16777215
 0.0777349 -0.2075706 0.6075488 16777215
 0.0912674 -0.2297632 0.6193159 16777215
 0.1280119 -0.1939857 0.6256326 16777215
 0.1072700 -0.1987427 0.6217141 16777215
 -0.0405630 -0.1461175 0.7063985 16777215
 -0.0404896 -0.1688114 0.7102578 16777215
 -0.0194083 -0.1642961 0.7369375 16777215
 -0.0079764 -0.1775252 0.7435179 16777215
 -0.0075419 -0.1751905 0.7762914 16777215
 -0.0387648 -0.1990148 0.8894383 16777215
 -0.0412123 -0.2177500 0.8665714 16777215
 -0.0457482 -0.2391072 0.8858183 16777215
 -0.0067985 -0.2408247 0.8811540 16777215
 0.0067480 -0.2440673 0.9144730 16777215
 0.0316186 -0.2038377 0.9009952 16777215
 0.0115023 -0.2398707 0.9427513 16777215
 0.0486214 -0.2321253 0.9571533 16777215
 0.0707885 -0.2512338 0.9598894 16777215
 0.0626404 -0.1407488 1.0355527 16777215
 0.1388672 -0.1895554 0.8804358 16777215
 0.1548962 -0.2597595 0.9747935 16777215
 -0.0129068 -0.2214685 1.1037989 16777215
 0.0068700 -0.2308343 1.1105453 16777215
 0.0227050 -0.2457123 1.1159382 16777215
 0.0338798 -0.2663715 1.1555315 16777215
 0.0504854 -0.2834305 1.1703180 16777215
 0.0540549 -0.2822297 1.1873689 16777215
 0.0748032 -0.2987397 1.1915529 16777215
 0.0795197 -0.3063236 1.2053002 16777215
 -0.0595364 -0.1947525 1.2533616 16777215
 -0.0788305 -0.2221673 1.2658744 16777215
 -0.0590584 -0.2131471 1.2848561 16777215
 -0.0350159 -0.2311019 1.2939456 16777215
 -0.0177066 -0.2439606 1.3085148 16777215
 0.0145396 -0.2638561 1.3140981 16777215
 0.0000919 -0.2446723 1.3959559 16777215
 0.0095998 -0.3361133 1.4245169 16777215
 -0.0635614 -0.2538478 1.4754677 16777215
 -0.0652983 -0.2551817 1.4835560 16777215
 -0.0453847 -0.2669676 1.4928863 16777215
 -0.0324963 -0.2579573 1.4997139 16777215
 -0.0128906 -0.2675313 1.5018420 16777215
 -0.0899627 -0.1883655 1.5738606 16777215
 -0.0527686 -0.1889842 1.6244709 16777215
 -0.0378459 -0.1434473 1.6266803 16777215
 -0.0304418 -0.1665717 1.6351191 16777215
 -0.0377853 -0.2122947 1.6575294 16777215
 -0.0342782 -0.2120486 1.6825788 16777215
 -0.0078635 -0.2148750 1.6639087 16777215
 -0.0221984 -0.2132381 1.6839216 16777215
 -0.0095353 -0.1971015 1.6894455 16777215
 0.0128683 -0.2400650 1.6937373 16777215
 0.0223062 -0.2528572 1.7270331 16777215
 0.0323276 -0.2569554 1.7417030 16777215
 0.0763668 -0.2288000 1.7427149 16777215
 0.0255782 -0.2589464 1.8061354 16777215
 -0.0606564 -0.2458158 1.8590733 16777215
 -0.0349129 -0.2608526 1.8881874 16777215
 -0.0179047 -0.2812343 1.8997989 16777215
 -0.0139817 -0.2820753 1.9118152 16777215
 -0.0273703 -0.2997892 1.9145393 16777215
 -0.0340375 -0.3153794 1.9236249 16777215
 -0.0705007 -0.3143399 1.9816084 16777215
 -0.0639651 -0.2594004 1.9777246 16777215
 -0.0585372 -0.2969534 1.9943699 16777215
 -0.0403768 -0.3112053 2.0007119 16777215
 -0.0572339 -0.2508879 2.0034869 16777215
 -0.0486584 -0.2634206 2.0035982 16777215
 -0.0573573 -0.2959816 2.0316908 16777215
 -0.0463746 -0.2991168 2.0351410 16777215
 -0.0363666 -0.3095269 2.0441468 16777215
 -0.0345708 -0.3096890 2.0506668 16777215
 -0.0321110 -0.3112237 2.0524862 16777215
 -0.0266423 -0.3136411 2.0587983 16777215
 -0.0580346 -0.3192497 2.0696189 16777215
 -0.0534524 -0.3069851 2.0909526 16777215
 -0.0592887 -0.2911627 2.0979862 16777215
 -0.0386963 -0.2971392 2.1056294 16777215
 -0.0450434 -0.3129314 2.1173167 16777215
 -0.0666431 -0.3108661 2.1421535 16777215
 -0.0421829 -0.3250857 2.1509466 16777215
 -0.0897215 -0.2889119 2.2301402 16777215
 -0.1227587 -0.2692686 2.2618930 16777215
 -0.1309488 -0.2079236 2.2312765 16777215
 -0.1070629 -0.2092373 2.2617850 16777215
 -0.0951176 -0.2297899 2.2709367 16777215
 -0.0832502 -0.2474336 2.2826326 16777215
 -0.0754253 -0.2726178 2.2947383 16777215
 -0.0689626 -0.2822670 2.3076181 16777215
 -0.0651984 -0.2968339 2.3196950 16777215
 -0.0648436 -0.3073928 2.3222332 16777215
 -0.0436690 -0.3208445 2.3291588 16777215
 -0.0368192 -0.2966232 2.3378580 16777215
 -0.0732156 -0.3135114 2.3939078 16777215
 -0.0684522 -0.3145053 2.4246826 16777215
 -0.0731941 -0.3228611 2.4674418 16777215
 -0.0360790 -0.3493769 2.4710073 16777215
 -0.0491581 -0.3561263 2.5000131 16777215
 -0.0866552 -0.3766265 2.5255527 16777215
 -0.0883672 -0.3659177 2.5290928 16777215
 -0.1130898 -0.3345113 2.5719662 16777215
 -0.1153785 -0.3154913 2.5752439 16777215
 -0.1211521 -0.2949349 2.5859036 16777215
 -0.1566240 -0.2757193 2.6306996 16777215
 -0.1728666 -0.2703103 2.6358132 16777215
 -0.1694379 -0.2796686 2.6619525 16777215
 -0.1680456 -0.2518979 2.6886475 16777215
 -0.1569816 -0.2704818 2.7049718 16777215
 -0.1538013 -0.2707900 2.7060871 16777215
 -0.1529573 -0.2725668 2.7145777 16777215
 -0.1437142 -0.2754755 2.7225466 16777215
 -0.1390232 -0.2593396 2.7322981 16777215
 -0.1229725 -0.2662458 2.7500424 16777215
 -0.1141116 -0.2855046 2.7617865 16777215
 -0.1530200 -0.2759727 2.7912416 16777215
 -0.1099440 -0.2872198 2.8009558 16777215
 -0.1160434 -0.3166865 2.8125944 16777215
 -0.1286028 -0.3323664 2.8414497 16777215
 -0.0962028 -0.3271250 2.8473685 16777215
 -0.1070547 -0.3286213 2.8547983 16777215
 -0.0904931 -0.3234005 2.8717005 16777215
 -0.1604712 -0.3024415 2.8912752 16777215
 -0.1749415 -0.2752345 2.8995349 16777215
 -0.1598779 -0.2849174 2.8998384 16777215
