# .PCD v.7 - Point Cloud Data file format
VERSION .7
FIELDS x y z rgb
SIZE 4 4 4 4
TYPE F F F F
COUNT 1 1 1 1
WIDTH 159
HEIGHT 1
VIEWPOINT 0 0 0 1 0 0 0
POINTS 159
DATA ascii

-0.4891725 -0.9658564 1.7185899 16711746
-0.4040695 -0.7978466 1.6147341 16711746
-0.7173895 -0.5033441 1.6333493 16711746
0.3035127 -0.4850557 1.6868382 16711746
-0.2705606 0.2122562 1.4886059 16711746
0.4665256 -0.5658680 1.7333671 16711746
-0.0864526 0.2986043 1.4470909 16711746
-0.1553066 -0.2708322 1.5859132 16711746
0.8182928 -1.0024047 1.6717639 16711746
-0.2829727 0.2007702 1.4268558 16711746
0.2175202 -0.4067385 1.8817728 16711746
-0.4475661 -0.4125794 1.8745031 16711746
0.6237827 -0.3652824 1.8791970 16711746
-0.2636346 -0.2361470 1.3788899 16711746
1.5377932 -1.1951444 1.6563419 16711746
-0.2307985 -0.1994207 1.7392542 16711746
1.0387145 -1.1747020 1.6232821 16711746
-0.2314903 -0.1897331 1.5462995 16711746
-0.2512655 -0.4582475 1.7426467 16711746
-0.3700842 -0.1857571 1.3913884 16711746
-0.0347782 -0.9995580 1.8244159 16711746
-0.0784245 -1.0113281 1.8155160 16711746
-0.2598817 -0.3291655 1.6058192 16711746
0.2135356 -0.2964862 1.8704369 16711746
0.3258660 -0.2467033 1.9363637 16711746
0.2416765 -0.1525452 1.4904573 16711746
1.8291765 -1.0386521 1.4530537 16711746
0.4710145 -0.2827097 1.5294695 16711746
1.1011267 -0.8767928 1.5903997 16711746
0.8835276 -0.7305561 1.5357330 16711746
-0.7745484 -0.7161201 1.8027333 16711746
-0.6695650 -0.4710504 1.6262400 16711746
0.4150191 -0.8673098 1.9315372 16711746
0.0644831 -0.1994917 1.4608274 16711746
0.2195623 -0.5573254 1.6871713 16711746
-0.6659331 -0.8009905 2.0234840 16711746
-0.0327026 -0.3130394 1.4149966 16711746
-0.0056626 -1.1584027 1.8164378 16711746
-0.0988075 -0.6813352 1.5856987 16711746
-0.3362952 -0.4259837 1.7797894 16711746
-0.2926970 -0.1743892 1.5448196 16711746
-0.3131866 -0.1604426 1.5443443 16711746
0.2877859 -0.7849354 1.9010837 16711746
0.1529642 -0.1356144 1.6441923 16711746
-0.8047687 -0.7105054 1.8231645 16711746
-0.0113322 -1.0728896 1.8187290 16711746
-0.0993901 -0.6222954 1.5755860 16711746
-0.8072522 -0.2685371 1.4699988 16711746
-0.8695942 -0.5569485 1.6592190 16711746
1.2412980 -1.0918769 1.7751878 16711746
1.0048034 -0.9879248 1.7545774 16711746
-0.3880939 0.0010338 1.7177843 16711746
0.2353056 -1.2047933 1.8205470 16711746
-0.7002480 -0.5219214 1.7993213 16711746
-0.6035338 -0.1908979 1.4480689 16711746
-0.2482546 0.1659674 1.5149469 16711746
-0.5706114 -0.2450817 1.6207229 16711746
0.6159339 -0.9046835 1.6560179 16711746
0.4644331 -0.5839241 1.4826300 16711746
0.0172507 0.0571864 1.5441103 16711746
0.1260621 -0.0093993 1.5858407 16711746
1.1798025 -1.1051046 1.7375969 16711746
-0.3876643 -0.2110610 1.5638005 16711746
0.6569200 -0.8462362 1.6993358 16711746
-1.0526794 -0.6121418 1.7717929 16711746
-0.8314585 -0.2435402 1.5124642 16711746
-0.2353707 -0.9051025 1.8101791 16711746
-0.2204416 -1.0617551 1.8494530 16711746
-0.2049407 -0.5080764 1.8254323 16711746
0.0809553 -0.9663631 1.8553429 16711746
-0.2960238 -0.6888232 1.8670005 16711746
-0.2911145 -0.2781664 1.5594655 16711746
0.1471241 -0.1414998 1.6415280 16711746
-0.4994745 -0.0655831 1.8192420 16711746
-0.3029704 -0.2275627 1.3781167 16711746
0.2282182 -0.9395337 1.8680441 16711746
-0.2300122 -0.3678559 1.8271320 16711746
-0.3606257 -0.0821855 1.4754635 16711746
-0.2619238 -0.4019443 1.8103749 16711746
-0.2461994 -0.4566062 1.8206819 16711746
0.0741266 -0.6189724 1.6053525 16711746
0.0091497 -0.8673121 1.8464475 16711746
-0.1082332 -0.9738666 1.8425751 16711746
-0.1760547 -1.0583359 1.8428196 16711746
-0.1691446 -0.1070854 1.7127277 16711746
-0.4242576 -0.0547779 1.4708091 16711746
-0.2118433 -0.2155314 1.7693533 16711746
0.2742185 -0.2240100 1.8409652 16711746
-0.2904745 -1.0131226 1.7986624 16711746
-0.2537410 -0.3752306 1.6088296 16711746
0.5957699 -0.9603151 1.9806033 16711746
0.0995675 -0.2114361 1.4723303 16711746
0.3357183 -0.4682253 1.7026672 16711746
0.1916586 -0.3931681 1.6577439 16711746
0.1901798 -0.2452058 1.5035478 16711746
0.7238579 -0.9135345 1.8272641 16711746
0.3358541 -0.3169458 1.4708967 16711746
0.1551814 0.1388874 1.7158225 16711746
-0.1852962 0.2699903 1.4453777 16711746
-0.6938035 0.5668704 0.2707233 16711746
-0.7709630 0.6026013 0.2138076 16711746
-0.8321563 0.5308818 0.1054229 16711746
-0.3977510 0.5260488 0.6526687 16711746
0.1520174 0.3275864 1.6331377 16711746
-0.4757658 0.5967646 0.4848840 16711746
-1.2376133 0.5127276 -0.1175673 16711746
-1.2785879 0.4435320 -0.1389065 16711746
0.6930479 0.3040022 1.8398019 16711746
0.1925904 0.4183469 1.4726228 16711746
0.4901640 1.2594892 -0.5029208 16711746
-0.7881723 -0.2350476 1.9297251 16711746
0.3847535 1.2688793 -0.3076295 16711746
1.2077873 1.4814374 -0.5429857 16711746
-0.2656180 0.2599515 1.3839016 16711746
-0.1519724 -0.0001396 1.6406649 16711746
-0.2119080 0.2360729 1.3853254 16711746
0.9729789 0.8754551 -0.7204596 16711746
0.2940575 0.9906049 -0.3587828 16711746
0.2781937 -0.5987025 1.6557689 16711746
0.2846211 -0.4340652 1.6879241 16711746
0.4014746 -0.3048577 1.5851356 16711746
0.4758066 -0.3788714 1.5912055 16711746
0.1212279 -0.4676620 1.6049033 16711746
0.3815507 -0.6643797 1.4973191 16711746
0.8767735 -1.2764957 1.6991540 16711746
0.1546917 -0.6771247 1.6088246 16711746
1.1953763 -0.8815574 1.4670192 16711746
0.1371000 -0.0382259 1.5942025 16711746
0.0932893 0.0948520 1.4495621 16711746
0.3594628 -0.1667287 1.6956739 16711746
0.0739955 -0.0157984 1.4724649 16711746
1.0544380 -0.7527531 1.9331143 16711746
-0.6325089 -0.2157304 1.4460362 16711746
-1.0537117 -0.3867725 1.5239636 16711746
-1.0863318 -0.4110330 1.5664504 16711746
-0.3621498 -0.2164735 1.5596480 16711746
-0.4045880 -0.6032791 1.8135298 16711746
-0.4955834 -0.6649074 1.8320796 16711746
-0.5382739 -0.6708522 1.5477588 16711746
-0.4841570 -0.7726464 1.6465590 16711746
-0.6178173 0.0998401 1.4894476 16711746
-0.2838298 0.0992029 1.3862696 16711746
-0.2880673 -0.1288702 1.5792533 16711746
885.7848511 -728.0583496 1171.9874268 16711746
953.3370361 -3236.5441895 2023.2067871 16711746
15.3329897 -497.2108459 665.9911499 16711746
1054.7493896 -2226.1975098 1433.0644531 16711746
889.6974487 -1543.2155762 1032.9420166 16711746
-14.2582769 -1753.3109131 2883.7978516 16711746
1570.2341309 -1099.9489746 1940.2086182 16711746
32.2787933 -935.5347900 1486.2127686 16711746
-7.5278974 -216.6413727 330.1391907 16711746
19.7136574 -477.6495056 573.8980103 16711746
247.8638458 -709.9139404 1841.4023438 16711746
-118.9585724 -1176.6968994 1726.5905762 16711746
12.7817411 -1234.1756592 1852.7426758 16711746
1082.3417969 -812.0730591 1277.3179932 16711746
39.1266365 -856.6213989 974.2314453 16711746
767.9733887 -633.8563843 1018.4512329 16711746
