# .PCD v.7 - Point Cloud Data file format
VERSION .7
FIELDS x y z rgb
SIZE 4 4 4 4
TYPE F F F F
COUNT 1 1 1 1
WIDTH 1226
HEIGHT 1
VIEWPOINT 0 0 0 1 0 0 0
POINTS 1226
DATA ascii
0.1375721 0.0088584 0.3296416 16711746
0.1394982 0.0088093 0.3296682 16711746
0.1369380 0.0087395 0.3299623 16711746
0.1382802 0.0107121 0.3296895 16711746
0.1339566 0.0086259 0.3304963 16711746
0.1356571 0.0106395 0.3284303 16711746
0.1363393 0.0106759 0.3287648 16711746
0.1358155 0.0106528 0.3287116 16711746
0.1356413 0.0106470 0.3284512 16711746
0.1358684 0.0106649 0.3283932 16711746
0.1333963 0.0075336 0.3327764 16711746
0.1335824 0.0088154 0.3308216 16711746
0.1386534 0.0112104 0.3301832 16711746
0.1367164 0.0099025 0.3295480 16711746
0.1361320 0.0085458 0.3312111 16711746
0.1334502 0.0082755 0.3307918 16711746
0.1336587 0.0080723 0.3317002 16711746
0.1368337 0.0108917 0.3299822 16711746
0.1378217 0.0076054 0.3316442 16711746
0.1429617 0.0093543 0.3319470 16711746
0.1384527 0.0084078 0.3312690 16711746
0.1385817 0.0111118 0.3304617 16711746
0.1381354 0.0083267 0.3307582 16711746
0.1375682 0.0088278 0.3299900 16711746
0.1380280 0.0090006 0.3307203 16711746
0.1373289 0.0109922 0.3299325 16711746
0.1373631 0.0109599 0.3301332 16711746
0.1353203 0.0079183 0.3341427 16711746
0.1386649 0.0081725 0.3318810 16711746
0.1370495 0.0096985 0.3298238 16711746
0.1380374 0.0081737 0.3312320 16711746
0.1393479 0.0087549 0.3314431 16711746
0.1401976 0.0078456 0.3305655 16711746
0.1390117 0.0089245 0.3309307 16711746
0.1325174 0.0108762 0.3304592 16711746
0.1376878 0.0106412 0.3309165 16711746
0.1379121 0.0080374 0.3318944 16711746
0.1341871 0.0079180 0.3389702 16711746
0.1380471 0.0090986 0.3296967 16711746
0.1382691 0.0083594 0.3308744 16711746
0.1390980 0.0078903 0.3326643 16711746
0.1373031 0.0096440 0.3304396 16711746
0.1410183 0.0077154 0.3312148 16711746
0.1388799 0.0086256 0.3314457 16711746
0.1436366 0.0074214 0.3324306 16711746
0.1360558 0.0086588 0.3312505 16711746
0.1364927 0.0076307 0.3351635 16711746
0.1320630 0.0077499 0.3315571 16711746
0.1369597 0.0081020 0.3340466 16711746
0.1379118 0.0106007 0.3292064 16711746
0.1371386 0.0108095 0.3288797 16711746
0.1363828 0.0099380 0.3285643 16711746
0.1369295 0.0098443 0.3288409 16711746
0.1375651 0.0106996 0.3287616 16711746
0.1369127 0.0098602 0.3287734 16711746
0.1379117 0.0106802 0.3286353 16711746
0.1371710 0.0109106 0.3295086 16711746
0.1372838 0.0108529 0.3295302 16711746
0.1388536 0.0109441 0.3292670 16711746
0.1367949 0.0108288 0.3291662 16711746
0.1373720 0.0109257 0.3297865 16711746
0.1402358 0.0084938 0.3303156 16711746
0.1379645 0.0108182 0.3290855 16711746
0.1376833 0.0089360 0.3301134 16711746
0.1384858 0.0108810 0.3296847 16711746
0.1367554 0.0108480 0.3294748 16711746
0.1417594 0.0088250 0.3306178 16711746
0.1327375 0.0079522 0.3352855 16711746
0.1364897 0.0080431 0.3338808 16711746
0.1375998 0.0088047 0.3303790 16711746
0.1382295 0.0108216 0.3292629 16711746
0.1375377 0.0107825 0.3288112 16711746
0.1372487 0.0108007 0.3288057 16711746
0.1379225 0.0107590 0.3288388 16711746
0.1387780 0.0109181 0.3290848 16711746
0.1368237 0.0107681 0.3286875 16711746
0.1375110 0.0107753 0.3290366 16711746
0.1374997 0.0106763 0.3286700 16711746
0.1378302 0.0109588 0.3295510 16711746
0.1375562 0.0088795 0.3296258 16711746
0.1382798 0.0088232 0.3300056 16711746
0.1372248 0.0109476 0.3296347 16711746
0.1382112 0.0108355 0.3303668 16711746
0.1393435 0.0090743 0.3299493 16711746
0.1369035 0.0108676 0.3291672 16711746
0.1366226 0.0108669 0.3290800 16711746
0.1371435 0.0086262 0.3306710 16711746
0.1422121 0.0094190 0.3311987 16711746
0.1367920 0.0108440 0.3297750 16711746
0.1373890 0.0109715 0.3301560 16711746
0.1378911 0.0081580 0.3310584 16711746
0.1367306 0.0109011 0.3293573 16711746
0.1367716 0.0108654 0.3289322 16711746
0.1373201 0.0085796 0.3310290 16711746
0.1388309 0.0082397 0.3317187 16711746
0.1386610 0.0088071 0.3312242 16711746
0.1395932 0.0079963 0.3314978 16711746
0.1364886 0.0079393 0.3341351 16711746
0.1457907 0.0068674 0.3449068 16711746
0.1425255 0.0072519 0.3318775 16711746
0.1410520 0.0116476 0.3326674 16711746
0.1375632 0.0086244 0.3305466 16711746
0.1374079 0.0088300 0.3302434 16711746
0.1385407 0.0088445 0.3308870 16711746
0.1389802 0.0088684 0.3303582 16711746
0.1371699 0.0109215 0.3293921 16711746
0.1378093 0.0109380 0.3294389 16711746
0.1382940 0.0109174 0.3300794 16711746
0.1320780 0.0080930 0.3312110 16711746
0.1374685 0.0081487 0.3312649 16711746
0.1356619 0.0080513 0.3365849 16711746
0.1408637 0.0076494 0.3310351 16711746
0.1415835 0.0075938 0.3327437 16711746
0.1435546 0.0090596 0.3350343 16711746
0.1374274 0.0097608 0.3304139 16711746
0.1403314 0.0075689 0.3459823 16711746
0.1401912 0.0076204 0.3454981 16711746
0.1370834 0.0092624 0.3294347 16711746
0.1358588 0.0091819 0.3299537 16711746
0.1372392 0.0097532 0.3291965 16711746
0.1376339 0.0105880 0.3288583 16711746
0.1372072 0.0093521 0.3296470 16711746
0.1368684 0.0100333 0.3285820 16711746
0.1364591 0.0104657 0.3284818 16711746
0.1376569 0.0107193 0.3288951 16711746
0.1366029 0.0108946 0.3293994 16711746
0.1375703 0.0108526 0.3288262 16711746
0.1367797 0.0101400 0.3282778 16711746
0.1364443 0.0104676 0.3284062 16711746
0.1358835 0.0088232 0.3312202 16711746
0.1378589 0.0102883 0.3297500 16711746
0.1364773 0.0084950 0.3314516 16711746
0.1402787 0.0083198 0.3302479 16711746
0.1387779 0.0086526 0.3301285 16711746
0.1382962 0.0085111 0.3310999 16711746
0.1364840 0.0087570 0.3308592 16711746
0.1379339 0.0107235 0.3293999 16711746
0.1341836 0.0089646 0.3305365 16711746
0.1360897 0.0107803 0.3298134 16711746
0.1373035 0.0092253 0.3300850 16711746
0.1359788 0.0090934 0.3312778 16711746
0.1392737 0.0089262 0.3295994 16711746
0.1360651 0.0108129 0.3289345 16711746
0.1360096 0.0109029 0.3292635 16711746
0.1368950 0.0098550 0.3291505 16711746
0.1362611 0.0108275 0.3288627 16711746
0.1365882 0.0107547 0.3290056 16711746
0.1360677 0.0108291 0.3290682 16711746
0.1364613 0.0104253 0.3284348 16711746
0.1365569 0.0107268 0.3286171 16711746
0.1375863 0.0107827 0.3289111 16711746
0.1384550 0.0083347 0.3310305 16711746
0.1376577 0.0109375 0.3292935 16711746
0.1354636 0.0107213 0.3301798 16711746
0.1375007 0.0095364 0.3302426 16711746
0.1379539 0.0109087 0.3291386 16711746
0.1368561 0.0092020 0.3302911 16711746
0.1358630 0.0087723 0.3313510 16711746
0.1377138 0.0108373 0.3288391 16711746
0.1377580 0.0090277 0.3310746 16711746
0.1355724 0.0089253 0.3310674 16711746
0.1358238 0.0083894 0.3318088 16711746
0.1358696 0.0089394 0.3312494 16711746
0.1371706 0.0108710 0.3295381 16711746
0.1368241 0.0100101 0.3289596 16711746
0.1381164 0.0102690 0.3301798 16711746
0.1381455 0.0082502 0.3313866 16711746
0.1415149 0.0078431 0.3336470 16711746
0.1371468 0.0108361 0.3291116 16711746
0.1354434 0.0078806 0.3342838 16711746
0.1332913 0.0109286 0.3347895 16711746
0.1380685 0.0085548 0.3314503 16711746
0.1379454 0.0079740 0.3335473 16711746
0.1378752 0.0097193 0.3309478 16711746
0.1366820 0.0109225 0.3301021 16711746
0.1374097 0.0108960 0.3289717 16711746
0.1371592 0.0109616 0.3301763 16711746
0.1381416 0.0110728 0.3304152 16711746
0.1383699 0.0090684 0.3302572 16711746
0.1358222 0.0107947 0.3297098 16711746
0.1369267 0.0109092 0.3296361 16711746
0.1377358 0.0107014 0.3296407 16711746
0.1380379 0.0109288 0.3295529 16711746
0.1385017 0.0083595 0.3308674 16711746
0.1371030 0.0074488 0.3341530 16711746
0.1372152 0.0107826 0.3298081 16711746
0.1344196 0.0086047 0.3343858 16711746
0.1345654 0.0088177 0.3333902 16711746
0.1356902 0.0108846 0.3301089 16711746
0.1358825 0.0105567 0.3294468 16711746
0.1368675 0.0098922 0.3290380 16711746
0.1367457 0.0099641 0.3287883 16711746
0.1373330 0.0106777 0.3287425 16711746
0.1369674 0.0097602 0.3292707 16711746
0.1357655 0.0108692 0.3287130 16711746
0.1375941 0.0087463 0.3304007 16711746
0.1369250 0.0092463 0.3293717 16711746
0.1369647 0.0094668 0.3293784 16711746
0.1370346 0.0095642 0.3294339 16711746
0.1368434 0.0108145 0.3289601 16711746
0.1366333 0.0086207 0.3313239 16711746
0.1375549 0.0091439 0.3308984 16711746
0.1382899 0.0092190 0.3307187 16711746
0.1367173 0.0098959 0.3296466 16711746
0.1356635 0.0090384 0.3308182 16711746
0.1369818 0.0100639 0.3289313 16711746
0.1371576 0.0098302 0.3294757 16711746
0.1370169 0.0091890 0.3303824 16711746
0.1381195 0.0092729 0.3301221 16711746
0.1374620 0.0092204 0.3307759 16711746
0.1372278 0.0091856 0.3298500 16711746
0.1376830 0.0090368 0.3307097 16711746
0.1370789 0.0095938 0.3298167 16711746
0.1379043 0.0107659 0.3299999 16711746
0.1376486 0.0108192 0.3295022 16711746
0.1369750 0.0092517 0.3302672 16711746
0.1372695 0.0101505 0.3296437 16711746
0.1375357 0.0107827 0.3288184 16711746
0.1379356 0.0106997 0.3297220 16711746
0.1370825 0.0097996 0.3303100 16711746
0.1365401 0.0094588 0.3309135 16711746
0.1376559 0.0108067 0.3295424 16711746
0.1390013 0.0100050 0.3312806 16711746
0.1377928 0.0107515 0.3292977 16711746
0.1378826 0.0108970 0.3292401 16711746
0.1379212 0.0088206 0.3301454 16711746
0.1395328 0.0084897 0.3302802 16711746
0.1367763 0.0091296 0.3316983 16711746
0.1372834 0.0087581 0.3304243 16711746
0.1378801 0.0108834 0.3291017 16711746
0.1363970 0.0087009 0.3322256 16711746
0.1403589 0.0082482 0.3323835 16711746
0.1356574 0.0109103 0.3302324 16711746
0.1364166 0.0086236 0.3321165 16711746
0.1353995 0.0086272 0.3339029 16711746
0.1437349 0.0107823 0.3369092 16711746
0.1353257 0.0105666 0.3290062 16711746
0.1387698 0.0088491 0.3313442 16711746
0.1347557 0.0087193 0.3368709 16711746
0.1375934 0.0098553 0.3308534 16711746
0.1319374 0.0112457 0.3380775 16711746
0.1364307 0.0086612 0.3318344 16711746
0.1417876 0.0067968 0.3350759 16711746
0.1362817 0.0078632 0.3346004 16711746
0.1393847 0.0076920 0.3431236 16711746
0.1363912 0.0105318 0.3289569 16711746
0.1357600 0.0106922 0.3288835 16711746
0.1360299 0.0106496 0.3289080 16711746
0.1357870 0.0106078 0.3289306 16711746
0.1352863 0.0106673 0.3294827 16711746
0.1367334 0.0099216 0.3285161 16711746
0.1356955 0.0106366 0.3290345 16711746
0.1360452 0.0106489 0.3288971 16711746
0.1349300 0.0109659 0.3315037 16711746
0.1376679 0.0105797 0.3290720 16711746
0.1370570 0.0108257 0.3291402 16711746
0.1368027 0.0108198 0.3293450 16711746
0.1351359 0.0106448 0.3296313 16711746
0.1366771 0.0107835 0.3289631 16711746
0.1370927 0.0107812 0.3287955 16711746
0.1370761 0.0108048 0.3289189 16711746
0.1350071 0.0109791 0.3314242 16711746
0.1370374 0.0109372 0.3297943 16711746
0.1377400 0.0089110 0.3301209 16711746
0.1377487 0.0094298 0.3296312 16711746
0.1371699 0.0107735 0.3290361 16711746
0.1351715 0.0108535 0.3309022 16711746
0.1370040 0.0091260 0.3298458 16711746
0.1368910 0.0092254 0.3298901 16711746
0.1366224 0.0087023 0.3311275 16711746
0.1374584 0.0108531 0.3290066 16711746
0.1350861 0.0086461 0.3321859 16711746
0.1354304 0.0087321 0.3315814 16711746
0.1342421 0.0089270 0.3304105 16711746
0.1358669 0.0106531 0.3288870 16711746
0.1378430 0.0091085 0.3298775 16711746
0.1378922 0.0090648 0.3299599 16711746
0.1370014 0.0094672 0.3298180 16711746
0.1390167 0.0088422 0.3301390 16711746
0.1369108 0.0096806 0.3299740 16711746
0.1374943 0.0108308 0.3290764 16711746
0.1378921 0.0107879 0.3290572 16711746
0.1372405 0.0091979 0.3298231 16711746
0.1369886 0.0108102 0.3290554 16711746
0.1374313 0.0108162 0.3289868 16711746
0.1379765 0.0091234 0.3311072 16711746
0.1395929 0.0086480 0.3314191 16711746
0.1377678 0.0108054 0.3290065 16711746
0.1372217 0.0097459 0.3296896 16711746
0.1364498 0.0081016 0.3329286 16711746
0.1379284 0.0093345 0.3293630 16711746
0.1378007 0.0107593 0.3293118 16711746
0.1430233 0.0093949 0.3374205 16711746
0.1369279 0.0087222 0.3313867 16711746
0.1358371 0.0085053 0.3346666 16711746
0.1360237 0.0081383 0.3319799 16711746
0.1368423 0.0090696 0.3306302 16711746
0.1368569 0.0089537 0.3318788 16711746
0.1367802 0.0108126 0.3293999 16711746
0.1406432 0.0092260 0.3317907 16711746
0.1378448 0.0108299 0.3297434 16711746
0.1379756 0.0108506 0.3299418 16711746
0.1382159 0.0103340 0.3305093 16711746
0.1372858 0.0089731 0.3317494 16711746
0.1381035 0.0098441 0.3307989 16711746
0.1385187 0.0108667 0.3312838 16711746
0.1343358 0.0084020 0.3305461 16711746
0.1371573 0.0108326 0.3302177 16711746
0.1369954 0.0109094 0.3301919 16711746
0.1370802 0.0105546 0.3296775 16711746
0.1390601 0.0082771 0.3317791 16711746
0.1362575 0.0085441 0.3315803 16711746
0.1378619 0.0108817 0.3291952 16711746
0.1383912 0.0090945 0.3293868 16711746
0.1375556 0.0092205 0.3295943 16711746
0.1379449 0.0091123 0.3295039 16711746
0.1380530 0.0091076 0.3297957 16711746
0.1372681 0.0092718 0.3295000 16711746
0.1360047 0.0106729 0.3289664 16711746
0.1358033 0.0106614 0.3289800 16711746
0.1352116 0.0106187 0.3295043 16711746
0.1382043 0.0093131 0.3293943 16711746
0.1361816 0.0107022 0.3287674 16711746
0.1372197 0.0097558 0.3291296 16711746
0.1379057 0.0108746 0.3291837 16711746
0.1352416 0.0106198 0.3294279 16711746
0.1376792 0.0105746 0.3291509 16711746
0.1379515 0.0106875 0.3292472 16711746
0.1349880 0.0092980 0.3299237 16711746
0.1371781 0.0097740 0.3289413 16711746
0.1367754 0.0106626 0.3292503 16711746
0.1359878 0.0106806 0.3289913 16711746
0.1360373 0.0106960 0.3287297 16711746
0.1360035 0.0106470 0.3288057 16711746
0.1368234 0.0106335 0.3289709 16711746
0.1357924 0.0106758 0.3288406 16711746
0.1367676 0.0107575 0.3290000 16711746
0.1374901 0.0089084 0.3302157 16711746
0.1379993 0.0087635 0.3302422 16711746
0.1376912 0.0097827 0.3296070 16711746
0.1341125 0.0085253 0.3311543 16711746
0.1367184 0.0107301 0.3292185 16711746
0.1368908 0.0107744 0.3294174 16711746
0.1388046 0.0089237 0.3296373 16711746
0.1375318 0.0092434 0.3295561 16711746
0.1373205 0.0097697 0.3294875 16711746
0.1365742 0.0106841 0.3289970 16711746
0.1359418 0.0106659 0.3288299 16711746
0.1358122 0.0106667 0.3288147 16711746
0.1368929 0.0108562 0.3294652 16711746
0.1368849 0.0098841 0.3290487 16711746
0.1384978 0.0090128 0.3297231 16711746
0.1374454 0.0092570 0.3297524 16711746
0.1387571 0.0092519 0.3293004 16711746
0.1367120 0.0099336 0.3293948 16711746
0.1369968 0.0107515 0.3293005 16711746
0.1366776 0.0102428 0.3282330 16711746
0.1370725 0.0098868 0.3291710 16711746
0.1343813 0.0088019 0.3305241 16711746
0.1365498 0.0106387 0.3308306 16711746
0.1371497 0.0088543 0.3301581 16711746
0.1342808 0.0087297 0.3306647 16711746
0.1368380 0.0092726 0.3303447 16711746
0.1358219 0.0089030 0.3313202 16711746
0.1366594 0.0092350 0.3316579 16711746
0.1360660 0.0109304 0.3322371 16711746
0.1373809 0.0108767 0.3299885 16711746
0.1371155 0.0106456 0.3298575 16711746
0.1372556 0.0095956 0.3314731 16711746
0.1366684 0.0091651 0.3326337 16711746
0.1376466 0.0094214 0.3303295 16711746
0.1362413 0.0083277 0.3320830 16711746
0.1363170 0.0081025 0.3339845 16711746
0.1375746 0.0101536 0.3306089 16711746
0.1366554 0.0076017 0.3365636 16711746
0.1373003 0.0090770 0.3300467 16711746
0.1395823 0.0098398 0.3321473 16711746
0.1373679 0.0109312 0.3301154 16711746
0.1366465 0.0090139 0.3319187 16711746
0.1363267 0.0088552 0.3308053 16711746
0.1355577 0.0080713 0.3348389 16711746
0.1367422 0.0090871 0.3303446 16711746
0.1365004 0.0086757 0.3326214 16711746
0.1386310 0.0091049 0.3320259 16711746
0.1364997 0.0087496 0.3323768 16711746
0.1365432 0.0086423 0.3323548 16711746
0.1365146 0.0088881 0.3319452 16711746
0.1394936 0.0089538 0.3299496 16711746
0.1360506 0.0087983 0.3315369 16711746
0.1365085 0.0086053 0.3342363 16711746
0.1372460 0.0105646 0.3287843 16711746
0.1364644 0.0106608 0.3288325 16711746
0.1369598 0.0105691 0.3285620 16711746
0.1354080 0.0094723 0.3292987 16711746
0.1368708 0.0105522 0.3285697 16711746
0.1370461 0.0103993 0.3283869 16711746
0.1357487 0.0106230 0.3291112 16711746
0.1371678 0.0106057 0.3288185 16711746
0.1357458 0.0095896 0.3291020 16711746
0.1369423 0.0100240 0.3284157 16711746
0.1366490 0.0106840 0.3289331 16711746
0.1365215 0.0107124 0.3293062 16711746
0.1355586 0.0107085 0.3290997 16711746
0.1393517 0.0093386 0.3301432 16711746
0.1370171 0.0096769 0.3295596 16711746
0.1372009 0.0107119 0.3292937 16711746
0.1370625 0.0107626 0.3292714 16711746
0.1377090 0.0107635 0.3295051 16711746
0.1371164 0.0105784 0.3283965 16711746
0.1363978 0.0105487 0.3287712 16711746
0.1375185 0.0105269 0.3288926 16711746
0.1367617 0.0106306 0.3287312 16711746
0.1359223 0.0107081 0.3289237 16711746
0.1359450 0.0107112 0.3294212 16711746
0.1375437 0.0107468 0.3294507 16711746
0.1371718 0.0107339 0.3289485 16711746
0.1373330 0.0107352 0.3294946 16711746
0.1375452 0.0090171 0.3299433 16711746
0.1376128 0.0105733 0.3287481 16711746
0.1371795 0.0107800 0.3293264 16711746
0.1344652 0.0086279 0.3309359 16711746
0.1377464 0.0106952 0.3286971 16711746
0.1376135 0.0105754 0.3287495 16711746
0.1350006 0.0088273 0.3310628 16711746
0.1382720 0.0089466 0.3304036 16711746
0.1374516 0.0105730 0.3289809 16711746
0.1344996 0.0088686 0.3308104 16711746
0.1378712 0.0091319 0.3303189 16711746
0.1374681 0.0105267 0.3286012 16711746
0.1389019 0.0090385 0.3299860 16711746
0.1346724 0.0092021 0.3301302 16711746
0.1397144 0.0095414 0.3300915 16711746
0.1374682 0.0106575 0.3286713 16711746
0.1352941 0.0090783 0.3304413 16711746
0.1371740 0.0105708 0.3292288 16711746
0.1390764 0.0092226 0.3299670 16711746
0.1374447 0.0107838 0.3293113 16711746
0.1373890 0.0107775 0.3292837 16711746
0.1375298 0.0107343 0.3290533 16711746
0.1365970 0.0107281 0.3289432 16711746
0.1363716 0.0106523 0.3306700 16711746
0.1369970 0.0107667 0.3294630 16711746
0.1370616 0.0093691 0.3296663 16711746
0.1402132 0.0096874 0.3306789 16711746
0.1374014 0.0095580 0.3299669 16711746
0.1363974 0.0085953 0.3314160 16711746
0.1397212 0.0097739 0.3309326 16711746
0.1372843 0.0107741 0.3296154 16711746
0.1349595 0.0104786 0.3303537 16711746
0.1364358 0.0081695 0.3327115 16711746
0.1364204 0.0084208 0.3327172 16711746
0.1361345 0.0108780 0.3299731 16711746
0.1398140 0.0082337 0.3316395 16711746
0.1401024 0.0094787 0.3356353 16711746
0.1364149 0.0085715 0.3334335 16711746
0.1380938 0.0096335 0.3296181 16711746
0.1346308 0.0110509 0.3319845 16711746
0.1313136 0.0110208 0.3330832 16711746
0.1364450 0.0108713 0.3321159 16711746
0.1367693 0.0099941 0.3289012 16711746
0.1379638 0.0092804 0.3306034 16711746
0.1372421 0.0107449 0.3297829 16711746
0.1374959 0.0107362 0.3287941 16711746
0.1365410 0.0091580 0.3322592 16711746
0.1378426 0.0097303 0.3300634 16711746
0.1377565 0.0091538 0.3308175 16711746
0.1370826 0.0102589 0.3292913 16711746
0.1359515 0.0084151 0.3319186 16711746
0.1334973 0.0082294 0.3316209 16711746
0.1366554 0.0108054 0.3292493 16711746
0.1392074 0.0102709 0.3326526 16711746
0.1369138 0.0094792 0.3295647 16711746
0.1369087 0.0093229 0.3297288 16711746
0.1370482 0.0092296 0.3296427 16711746
0.1369125 0.0094262 0.3294691 16711746
0.1375301 0.0106759 0.3287578 16711746
0.1365001 0.0090981 0.3299415 16711746
0.1368824 0.0094117 0.3295555 16711746
0.1379279 0.0093365 0.3293360 16711746
0.1376936 0.0095778 0.3291425 16711746
0.1351210 0.0091092 0.3301749 16711746
0.1369217 0.0094412 0.3296477 16711746
0.1372222 0.0094580 0.3293942 16711746
0.1382963 0.0092591 0.3294092 16711746
0.1380406 0.0093587 0.3292619 16711746
0.1382642 0.0091843 0.3294552 16711746
0.1351018 0.0090843 0.3302113 16711746
0.1372516 0.0098933 0.3289770 16711746
0.1372912 0.0097588 0.3292396 16711746
0.1367868 0.0099896 0.3289561 16711746
0.1374438 0.0105353 0.3287938 16711746
0.1370645 0.0105971 0.3289088 16711746
0.1375059 0.0106394 0.3290934 16711746
0.1374523 0.0106221 0.3286981 16711746
0.1364375 0.0107277 0.3292693 16711746
0.1347982 0.0088102 0.3299651 16711746
0.1378516 0.0093238 0.3294275 16711746
0.1366533 0.0093076 0.3298181 16711746
0.1365448 0.0105263 0.3291752 16711746
0.1372923 0.0106791 0.3287559 16711746
0.1369803 0.0096617 0.3292158 16711746
0.1368890 0.0094058 0.3295536 16711746
0.1370309 0.0092875 0.3295456 16711746
0.1369276 0.0094419 0.3296494 16711746
0.1370007 0.0093536 0.3294333 16711746
0.1376517 0.0107189 0.3287565 16711746
0.1365453 0.0092282 0.3299344 16711746
0.1349708 0.0089456 0.3297684 16711746
0.1377239 0.0092694 0.3295095 16711746
0.1384640 0.0090695 0.3294284 16711746
0.1373574 0.0106046 0.3286881 16711746
0.1389382 0.0092243 0.3299154 16711746
0.1368216 0.0106387 0.3289894 16711746
0.1373308 0.0097609 0.3295211 16711746
0.1369505 0.0094131 0.3299886 16711746
0.1374400 0.0106457 0.3287868 16711746
0.1369938 0.0106398 0.3289990 16711746
0.1371133 0.0106192 0.3290374 16711746
0.1373519 0.0106146 0.3285159 16711746
0.1380855 0.0092730 0.3297674 16711746
0.1365197 0.0092201 0.3306451 16711746
0.1365630 0.0093490 0.3300965 16711746
0.1357817 0.0090650 0.3307543 16711746
0.1363765 0.0091252 0.3303446 16711746
0.1387550 0.0089816 0.3299703 16711746
0.1363724 0.0090941 0.3303924 16711746
0.1386110 0.0089415 0.3301954 16711746
0.1364463 0.0107176 0.3292418 16711746
0.1373476 0.0092392 0.3297158 16711746
0.1377848 0.0090488 0.3302333 16711746
0.1370792 0.0099915 0.3290783 16711746
0.1368932 0.0094701 0.3295140 16711746
0.1368788 0.0099900 0.3292872 16711746
0.1375877 0.0097704 0.3289486 16711746
0.1368516 0.0095409 0.3299155 16711746
0.1365965 0.0093141 0.3305464 16711746
0.1397391 0.0100180 0.3324176 16711746
0.1389251 0.0101275 0.3315809 16711746
0.1405511 0.0097065 0.3313049 16711746
0.1368593 0.0107584 0.3292147 16711746
0.1380915 0.0101934 0.3302590 16711746
0.1357627 0.0088508 0.3329979 16711746
0.1358429 0.0088069 0.3311065 16711746
0.1408896 0.0096568 0.3315832 16711746
0.1375122 0.0107368 0.3292893 16711746
0.1370977 0.0107503 0.3291965 16711746
0.1359726 0.0108928 0.3311154 16711746
0.1378477 0.0091875 0.3304747 16711746
0.1380955 0.0101922 0.3314837 16711746
0.1404181 0.0099338 0.3334496 16711746
0.1370516 0.0103276 0.3291281 16711746
0.1374004 0.0096199 0.3299134 16711746
0.1377160 0.0107638 0.3296847 16711746
0.1372581 0.0092351 0.3295873 16711746
0.1357247 0.0090541 0.3321638 16711746
0.1389710 0.0101274 0.3314470 16711746
0.1364097 0.0090321 0.3313158 16711746
0.1370235 0.0106934 0.3293409 16711746
0.1373431 0.0107285 0.3287920 16711746
0.1368773 0.0092601 0.3298104 16711746
0.1401958 0.0096951 0.3317313 16711746
0.1341680 0.0088682 0.3307965 16711746
0.1341837 0.0088800 0.3307753 16711746
0.1344350 0.0087578 0.3306848 16711746
0.1374006 0.0107104 0.3286622 16711746
0.1347939 0.0088948 0.3301789 16711746
0.1376751 0.0107227 0.3291299 16711746
0.1369119 0.0107681 0.3296281 16711746
0.1377560 0.0106895 0.3297556 16711746
0.1363732 0.0089826 0.3308114 16711746
0.1371685 0.0106805 0.3295162 16711746
0.1368282 0.0096943 0.3291301 16711746
0.1354389 0.0106615 0.3299086 16711746
0.1332699 0.0084766 0.3316391 16711746
0.1370498 0.0100162 0.3290993 16711746
0.1373814 0.0090824 0.3298186 16711746
0.1364106 0.0092432 0.3309281 16711746
0.1352179 0.0090642 0.3302031 16711746
0.1374599 0.0107049 0.3285738 16711746
0.1373488 0.0106866 0.3298057 16711746
0.1375996 0.0106872 0.3290351 16711746
0.1377918 0.0107342 0.3297299 16711746
0.1397179 0.0083426 0.3375801 16711746
0.1362508 0.0092603 0.3303951 16711746
0.1373081 0.0093527 0.3293791 16711746
0.1364107 0.0105774 0.3302208 16711746
0.1374361 0.0106887 0.3288912 16711746
0.1372761 0.0094341 0.3296209 16711746
0.1384779 0.0094739 0.3293413 16711746
0.1364788 0.0092634 0.3306249 16711746
0.1362950 0.0106234 0.3290683 16711746
0.1367515 0.0106039 0.3290147 16711746
0.1374528 0.0094101 0.3295570 16711746
0.1387431 0.0095285 0.3296364 16711746
0.1363520 0.0093478 0.3308609 16711746
0.1362513 0.0091088 0.3310926 16711746
0.1385834 0.0090454 0.3295745 16711746
0.1369626 0.0097563 0.3292732 16711746
0.1372372 0.0098271 0.3295671 16711746
0.1376988 0.0093410 0.3292969 16711746
0.1369634 0.0093604 0.3298343 16711746
0.1366897 0.0106790 0.3302774 16711746
0.1369234 0.0106505 0.3290469 16711746
0.1362447 0.0105918 0.3293293 16711746
0.1363332 0.0106028 0.3288924 16711746
0.1364962 0.0106018 0.3288957 16711746
0.1362039 0.0106254 0.3294741 16711746
0.1363621 0.0105375 0.3289353 16711746
0.1363723 0.0107273 0.3302147 16711746
0.1371935 0.0106465 0.3287744 16711746
0.1373590 0.0106852 0.3289279 16711746
0.1359456 0.0090352 0.3309202 16711746
0.1369594 0.0093873 0.3297666 16711746
0.1369725 0.0106489 0.3291398 16711746
0.1364760 0.0092095 0.3307313 16711746
0.1373312 0.0093559 0.3297801 16711746
0.1370633 0.0106499 0.3289450 16711746
0.1376322 0.0107222 0.3288543 16711746
0.1372791 0.0106370 0.3287362 16711746
0.1379389 0.0097633 0.3294266 16711746
0.1363055 0.0106466 0.3296920 16711746
0.1365689 0.0106949 0.3293650 16711746
0.1379804 0.0108060 0.3291919 16711746
0.1377351 0.0098432 0.3291966 16711746
0.1353000 0.0089274 0.3315790 16711746
0.1371295 0.0104228 0.3285034 16711746
0.1369588 0.0099019 0.3289689 16711746
0.1375318 0.0106272 0.3287667 16711746
0.1373975 0.0106459 0.3286671 16711746
0.1366234 0.0107891 0.3300361 16711746
0.1358281 0.0093276 0.3295337 16711746
0.1350007 0.0092192 0.3295535 16711746
0.1365050 0.0107093 0.3302411 16711746
0.1373248 0.0095219 0.3292637 16711746
0.1369508 0.0106149 0.3290784 16711746
0.1366033 0.0095697 0.3294767 16711746
0.1380494 0.0090636 0.3304520 16711746
0.1370537 0.0105489 0.3288681 16711746
0.1360396 0.0091539 0.3303383 16711746
0.1361191 0.0089682 0.3308365 16711746
0.1359479 0.0083878 0.3318505 16711746
0.1360987 0.0107789 0.3297749 16711746
0.1358317 0.0087545 0.3312088 16711746
0.1370860 0.0106951 0.3292377 16711746
0.1372699 0.0094886 0.3316555 16711746
0.1362703 0.0102031 0.3387108 16711746
0.1391244 0.0109530 0.3306668 16711746
0.1364648 0.0083586 0.3334676 16711746
0.1364124 0.0092551 0.3299055 16711746
0.1380044 0.0104640 0.3306427 16711746
0.1454706 0.0104360 0.3415727 16711746
0.1373155 0.0107044 0.3290748 16711746
0.1370736 0.0097591 0.3289628 16711746
0.1366133 0.0100919 0.3290375 16711746
0.1365833 0.0106289 0.3291336 16711746
0.1374713 0.0106993 0.3289759 16711746
0.1371193 0.0098379 0.3290563 16711746
0.1367824 0.0099422 0.3287421 16711746
0.1362597 0.0105843 0.3292928 16711746
0.1368253 0.0099304 0.3288594 16711746
0.1370121 0.0099575 0.3289583 16711746
0.1366211 0.0100623 0.3290669 16711746
0.1370064 0.0100214 0.3287129 16711746
0.1357292 0.0105818 0.3293186 16711746
0.1376058 0.0093965 0.3299186 16711746
0.1369274 0.0106458 0.3289832 16711746
0.1366838 0.0106275 0.3294220 16711746
0.1360470 0.0106162 0.3294399 16711746
0.1371083 0.0106231 0.3293297 16711746
0.1359468 0.0091892 0.3311067 16711746
0.1359436 0.0105802 0.3290089 16711746
0.1366553 0.0105952 0.3289718 16711746
0.1357881 0.0087932 0.3314612 16711746
0.1361667 0.0092028 0.3304434 16711746
0.1364453 0.0106032 0.3296699 16711746
0.1357021 0.0105851 0.3293428 16711746
0.1367352 0.0105500 0.3288395 16711746
0.1360661 0.0105435 0.3286496 16711746
0.1367223 0.0098209 0.3296741 16711746
0.1362455 0.0105664 0.3291871 16711746
0.1373710 0.0105808 0.3286250 16711746
0.1365673 0.0096261 0.3303069 16711746
0.1365387 0.0106007 0.3289413 16711746
0.1368291 0.0094735 0.3293968 16711746
0.1375040 0.0094285 0.3292766 16711746
0.1362631 0.0106276 0.3297770 16711746
0.1382367 0.0093859 0.3291533 16711746
0.1369175 0.0099077 0.3293545 16711746
0.1350792 0.0091111 0.3298286 16711746
0.1372341 0.0098221 0.3288350 16711746
0.1370532 0.0096744 0.3292452 16711746
0.1373379 0.0104866 0.3285656 16711746
0.1368727 0.0103943 0.3289245 16711746
0.1374912 0.0107269 0.3292283 16711746
0.1368379 0.0106424 0.3291745 16711746
0.1373377 0.0106901 0.3291731 16711746
0.1376262 0.0096245 0.3297827 16711746
0.1364649 0.0091596 0.3308805 16711746
0.1363364 0.0106482 0.3292809 16711746
0.1364135 0.0105815 0.3302305 16711746
0.1363852 0.0106198 0.3290709 16711746
0.1363085 0.0105911 0.3291469 16711746
0.1369624 0.0106423 0.3289334 16711746
0.1368194 0.0105936 0.3290101 16711746
0.1368562 0.0095822 0.3295522 16711746
0.1371325 0.0106339 0.3287644 16711746
0.1368824 0.0104711 0.3294278 16711746
0.1369596 0.0098721 0.3296838 16711746
0.1366428 0.0106203 0.3293539 16711746
0.1363081 0.0094077 0.3310752 16711746
0.1387230 0.0093912 0.3296693 16711746
0.1382400 0.0095572 0.3298107 16711746
0.1382497 0.0092083 0.3295033 16711746
0.1366107 0.0093309 0.3301434 16711746
0.1376441 0.0092577 0.3301100 16711746
0.1371246 0.0106262 0.3288906 16711746
0.1365236 0.0106711 0.3291099 16711746
0.1370134 0.0107260 0.3297711 16711746
0.1370583 0.0101292 0.3296978 16711746
0.1376816 0.0096001 0.3298581 16711746
0.1360588 0.0106355 0.3292937 16711746
0.1363975 0.0098945 0.3289584 16711746
0.1358216 0.0107707 0.3295610 16711746
0.1375715 0.0105538 0.3289463 16711746
0.1373801 0.0107744 0.3296425 16711746
0.1351660 0.0092375 0.3340426 16711746
0.1350985 0.0091888 0.3343481 16711746
0.1363690 0.0106990 0.3306563 16711746
0.1342487 0.0089105 0.3304652 16711746
0.1371629 0.0094639 0.3310713 16711746
0.1361734 0.0105899 0.3289552 16711746
0.1364328 0.0094045 0.3296201 16711746
0.1362096 0.0105488 0.3288568 16711746
0.1366531 0.0105714 0.3290385 16711746
0.1386753 0.0095278 0.3300527 16711746
0.1379935 0.0097826 0.3293313 16711746
0.1374305 0.0106848 0.3292528 16711746
0.1365161 0.0105914 0.3295529 16711746
0.1362504 0.0105789 0.3290940 16711746
0.1373640 0.0107062 0.3292136 16711746
0.1365730 0.0105224 0.3296984 16711746
0.1375815 0.0106741 0.3293175 16711746
0.1363146 0.0093866 0.3300652 16711746
0.1362812 0.0105842 0.3290946 16711746
0.1370819 0.0095727 0.3292904 16711746
0.1360527 0.0105064 0.3286797 16711746
0.1352405 0.0092785 0.3299213 16711746
0.1362339 0.0105076 0.3294063 16711746
0.1376833 0.0105815 0.3294930 16711746
0.1351743 0.0090940 0.3317685 16711746
0.1368291 0.0106229 0.3291086 16711746
0.1369227 0.0095088 0.3296838 16711746
0.1320409 0.0108994 0.3348970 16711746
0.1378867 0.0097001 0.3299042 16711746
0.1378786 0.0098211 0.3300029 16711746
0.1367036 0.0093401 0.3302324 16711746
0.1364402 0.0107403 0.3300752 16711746
0.1401590 0.0100807 0.3321923 16711746
0.1400831 0.0098913 0.3328817 16711746
0.1390513 0.0091028 0.3317026 16711746
0.1372140 0.0098368 0.3292729 16711746
0.1377451 0.0100203 0.3312321 16711746
0.1406143 0.0080948 0.3332799 16711746
0.1424915 0.0098147 0.3348602 16711746
0.1438351 0.0102564 0.3405482 16711746
0.1390704 0.0101610 0.3337137 16711746
0.1388359 0.0094457 0.3348094 16711746
0.1357906 0.0087420 0.3312101 16711746
0.1428793 0.0103118 0.3377878 16711746
0.1374474 0.0105974 0.3289104 16711746
0.1372944 0.0106151 0.3289304 16711746
0.1373791 0.0105866 0.3287845 16711746
0.1361206 0.0105950 0.3287467 16711746
0.1374021 0.0105938 0.3288372 16711746
0.1364949 0.0104731 0.3289537 16711746
0.1367034 0.0098531 0.3290380 16711746
0.1372841 0.0099220 0.3290606 16711746
0.1355415 0.0096105 0.3295391 16711746
0.1375133 0.0103741 0.3289560 16711746
0.1367874 0.0098096 0.3290968 16711746
0.1358571 0.0096332 0.3295679 16711746
0.1356958 0.0098491 0.3294974 16711746
0.1360102 0.0100694 0.3293806 16711746
0.1377040 0.0105829 0.3295245 16711746
0.1376556 0.0106689 0.3292326 16711746
0.1370859 0.0106911 0.3292159 16711746
0.1363933 0.0095343 0.3304656 16711746
0.1363228 0.0106389 0.3292496 16711746
0.1366653 0.0106347 0.3291505 16711746
0.1359320 0.0092951 0.3305445 16711746
0.1373449 0.0105892 0.3289656 16711746
0.1373120 0.0106305 0.3288080 16711746
0.1371835 0.0105228 0.3290801 16711746
0.1372779 0.0106045 0.3289048 16711746
0.1370986 0.0097235 0.3293720 16711746
0.1361818 0.0096325 0.3301978 16711746
0.1361889 0.0105596 0.3288976 16711746
0.1369535 0.0099228 0.3290966 16711746
0.1368331 0.0097835 0.3294104 16711746
0.1396310 0.0097378 0.3308556 16711746
0.1389012 0.0091220 0.3306819 16711746
0.1363070 0.0106498 0.3296657 16711746
0.1356759 0.0094847 0.3306104 16711746
0.1360383 0.0098302 0.3306841 16711746
0.1351876 0.0093499 0.3295388 16711746
0.1363341 0.0106003 0.3288897 16711746
0.1366196 0.0095096 0.3300829 16711746
0.1371262 0.0106391 0.3293763 16711746
0.1364702 0.0096507 0.3307515 16711746
0.1369800 0.0099677 0.3296301 16711746
0.1370948 0.0106343 0.3293240 16711746
0.1363575 0.0092529 0.3302456 16711746
0.1364850 0.0106705 0.3297852 16711746
0.1365366 0.0105875 0.3301312 16711746
0.1375108 0.0105529 0.3290694 16711746
0.1385589 0.0094459 0.3306281 16711746
0.1375014 0.0096249 0.3293773 16711746
0.1394701 0.0108490 0.3319073 16711746
0.1375639 0.0093909 0.3328753 16711746
0.1403316 0.0098338 0.3314849 16711746
0.1401961 0.0098468 0.3313444 16711746
0.1390566 0.0102781 0.3323770 16711746
0.1357076 0.0090452 0.3322237 16711746
0.1387723 0.0107976 0.3299871 16711746
0.1346728 0.0091237 0.3314866 16711746
0.1425910 0.0104207 0.3378484 16711746
0.1360411 0.0089966 0.3311743 16711746
0.1380067 0.0091435 0.3304355 16711746
0.1362324 0.0097832 0.3295492 16711746
0.1373881 0.0105923 0.3288010 16711746
0.1363183 0.0096535 0.3297125 16711746
0.1374841 0.0097309 0.3291649 16711746
0.1374668 0.0096425 0.3292472 16711746
0.1356419 0.0095061 0.3293914 16711746
0.1355751 0.0098659 0.3297712 16711746
0.1366171 0.0097258 0.3293592 16711746
0.1363740 0.0097450 0.3294805 16711746
0.1365716 0.0097536 0.3295413 16711746
0.1372605 0.0097084 0.3292668 16711746
0.1356824 0.0095936 0.3297904 16711746
0.1362391 0.0095324 0.3294508 16711746
0.1359366 0.0100443 0.3295425 16711746
0.1370655 0.0097670 0.3290576 16711746
0.1352075 0.0095388 0.3297930 16711746
0.1368068 0.0098129 0.3290613 16711746
0.1357175 0.0095132 0.3298247 16711746
0.1362759 0.0106498 0.3295041 16711746
0.1373503 0.0104825 0.3287188 16711746
0.1364825 0.0096546 0.3293620 16711746
0.1370405 0.0099280 0.3289441 16711746
0.1363511 0.0099095 0.3297852 16711746
0.1368652 0.0098557 0.3291125 16711746
0.1358095 0.0105388 0.3291812 16711746
0.1376224 0.0105532 0.3291976 16711746
0.1373326 0.0105256 0.3291174 16711746
0.1354054 0.0094117 0.3297004 16711746
0.1354968 0.0094716 0.3295883 16711746
0.1360574 0.0095707 0.3292606 16711746
0.1364417 0.0106047 0.3292481 16711746
0.1366603 0.0105894 0.3289542 16711746
0.1370957 0.0106205 0.3290228 16711746
0.1361359 0.0097345 0.3294911 16711746
0.1357635 0.0105180 0.3293166 16711746
0.1358486 0.0098456 0.3294582 16711746
0.1357623 0.0105271 0.3289917 16711746
0.1357034 0.0097006 0.3293572 16711746
0.1369389 0.0100607 0.3287915 16711746
0.1369672 0.0100764 0.3287175 16711746
0.1358207 0.0096597 0.3292441 16711746
0.1368944 0.0106171 0.3290004 16711746
0.1372465 0.0106243 0.3288461 16711746
0.1351290 0.0092387 0.3299243 16711746
0.1355360 0.0096616 0.3299684 16711746
0.1358076 0.0097035 0.3308398 16711746
0.1380505 0.0093229 0.3295957 16711746
0.1370666 0.0101239 0.3291825 16711746
0.1361529 0.0095803 0.3303667 16711746
0.1362516 0.0096574 0.3298821 16711746
0.1359382 0.0099716 0.3296002 16711746
0.1359236 0.0095611 0.3309077 16711746
0.1374523 0.0105166 0.3290289 16711746
0.1368339 0.0096326 0.3296708 16711746
0.1368776 0.0099231 0.3292508 16711746
0.1358514 0.0096718 0.3299619 16711746
0.1371254 0.0106440 0.3293296 16711746
0.1373666 0.0106083 0.3287020 16711746
0.1369665 0.0097793 0.3292100 16711746
0.1376381 0.0107002 0.3295699 16711746
0.1358874 0.0095533 0.3303853 16711746
0.1374849 0.0106443 0.3292939 16711746
0.1355525 0.0092562 0.3312775 16711746
0.1384745 0.0094498 0.3308727 16711746
0.1364883 0.0092190 0.3303826 16711746
0.1371372 0.0107175 0.3296875 16711746
0.1373987 0.0102299 0.3328260 16711746
0.1390119 0.0093835 0.3326737 16711746
0.1371152 0.0106708 0.3292579 16711746
0.1361309 0.0096993 0.3303025 16711746
0.1365339 0.0092329 0.3303653 16711746
0.1361224 0.0094460 0.3306099 16711746
0.1359333 0.0095397 0.3309373 16711746
0.1367792 0.0088203 0.3309779 16711746
0.1362802 0.0105387 0.3287928 16711746
0.1361378 0.0095432 0.3293662 16711746
0.1358104 0.0100031 0.3297733 16711746
0.1362672 0.0105204 0.3287217 16711746
0.1364106 0.0105166 0.3289070 16711746
0.1363356 0.0105143 0.3290043 16711746
0.1373583 0.0098715 0.3289522 16711746
0.1364664 0.0105399 0.3288592 16711746
0.1367797 0.0105761 0.3290161 16711746
0.1367868 0.0105720 0.3289274 16711746
0.1369824 0.0100052 0.3287724 16711746
0.1367291 0.0103807 0.3286815 16711746
0.1367810 0.0105413 0.3289232 16711746
0.1367172 0.0100445 0.3288357 16711746
0.1370219 0.0100053 0.3288315 16711746
0.1364458 0.0104887 0.3288063 16711746
0.1359713 0.0105727 0.3289922 16711746
0.1366448 0.0105499 0.3290438 16711746
0.1362705 0.0105194 0.3288118 16711746
0.1364639 0.0105628 0.3290288 16711746
0.1363364 0.0105843 0.3292710 16711746
0.1362737 0.0105303 0.3295104 16711746
0.1373322 0.0106414 0.3289464 16711746
0.1373091 0.0106084 0.3287814 16711746
0.1358477 0.0097279 0.3307796 16711746
0.1362585 0.0105583 0.3289199 16711746
0.1363736 0.0105911 0.3290989 16711746
0.1361755 0.0105474 0.3289534 16711746
0.1373382 0.0095528 0.3293790 16711746
0.1359430 0.0093222 0.3304749 16711746
0.1352569 0.0098994 0.3302557 16711746
0.1371339 0.0105826 0.3290248 16711746
0.1368898 0.0104365 0.3292708 16711746
0.1357997 0.0091635 0.3308772 16711746
0.1360607 0.0094825 0.3299044 16711746
0.1355971 0.0094201 0.3300133 16711746
0.1368749 0.0104393 0.3291714 16711746
0.1369447 0.0104565 0.3291085 16711746
0.1370058 0.0097665 0.3298824 16711746
0.1353361 0.0100758 0.3308853 16711746
0.1363909 0.0096563 0.3297787 16711746
0.1370754 0.0096724 0.3304819 16711746
0.1385315 0.0095928 0.3305581 16711746
0.1381735 0.0094833 0.3300127 16711746
0.1398526 0.0096034 0.3310256 16711746
0.1372973 0.0103913 0.3288719 16711746
0.1358609 0.0093609 0.3304629 16711746
0.1370122 0.0099929 0.3295095 16711746
0.1364788 0.0105697 0.3303660 16711746
0.1362314 0.0092454 0.3301878 16711746
0.1386287 0.0093827 0.3307340 16711746
0.1371267 0.0105506 0.3301349 16711746
0.1369193 0.0090469 0.3304867 16711746
0.1376679 0.0106678 0.3294626 16711746
0.1370286 0.0102201 0.3294610 16711746
0.1383514 0.0097133 0.3295473 16711746
0.1367009 0.0088983 0.3307941 16711746
0.1381646 0.0103172 0.3303950 16711746
0.1352080 0.0094081 0.3295791 16711746
0.1360421 0.0096189 0.3305961 16711746
0.1383994 0.0094887 0.3300090 16711746
0.1371804 0.0110795 0.3329772 16711746
0.1253116 0.0029074 0.3390828 16711746
0.1388331 0.0094100 0.3310021 16711746
0.1372487 0.0103381 0.3317858 16711746
0.1376897 0.0098244 0.3311543 16711746
0.1371995 0.0101458 0.3303003 16711746
0.1373865 0.0107421 0.3298690 16711746
0.1373439 0.0095021 0.3318319 16711746
0.1366860 0.0104889 0.3288138 16711746
0.1360877 0.0105293 0.3288680 16711746
0.1362950 0.0105108 0.3287656 16711746
0.1374654 0.0097720 0.3293096 16711746
0.1361497 0.0095008 0.3296310 16711746
0.1373929 0.0106552 0.3291814 16711746
0.1365182 0.0105350 0.3287571 16711746
0.1366316 0.0100641 0.3290119 16711746
0.1375625 0.0096020 0.3295060 16711746
0.1364281 0.0105449 0.3288901 16711746
0.1372696 0.0105282 0.3286831 16711746
0.1379054 0.0099485 0.3293520 16711746
0.1375841 0.0097614 0.3292204 16711746
0.1357387 0.0094887 0.3296989 16711746
0.1376321 0.0098622 0.3293189 16711746
0.1369830 0.0099144 0.3292171 16711746
0.1360088 0.0105399 0.3294334 16711746
0.1363520 0.0099228 0.3291075 16711746
0.1372909 0.0104775 0.3287324 16711746
0.1364972 0.0105451 0.3290509 16711746
0.1374557 0.0106220 0.3293481 16711746
0.1372701 0.0106050 0.3287584 16711746
0.1369637 0.0099778 0.3294967 16711746
0.1376476 0.0095288 0.3293979 16711746
0.1359886 0.0098976 0.3294892 16711746
0.1347790 0.0094471 0.3302131 16711746
0.1363129 0.0095556 0.3301279 16711746
0.1377453 0.0099036 0.3295280 16711746
0.1359358 0.0096542 0.3295334 16711746
0.1381203 0.0095124 0.3299481 16711746
0.1381395 0.0096511 0.3295836 16711746
0.1356501 0.0099745 0.3298508 16711746
0.1383181 0.0096529 0.3299335 16711746
0.1382543 0.0094134 0.3301654 16711746
0.1359515 0.0096744 0.3296993 16711746
0.1359128 0.0095743 0.3303353 16711746
0.1363257 0.0105296 0.3297396 16711746
0.1373454 0.0105258 0.3288728 16711746
0.1376617 0.0106042 0.3291969 16711746
0.1369575 0.0099282 0.3295557 16711746
0.1364369 0.0105313 0.3292066 16711746
0.1370667 0.0104850 0.3290045 16711746
0.1371909 0.0099730 0.3297809 16711746
0.1377520 0.0106972 0.3297544 16711746
0.1377536 0.0100619 0.3299957 16711746
0.1363538 0.0105814 0.3292419 16711746
0.1367891 0.0102773 0.3283319 16711746
0.1376351 0.0093470 0.3305269 16711746
0.1354362 0.0095391 0.3302877 16711746
0.1356319 0.0094974 0.3303159 16711746
0.1390098 0.0106178 0.3327481 16711746
0.1371579 0.0103006 0.3295609 16711746
0.1364155 0.0107082 0.3309427 16711746
0.1366800 0.0108989 0.3313157 16711746
0.1379572 0.0101656 0.3321552 16711746
0.1378295 0.0101427 0.3317659 16711746
0.1381668 0.0100934 0.3323270 16711746
0.1377670 0.0101475 0.3315261 16711746
0.1370299 0.0105445 0.3290572 16711746
0.1363835 0.0106705 0.3300020 16711746
0.1377240 0.0105969 0.3298257 16711746
0.1373954 0.0106653 0.3291638 16711746
0.1379176 0.0100732 0.3308589 16711746
0.1396957 0.0093730 0.3305460 16711746
0.1368934 0.0085360 0.3322290 16711746
0.1372319 0.0100357 0.3303809 16711746
0.1371240 0.0098477 0.3303568 16711746
0.1356168 0.0106054 0.3297347 16711746
0.1374211 0.0099993 0.3300801 16711746
0.1365236 0.0099030 0.3292308 16711746
0.1359610 0.0096496 0.3293494 16711746
0.1358434 0.0097040 0.3293925 16711746
0.1370290 0.0099664 0.3291401 16711746
0.1361882 0.0097727 0.3293198 16711746
0.1372544 0.0105227 0.3289946 16711746
0.1379815 0.0096699 0.3292515 16711746
0.1364663 0.0097245 0.3293709 16711746
0.1375701 0.0105043 0.3291053 16711746
0.1373695 0.0097627 0.3294359 16711746
0.1373615 0.0102999 0.3292275 16711746
0.1369264 0.0098101 0.3293605 16711746
0.1371505 0.0104348 0.3287568 16711746
0.1362340 0.0104631 0.3290854 16711746
0.1374935 0.0105959 0.3292187 16711746
0.1373682 0.0105716 0.3291167 16711746
0.1371967 0.0099673 0.3299694 16711746
0.1358373 0.0096041 0.3304053 16711746
0.1370706 0.0105306 0.3289717 16711746
0.1379897 0.0096657 0.3292512 16711746
0.1373359 0.0105828 0.3294666 16711746
0.1367968 0.0105326 0.3288877 16711746
0.1370392 0.0106058 0.3291200 16711746
0.1373862 0.0105799 0.3291440 16711746
0.1374522 0.0100704 0.3300248 16711746
0.1370369 0.0105882 0.3291969 16711746
0.1357871 0.0095616 0.3305272 16711746
0.1359670 0.0093585 0.3303984 16711746
0.1380281 0.0097429 0.3299027 16711746
0.1369935 0.0098172 0.3299429 16711746
0.1353303 0.0095508 0.3303165 16711746
0.1380807 0.0096750 0.3299487 16711746
0.1373878 0.0106091 0.3295821 16711746
0.1376093 0.0097452 0.3296307 16711746
0.1383504 0.0096214 0.3297606 16711746
0.1352563 0.0095340 0.3304029 16711746
0.1363917 0.0105286 0.3289065 16711746
0.1368051 0.0104442 0.3290804 16711746
0.1371701 0.0105035 0.3289479 16711746
0.1363681 0.0105301 0.3288846 16711746
0.1369330 0.0105675 0.3289588 16711746
0.1379959 0.0096649 0.3292559 16711746
0.1377231 0.0096383 0.3292674 16711746
0.1388772 0.0099156 0.3301210 16711746
0.1356948 0.0095020 0.3302397 16711746
0.1354165 0.0096361 0.3301501 16711746
0.1370087 0.0096416 0.3299174 16711746
0.1382739 0.0098073 0.3296185 16711746
0.1381491 0.0096413 0.3295848 16711746
0.1380049 0.0096636 0.3295806 16711746
0.1376598 0.0105505 0.3299034 16711746
0.1377663 0.0104290 0.3301543 16711746
0.1370877 0.0106063 0.3292493 16711746
0.1369304 0.0106154 0.3293471 16711746
0.1370291 0.0105899 0.3290021 16711746
0.1374491 0.0106123 0.3291221 16711746
0.1389377 0.0098595 0.3302089 16711746
0.1385860 0.0099524 0.3299941 16711746
0.1355462 0.0099689 0.3316111 16711746
0.1385791 0.0099287 0.3298931 16711746
0.1381000 0.0099880 0.3306094 16711746
0.1381031 0.0096540 0.3300178 16711746
0.1382160 0.0097858 0.3299231 16711746
0.1379080 0.0095452 0.3297066 16711746
0.1371688 0.0101078 0.3302496 16711746
0.1379229 0.0100819 0.3317844 16711746
0.1376353 0.0097216 0.3310203 16711746
0.1372328 0.0103646 0.3297163 16711746
0.1375401 0.0097990 0.3307005 16711746
0.1400978 0.0100713 0.3321165 16711746
0.1383035 0.0106172 0.3315357 16711746
0.1363098 0.0095098 0.3298089 16711746
0.1384687 0.0098883 0.3312779 16711746
0.1368951 0.0096156 0.3297441 16711746
0.1380272 0.0092465 0.3304340 16711746
0.1335137 0.0104820 0.3318222 16711746
0.1354664 0.0094828 0.3301764 16711746
0.1361720 0.0095921 0.3303423 16711746
0.1395916 0.0103934 0.3327805 16711746
0.1381964 0.0096428 0.3304218 16711746
0.1373628 0.0098630 0.3303776 16711746
0.1396077 0.0099514 0.3307058 16711746
0.1372013 0.0101241 0.3301706 16711746
0.1363597 0.0105334 0.3289329 16711746
0.1360770 0.0097136 0.3292723 16711746
0.1362855 0.0099434 0.3292889 16711746
0.1361699 0.0104899 0.3291779 16711746
0.1364415 0.0105390 0.3289481 16711746
0.1364127 0.0105327 0.3289143 16711746
0.1366635 0.0104253 0.3287953 16711746
0.1370020 0.0105029 0.3288315 16711746
0.1370721 0.0105169 0.3288389 16711746
0.1370250 0.0105243 0.3288893 16711746
0.1358319 0.0094126 0.3299642 16711746
0.1368344 0.0103958 0.3290046 16711746
0.1365262 0.0105610 0.3289959 16711746
0.1359744 0.0105090 0.3293647 16711746
0.1372050 0.0105151 0.3288050 16711746
0.1373202 0.0105228 0.3289980 16711746
0.1368805 0.0105120 0.3289295 16711746
0.1371369 0.0105375 0.3289562 16711746
0.1368595 0.0097953 0.3292442 16711746
0.1372738 0.0105097 0.3288161 16711746
0.1381241 0.0095354 0.3297451 16711746
0.1355563 0.0094480 0.3297772 16711746
0.1364761 0.0100034 0.3291680 16711746
0.1378102 0.0096891 0.3293836 16711746
0.1358933 0.0095391 0.3303941 16711746
0.1369501 0.0102137 0.3288389 16711746
0.1354625 0.0096113 0.3301193 16711746
0.1370763 0.0105716 0.3292898 16711746
0.1372617 0.0105799 0.3289711 16711746
0.1373776 0.0106046 0.3293490 16711746
0.1376435 0.0093981 0.3297934 16711746
0.1380923 0.0095607 0.3300104 16711746
0.1385456 0.0096052 0.3295596 16711746
0.1377017 0.0096426 0.3298501 16711746
0.1363919 0.0105288 0.3289299 16711746
0.1376776 0.0106242 0.3298063 16711746
0.1358145 0.0095940 0.3298496 16711746
0.1370181 0.0105745 0.3293205 16711746
0.1381585 0.0095304 0.3323810 16711746
0.1370611 0.0097569 0.3303918 16711746
0.1381288 0.0105111 0.3313641 16711746
0.1375444 0.0096401 0.3297369 16711746
0.1380636 0.0097277 0.3299712 16711746
0.1369782 0.0105838 0.3291622 16711746
0.1359705 0.0095462 0.3299820 16711746
0.1394707 0.0101421 0.3320887 16711746
0.1373138 0.0104635 0.3288812 16711746
0.1369978 0.0098480 0.3292685 16711746
0.1374010 0.0100093 0.3292498 16711746
0.1358305 0.0095486 0.3296778 16711746
0.1371334 0.0104250 0.3287541 16711746
0.1370421 0.0098786 0.3292646 16711746
0.1367176 0.0104009 0.3286478 16711746
0.1368722 0.0105681 0.3290386 16711746
0.1369030 0.0105646 0.3290743 16711746
0.1373320 0.0105524 0.3289161 16711746
0.1373129 0.0105401 0.3288059 16711746
0.1372434 0.0105658 0.3289070 16711746
0.1357690 0.0096600 0.3291682 16711746
0.1362980 0.0106043 0.3297119 16711746
0.1370693 0.0101847 0.3291104 16711746
0.1367954 0.0105312 0.3290537 16711746
0.1372291 0.0105760 0.3288434 16711746
0.1373966 0.0105673 0.3289518 16711746
0.1367931 0.0105141 0.3290028 16711746
0.1374820 0.0105939 0.3290228 16711746
0.1369479 0.0096777 0.3297305 16711746
0.1342150 0.0097049 0.3305809 16711746
0.1369892 0.0105101 0.3289619 16711746
0.1369554 0.0105597 0.3292058 16711746
0.1374779 0.0100392 0.3298045 16711746
0.1350315 0.0096133 0.3299643 16711746
0.1375800 0.0097662 0.3294811 16711746
0.1359899 0.0096906 0.3300148 16711746
0.1371686 0.0103692 0.3291183 16711746
0.1371994 0.0100552 0.3301837 16711746
0.1376056 0.0102235 0.3301166 16711746
0.1391170 0.0099094 0.3302698 16711746
0.1386603 0.0098626 0.3299760 16711746
0.1375430 0.0100824 0.3301699 16711746
0.1381905 0.0099606 0.3307783 16711746
0.1374332 0.0099580 0.3301212 16711746
0.1373206 0.0100217 0.3308384 16711746
0.1401560 0.0104623 0.3343476 16711746
0.1365509 0.0089018 0.3321697 16711746
0.1387561 0.0101500 0.3313848 16711746
0.1366362 0.0105365 0.3305179 16711746
0.1394971 0.0096787 0.3306192 16711746
0.1366634 0.0105500 0.3300031 16711746
0.1381442 0.0101918 0.3316295 16711746
0.1351095 0.0094477 0.3295723 16711746
0.1397638 0.0104610 0.3337764 16711746
0.1395134 0.0104212 0.3329155 16711746
0.1379289 0.0096583 0.3315561 16711746
0.1368870 0.0105134 0.3290312 16711746
0.1368845 0.0104069 0.3291001 16711746
0.1369229 0.0104635 0.3291713 16711746
0.1368731 0.0103945 0.3290100 16711746
0.1369025 0.0104393 0.3290458 16711746
0.1367280 0.0103949 0.3292571 16711746
0.1368004 0.0101122 0.3291316 16711746
0.1370406 0.0105572 0.3290296 16711746
0.1366718 0.0105234 0.3293115 16711746
