# .PCD v.7 - Point Cloud Data file format
VERSION .7
FIELDS x y z rgb
SIZE 4 4 4 4
TYPE F F F F
COUNT 1 1 1 1
WIDTH 59
HEIGHT 1
VIEWPOINT 0 0 0 1 0 0 0
POINTS 59
DATA ascii

 0.0000000 0.0000000 0.0000000 16777215
 -0.0027711 -0.0124951 -0.0009549 16777215
 -0.0042348 -0.0150461 -0.0032200 16777215
 -0.0044744 -0.0165601 -0.0028641 16777215
 -0.0046674 -0.0174724 -0.0029716 16777215
 -0.0050828 -0.0185580 -0.0024402 16777215
 -0.0053869 -0.0190538 -0.0028657 16777215
 -0.0062236 -0.0184675 -0.0043839 16777215
 -0.0063578 -0.0182896 -0.0045373 16777215
 -0.0063578 -0.0179604 -0.0041843 16777215
 -0.0066442 -0.0175004 -0.0043546 16777215
 -0.0070177 -0.0176340 -0.0038628 16777215
 -0.0083265 -0.0179892 -0.0023837 16777215
 -0.0101465 -0.0178815 -0.0020864 16777215
 -0.0102662 -0.0173098 -0.0023035 16777215
 -0.0109217 -0.0171477 -0.0014220 16777215
 -0.0121864 -0.0165329 -0.0010259 16777215
 -0.0127193 -0.0157644 -0.0017094 16777215
 -0.0141715 -0.0154822 -0.0023081 16777215
 -0.0142499 -0.0146817 -0.0061431 16777215
 -0.0132114 -0.0154270 -0.0060916 16777215
 -0.0099830 -0.0173615 -0.0096774 16777215
 -0.0072995 -0.0190960 -0.0160756 16777215
 -0.0062970 -0.0200484 -0.0184960 16777215
 0.0016064 -0.0206992 -0.0184365 16777215
 0.0000112 -0.0194959 -0.0234102 16777215
 -0.0040310 -0.0213125 -0.0176548 16777215
 -0.0053441 -0.0202943 -0.0176667 16777215
 -0.0147622 -0.0206093 -0.0125710 16777215
 -0.0162880 -0.0170281 -0.0121271 16777215
 -0.0126066 -0.0184117 -0.0079898 16777215
 -0.0128403 -0.0168067 0.0009696 16777215
 -0.0225466 -0.0154544 -0.0043913 16777215
 -0.0177113 -0.0132151 -0.0005362 16777215
 -0.0163729 -0.0132029 0.0046633 16777215
 -0.0134792 -0.0114377 0.0081557 16777215
 -0.0069983 -0.0089742 0.0165989 16777215
 0.0067990 -0.0049688 0.0377840 16777215
 0.0150110 0.0000593 0.0516647 16777215
 0.0175860 0.0035523 0.0695018 16777215
 0.0214584 0.0035417 0.0759257 16777215
 0.0251434 0.0060940 0.0853028 16777215
 0.0278915 0.0090178 0.0945056 16777215
 0.0327673 0.0113960 0.1025418 16777215
 0.0377647 0.0137047 0.1102131 16777215
 0.0399178 0.0160713 0.1201173 16777215
 0.0423942 0.0195524 0.1334691 16777215
 0.0459866 0.0212417 0.1446010 16777215
 0.0481966 0.0244366 0.1567970 16777215
 0.0524295 0.0282669 0.1692419 16777215
 0.0560469 0.0299390 0.1815879 16777215
 0.0620124 0.0339645 0.1968346 16777215
 0.0661051 0.0370416 0.2126116 16777215
 0.0703402 0.0398522 0.2290795 16777215
 0.0723902 0.0435381 0.2407012 16777215
 0.0803551 0.0408031 0.2509866 16777215
 0.0821822 0.0441949 0.2638249 16777215
 0.0853584 0.0404829 0.2731538 16777215
 0.0885481 0.0414324 0.2841889 16777215
