# .PCD v.7 - Point Cloud Data file format
VERSION .7
FIELDS x y z rgb
SIZE 4 4 4 4
TYPE F F F F
COUNT 1 1 1 1
WIDTH 1194
HEIGHT 1
VIEWPOINT 0 0 0 1 0 0 0
POINTS 1194
DATA ascii
0.9603865 -1.2538019 2.8490324 16711746
0.5168074 -1.1205523 2.6488793 16711746
1.1581452 -1.2075799 2.7857249 16711746
0.8352559 -1.3221738 2.9879124 16711746
0.8372374 -1.1259731 2.6672962 16711746
1.2632060 -1.2431115 2.9046173 16711746
0.6759896 -1.1941024 2.7311549 16711746
0.8736588 -1.1955428 2.7238140 16711746
1.7033951 -1.3660063 3.0087249 16711746
1.1311384 -1.1950896 2.7589426 16711746
0.3809710 -1.1575431 2.6435716 16711746
0.2765794 -1.1950802 2.7454422 16711746
0.9549594 -1.1598960 2.6620080 16711746
0.6475256 -1.3064619 2.9525549 16711746
0.5838431 -1.3603088 3.0350168 16711746
1.1245564 -1.2631806 2.9172072 16711746
0.3744793 -1.1571063 2.6501510 16711746
0.3891073 -1.2616837 2.8446460 16711746
1.1655837 -1.2740874 2.9139032 16711746
0.8612519 -1.3208188 2.9915352 16711746
0.3749512 -1.1567181 2.6461601 16711746
1.3475472 -1.2710819 2.9460979 16711746
1.1420355 -1.2408103 2.8432894 16711746
1.1791213 -1.1716927 2.7345982 16711746
0.8246784 -1.2504878 2.8302164 16711746
0.9554990 -1.2547303 2.8633392 16711746
1.4477215 -1.2289319 2.9323816 16711746
1.1304508 -1.1876160 2.7783372 16711746
0.5406152 -1.1398571 2.6501334 16711746
1.5390542 -1.4125384 3.2806745 16711746
0.5766177 -1.1905123 2.6925061 16711746
1.3982894 -1.2672513 2.9107239 16711746
0.6971484 -1.3961501 2.5261486 16711746
0.7657437 -1.2004184 2.7610235 16711746
0.7754513 -1.4112628 3.2065229 16711746
0.7685121 -1.3870509 3.1249690 16711746
0.7326846 -1.2336845 2.8188531 16711746
0.7520827 -1.3209105 2.9980638 16711746
0.9167246 -1.3766233 3.1407146 16711746
0.7456233 -1.1425898 2.6648140 16711746
1.0717423 -1.2736169 2.9099731 16711746
1.0006405 -1.3013334 2.9664240 16711746
1.0226244 -1.2387881 2.8441784 16711746
0.6590789 -1.1204911 2.6128492 16711746
0.6804839 -1.1410979 2.6510131 16711746
0.7664340 -1.1627116 2.6899199 16711746
0.7177259 -1.2765876 2.9079151 16711746
0.4320022 -1.1968350 2.7154634 16711746
1.1575854 -1.2907345 2.9686725 16711746
0.8751886 -1.1920491 2.7347929 16711746
1.1283736 -1.1444300 2.6950781 16711746
0.7649321 -1.1859174 2.7227178 16711746
1.6042928 -1.4103067 3.1377990 16711746
0.6363205 -1.4782107 3.3172369 16711746
2.0631454 -1.5482225 3.6245699 16711746
0.7879882 -1.2207282 2.8112001 16711746
2.5937707 -1.7179688 3.9396498 16711746
0.8386686 -1.4308083 3.2526119 16711746
1.5429484 -1.2636918 2.9323466 16711746
1.0649205 -1.1950196 2.7527473 16711746
0.7606221 -1.2516693 2.8677890 16711746
0.5686287 -1.1544629 2.6549382 16711746
0.8082153 -1.5384749 3.4307592 16711746
1.1695547 -1.2730651 2.9245698 16711746
0.7716094 -1.3533618 3.0824482 16711746
-0.2286286 -1.4287729 3.1963110 16711746
1.0617664 -1.1927001 2.7702777 16711746
0.6808760 -1.1600180 2.6944728 16711746
0.7873746 -1.2285380 2.8101301 16711746
1.2594231 -1.2454090 2.8892784 16711746
-0.7828978 -1.5927646 3.6209385 16711746
0.5699474 -1.1833913 2.6914961 16711746
1.3456720 -1.2362940 2.9283636 16711746
1.3193301 -1.3030732 3.0338891 16711746
0.7241143 -1.1560330 2.6814470 16711746
0.7009349 -1.3347731 3.0596871 16711746
0.7289582 -1.2071650 2.7766392 16711746
0.6528257 -1.1929559 2.7163486 16711746
1.1356212 -1.1944934 2.7583673 16711746
0.7095705 -1.2032253 2.6998873 16711746
0.5895442 -1.1238780 2.6317782 16711746
0.7506536 -1.3430800 3.0494409 16711746
0.7732724 -1.2376882 2.8190372 16711746
0.7326210 -1.2128409 2.7832775 16711746
1.5240694 -1.4119259 3.2531834 16711746
0.3172210 -1.2152941 2.7737401 16711746
0.8160166 -1.1828226 2.7274566 16711746
0.9598305 -1.2527841 2.8561759 16711746
0.7342697 -1.2147350 2.7766924 16711746
-0.2279749 -1.3878421 3.0434494 16711746
0.8359143 -1.1678466 2.7041254 16711746
0.9835285 -1.1978865 2.7502830 16711746
0.8161018 -1.2301440 2.8171978 16711746
1.1197524 -1.1463896 2.6862698 16711746
0.5847474 -1.1178843 2.6407547 16711746
1.1570891 -1.2933708 2.9600902 16711746
0.7382832 -1.3702942 3.0947106 16711746
0.6569915 -1.1518141 2.6510160 16711746
1.1475233 -1.3208901 3.0218892 16711746
0.7359633 -1.3701663 3.1026580 16711746
0.8135081 -1.2298615 2.8145578 16711746
1.3947328 -1.1853819 2.7312031 16711746
-0.1009067 -1.3356951 2.9448721 16711746
0.8940542 -1.3566686 3.0798173 16711746
1.1688696 -1.2057630 2.7830367 16711746
1.1534578 -1.3191273 3.0195520 16711746
0.4584606 -1.2065674 2.6776810 16711746
0.6525511 -1.3344159 2.5562773 16711746
0.6743422 -1.2885971 2.9184711 16711746
1.1826222 -1.2013010 2.8049605 16711746
0.9013271 -1.1706728 2.7405410 16711746
0.6666235 -1.2067183 2.7241597 16711746
-0.2937617 -1.5983824 3.2661586 16711746
0.7296844 -1.4534013 3.2238140 16711746
1.7626619 -1.6259272 3.7280035 16711746
1.4034792 -1.1961836 2.8345456 16711746
0.7123197 -1.1674491 2.6984501 16711746
0.7192012 -1.3297368 3.0168924 16711746
0.6478022 -1.2513943 2.8504159 16711746
0.7808722 -1.4500295 3.2984085 16711746
2.3042026 -1.6207987 3.5594184 16711746
0.8139473 -1.2133701 2.7780747 16711746
1.0767829 -1.3033994 2.9873583 16711746
1.0985032 -1.3883758 3.1804681 16711746
0.6562194 -1.2661682 2.8791964 16711746
0.5197887 -1.1721653 2.6726618 16711746
0.7214996 -1.2542931 2.8521569 16711746
-0.1601850 -1.3322521 2.9843149 16711746
0.4085942 -1.2171844 2.7381117 16711746
1.1705287 -1.1318414 2.6889307 16711746
0.6590970 -1.4581892 3.0647664 16711746
0.8814668 -1.2280179 2.8120873 16711746
0.6754184 -1.3809888 2.4914265 16711746
0.7321852 -1.3387446 2.9853776 16711746
0.8914376 -1.2638280 2.8832674 16711746
0.6602067 -1.3606088 3.0845833 16711746
0.5770628 -1.2136868 2.7365110 16711746
0.8440765 -1.2879728 2.9277391 16711746
0.9203031 -1.2167909 2.7832088 16711746
1.1183960 -1.3810158 3.1699030 16711746
1.9339542 -1.9521165 4.1783671 16711746
1.0259037 -1.1698971 2.7161844 16711746
1.0943149 -1.2209256 2.8171432 16711746
1.3600764 -1.5726904 3.5048864 16711746
0.9166310 -1.2119268 2.7723799 16711746
0.5546961 -1.5081463 3.3690956 16711746
1.1110797 -1.2912359 2.9577341 16711746
0.6449792 -1.3487947 2.5651197 16711746
1.8807651 -2.0654786 4.3744531 16711746
0.9814554 -1.5257251 3.4624519 16711746
2.0762839 -2.0220351 4.6660776 16711746
1.1923819 -2.2184746 4.7944355 16711746
1.5469027 -1.8651527 4.3096766 16711746
1.0734589 -2.1327367 4.3156748 16711746
1.5351868 -1.3080487 3.0297372 16711746
0.8374377 -1.4304837 3.2322669 16711746
0.3172260 -1.7311125 3.9424601 16711746
0.8164905 -1.2481215 2.8548448 16711746
0.7853602 -1.2986594 2.9512525 16711746
0.9848711 -1.4728585 3.3306401 16711746
0.8348194 -1.6173202 3.6473870 16711746
0.7260134 -1.2444739 2.8378448 16711746
0.6909645 -1.2117378 2.7634871 16711746
0.3191310 -1.7295352 3.9295931 16711746
1.0818481 -1.3057920 2.9744928 16711746
0.7342061 -1.1749310 2.7084258 16711746
-0.0163090 -1.3233994 2.9676816 16711746
0.9241812 -1.3177992 2.9825511 16711746
0.3047448 -1.7202842 3.8727076 16711746
0.9274380 -1.2081240 2.7664156 16711746
0.5061393 -1.6270708 3.6141183 16711746
0.8138745 -1.2293180 2.8156159 16711746
0.6284159 -1.4105473 3.2223480 16711746
1.0899146 -1.2227105 2.7975221 16711746
0.7453801 -1.3711418 3.0873945 16711746
0.8512740 -1.3518144 3.0829065 16711746
0.6091430 -1.5033908 3.3650904 16711746
0.6929594 -1.5959455 3.4764557 16711746
2.0022826 -1.7933632 3.6910062 16711746
0.6323458 -1.4087594 3.1944621 16711746
0.7332789 -1.3590022 3.0895746 16711746
0.5764928 -1.2120240 2.7405126 16711746
0.5378419 -1.1473073 2.6515336 16711746
1.0888635 -1.3049316 2.9831669 16711746
0.6537570 -1.1774468 2.6871014 16711746
0.6894164 -1.2394992 2.8293674 16711746
0.7731965 -1.3578401 3.0804307 16711746
0.7401382 -1.2681872 2.8940012 16711746
0.9455969 -1.1984191 2.7866085 16711746
0.6881281 -1.2669821 2.8899865 16711746
0.7737136 -1.2291380 2.8043084 16711746
0.5433501 -1.1355869 2.6450803 16711746
0.6938548 -1.2415786 2.8389385 16711746
0.4579922 -1.4621480 3.2643008 16711746
0.5857177 -1.1656657 2.6815617 16711746
0.9846415 -1.2735307 2.9052789 16711746
1.0011560 -1.3001261 2.9637825 16711746
0.7061729 -1.3618349 3.0959582 16711746
1.1028296 -1.2733109 2.9227986 16711746
0.8863851 -1.2315580 2.8141227 16711746
0.6472204 -1.2295617 2.7862294 16711746
1.4416533 -1.2187897 2.7947061 16711746
0.8425223 -1.3974887 3.1909955 16711746
1.0567371 -1.1952125 2.7650685 16711746
1.4266672 -1.2275796 2.9115529 16711746
1.0752211 -1.3076153 2.9815991 16711746
0.6324898 -1.3573990 2.5774195 16711746
1.2749878 -1.2395834 2.9233236 16711746
0.6145983 -1.2174244 2.6980016 16711746
0.7739114 -1.2167139 2.7434483 16711746
0.5393370 -1.1682692 2.6697342 16711746
0.6847854 -1.2748456 2.8859327 16711746
0.7802870 -1.2676991 2.8689060 16711746
1.1014085 -1.2785537 2.9384911 16711746
0.7084007 -1.2958616 2.9404919 16711746
0.7099237 -1.1685075 2.6981237 16711746
-0.0681988 -1.3840857 3.1367085 16711746
1.0615095 -1.2214392 2.8129985 16711746
0.8647919 -1.4913628 3.3973103 16711746
1.0597656 -1.1774993 2.7219350 16711746
0.2900806 -1.1992855 2.7311685 16711746
1.6574788 -1.4635581 3.2486165 16711746
1.4513507 -1.6125954 3.7084560 16711746
0.7219001 -1.2535114 2.8609738 16711746
0.6710078 -1.2220279 2.8026555 16711746
0.7064264 -1.2259401 2.7929192 16711746
0.7500477 -1.2751658 2.9062631 16711746
0.7700889 -1.2377914 2.8086953 16711746
0.7096793 -1.1676657 2.6995809 16711746
1.2299558 -1.2823284 2.9738736 16711746
0.7284122 -1.2019091 2.7651358 16711746
0.7765834 -1.2007209 2.7709081 16711746
0.5708551 -1.2926313 2.8940098 16711746
0.9029983 -1.3274528 3.0126252 16711746
0.7195149 -1.3164918 2.9994750 16711746
1.1706821 -1.4027041 3.1605437 16711746
0.8878508 -1.2623602 2.8871734 16711746
0.4868552 -1.4152790 3.1607013 16711746
1.6869928 -1.4042022 3.2088907 16711746
0.6342317 -1.4053208 3.1948245 16711746
0.7783083 -1.4435971 3.2262514 16711746
0.7664678 -1.5105048 3.1999581 16711746
0.7506090 -1.2772547 2.9020174 16711746
1.1573614 -1.2911973 2.9626765 16711746
0.8639352 -1.3210626 2.9885840 16711746
0.9334610 -1.2861816 2.9144213 16711746
0.8443034 -1.2847642 2.9316716 16711746
0.6587629 -1.2699702 2.8695142 16711746
0.6335881 -1.3366469 3.0070751 16711746
0.6363983 -1.4064727 3.1818061 16711746
0.7352281 -1.2135820 2.7766745 16711746
1.1203722 -1.3280880 2.9578233 16711746
0.7767860 -1.4995531 3.1009450 16711746
0.9766517 -1.2651929 2.9054146 16711746
0.7706375 -1.5149392 3.2056527 16711746
0.6358976 -1.5583694 3.5114622 16711746
1.1798773 -1.2707850 2.9386122 16711746
0.7316769 -1.1962794 2.7537520 16711746
0.8384460 -1.4077307 3.1757035 16711746
0.7765353 -1.4108126 3.1848383 16711746
0.9360377 -1.2802570 2.9066799 16711746
0.7302389 -1.2469593 2.8601620 16711746
0.6895726 -1.2371854 2.8233528 16711746
0.7348488 -1.3021294 2.9555128 16711746
1.6085533 -1.5756556 3.6558597 16711746
2.1333177 -1.5634817 3.6663213 16711746
0.9006714 -1.3266690 3.0164325 16711746
0.5404238 -1.3712138 3.0754802 16711746
0.9047804 -1.2392846 2.8506038 16711746
0.8810918 -1.3090018 2.9776175 16711746
0.6771850 -1.1868736 2.6945586 16711746
0.9583517 -1.2548881 2.8535841 16711746
1.2371720 -1.4459522 3.2922559 16711746
0.7758316 -1.2392504 2.8170485 16711746
0.6422772 -1.2246765 2.8269985 16711746
0.8068112 -1.6055363 3.8612316 16711746
1.6043955 -1.4526256 3.2968328 16711746
1.9566817 -1.6623286 3.7847240 16711746
0.7007682 -1.2591825 2.8730721 16711746
0.7086787 -1.2951778 2.9381239 16711746
0.7555445 -1.2075660 2.7782841 16711746
0.7042629 -1.2228252 2.7882013 16711746
1.8967158 -1.5772821 3.5551851 16711746
1.0317177 -1.3686204 3.1082995 16711746
1.8837932 -1.9118185 3.8698123 16711746
0.5587720 -1.1502832 2.6594331 16711746
1.0159959 -1.7242414 3.9556935 16711746
0.7032973 -1.2209865 2.7915738 16711746
0.8388515 -1.4079863 3.1168356 16711746
0.8387186 -1.3762335 3.1502357 16711746
2.0786030 -2.2768357 5.1302180 16711746
0.5788811 -1.1666930 2.6546524 16711746
0.8430650 -1.2885439 2.9309723 16711746
0.0221776 -1.6791282 3.7428370 16711746
1.0137861 -1.3426963 3.0374515 16711746
0.7324699 -1.1968764 2.7521224 16711746
0.6454028 -1.2396499 2.8220670 16711746
1.0863861 -1.3059670 2.9785945 16711746
0.7539304 -1.3205266 2.9915862 16711746
0.8333369 -1.3499018 3.0509901 16711746
0.5012376 -1.4144188 3.1465843 16711746
0.6843753 -1.4589750 3.3518426 16711746
0.6442210 -1.4049267 3.1675777 16711746
0.6512133 -1.2668834 2.8687093 16711746
0.8732463 -1.2221093 2.8257940 16711746
0.7276745 -1.3699135 3.0996625 16711746
0.7827266 -1.5239693 3.4327583 16711746
0.6863241 -1.2665493 2.8944540 16711746
0.7259971 -1.3692930 3.1153135 16711746
1.3221298 -1.3010817 3.0374811 16711746
0.7704329 -1.2646075 2.8584306 16711746
1.1263530 -1.2675006 2.9172451 16711746
0.9277794 -1.2526850 2.8675129 16711746
1.0553769 -1.2303250 2.8780162 16711746
0.9716729 -1.2223392 2.8145094 16711746
1.1957947 -1.3184413 3.0218687 16711746
0.9015915 -1.3281540 3.0084133 16711746
0.8162665 -1.2479179 2.8545182 16711746
0.5690390 -1.2903093 2.8970320 16711746
1.1002156 -1.2104235 2.8419459 16711746
0.6916198 -1.4535353 3.2760928 16711746
0.8551435 -1.5365751 3.4583859 16711746
0.8921482 -1.4453379 3.2788444 16711746
0.9770782 -1.2792945 2.8915453 16711746
1.2376292 -1.3745892 3.1012845 16711746
0.3527761 -1.5466790 3.4726253 16711746
0.6607459 -1.2242634 2.7770855 16711746
0.3501434 -1.5441799 3.4732842 16711746
0.6672016 -1.2159024 2.7464802 16711746
0.7840780 -1.2995105 2.9490197 16711746
0.7923558 -1.2581353 2.8713520 16711746
0.6743301 -1.2867154 2.9232111 16711746
0.4232585 -1.5023582 3.4249091 16711746
0.8568093 -1.4073228 3.2241595 16711746
1.2724675 -1.2375543 2.9197114 16711746
0.6943752 -1.2362223 2.8330586 16711746
1.2286521 -1.2674825 2.9332137 16711746
0.6547279 -1.3518890 2.5550117 16711746
0.6276903 -1.4818786 3.3467953 16711746
0.6075463 -1.2036574 2.6976762 16711746
1.3038394 -1.3107996 3.0400667 16711746
0.6734537 -1.2182101 2.7681499 16711746
0.6595123 -1.2230844 2.7790823 16711746
0.6851809 -1.1952605 2.7351847 16711746
0.7223675 -1.2453104 2.8450804 16711746
0.7506749 -1.3183957 3.0116239 16711746
0.4789572 -1.4139642 3.1891196 16711746
1.5895206 -1.5416162 3.5563807 16711746
0.7205437 -1.2524102 2.8634531 16711746
0.8670365 -1.3199397 2.9971414 16711746
0.8504733 -1.5842922 3.6731644 16711746
1.0057441 -1.3046693 2.9887660 16711746
1.1045707 -1.3832306 3.1116791 16711746
0.6658874 -1.2767011 2.9138703 16711746
0.7821967 -1.2972139 2.9558783 16711746
0.6125607 -1.4585489 3.2728155 16711746
1.8698192 -1.7074473 3.6369925 16711746
0.9397395 -1.3057976 2.9673138 16711746
0.6589449 -1.2387875 2.8246906 16711746
1.9310944 -1.7185030 3.7135265 16711746
1.0820860 -1.6736029 3.8356292 16711746
0.8161830 -1.2436651 2.8602369 16711746
0.7846401 -1.6556575 3.2200975 16711746
1.1026480 -1.2817557 2.9343345 16711746
-0.1390254 -2.1531570 5.1816216 16711746
0.7657995 -1.1999117 2.7620001 16711746
1.7635179 -1.6251569 3.7331169 16711746
0.2899900 -2.0409868 4.6320953 16711746
1.8355664 -1.5284709 3.3700626 16711746
1.7262638 -1.5631491 3.5185831 16711746
0.7174286 -1.2030281 2.7600839 16711746
1.5478275 -1.3049110 3.0525522 16711746
1.0354385 -1.3695180 3.1094058 16711746
1.0799931 -1.4362941 3.2363725 16711746
0.6473932 -1.3063716 2.9534774 16711746
0.7672973 -1.3908606 3.1401780 16711746
0.9526761 -2.0170751 4.2125916 16711746
1.4364601 -1.6035808 3.6734891 16711746
0.1766279 -1.6534631 3.6839831 16711746
0.8335938 -1.3226470 2.9872491 16711746
0.6901259 -1.2402884 2.8410709 16711746
0.6583853 -1.2376670 2.8250930 16711746
0.7337988 -1.2144665 2.7815194 16711746
0.6676558 -1.2750082 2.9180553 16711746
0.7607003 -1.2164989 2.8050387 16711746
0.8301817 -1.3419691 3.0280075 16711746
1.0765867 -1.3058596 3.0015991 16711746
0.7336509 -1.2342187 2.8160403 16711746
1.1692851 -1.4011040 3.1609960 16711746
0.7681996 -1.3325814 3.0355062 16711746
0.8162668 -1.2253151 2.8298659 16711746
0.6465392 -1.3086699 2.9634547 16711746
1.7150004 -1.4025394 3.2396674 16711746
0.6975165 -1.2454008 2.8297093 16711746
0.7545806 -1.2626752 2.8746395 16711746
0.8490534 -1.3419003 3.0357196 16711746
0.8946131 -1.4449930 3.2609982 16711746
1.1079123 -1.4286343 3.2302799 16711746
1.4285557 -1.2606380 2.9761221 16711746
1.1011465 -1.2778679 2.9468701 16711746
0.8814125 -1.3102242 2.9796214 16711746
0.8399067 -1.4083476 3.1908391 16711746
0.8116924 -1.3133668 2.9731331 16711746
0.5613118 -1.2863823 2.9056029 16711746
0.6765705 -1.1872975 2.6940539 16711746
1.4331234 -1.3162303 3.0813389 16711746
0.2675551 -1.4013824 3.1672053 16711746
0.5573730 -1.5086793 3.3596900 16711746
1.1645620 -1.4052038 3.1944041 16711746
0.7050467 -1.3330724 3.0246642 16711746
1.1247891 -1.4662074 3.3183606 16711746
0.5520715 -1.3386978 2.9682722 16711746
1.4480735 -1.2567430 2.9894288 16711746
0.9982528 -1.3068862 2.9582939 16711746
1.3419240 -1.2317585 2.9460433 16711746
0.8929291 -1.4456331 3.2556512 16711746
-0.0916624 -1.5565349 3.4890296 16711746
1.4452599 -1.2543583 2.9860449 16711746
0.5679908 -1.2901192 2.8943095 16711746
0.8231938 -1.2961762 2.8902671 16711746
0.7510367 -1.2820171 2.8902037 16711746
0.9981779 -1.3090907 2.9529197 16711746
1.5426666 -1.2783862 3.1050675 16711746
0.6492710 -1.2601110 2.8364620 16711746
1.2721117 -1.5560265 3.5281832 16711746
0.6070877 -1.2533031 2.8378336 16711746
1.6249839 -1.4523834 3.3244197 16711746
0.8546349 -1.5388614 3.4521384 16711746
1.1198441 -1.3233317 3.0109730 16711746
0.8122025 -1.3122607 2.9756894 16711746
0.8387336 -1.4071748 3.2079837 16711746
0.5185384 -1.3742027 3.0572658 16711746
0.7072878 -1.4022062 3.1519473 16711746
0.6210243 -1.2709846 2.8798704 16711746
1.0248622 -1.4009762 3.1562636 16711746
1.0020741 -1.2992886 2.9622254 16711746
1.5389972 -1.2851900 2.9576073 16711746
0.7692913 -1.3311139 3.0374799 16711746
0.5154592 -1.3737352 3.0637226 16711746
1.3722582 -1.5330435 3.5109351 16711746
1.6037219 -1.4530152 3.3052242 16711746
0.1483054 -1.7647591 3.9252138 16711746
1.0064015 -1.2968009 2.9821765 16711746
0.6531763 -1.1939220 2.7135401 16711746
0.9638350 -1.3957835 3.1797218 16711746
0.7161549 -1.2751669 2.9122365 16711746
-0.4927133 -2.2482450 4.8834062 16711746
1.2067536 -1.3539244 3.0885413 16711746
1.0806007 -1.3659849 3.0970273 16711746
0.7054836 -1.2937813 2.9434929 16711746
0.1864803 -1.9189867 4.2901020 16711746
-0.5928375 -1.9798980 4.5802288 16711746
1.1062946 -1.3827348 3.1171172 16711746
0.7081903 -1.4042478 3.1417518 16711746
0.7221966 -1.3291798 3.0120428 16711746
0.8005088 -1.2868537 2.9261236 16711746
1.2533344 -1.2471545 2.9411309 16711746
1.0513227 -1.3258791 3.0160615 16711746
0.7999414 -1.3889937 3.1646895 16711746
1.0297917 -1.7002479 3.8737998 16711746
0.6991309 -1.2766192 2.9206994 16711746
1.0783617 -1.2580111 2.9073558 16711746
0.8646056 -1.2790600 2.9006321 16711746
0.8636753 -1.2789165 2.8999779 16711746
0.8170030 -1.2456373 2.8505414 16711746
1.2719291 -1.4522990 3.2839339 16711746
0.7542095 -1.3240408 2.9899735 16711746
0.9339310 -1.2837579 2.9227123 16711746
0.2047909 -1.7153513 3.8853030 16711746
-0.1426655 -1.5352650 3.4681785 16711746
0.6126707 -1.4575489 3.2418785 16711746
1.3146234 -1.7209939 3.9449978 16711746
-0.0980807 -1.4611623 3.2699749 16711746
0.6094881 -1.4567503 3.2464602 16711746
1.4910699 -1.3412298 3.1461937 16711746
1.0789458 -1.9581964 4.4393339 16711746
1.0235709 -1.5651927 3.5308301 16711746
1.2127163 -2.0363717 3.9782217 16711746
1.5753120 -1.4884254 3.4267328 16711746
1.1633475 -1.2892642 2.9740887 16711746
0.9495249 -1.3628157 3.0672390 16711746
0.7196776 -1.3161073 3.0013247 16711746
1.1552048 -1.3423963 3.0387843 16711746
0.7212946 -1.2433418 2.8470066 16711746
0.7001432 -1.2928511 2.9477572 16711746
0.6951655 -1.3075616 2.9554756 16711746
0.7074368 -1.2798709 2.9124908 16711746
0.1158144 -1.4145714 3.2280593 16711746
0.6501024 -1.3274654 3.0059648 16711746
0.5635077 -1.3590378 3.0176222 16711746
0.4788072 -1.2794363 2.8812752 16711746
0.8981857 -1.2670836 2.8809228 16711746
0.6444838 -1.2407941 2.8219347 16711746
0.7610213 -1.4845456 3.3483229 16711746
0.8402395 -1.3791788 3.0992270 16711746
0.8987786 -1.2525505 2.8599191 16711746
0.4681759 -1.2748940 2.8925381 16711746
1.4757236 -1.3221605 2.9821370 16711746
0.0830360 -1.4124494 3.2496493 16711746
0.3483115 -1.3750627 3.0839579 16711746
0.6610413 -1.4048177 3.1898792 16711746
1.3147333 -1.3011385 3.0379415 16711746
0.2652590 -1.3615125 3.0753605 16711746
0.4827071 -1.2829792 2.8795269 16711746
1.3823687 -1.2420024 2.8858411 16711746
1.3249078 -1.3004379 3.0509534 16711746
0.9828447 -1.2713753 2.9154799 16711746
1.4217843 -1.3197267 3.0748138 16711746
0.5661578 -1.2898756 2.8993690 16711746
0.5622760 -1.2430620 2.8377757 16711746
1.2781434 -1.3799704 3.1488321 16711746
1.1919070 -1.3236144 3.0157962 16711746
0.7818334 -1.4672172 3.3201540 16711746
0.6986718 -1.3372812 3.0369308 16711746
0.3275805 -1.3417177 3.0305433 16711746
1.2117453 -1.3561635 3.0765674 16711746
0.9139350 -1.4132434 3.2559388 16711746
0.6406537 -1.2508287 2.8529439 16711746
1.3877056 -1.3312110 3.0288646 16711746
0.3308340 -1.3419681 3.0228224 16711746
0.6556263 -1.2178802 2.7874827 16711746
0.8030875 -1.3899724 3.1363022 16711746
0.8527337 -1.4048467 3.1600888 16711746
0.4604161 -1.4639350 3.2572567 16711746
0.1983213 -1.9002188 4.2870116 16711746
1.0841185 -1.4414357 3.2710016 16711746
0.5381856 -1.3194304 2.9613519 16711746
0.5888607 -1.3632818 3.0322931 16711746
0.6466372 -1.3081197 2.9631948 16711746
0.8886372 -1.2904760 2.9406226 16711746
1.2633721 -1.4372258 3.2659578 16711746
0.7449762 -1.2741398 2.9076304 16711746
0.7243575 -1.2869363 2.9310343 16711746
0.9078653 -1.4330052 3.2188823 16711746
0.9860634 -1.2717308 2.9102037 16711746
1.6300719 -1.4522684 3.3317640 16711746
1.1540726 -1.3409659 3.0467973 16711746
0.9687797 -1.3444959 3.0304699 16711746
0.2000592 -1.9088945 4.2813277 16711746
0.1842708 -1.7416025 3.8971853 16711746
1.6889421 -1.4053332 3.2333400 16711746
1.7669482 -1.6483188 3.7695644 16711746
0.9827011 -1.5293347 3.4914277 16711746
0.7881653 -1.6626604 3.1992271 16711746
1.0800701 -1.5910980 3.6081812 16711746
0.0308490 -1.6119404 3.5798180 16711746
1.1085585 -1.3747975 3.1090579 16711746
0.7006799 -1.3316272 3.0299861 16711746
1.6834680 -1.5106606 3.4607766 16711746
1.1515328 -1.3325044 3.0457828 16711746
1.3734428 -1.5347666 3.5119257 16711746
1.0477034 -1.3965262 3.1554315 16711746
1.6966370 -1.9136109 4.0359612 16711746
0.8049189 -1.3711305 3.0850315 16711746
0.6931215 -1.2517906 2.8743818 16711746
0.7431852 -1.2840137 2.9261980 16711746
1.1034098 -1.3096621 2.9906259 16711746
0.8822966 -1.5788006 3.5943553 16711746
0.1794820 -1.4461867 3.2996225 16711746
0.7768881 -1.2630169 2.8703012 16711746
0.7599621 -1.5770377 2.9523613 16711746
0.8303972 -1.3476902 3.0741827 16711746
0.7451371 -1.2653617 2.9138885 16711746
0.1198748 -1.5516950 3.4806995 16711746
0.6916840 -1.2757905 2.9177914 16711746
0.8282514 -1.3419092 3.0274880 16711746
-0.0898138 -1.4612952 3.2606125 16711746
-0.6488855 -1.6588014 3.8612702 16711746
1.1668884 -1.4696132 3.3229866 16711746
1.5625895 -1.3748821 3.1329086 16711746
0.8948632 -1.4925392 3.3765736 16711746
0.7255718 -1.2873398 2.9286976 16711746
0.9926544 -1.2680911 2.9396405 16711746
0.2610882 -1.4004910 3.1736307 16711746
1.1217337 -1.5023073 3.3752656 16711746
0.5162560 -1.3550332 3.0005653 16711746
0.8820987 -1.3123552 2.9792640 16711746
1.0570799 -1.2861125 2.9649503 16711746
1.5712627 -1.3732839 3.1458049 16711746
0.6577694 -1.2727898 2.8593531 16711746
0.1560458 -1.3354753 2.9516449 16711746
0.3394552 -1.3171661 2.9656289 16711746
0.5493990 -1.5101714 3.3932521 16711746
1.0796700 -1.4423678 3.2480850 16711746
0.6366909 -1.3844703 3.0652170 16711746
0.3304355 -1.3404157 3.0321701 16711746
1.2433128 -1.2721883 2.9984477 16711746
1.3955063 -1.4116971 3.2239239 16711746
1.1632092 -1.4094236 3.1848817 16711746
1.6137660 -1.4545301 3.3097332 16711746
0.0975645 -1.4425290 3.2858341 16711746
0.3367818 -1.3172998 2.9642537 16711746
0.9498957 -1.2823000 2.9552736 16711746
0.0453886 -1.4953150 3.1274393 16711746
1.1202184 -1.3785439 3.1274931 16711746
0.9936053 -1.3576858 3.0585144 16711746
0.7075862 -1.2849485 2.9369948 16711746
0.7701558 -1.3354232 3.0294206 16711746
0.4353559 -1.3414741 3.0141339 16711746
1.5587949 -1.4541396 3.2519219 16711746
1.2012573 -1.3754100 3.0856030 16711746
0.9916041 -1.3594319 3.0543711 16711746
0.7791409 -1.2978033 2.9260864 16711746
-0.6935696 -1.8007653 3.9774411 16711746
0.7793794 -1.3947481 3.1145005 16711746
0.7471195 -1.4704704 3.2322488 16711746
0.4924411 -1.4172741 3.1531150 16711746
0.7792460 -1.4670842 3.3302536 16711746
1.1454606 -1.3387198 3.0250175 16711746
0.1350350 -1.7665585 3.8510561 16711746
-0.8606375 -1.8552753 4.1799173 16711746
1.0028681 -1.2978158 2.9642854 16711746
1.0543672 -1.3176905 3.0131390 16711746
0.9031250 -1.3936523 3.1444407 16711746
1.7060906 -1.4027206 3.2240760 16711746
0.8473039 -1.3433129 3.0266340 16711746
0.5472739 -1.4700561 3.2877214 16711746
0.8659546 -1.4897984 3.3863065 16711746
1.1393268 -1.5470990 3.4892888 16711746
0.8312129 -1.3378053 3.0500243 16711746
0.7186629 -1.3300037 3.0194323 16711746
0.3640808 -1.5462523 3.4611804 16711746
0.0648429 -1.9324763 3.8926537 16711746
0.4845704 -1.4147857 3.1708925 16711746
0.8155776 -1.7312427 3.3880916 16711746
0.2782022 -1.3063623 2.9567671 16711746
0.1047849 -1.3521752 3.1074567 16711746
0.7792544 -1.5954317 3.5331182 16711746
0.6453108 -1.2538927 2.8452282 16711746
0.1154625 -1.4169444 3.2185469 16711746
1.2829819 -1.4517262 3.3024840 16711746
1.2191812 -1.3832287 3.0632706 16711746
0.6964641 -1.3048540 3.1155427 16711746
0.9454390 -1.3992484 3.1718202 16711746
0.7004765 -1.3556517 3.0639780 16711746
-0.6606873 -1.8074901 3.9829845 16711746
0.7372476 -1.3529809 3.0683894 16711746
0.9465177 -1.6996136 3.8028011 16711746
0.8432387 -1.4102502 3.1703522 16711746
0.9547432 -1.3702313 3.0932798 16711746
0.7170219 -1.3163896 2.9924607 16711746
0.8803605 -1.3108945 2.9647315 16711746
0.6689170 -1.2723807 2.9075916 16711746
2.1279802 -2.0818582 4.4779119 16711746
0.7028446 -1.3093317 2.9821823 16711746
1.0464929 -2.0391617 4.2549682 16711746
0.8877267 -1.5690112 3.5148404 16711746
0.6695835 -1.2775428 2.9129264 16711746
-0.1143361 -1.4330807 3.1906800 16711746
0.7390357 -1.7704070 3.6038074 16711746
1.1504956 -1.9431009 3.5822785 16711746
0.8318848 -1.3206763 2.9917362 16711746
1.4496948 -1.3110121 3.0901427 16711746
0.7113805 -1.2564315 2.9266021 16711746
0.6142451 -1.4573733 3.2336133 16711746
0.4642106 -1.4660271 3.2548442 16711746
0.8414413 -1.2822926 2.9427741 16711746
0.9694198 -1.3464429 3.0306847 16711746
1.0077223 -1.3614447 3.0749366 16711746
1.0810077 -1.4432175 3.2524784 16711746
0.7576596 -1.3458552 3.0430505 16711746
1.7195344 -1.5522063 3.5185952 16711746
1.0412619 -1.3619088 3.0717704 16711746
1.1356794 -1.3678515 3.1095648 16711746
0.7732071 -1.3010783 2.9574444 16711746
1.6228337 -1.6745121 3.3956187 16711746
1.0826706 -1.4858536 3.3577299 16711746
0.5421706 -1.2275522 2.8654790 16711746
1.4784251 -1.4194189 3.2046249 16711746
0.4320873 -1.3411056 3.0184805 16711746
1.0454741 -1.3224460 3.0160365 16711746
0.2554482 -1.8620069 4.1208510 16711746
1.0423237 -1.3238695 3.0093825 16711746
0.6684226 -1.4092753 3.1605909 16711746
1.7721534 -1.5201807 3.3889921 16711746
1.3941121 -1.2506114 3.0164764 16711746
1.1284847 -1.4653493 3.3203263 16711746
1.1153141 -1.3934472 3.1087244 16711746
0.4984136 -1.4201798 3.1436551 16711746
0.1408465 -1.5531092 3.4495389 16711746
0.7937349 -1.6720712 3.2164512 16711746
0.7029460 -1.2773851 2.9412198 16711746
0.8001276 -1.6592925 3.1701865 16711746
1.1099519 -1.3816562 3.1155696 16711746
0.7678922 -1.4407927 3.2519984 16711746
1.2014858 -1.3739991 3.0895324 16711746
0.8607805 -1.3228853 2.9880323 16711746
1.5917128 -1.5044477 3.3501821 16711746
-0.0416991 -1.5073744 3.1993914 16711746
0.5623612 -1.2876832 2.8996973 16711746
0.9843041 -1.4943377 3.3682249 16711746
0.8590610 -1.5597825 3.4861650 16711746
0.8168234 -1.3573900 3.0620172 16711746
0.8374221 -1.4318027 3.2180839 16711746
0.8411921 -1.3994291 3.1494992 16711746
0.2786689 -1.6870711 3.8092189 16711746
0.6886487 -1.2433338 2.8853633 16711746
0.7860094 -1.3939315 3.1372166 16711746
0.7187631 -1.3320148 3.0141592 16711746
1.6111513 -1.3665874 3.1847997 16711746
1.0253323 -1.4021235 3.1540520 16711746
0.3654964 -1.2945845 2.9431958 16711746
-0.1544240 -1.9529372 4.1842098 16711746
1.0169091 -1.3410254 3.0435898 16711746
0.9609789 -1.3979061 3.1524241 16711746
0.6770105 -1.2453514 2.8924072 16711746
1.0843722 -1.3073976 2.9650521 16711746
0.7366825 -1.2954924 2.9599574 16711746
0.5349074 -1.3704187 3.0441728 16711746
0.3307502 -1.5513567 3.5212448 16711746
0.4533193 -1.4984828 3.3519497 16711746
0.7136390 -1.2670881 2.9172554 16711746
0.8973046 -1.4434417 3.2627823 16711746
0.3923360 -1.3006117 2.9257557 16711746
0.7057703 -1.2942810 2.9414918 16711746
2.0170443 -1.8966174 4.1143494 16711746
0.7172208 -1.3316027 3.0184557 16711746
0.7642574 -1.3540434 3.0672770 16711746
-0.0712537 -1.5481483 3.4665923 16711746
0.6988541 -1.2869921 2.9523759 16711746
0.7702818 -1.3530531 3.0795617 16711746
1.4718663 -1.7405511 4.0144258 16711746
0.7230501 -1.2789572 2.9274640 16711746
0.9987074 -1.8781521 3.6078732 16711746
0.7812843 -1.2884355 2.9362640 16711746
0.7334270 -1.3679898 3.0996561 16711746
0.5849361 -1.3610985 3.0341065 16711746
1.5645875 -1.3739132 3.1446359 16711746
0.7201343 -1.3187270 2.9858670 16711746
1.3751805 -1.8446651 4.2324767 16711746
0.7714745 -1.3570662 3.0648670 16711746
0.8666583 -1.3906577 3.1240265 16711746
0.9090750 -1.4322907 3.2240365 16711746
0.8556831 -1.5413163 3.4537892 16711746
1.0140226 -1.3396485 3.0445404 16711746
0.7771940 -1.5553961 3.5102782 16711746
0.8370567 -1.3758898 3.1103728 16711746
0.7763283 -1.3356644 3.0263236 16711746
0.3776933 -1.4875456 3.2902195 16711746
1.5893140 -1.5395685 3.5554447 16711746
0.9694602 -1.3436594 3.0379360 16711746
0.9029618 -1.6389531 3.7244093 16711746
0.9804054 -1.5256125 3.4463129 16711746
1.0384600 -1.3650004 3.0626080 16711746
0.5413779 -1.3199377 2.9570637 16711746
0.6465438 -1.2522002 2.9009171 16711746
1.0742381 -1.5878981 3.5543914 16711746
-0.0898460 -1.4904785 3.2235045 16711746
0.3446412 -1.4875575 3.3365719 16711746
0.9014087 -1.3287878 3.0069983 16711746
1.1239766 -1.4672457 3.3106751 16711746
0.9434223 -1.3975650 3.1748149 16711746
0.4681947 -1.4969168 3.3145831 16711746
-0.5232580 -1.9268110 4.3849258 16711746
0.8952588 -1.4484445 3.2411876 16711746
0.4929724 -1.3506672 3.0193624 16711746
-0.4138185 -1.6890903 3.9021735 16711746
0.7507468 -1.3186014 3.0079603 16711746
0.7817441 -1.4517639 3.1903589 16711746
0.7577306 -1.3234161 3.0640771 16711746
0.8158500 -1.5446384 3.4580419 16711746
0.4647930 -1.4949577 3.3206027 16711746
0.6492741 -1.3517567 3.0747857 16711746
0.9743101 -1.3346479 3.0494201 16711746
0.4296860 -1.5526189 3.4288604 16711746
0.5898921 -1.2688879 2.9158607 16711746
0.6986275 -1.3909839 3.1157205 16711746
0.7006262 -1.3565373 3.0643747 16711746
1.0024675 -1.3077055 2.9834049 16711746
1.0867350 -1.3603292 3.0749588 16711746
0.7079886 -1.2898170 2.9475222 16711746
0.7395690 -1.3001794 2.9644330 16711746
0.7663496 -1.4861002 3.3252192 16711746
0.7992971 -1.3632815 3.0795352 16711746
0.8093829 -1.3778001 3.1060820 16711746
0.7388791 -1.3705797 3.0893009 16711746
0.4472557 -1.5510397 3.3967946 16711746
0.7105898 -1.2908484 2.9312792 16711746
0.7748429 -1.3011731 2.9553983 16711746
1.0022398 -1.3077652 2.9831986 16711746
0.8817879 -1.4604443 3.2963417 16711746
-0.0177411 -1.4897667 3.1726034 16711746
0.9748473 -1.4153836 3.2078512 16711746
0.7669241 -1.4614253 3.3083770 16711746
0.7093136 -1.2909058 2.9450152 16711746
0.8706888 -1.4289678 3.2180419 16711746
0.7515242 -1.3168597 2.9957500 16711746
0.8358862 -1.4305216 3.2197523 16711746
0.9676042 -1.4685944 3.3162506 16711746
0.7390206 -1.3449461 3.0390100 16711746
0.3153997 -1.4682068 3.2424240 16711746
1.4103135 -1.3043805 3.0174322 16711746
1.2909609 -1.3525918 3.0633509 16711746
0.5412898 -1.3749748 3.0374429 16711746
1.4675423 -1.3062345 3.1098616 16711746
1.3170327 -1.2972922 3.0522733 16711746
0.8408670 -1.3788228 3.1035624 16711746
0.3636445 -1.4867659 3.3050838 16711746
0.7633112 -1.4376837 3.2712793 16711746
0.8190773 -1.3782818 3.0974126 16711746
0.8169837 -1.5246602 3.0076101 16711746
0.8445354 -1.4329031 3.2193685 16711746
0.6648469 -1.3478962 3.0419848 16711746
0.7529384 -1.3206495 3.0063350 16711746
0.7543974 -1.3182367 2.9945295 16711746
0.8659269 -1.4972839 3.3756959 16711746
0.8837463 -1.5474992 3.4873509 16711746
1.8714249 -1.7728852 4.0578189 16711746
0.5835766 -1.4024071 3.1125283 16711746
0.6627775 -1.4052029 3.1886072 16711746
1.1344458 -1.3637017 3.0948493 16711746
0.6522187 -1.3278245 3.0017805 16711746
0.9721969 -1.4724860 3.3048921 16711746
0.9474927 -1.7005423 3.8389935 16711746
-0.4422062 -1.9574989 4.3972859 16711746
0.5520601 -1.4222250 3.1618955 16711746
1.5152959 -1.6188844 3.5856664 16711746
0.9025391 -1.6272507 3.7939141 16711746
1.0256767 -1.5644740 3.5296876 16711746
1.4630954 -1.4637643 3.3720262 16711746
0.8187234 -1.4040225 3.1512818 16711746
0.8502295 -1.4813652 3.3602915 16711746
0.9521675 -1.4421431 3.2582178 16711746
1.0743730 -1.3693290 3.0825522 16711746
0.5570201 -1.3386908 2.9827909 16711746
1.4133478 -2.0627539 4.7151246 16711746
0.7555982 -1.7367226 3.4709024 16711746
0.9434231 -1.7024643 3.7853861 16711746
0.1885167 -1.6853815 3.7049205 16711746
0.7208245 -1.5689502 3.5208545 16711746
0.7031764 -1.2831070 2.9259503 16711746
0.0221253 -1.5502687 3.4689717 16711746
0.7481080 -1.3648770 3.0842273 16711746
0.7894117 -1.4127454 3.1678209 16711746
0.4713377 -1.4620622 3.2427084 16711746
-0.0729112 -1.4948921 3.3592410 16711746
0.3214724 -1.3270140 2.9942267 16711746
0.9549764 -1.4429406 3.2514546 16711746
0.8265851 -1.5995758 3.5572555 16711746
0.7812271 -1.5228146 3.4310291 16711746
0.8429003 -1.4743551 3.3903108 16711746
0.8753214 -1.4957573 3.3898051 16711746
0.7910643 -1.4550387 3.2816567 16711746
0.6981934 -1.3044741 2.9814878 16711746
0.7405666 -1.3537229 3.0614192 16711746
0.8363800 -1.3759413 3.1049526 16711746
1.3950887 -1.3850390 3.2055862 16711746
0.7557961 -1.4521434 3.2775724 16711746
0.8368637 -1.3768152 3.0992134 16711746
0.0943433 -1.4174920 3.0844984 16711746
1.0906427 -1.3878388 3.1447344 16711746
0.7508948 -1.5389197 3.4174995 16711746
0.7216737 -1.3131609 2.9889960 16711746
0.7201861 -1.3160006 3.0029767 16711746
0.7982311 -1.3268447 3.0150359 16711746
0.8438013 -1.3401283 3.0323749 16711746
-0.9416204 -1.7507614 4.0467844 16711746
0.5315031 -1.4505622 3.2314889 16711746
1.8056462 -1.5628406 3.5866249 16711746
1.6263068 -1.6137924 3.7259755 16711746
0.7519059 -1.3179302 3.0007410 16711746
1.1928027 -1.5243971 3.4108601 16711746
1.1273645 -1.3716860 3.1444337 16711746
-0.3304948 -1.6039653 3.6484981 16711746
0.7075596 -1.3973114 3.0920208 16711746
0.0217243 -1.4355172 3.2209346 16711746
1.1583010 -1.3389840 3.0531371 16711746
0.8791578 -1.4575593 3.3228209 16711746
0.8487670 -1.4066522 3.1632590 16711746
1.0606532 -1.3562316 3.0759013 16711746
1.0421712 -1.3614618 3.0750175 16711746
1.1781560 -1.5145968 3.4319167 16711746
0.7875691 -1.5242914 3.4181914 16711746
1.1035662 -1.3845855 3.0954554 16711746
0.9838446 -1.5283122 3.4481146 16711746
0.4908563 -1.2863370 2.8774211 16711746
1.4443388 -1.3111531 3.0967934 16711746
-0.4839527 -1.6973779 3.9719639 16711746
0.6637798 -1.4150124 3.1448655 16711746
0.8569998 -1.3899764 3.0795238 16711746
0.7691794 -1.7077191 3.3572457 16711746
0.8768950 -1.4093503 3.1893303 16711746
0.3379639 -1.4572197 3.2646849 16711746
1.4768789 -1.5329324 3.5269582 16711746
0.7546094 -1.3275191 3.0252407 16711746
0.7021951 -1.3323437 3.0311360 16711746
0.7866042 -1.3664513 3.0778806 16711746
-0.5849622 -1.6796088 3.8945816 16711746
1.0858514 -1.6066641 3.6366725 16711746
0.6240748 -1.3109839 2.9746830 16711746
0.8234949 -1.3618628 3.0761487 16711746
0.8447469 -1.4751472 3.3728018 16711746
0.8139482 -1.4039549 3.1622267 16711746
-0.1057245 -1.4615626 3.2769217 16711746
0.7883881 -1.3940169 3.1380477 16711746
0.3614330 -1.3687418 3.0731161 16711746
0.9028252 -1.3269469 3.0140116 16711746
0.8616315 -1.3614682 3.0604360 16711746
1.0830801 -1.5083964 3.3857136 16711746
0.6691530 -1.3640954 3.0548632 16711746
1.4591935 -1.3890905 3.1886663 16711746
1.3181808 -1.4976107 3.3777473 16711746
1.4867431 -1.4609642 3.4043701 16711746
0.3516941 -1.4850972 3.3186159 16711746
0.8470479 -1.3691696 3.0223043 16711746
0.8633726 -1.4052312 3.1931188 16711746
0.8434375 -1.4034284 3.1208076 16711746
0.6390283 -1.3847731 3.0636544 16711746
0.9048139 -1.3292673 3.0090730 16711746
1.6090894 -1.4459497 3.2776380 16711746
0.7514024 -1.3196448 3.0147989 16711746
0.7576433 -1.3688149 3.0819745 16711746
0.1620751 -1.5979124 3.5595796 16711746
0.8374014 -1.5742527 3.5074816 16711746
1.5523192 -1.4076638 3.2987869 16711746
0.7461172 -1.3416978 3.0497477 16711746
1.7347397 -1.7659483 4.0864563 16711746
0.7762385 -1.3537827 3.0611353 16711746
0.8313916 -1.5404721 3.4897845 16711746
0.5933118 -1.9082377 4.2194352 16711746
0.6299828 -1.9124054 4.1741414 16711746
0.2302690 -1.3863159 3.1512945 16711746
0.3506835 -1.3660378 3.0821846 16711746
0.9188674 -1.3534081 3.0770686 16711746
0.8008380 -1.3887447 3.1370206 16711746
0.8058824 -1.4346708 3.2271435 16711746
0.8647635 -1.5129377 3.4063010 16711746
1.5068738 -1.4956065 3.4668114 16711746
0.7386702 -1.3037409 2.9793890 16711746
0.9272062 -1.4031767 3.1641457 16711746
0.9461405 -1.4006441 3.1704345 16711746
0.9914591 -1.5269544 3.4401197 16711746
0.8977694 -1.4817131 3.3615720 16711746
0.7868714 -1.3660029 3.0777256 16711746
0.8387552 -1.4091117 3.1662238 16711746
0.9643889 -1.4644309 3.3157675 16711746
1.2445363 -1.4461251 3.2868462 16711746
1.2278062 -1.4198697 3.2464452 16711746
0.7817599 -1.5949816 3.5094121 16711746
1.0220405 -1.3716840 3.1252401 16711746
0.8970237 -1.4820096 3.3562167 16711746
0.6932662 -1.6187545 3.5865557 16711746
0.8638303 -1.3909625 3.1213439 16711746
0.7012270 -1.3081656 2.9774559 16711746
1.2382704 -1.4468988 3.2814498 16711746
0.7357907 -1.5303642 3.4141612 16711746
0.5352628 -1.3724899 3.0431659 16711746
1.8858869 -1.5064565 3.4951818 16711746
0.8950245 -1.4808432 3.3653822 16711746
0.5355604 -1.3723420 3.0431027 16711746
0.9465627 -1.3759222 3.1349294 16711746
1.1224456 -1.4687526 3.3010035 16711746
1.8093492 -1.5108639 3.4279010 16711746
0.0116583 -1.5448564 3.4455707 16711746
1.2786424 -1.3980963 3.2216294 16711746
1.0260931 -1.5680139 3.5432274 16711746
0.8139229 -1.6148556 3.7279506 16711746
0.8394118 -1.3777127 3.1036696 16711746
0.7543529 -1.3624116 3.2603128 16711746
0.4945948 -1.4195068 3.1490824 16711746
1.3093458 -1.4984226 3.3575015 16711746
0.8873158 -1.4827917 3.3456709 16711746
0.8320771 -1.3541685 3.0739884 16711746
0.5572554 -1.3300611 2.9420753 16711746
0.8024718 -1.3904254 3.1336093 16711746
0.1269342 -1.5997884 3.4693112 16711746
1.2286679 -1.4729923 3.3852038 16711746
0.8636695 -1.4228711 3.2095771 16711746
0.7887221 -1.5233164 3.4261341 16711746
0.7186404 -1.3270501 3.0178230 16711746
1.0830112 -1.3708305 3.1023583 16711746
0.7781377 -1.5411979 3.4343696 16711746
0.7712514 -1.3468921 3.0554657 16711746
1.0593070 -1.5571628 3.5171649 16711746
1.0246000 -1.5016217 3.3778570 16711746
-0.7289550 -1.6750370 3.8515971 16711746
1.0224450 -1.4010302 3.1480505 16711746
0.8259392 -1.3847220 3.1263254 16711746
0.7265423 -1.5212320 3.3916218 16711746
0.8597708 -1.3677144 3.0877800 16711746
0.8367922 -1.3759304 3.1051607 16711746
0.9417892 -1.8089544 3.8966942 16711746
0.7556508 -1.5455596 3.4200256 16711746
1.1427069 -1.4109993 3.2062831 16711746
0.8583468 -1.3808720 3.1124911 16711746
0.7030966 -1.3475770 3.0615008 16711746
0.7989936 -1.7558904 3.4809380 16711746
1.4846141 -1.5497950 3.5684738 16711746
0.9844136 -1.5272838 3.4436088 16711746
0.7680355 -1.4983850 3.3658800 16711746
0.7968488 -1.3691292 3.0917783 16711746
0.9615254 -2.1150942 4.4626565 16711746
1.9500817 -1.7517532 3.7827165 16711746
1.2057910 -1.3896631 3.1757762 16711746
1.3234202 -1.4427303 3.2986748 16711746
0.9827149 -1.5273548 3.4455607 16711746
1.6189977 -1.6156232 3.7257416 16711746
0.8020893 -1.3713770 3.0876381 16711746
1.0815229 -1.5897990 3.5892978 16711746
0.1489412 -1.5207745 3.4343204 16711746
0.7230932 -1.3172184 3.0024045 16711746
0.9905287 -1.6247089 3.6578469 16711746
0.7449766 -1.3301493 3.0295894 16711746
0.8124437 -1.3522524 3.0593569 16711746
1.8890545 -1.8756281 4.0086989 16711746
1.1278462 -1.4675623 3.3152869 16711746
0.9315042 -1.5326198 3.4507492 16711746
-0.6552199 -1.6390185 3.7269917 16711746
0.0002024 -1.4463667 3.1581457 16711746
1.3170687 -1.7254729 3.9950595 16711746
1.5013233 -2.0193145 4.6686726 16711746
1.3081279 -2.0903416 4.1264462 16711746
0.7528040 -1.8147283 3.7174044 16711746
0.7061771 -1.4540992 3.2566328 16711746
1.0832239 -1.4411634 3.2657840 16711746
0.7920222 -1.3401736 3.0522053 16711746
0.8979477 -1.4928743 3.3737619 16711746
0.8412102 -1.3974839 3.1539371 16711746
0.7348094 -1.5306332 3.4180813 16711746
0.7891293 -1.3925946 3.1418436 16711746
0.6899768 -1.3306465 3.0343606 16711746
0.8241383 -1.3561544 3.0759232 16711746
0.8345611 -1.5764605 3.5102692 16711746
0.8545291 -1.4450427 3.2387846 16711746
0.6151286 -1.6028354 3.5453708 16711746
0.3338987 -1.5012649 3.3083806 16711746
0.5657339 -1.3810763 3.0490205 16711746
0.7568690 -1.3471298 3.0527568 16711746
0.7552084 -1.3795906 3.1109705 16711746
0.8348557 -1.5107968 3.3981295 16711746
0.8533911 -1.4444193 3.2439029 16711746
0.5986231 -1.6349580 3.6674600 16711746
0.7708187 -1.4467202 3.2625020 16711746
1.1761770 -1.4033462 3.1837425 16711746
0.9467369 -1.3788562 3.1298752 16711746
0.9499716 -1.3570694 3.0808787 16711746
1.2012662 -1.4940326 3.2886286 16711746
1.0825689 -1.4418256 3.2597899 16711746
0.8372679 -1.5123644 3.3920376 16711746
0.3170810 -1.4538491 3.2800419 16711746
0.5050101 -1.4254707 3.1400790 16711746
0.7397101 -1.3531193 3.0633645 16711746
0.5403922 -1.3744849 3.0400858 16711746
1.1436244 -1.4103144 3.2165337 16711746
0.6500556 -1.3125558 2.9599295 16711746
1.7614825 -1.4247611 3.4261644 16711746
1.3291636 -1.3495384 3.2308762 16711746
0.8924994 -1.4950206 3.3674324 16711746
0.8160845 -1.4246153 3.1875973 16711746
0.7544989 -1.3700337 3.0861933 16711746
1.5380549 -1.3276962 3.2166944 16711746
0.7282147 -1.5130835 3.3962600 16711746
0.7642779 -1.4861783 3.3294129 16711746
0.7316028 -1.5147357 3.3839886 16711746
0.8856837 -1.5467703 3.4621692 16711746
1.4027706 -1.4053386 3.2422121 16711746
0.5078550 -1.3745599 2.9600825 16711746
0.8581880 -1.4871347 3.4592967 16711746
0.6820217 -1.6359057 3.6414783 16711746
1.6150432 -1.5678121 3.6287034 16711746
0.9174464 -1.5139039 3.4049244 16711746
1.0222529 -1.3741605 3.1204500 16711746
1.7549162 -1.6628951 3.8000796 16711746
0.7752817 -1.4476142 3.2583323 16711746
-0.4188732 -1.5519561 3.5290077 16711746
1.3312023 -1.6759968 3.8244140 16711746
0.2495943 -1.3907251 3.1353300 16711746
0.3757657 -1.4073666 3.1370900 16711746
0.8035907 -1.3901557 3.1341829 16711746
0.7838140 -1.3558604 3.0656452 16711746
-1.0513011 -1.7602946 4.1284423 16711746
1.3232710 -1.6749927 3.8133492 16711746
1.1473199 -1.5417637 3.4728050 16711746
0.6234445 -1.3105433 2.9754395 16711746
0.4554111 -1.4411225 3.1943588 16711746
0.9263790 -1.4021082 3.1703401 16711746
-1.2992499 -1.8428689 4.1674137 16711746
1.1499423 -1.5422622 3.4890931 16711746
0.6908493 -1.6192663 3.5876026 16711746
1.3147855 -1.4085220 3.2570758 16711746
1.5113468 -1.5182784 3.4896698 16711746
0.9932888 -1.6293238 3.7186406 16711746
0.7295879 -1.5208569 3.3844888 16711746
-0.6954730 -1.8062989 4.0208597 16711746
1.0120155 -1.4965409 3.3998175 16711746
0.7664237 -1.4460415 3.2632816 16711746
0.7861164 -1.4713776 3.3146734 16711746
1.0863618 -1.5080800 3.3963962 16711746
0.7700348 -1.4496754 3.2558117 16711746
0.7541363 -1.5471783 3.4316978 16711746
1.3606913 -1.5828377 3.6243839 16711746
0.9892646 -1.4731889 3.3601794 16711746
0.8350986 -1.5746998 3.5089743 16711746
0.6833314 -1.6188760 3.6141305 16711746
1.0821109 -1.4317557 3.2246773 16711746
0.9086851 -1.4323527 3.2221253 16711746
1.7336513 -1.7671968 4.0846963 16711746
0.8605796 -1.3786423 3.1138725 16711746
0.8797962 -1.3713264 3.0971696 16711746
1.2051729 -1.4537524 3.2979965 16711746
0.9997550 -1.4396547 3.1810765 16711746
0.6979979 -1.3516022 3.0687647 16711746
1.7954538 -2.0018501 3.7440898 16711746
0.9028581 -1.3931147 3.1422570 16711746
0.6507406 -1.3044811 2.9539106 16711746
1.2346599 -1.4786395 3.3494372 16711746
0.3521253 -1.4874123 3.3204453 16711746
0.8164700 -1.4053345 3.1570518 16711746
0.8160274 -1.5332555 3.4397128 16711746
1.6460273 -2.2221863 4.5957246 16711746
1.5824970 -1.4752058 3.4091198 16711746
0.8329502 -1.4264784 3.2269425 16711746
0.6557559 -1.5072665 3.3237588 16711746
1.3314931 -1.6765631 3.8319118 16711746
0.7902332 -1.3862011 3.1303964 16711746
0.5795575 -1.3582627 3.0334973 16711746
1.0230055 -1.3950766 3.1609297 16711746
1.1752193 -1.3960327 3.1835721 16711746
0.9584273 -1.4407945 3.2584934 16711746
0.8461176 -1.4737574 3.3576281 16711746
0.7641382 -1.4818779 3.3281553 16711746
0.8451232 -1.6138468 3.5654445 16711746
1.5924771 -1.4854897 3.4445901 16711746
0.8200256 -1.5367531 3.4214704 16711746
0.7901729 -1.4254904 3.2122915 16711746
0.3131857 -1.4534520 3.2863197 16711746
1.1077108 -1.4810452 3.3325441 16711746
1.0530066 -1.4979078 3.3592300 16711746
1.2444952 -1.4428089 3.2794187 16711746
0.8944818 -1.4433495 3.2663908 16711746
1.6152813 -1.6155578 3.7185040 16711746
1.0576956 -1.5578309 3.4873664 16711746
0.7703491 -1.5001246 3.3607137 16711746
0.7695433 -1.7461060 3.8909593 16711746
1.0862885 -1.4298371 3.2371140 16711746
1.1132612 -1.4806693 3.2504199 16711746
1.1210734 -1.3735431 3.1596870 16711746
1.1212558 -1.5029006 3.3696587 16711746
0.7725140 -1.4648765 3.2947633 16711746
1.1280931 -1.4999834 3.3915873 16711746
1.6686581 -1.5037838 3.4485164 16711746
0.7850280 -1.3941733 3.1379921 16711746
0.6682153 -1.6269952 3.6614165 16711746
1.3053365 -1.4772395 3.3320475 16711746
0.8651243 -1.4478513 3.2420473 16711746
1.1995773 -1.4761637 3.3199167 16711746
0.7673250 -1.6512896 3.4297256 16711746
0.8463301 -1.3585109 3.0696030 16711746
0.8782955 -1.4100219 3.1854718 16711746
0.7617508 -1.3579246 3.0749946 16711746
0.8942988 -1.5690572 3.5298672 16711746
0.8491879 -1.4118608 3.1774862 16711746
0.7687930 -1.4615649 3.3013542 16711746
1.2153406 -1.4875270 3.3516066 16711746
0.8919839 -1.5705981 3.5094938 16711746
0.8510783 -1.3887675 3.1331930 16711746
1.1407278 -1.4108874 3.2153552 16711746
0.9939821 -1.4543127 3.2821989 16711746
0.8384975 -1.4085150 3.1708453 16711746
0.1774473 -1.4264356 3.1855404 16711746
0.3280864 -1.5003055 3.3135171 16711746
1.3177108 -1.4743365 3.3520038 16711746
1.4636434 -1.4498856 3.3466172 16711746
1.2607391 -1.6873944 3.8451591 16711746
1.8792043 -1.7106729 3.6285033 16711746
0.8086756 -1.3782063 3.1100328 16711746
0.8289945 -1.5763826 3.5071466 16711746
0.8416854 -1.4090254 3.1686792 16711746
0.7936046 -1.7785769 3.9510515 16711746
0.7669987 -1.4868842 3.3204801 16711746
0.7869038 -1.4719799 3.2985513 16711746
1.2338473 -1.4238069 3.2555714 16711746
0.8824392 -1.3948636 3.1549823 16711746
0.8210484 -1.4971889 3.3878045 16711746
0.9071686 -1.6357065 3.6592617 16711746
0.8614786 -1.6629906 3.7249968 16711746
1.2930599 -1.4508163 3.3088574 16711746
0.9955410 -1.4060911 3.1879408 16711746
1.3254451 -1.5376188 3.4782515 16711746
0.7854170 -1.5169117 3.4262884 16711746
0.8140761 -1.4214783 3.1959310 16711746
0.7166059 -1.3308053 3.0211592 16711746
1.0816923 -1.9729233 4.4996500 16711746
0.8282782 -1.5759974 3.5206110 16711746
0.9180452 -1.5918220 3.5625143 16711746
0.7381264 -2.4752800 5.5547414 16711746
1.3489280 -1.6832237 3.8645289 16711746
2.0675809 -2.1908941 5.0661759 16711746
1.4484613 -1.9186075 4.4349742 16711746
1.1636509 -2.0213385 3.6724768 16711746
1.8692786 -2.0567365 4.8243303 16711746
1.5210124 -2.4159064 4.9867239 16711746
0.7451886 -1.4425735 3.2540102 16711746
0.7359587 -1.6056250 3.6086049 16711746
