# .PCD v0.7 - Point Cloud Data file format
VERSION 0.7
FIELDS x y z rgb
SIZE 4 4 4 4
TYPE F F F F
COUNT 1 1 1 1
WIDTH 1198
HEIGHT 1
VIEWPOINT 0 0 0 1 0 0 0
POINTS 1198
DATA ascii
-6.160758 -22.180908 7.9694505 16711746
7.166687 -32.337093 9.5037374 16711746
7.0479822 -24.434671 12.115019 16711746
8.7203703 -35.091484 10.392789 16711746
15.31339 -39.968792 18.779078 16711746
15.903492 -39.910591 5.2296042 16711746
16.158297 -40.623753 5.0570827 16711746
11.999673 -37.766682 14.537561 16711746
25.495045 -42.611485 16.344593 16711746
10.064876 -43.555775 12.880375 16711746
41.127281 -45.077385 17.453178 16711746
18.914406 -39.276237 20.383816 16711746
8.8485518 -46.109619 14.075077 16711746
24.000021 -35.985489 13.270475 16711746
27.658123 -35.516087 9.9112711 16711746
18.901537 -43.164051 13.59364 16711746
10.439712 -37.648659 15.463494 16711746
15.008725 -34.890835 16.729332 16711746
19.629725 -53.711498 24.725811 16711746
26.906113 -50.449848 23.530113 16711746
26.213539 -53.69334 26.274113 16711746
26.146051 -58.537128 26.253077 16711746
21.78228 -70.265396 30.949102 16711746
25.177616 -47.185013 17.275322 16711746
-1.5221595 -42.822475 14.523374 16711746
37.510185 -43.739098 7.7911754 16711746
-14.631343 -33.008938 4.1420445 16711746
37.784107 -58.521671 15.541113 16711746
0.74518657 -38.151634 14.028454 16711746
-1.0327829 -28.141762 12.686316 16711746
18.3305 -54.116169 0.67828155 16711746
13.376135 -33.302113 14.703592 16711746
17.568392 -46.304516 12.886097 16711746
23.610506 -36.377529 14.490727 16711746
0.22445607 -42.258316 16.369162 16711746
13.617667 -37.090691 10.517474 16711746
12.283784 -32.743557 14.239688 16711746
-15.823033 -32.983894 5.4067979 16711746
24.49078 -37.2192 9.9644356 16711746
13.284658 -35.113274 16.039785 16711746
13.772084 -35.145958 14.670869 16711746
23.158823 -37.008209 7.519392 16711746
10.5328 -37.711185 20.248203 16711746
4.5347171 -45.859665 26.929657 16711746
6.763679 -48.415485 15.504587 16711746
15.371239 -34.747269 10.909764 16711746
21.968643 -37.806938 13.099601 16711746
22.958471 -35.601681 14.416882 16711746
12.543161 -45.696659 13.206365 16711746
15.37269 -38.700974 13.475315 16711746
10.355366 -68.661133 10.212876 16711746
-2.5438414 -71.933289 35.974621 16711746
19.439936 -38.922718 15.532774 16711746
3.8518703 -45.722771 16.065039 16711746
14.142379 -36.550591 14.822266 16711746
13.523459 -35.933491 16.264454 16711746
19.322803 -45.571545 13.291353 16711746
-0.37290239 -58.741142 14.749929 16711746
-11.896856 -35.878132 14.278428 16711746
20.157827 -47.992695 13.32527 16711746
27.236467 -47.873924 18.287514 16711746
17.830341 -43.760574 11.044357 16711746
1.054745 -56.07777 26.532316 16711746
14.226164 -43.258549 18.673637 16711746
-8.3476343 -58.201626 31.154556 16711746
13.67296 -47.553585 22.818474 16711746
23.072403 -51.557735 24.365213 16711746
29.689922 -90.462036 47.004456 16711746
31.29855 -52.3274 28.17252 16711746
20.995424 -99.570091 40.940056 16711746
31.989416 -45.576252 19.503099 16711746
-6.1497226 -38.799068 19.326448 16711746
11.961062 -32.781887 10.628033 16711746
3.3396506 -53.583832 25.639433 16711746
11.638111 -33.903446 10.676642 16711746
20.875078 -49.865028 22.2076 16711746
17.436113 -40.33411 19.004435 16711746
25.14604 -40.613194 15.630163 16711746
17.207394 -38.964348 19.912128 16711746
22.027054 -41.632088 17.773636 16711746
10.312172 -36.400852 14.578468 16711746
16.956596 -34.137383 14.205051 16711746
-4.2979565 -54.710503 26.013151 16711746
16.913036 -69.393448 28.635448 16711746
32.782776 -37.886559 13.800139 16711746
-0.43379226 -42.960724 15.820768 16711746
25.498474 -38.217422 14.988651 16711746
11.076817 -44.875263 19.291904 16711746
18.036329 -42.531319 14.28122 16711746
21.462296 -186.71753 88.451004 16711746
16.136488 -44.416637 10.434975 16711746
11.47019 -30.730978 11.847688 16711746
19.457058 -26.129377 12.389189 16711746
19.229885 -36.901127 16.215815 16711746
28.519003 -35.665329 12.244958 16711746
17.095955 -39.02512 9.4391375 16711746
12.795573 -33.668072 13.712689 16711746
15.329333 -50.170467 22.807297 16711746
3.4827302 -43.409702 15.365309 16711746
-46.287453 -65.106651 28.118124 16711746
3.556591 -48.95171 16.397453 16711746
-11.742056 -36.991318 13.416827 16711746
23.6359 -39.374043 11.381806 16711746
6.6987739 -28.153275 11.203619 16711746
21.828968 -35.87175 14.497318 16711746
0.27848446 -46.073174 18.684114 16711746
20.499596 -42.972919 9.8929138 16711746
2.0102401 -63.34013 33.691193 16711746
-4.0894837 -72.344864 31.650627 16711746
-9.6562777 -47.157295 23.617825 16711746
12.841135 -56.683907 25.18873 16711746
12.607056 -32.931194 11.54143 16711746
5.9090118 -28.284872 10.755577 16711746
-10.586472 -27.617853 6.2898116 16711746
6.3813529 -25.145195 11.852974 16711746
9.2878942 -35.118584 14.241309 16711746
22.65078 -38.725815 12.93084 16711746
-44.344349 -57.458015 30.707827 16711746
-17.929392 -51.451504 26.135437 16711746
9.6581526 -39.652695 13.529489 16711746
-6.2920327 -40.936169 19.126516 16711746
23.302563 -42.379128 7.7102342 16711746
-9.934927 -42.565422 14.521246 16711746
16.468325 -66.913422 31.119965 16711746
21.232031 -39.48027 13.80108 16711746
14.899712 -42.43145 19.063751 16711746
26.790066 -30.139912 17.132395 16711746
0.64747387 -58.871098 25.034365 16711746
33.560406 -46.523426 11.499022 16711746
6.1352134 -51.106884 15.545132 16711746
16.193144 -35.547359 14.671296 16711746
-12.522488 -37.807217 11.643944 16711746
32.913319 -36.462906 17.683424 16711746
34.255924 -36.295853 10.238882 16711746
-19.407457 -85.385071 41.245796 16711746
-34.116756 -48.666286 27.715069 16711746
25.70808 -38.332161 15.054403 16711746
10.369142 -57.980724 28.342442 16711746
11.051544 -60.951607 26.769918 16711746
5.4271679 -27.2815 13.655731 16711746
13.573319 -36.872955 13.977062 16711746
13.390759 -33.540825 14.710144 16711746
12.865375 -36.028328 14.165112 16711746
19.371176 -36.607906 11.719193 16711746
12.921309 -36.037403 17.625237 16711746
11.418036 -29.38781 12.250596 16711746
20.19117 -30.912395 12.895958 16711746
12.80892 -34.497932 17.411547 16711746
13.051035 -19.462854 15.456368 16711746
6.0451722 -29.819563 11.3948 16711746
-32.540047 -48.698269 27.762722 16711746
16.771681 -41.944683 20.585794 16711746
14.628451 -46.836987 22.057693 16711746
20.671881 -31.031128 14.459543 16711746
-15.700877 -77.092743 38.129345 16711746
10.14036 -74.390312 32.977043 16711746
4.4004798 -30.547565 11.204121 16711746
15.20668 -23.09491 18.748098 16711746
2.8802493 -28.432701 14.701352 16711746
1.2460155 -32.822262 10.337595 16711746
-8.8296309 -39.344334 12.647283 16711746
21.943373 -32.673504 14.926871 16711746
22.704967 -36.550919 14.968133 16711746
23.043444 -42.876526 16.27636 16711746
12.345099 -56.191471 21.231895 16711746
22.271553 -41.579571 19.076599 16711746
22.204189 -43.501694 9.7226257 16711746
19.376581 -37.28154 20.749369 16711746
22.534264 -26.620468 15.850181 16711746
17.030581 -37.802834 9.7435198 16711746
19.979006 -37.247025 19.457106 16711746
28.062042 -43.904675 11.113347 16711746
0.082760438 -42.836899 19.622942 16711746
-12.309088 -45.665459 21.019768 16711746
13.951339 -36.846951 9.7065849 16711746
5.4173622 -43.731377 17.027695 16711746
28.397976 -41.985943 12.19658 16711746
7.9926586 -36.788013 16.617201 16711746
18.594732 -43.667313 19.604931 16711746
-17.720846 -35.63142 12.443721 16711746
31.577591 -40.08786 11.689953 16711746
24.299362 -27.059172 15.073628 16711746
29.000902 -33.758389 15.519429 16711746
19.498543 -36.065075 19.224106 16711746
-2.3795373 -41.074764 16.081638 16711746
13.18628 -31.365177 14.317061 16711746
30.39728 -48.646893 29.133144 16711746
17.622108 -27.165524 21.053118 16711746
17.343779 -37.621796 16.309248 16711746
-14.194481 -32.91008 12.155848 16711746
14.265413 -35.562466 11.797043 16711746
21.388683 -31.22801 17.746725 16711746
17.689478 -37.105083 20.524529 16711746
-18.353315 -50.278805 20.721966 16711746
22.147074 -37.668602 13.045523 16711746
13.739902 -33.410999 14.198698 16711746
-1.5874524 -48.999252 18.056801 16711746
10.308387 -38.425613 15.245856 16711746
-7.0216589 -45.009079 10.834807 16711746
2.9154453 -28.553617 11.43588 16711746
20.376354 -44.340969 14.799422 16711746
28.314684 -38.107311 13.064862 16711746
18.422983 -35.440918 20.367594 16711746
27.378462 -37.024612 13.091139 16711746
-8.9665756 -37.622314 7.7062802 16711746
0.65622383 -30.379286 11.856271 16711746
-0.46330732 -36.291714 16.232746 16711746
0.72568017 -35.668705 18.076803 16711746
10.462605 -35.303032 17.396009 16711746
22.913242 -36.463333 15.625502 16711746
19.141726 -34.873154 18.916128 16711746
23.787188 -39.191658 18.296486 16711746
9.3638153 -43.107468 19.354729 16711746
11.261801 -41.685638 12.883887 16711746
19.073231 -36.47813 16.154261 16711746
20.714706 -36.577137 17.890383 16711746
32.237289 -37.029736 16.558008 16711746
14.887465 -40.726482 12.38087 16711746
-7.5021229 -37.633091 13.422025 16711746
19.108788 -36.857197 17.376696 16711746
-13.221012 -41.470737 24.516048 16711746
11.079219 -37.00861 20.06073 16711746
5.6710901 -23.868059 17.637545 16711746
-7.8803706 -29.696432 10.611691 16711746
16.971064 -75.534714 35.313736 16711746
-37.070835 -53.391422 26.56772 16711746
-26.763367 -43.677998 22.981382 16711746
-10.934919 -32.641285 9.0893278 16711746
3.6220238 -56.631748 30.122786 16711746
14.915737 -50.521633 24.66276 16711746
-0.32889998 -45.968105 17.925402 16711746
19.923903 -40.93795 9.9763947 16711746
7.7723899 -41.916691 18.340757 16711746
22.619503 -39.461411 12.294503 16711746
20.371767 -35.991447 17.898052 16711746
23.915337 -45.202446 19.375309 16711746
21.434433 -40.758057 14.678026 16711746
-4.886693 -40.058807 11.672957 16711746
-14.085309 -36.231449 11.976369 16711746
17.483965 -45.237904 22.972971 16711746
18.070368 -37.011314 20.802076 16711746
30.782221 -48.068394 27.443518 16711746
10.577903 -47.725266 21.258646 16711746
21.126814 -35.221554 17.504335 16711746
23.56418 -40.682716 15.9047 16711746
-15.388837 -46.260265 13.471263 16711746
-3.9732332 -39.139011 18.145992 16711746
15.513439 -38.183784 19.930822 16711746
-12.49198 -38.038273 19.448183 16711746
34.649937 -62.800518 32.556393 16711746
0.24907801 -27.449087 16.236679 16711746
0.68320274 -45.310493 27.921991 16711746
14.027452 -41.806751 24.164181 16711746
11.719573 -38.465435 22.626705 16711746
22.288124 -36.069164 16.238743 16711746
23.167547 -36.655682 18.398792 16711746
28.965479 -42.118343 15.469974 16711746
16.383533 -41.214115 22.365469 16711746
19.044121 -38.88393 17.066296 16711746
24.527029 -36.312294 16.258387 16711746
22.057951 -35.885811 16.132956 16711746
13.135318 -44.772362 20.909874 16711746
14.233497 -32.886089 15.06801 16711746
-3.7689385 -41.88409 13.483514 16711746
-7.2089162 -37.083153 13.500662 16711746
22.794405 -36.395622 15.624916 16711746
18.020821 -38.054241 20.659397 16711746
11.032783 -36.457367 9.8671961 16711746
-0.17322801 -31.655464 9.2714758 16711746
12.064272 -42.143478 13.454185 16711746
-13.635118 -39.430664 9.9784698 16711746
13.43739 -31.972944 17.772924 16711746
-11.607636 -51.750473 23.401779 16711746
-6.5607185 -52.121056 28.629938 16711746
14.312596 -44.507061 21.690063 16711746
12.354654 -34.421078 15.145125 16711746
14.497532 -46.521698 23.951199 16711746
19.511839 -45.418949 12.536777 16711746
18.021906 -45.129765 10.805047 16711746
11.101685 -49.045261 30.767914 16711746
3.8190126 -33.219604 10.369948 16711746
2.8902845 -32.489819 10.563271 16711746
1.6705692 -30.60458 11.021613 16711746
13.42699 -43.443192 19.784851 16711746
15.673153 -38.844727 21.730356 16711746
-6.0028834 -39.870941 16.870785 16711746
23.357862 -37.285637 17.577694 16711746
10.619832 -35.732033 18.342941 16711746
-14.854298 -35.838676 12.851268 16711746
22.607866 -40.898617 16.952854 16711746
11.234085 -35.446419 15.877097 16711746
-7.8478451 -40.494648 13.19024 16711746
-4.5908036 -39.402985 11.934448 16711746
10.385972 -45.931969 21.154526 16711746
19.583416 -40.472538 22.681366 16711746
9.2042446 -37.044182 18.067968 16711746
-24.742407 -41.487949 12.038104 16711746
9.2004452 -39.920635 15.710337 16711746
9.4729185 -40.730003 15.152346 16711746
18.581661 -38.394314 18.476603 16711746
23.270159 -36.892632 17.575314 16711746
18.590332 -38.601372 16.51906 16711746
2.0081003 -29.968685 11.216908 16711746
-7.2168803 -39.255207 13.307159 16711746
20.112886 -36.041794 21.203587 16711746
4.0292091 -54.228455 21.060255 16711746
14.751941 -34.944931 13.909205 16711746
13.129716 -40.090961 18.773352 16711746
11.853742 -35.08387 15.190472 16711746
12.105336 -31.629908 17.03628 16711746
10.4103 -35.904472 14.646056 16711746
-3.9789612 -44.828995 15.064709 16711746
-3.3345623 -41.540833 13.338864 16711746
-7.1570592 -40.469349 17.848288 16711746
3.9610012 -52.830612 20.972153 16711746
7.484313 -36.278267 17.578598 16711746
13.332036 -32.378323 14.124559 16711746
10.663199 -53.875866 24.983803 16711746
-8.4729576 -38.653095 12.765532 16711746
-9.2878361 -41.828552 6.2253513 16711746
20.683214 -44.212791 22.260632 16711746
-12.732679 -49.533428 16.16678 16711746
-12.068861 -30.459778 12.411518 16711746
-13.386859 -43.072552 15.571754 16711746
0.87826037 -30.763372 11.516562 16711746
22.884626 -36.758728 18.340723 16711746
34.907551 -48.061203 21.461235 16711746
17.200205 -41.583755 11.341644 16711746
-3.5082123 -36.967175 8.2816219 16711746
-4.4531679 -39.693066 11.514501 16711746
-11.694643 -41.331493 14.838036 16711746
-14.681086 -40.238037 13.411658 16711746
-17.716045 -38.957443 10.34344 16711746
-16.137552 -38.314373 8.3183117 16711746
-5.3745189 -36.025291 13.615946 16711746
-2.5146027 -32.687992 16.09605 16711746
2.4473743 -36.448284 19.091816 16711746
-2.1976938 -40.778061 10.351832 16711746
20.048553 -38.390408 12.896204 16711746
23.076929 -38.867619 11.635045 16711746
18.87738 -39.311211 16.611677 16711746
-1.1160724 -38.19907 15.234807 16711746
21.508352 -34.870934 13.565856 16711746
23.950087 -43.472729 17.558292 16711746
19.259214 -36.924065 16.289658 16711746
17.868856 -36.696228 19.965561 16711746
13.566308 -46.648876 20.265717 16711746
10.5045 -52.787724 36.337467 16711746
-10.051351 -45.887127 19.670097 16711746
11.970776 -49.678745 23.49976 16711746
21.299488 -44.504665 25.161438 16711746
15.706715 -53.109211 27.227688 16711746
-6.5903711 -38.037018 13.480505 16711746
21.431288 -37.812351 15.198101 16711746
18.703999 -74.701973 34.015202 16711746
8.7654448 -38.142899 18.813204 16711746
30.3076 -51.763535 21.392134 16711746
19.688833 -52.256725 35.607651 16711746
10.030866 -58.261677 39.359627 16711746
-22.765497 -49.88295 10.96433 16711746
28.48728 -45.737411 16.823818 16711746
14.602645 -58.416077 29.840534 16711746
16.197731 -44.511585 23.71954 16711746
21.315603 -37.984158 16.769768 16711746
-5.0657272 -67.849632 34.541977 16711746
-24.457174 -42.077568 23.642639 16711746
35.042217 -58.964474 32.071476 16711746
3.6990666 -41.414177 21.36619 16711746
-24.905092 -39.834644 24.716516 16711746
-17.110699 -61.126854 37.709621 16711746
12.668063 -54.141911 25.323381 16711746
17.52932 -50.322765 25.192162 16711746
25.45018 -29.399609 16.297359 16711746
20.489559 -40.027824 11.258896 16711746
-0.61550105 -56.131233 14.70438 16711746
21.186508 -106.56603 45.07626 16711746
22.78949 -60.108936 29.301195 16711746
-4.9442863 -42.891811 11.94709 16711746
17.850538 -36.566566 19.904724 16711746
32.563854 -39.824421 11.456565 16711746
16.745983 -27.40694 15.081873 16711746
12.005939 -35.145901 11.412952 16711746
8.0626726 -35.590298 17.229395 16711746
0.80064929 -39.91283 19.437237 16711746
11.786703 -40.399925 23.2272 16711746
-22.434044 -37.387394 11.472999 16711746
25.730497 -38.23222 16.163975 16711746
9.4938927 -44.601151 29.978216 16711746
10.184566 -41.061981 30.28688 16711746
2.068608 -43.738888 22.535265 16711746
-14.488302 -35.806465 10.897692 16711746
21.356062 -41.682388 22.871115 16711746
-10.212444 -47.549778 32.094563 16711746
10.125653 -38.097813 22.23831 16711746
20.747728 -40.403011 17.153587 16711746
10.15887 -40.962479 27.352219 16711746
17.757246 -33.796108 19.221199 16711746
14.547167 -36.800266 18.05834 16711746
77.591454 -259.3295 140.26175 16711746
4.3920422 -40.095802 22.960827 16711746
10.703076 -33.510799 11.447853 16711746
11.288101 -36.295784 18.044453 16711746
16.849121 -44.53009 10.997469 16711746
10.696214 -33.982014 11.334572 16711746
20.349762 -35.589031 14.736314 16711746
12.34376 -32.823631 13.754502 16711746
-6.1280022 -37.987133 21.85676 16711746
20.371227 -35.645634 14.756431 16711746
21.326942 -37.948284 15.312716 16711746
10.154593 -38.257736 15.122877 16711746
16.762098 -44.118996 11.078396 16711746
18.634781 -32.88575 19.870869 16711746
8.6972027 -34.442856 15.19826 16711746
22.179134 -38.314373 11.103297 16711746
8.874382 -37.381969 14.307085 16711746
12.439702 -33.207123 13.69537 16711746
8.4754829 -41.89748 18.852909 16711746
16.473415 -32.653923 16.270922 16711746
-33.117985 -45.392529 9.4467058 16711746
15.415622 -37.723003 16.907539 16711746
-11.48735 -41.199013 8.5517607 16711746
20.632088 -36.177097 14.790111 16711746
12.082476 -32.924675 16.033607 16711746
-14.657939 -34.369434 11.914423 16711746
-13.448717 -38.97226 13.969524 16711746
11.233494 -40.774601 12.971624 16711746
9.7320576 -43.09079 12.738088 16711746
14.645289 -35.507977 16.871849 16711746
7.9396324 -37.854977 18.148121 16711746
22.347998 -34.2132 12.563316 16711746
-20.376358 -48.448013 5.6223879 16711746
11.862812 -30.53924 16.533176 16711746
20.551556 -38.583683 18.877872 16711746
15.155225 -31.760153 15.514031 16711746
14.300895 -35.190678 15.394393 16711746
2.9699769 -41.168987 16.602703 16711746
0.39051816 -42.909504 17.805649 16711746
21.56175 -41.984802 11.025804 16711746
-4.6249027 -58.568924 24.861462 16711746
4.6507192 -40.8694 21.879513 16711746
16.011576 -60.812397 27.418928 16711746
21.199652 -38.561234 13.693404 16711746
-11.476659 -50.190556 21.111498 16711746
21.640001 -33.938164 14.202577 16711746
19.682007 -37.540325 16.85988 16711746
23.316664 -37.829758 16.081942 16711746
22.125788 -32.798485 14.104649 16711746
8.0043201 -32.348553 16.06003 16711746
-4.0192361 -38.747658 23.880922 16711746
1.2788814 -27.7922 20.02006 16711746
11.499274 -20.74353 20.519855 16711746
-4.569366 -37.60083 18.375034 16711746
10.476974 -37.046799 17.293697 16711746
17.031223 -34.612976 20.393274 16711746
-4.0021844 -36.67717 17.343805 16711746
14.713612 -41.242058 20.842169 16711746
1.3782825 -38.379051 19.148712 16711746
19.061497 -36.179775 20.613422 16711746
-6.1088715 -41.084705 29.180841 16711746
20.948189 -35.55582 17.283739 16711746
-0.64110178 -38.603836 19.612307 16711746
1.7853916 -56.533409 29.129986 16711746
1.59198 -37.038357 19.668839 16711746
21.948162 -44.262669 25.176338 16711746
-0.69803333 -37.844444 19.46188 16711746
2.2852685 -59.584534 34.481987 16711746
20.804071 -34.541328 21.759178 16711746
14.853973 -38.981903 10.506293 16711746
23.280342 -36.954483 17.572906 16711746
7.6183472 -19.809048 18.17659 16711746
0.62731618 -29.103168 20.370279 16711746
8.0082664 -22.964373 19.171146 16711746
5.0255055 -31.047354 21.493694 16711746
20.644428 -35.256901 21.398766 16711746
10.220392 -42.615726 11.991632 16711746
8.865407 -37.482609 14.298042 16711746
23.703878 -36.325489 14.47363 16711746
-20.649649 -38.245228 22.423965 16711746
16.922831 -44.22501 8.9754095 16711746
19.485733 -37.044762 22.916531 16711746
20.278864 -35.720375 17.824236 16711746
8.836339 -41.715004 13.762022 16711746
19.64817 -36.98774 22.445179 16711746
11.829814 -30.929754 13.826061 16711746
21.043613 -39.430885 22.102764 16711746
9.9891224 -33.740921 18.61175 16711746
23.089785 -44.118011 18.523544 16711746
-6.7744608 -41.245808 21.232992 16711746
-28.112698 -35.979755 23.540224 16711746
21.175095 -41.281067 23.620766 16711746
-9.9247122 -55.668179 19.484692 16711746
-18.134989 -46.756081 23.096375 16711746
-27.273123 -40.819557 25.199179 16711746
9.3707809 -44.492905 30.047544 16711746
5.9130683 -44.450287 26.545254 16711746
10.672068 -32.702538 14.493545 16711746
12.319637 -39.690159 21.382807 16711746
13.038322 -37.277126 19.387619 16711746
19.044531 -36.960632 17.878561 16711746
-9.4361372 -47.536045 16.245098 16711746
-24.988159 -66.925247 41.852623 16711746
5.7903776 -39.883442 15.271799 16711746
20.103071 -33.410366 21.907774 16711746
31.888678 -45.727814 17.844067 16711746
7.4600058 -40.318184 15.999358 16711746
19.070988 -73.414055 33.78249 16711746
11.553839 -47.075745 11.895381 16711746
7.7031159 -35.550335 16.361532 16711746
16.691896 -40.599373 20.01589 16711746
17.215359 -33.014923 19.755831 16711746
7.149385 -34.68578 15.018678 16711746
7.752357 -35.536873 14.210514 16711746
-19.23385 -38.081848 10.820395 16711746
11.205221 -32.945332 16.872187 16711746
14.966239 -33.972805 18.716543 16711746
17.646315 -33.791214 17.952528 16711746
31.635017 -39.826939 14.582119 16711746
3.1128469 -37.619026 16.043592 16711746
10.627314 -39.343811 13.187053 16711746
9.0341902 -34.73595 15.424987 16711746
7.9181356 -42.240597 25.248959 16711746
-1.3107802 -33.099297 19.285532 16711746
5.4724722 -38.349274 26.27599 16711746
7.9591784 -25.012529 21.485842 16711746
8.1198721 -31.775732 14.881547 16711746
9.2472477 -27.448555 16.678497 16711746
16.611095 -39.940384 11.18451 16711746
8.5104942 -36.363861 14.523037 16711746
12.745028 -31.041662 17.404547 16711746
21.228321 -48.237518 8.6738682 16711746
11.857433 -30.989559 14.581687 16711746
1.472578 -30.41106 17.126074 16711746
3.7045288 -29.710581 16.637884 16711746
8.9410496 -31.044865 16.677494 16711746
9.365984 -36.062786 15.947206 16711746
33.381577 -35.433052 10.397901 16711746
17.78183 -43.115292 9.3070765 16711746
19.53746 -36.590569 15.110478 16711746
17.250906 -34.98164 19.687574 16711746
14.51154 -40.114967 18.765013 16711746
19.662815 -35.339451 16.551285 16711746
-5.7058854 -42.786739 19.066374 16711746
17.915293 -36.793884 16.586195 16711746
-18.064344 -38.74139 15.95421 16711746
-6.2741365 -38.888855 17.295708 16711746
-18.89975 -51.867313 25.188793 16711746
22.410799 -62.460926 41.499722 16711746
10.223446 -37.299927 28.216034 16711746
-17.206463 -34.820644 12.476785 16711746
10.366786 -22.431133 18.632812 16711746
21.801489 -32.208855 14.201336 16711746
15.464342 -41.003357 22.795309 16711746
8.1740122 -34.748695 13.989096 16711746
19.866095 -40.7435 23.129986 16711746
21.301407 -34.814632 18.2213 16711746
12.780048 -41.694801 22.432524 16711746
-3.8222876 -32.327217 19.618093 16711746
15.262818 -40.737282 22.725346 16711746
16.450598 -42.191822 22.136049 16711746
4.5114503 -45.900494 28.05549 16711746
20.180986 -35.644897 15.63725 16711746
17.300173 -36.317646 21.493797 16711746
20.619398 -35.041019 16.355719 16711746
15.327566 -34.474045 20.188616 16711746
13.191259 -39.507065 22.424192 16711746
9.1013689 -35.205971 18.59296 16711746
4.1857734 -41.70108 21.893297 16711746
17.367655 -31.794342 20.281607 16711746
18.07863 -36.328526 23.628813 16711746
12.826148 -42.113895 22.785191 16711746
14.836547 -33.947037 18.659609 16711746
7.7767978 -35.11076 15.582098 16711746
12.621664 -41.802521 20.466473 16711746
23.475361 -37.085552 17.638321 16711746
22.205341 -35.085091 16.475294 16711746
21.005844 -35.891636 16.388271 16711746
13.401822 -40.180035 20.913143 16711746
9.7478399 -37.122467 13.760286 16711746
7.7590218 -30.809845 17.565048 16711746
4.0883112 -42.415527 24.386898 16711746
16.483383 -34.720871 17.371077 16711746
15.315981 -39.98415 24.018198 16711746
11.243943 -31.628632 17.020462 16711746
13.333533 -39.740913 23.694593 16711746
20.1628 -38.904224 15.866392 16711746
9.0512152 -31.172602 14.908358 16711746
13.937055 -32.206379 18.173586 16711746
12.374043 -37.0061 18.17634 16711746
18.417662 -34.713894 19.139332 16711746
16.055574 -45.460312 23.650326 16711746
0.64022809 -33.309036 14.634424 16711746
19.088619 -31.695415 21.058315 16711746
12.325793 -31.055626 17.122646 16711746
18.117393 -36.59737 24.058138 16711746
8.7889137 -30.910763 18.108944 16711746
12.515548 -30.501038 17.949728 16711746
17.330008 -36.284027 17.646891 16711746
9.0630617 -34.237049 18.592146 16711746
10.005964 -41.033146 18.124622 16711746
18.533329 -36.877327 17.242508 16711746
10.625514 -38.022839 13.55859 16711746
12.310398 -31.154745 17.137222 16711746
-14.543792 -44.948372 21.194517 16711746
8.4479179 -40.990578 22.872854 16711746
18.201746 -43.457909 23.934156 16711746
7.2150478 -32.708767 17.487167 16711746
15.821112 -42.839203 26.817211 16711746
21.651096 -36.3549 18.914598 16711746
-5.004643 -36.165722 18.457109 16711746
12.397297 -37.562889 18.193218 16711746
14.623631 -35.369846 19.803862 16711746
17.323452 -35.774048 15.895303 16711746
7.2856469 -39.797787 13.519961 16711746
20.049345 -37.174179 24.622915 16711746
9.6094542 -42.086308 24.678228 16711746
11.64642 -30.49321 17.79759 16711746
14.031375 -38.105957 21.061712 16711746
8.5245152 -33.238682 17.366558 16711746
-7.2825842 -37.837742 22.392199 16711746
12.390277 -26.406796 25.389076 16711746
18.287138 -43.318604 23.998116 16711746
8.6948366 -34.98201 21.869806 16711746
21.465221 -34.359798 16.589207 16711746
15.346189 -40.104694 25.334875 16711746
24.992058 -48.859951 23.52536 16711746
12.775136 -31.021914 17.402382 16711746
-3.7946959 -37.374989 20.05475 16711746
24.66954 -37.141785 14.974365 16711746
-9.4540129 -40.409939 24.361654 16711746
3.9540052 -46.766949 27.789282 16711746
-1.9225993 -31.398571 17.544683 16711746
8.1919127 -35.053154 16.318727 16711746
15.095742 -35.125546 19.37788 16711746
-5.9715991 -44.115448 22.361477 16711746
15.821127 -24.65847 17.515148 16711746
16.462839 -44.854168 25.078636 16711746
-29.836142 -39.241306 10.518297 16711746
-8.562562 -42.314724 8.752141 16711746
20.455807 -34.280312 22.14703 16711746
12.678961 -25.536116 22.75621 16711746
4.4263649 -48.997887 16.795006 16711746
8.7835588 -48.564659 19.516758 16711746
25.830673 -162.65607 53.281891 16711746
34.904072 -178.17033 62.298351 16711746
31.225584 -156.29837 57.999195 16711746
-13.516363 -37.53743 10.845886 16711746
17.207369 -62.696419 33.649025 16711746
29.337191 -36.618172 25.732317 16711746
21.661755 -39.73991 27.049669 16711746
19.081306 -57.393368 31.201263 16711746
9.5358868 -42.213451 24.770746 16711746
15.942068 -34.230228 19.169622 16711746
14.176232 -32.560139 17.585825 16711746
14.360521 -62.647175 29.149878 16711746
22.575233 -32.993702 17.311663 16711746
9.4113245 -49.132313 35.514957 16711746
-15.709984 -39.626511 22.615931 16711746
24.13493 -35.168819 16.422724 16711746
19.042126 -33.94968 19.94846 16711746
23.178379 -32.112411 31.196215 16711746
33.71513 -44.07309 23.223888 16711746
15.101664 -35.441666 29.135773 16711746
22.838688 -46.610149 24.82489 16711746
8.8812456 -35.765831 13.526446 16711746
14.49999 -32.961693 27.911827 16711746
21.007378 -33.79855 19.450701 16711746
17.14119 -35.554089 21.413357 16711746
16.939709 -38.970798 21.242577 16711746
21.782688 -32.790737 22.93264 16711746
3.1094759 -42.250919 33.498329 16711746
25.253178 -38.746815 24.335323 16711746
26.766163 -47.549244 32.403267 16711746
1.9114981 -50.038712 33.727123 16711746
13.330889 -28.257156 23.842218 16711746
6.1784253 -27.823364 25.687819 16711746
18.885548 -61.256145 46.092201 16711746
15.226119 -41.353207 34.340096 16711746
-9.2210293 -41.941856 20.227444 16711746
39.160202 -64.343018 16.330906 16711746
15.661745 -37.858997 19.521793 16711746
22.725052 -35.783783 18.439747 16711746
-10.339027 -32.98941 10.977199 16711746
-8.88484 -31.368116 11.591666 16711746
-20.462015 -42.687981 8.1334724 16711746
-40.136608 -50.875134 28.339622 16711746
-29.284206 -49.524315 1.8797219 16711746
-62.944252 -53.90374 18.874279 16711746
-2.5076475 -41.40395 15.705989 16711746
-23.578339 -44.611694 5.1502461 16711746
119.55978 -196.28354 65.46357 16711746
4.4657593 -59.97287 10.504282 16711746
20.065912 -43.361919 24.966274 16711746
34.667877 -47.289825 25.819874 16711746
-3.1689911 -55.431538 32.542942 16711746
-8.4312305 -51.550411 29.76124 16711746
1.6154562 -41.013317 24.058062 16711746
34.019279 -49.031933 24.472794 16711746
1.391691 -58.848831 34.221153 16711746
18.117178 -36.915478 21.913822 16711746
-10.974779 -44.963345 23.547127 16711746
2.5882058 -46.560501 25.19314 16711746
6.6161623 -38.607094 24.209244 16711746
-5.7434931 -39.699253 21.248125 16711746
19.680641 -34.539902 18.438948 16711746
2.564569 -34.262581 17.04748 16711746
-10.182487 -42.689285 17.818085 16711746
29.406523 -56.10487 32.472397 16711746
44.581181 -68.761566 35.981785 16711746
19.652109 -33.950413 19.991335 16711746
7.5299644 -22.548553 21.031937 16711746
27.194201 -58.079231 34.466358 16711746
18.736694 -36.417854 24.825005 16711746
21.169638 -36.2687 17.345327 16711746
19.519287 -34.437565 18.394804 16711746
18.199612 -36.654182 22.372805 16711746
15.902506 -34.88509 18.737997 16711746
23.088364 -57.302326 48.470852 16711746
17.992306 -45.143925 20.472734 16711746
30.998774 -46.447678 24.537575 16711746
13.933867 -32.001278 16.34754 16711746
14.40342 -31.959192 24.316816 16711746
28.728664 -46.269276 17.731855 16711746
22.969862 -36.62888 18.697357 16711746
16.294096 -34.160629 17.392134 16711746
40.008221 -65.411728 15.223373 16711746
12.661742 -38.620003 21.701925 16711746
12.805285 -37.280113 20.70891 16711746
13.750079 -32.038399 17.568878 16711746
8.7965364 -36.548706 17.585192 16711746
19.205296 -36.728035 19.063665 16711746
17.581501 -34.608181 23.443874 16711746
5.7927489 -42.16367 27.753532 16711746
23.135448 -37.057983 16.181658 16711746
13.319812 -36.914368 20.487801 16711746
21.628326 -41.015526 13.686059 16711746
5.4743657 -37.425735 25.049164 16711746
16.831219 -32.954906 20.516775 16711746
1.4504564 -41.184853 23.458599 16711746
6.5247412 -42.148151 15.345722 16711746
12.193859 -38.63427 22.222084 16711746
13.514904 -38.480759 24.029045 16711746
20.902187 -36.855495 15.165601 16711746
3.658884 -42.574837 24.96196 16711746
7.4167366 -31.101955 17.791433 16711746
8.7506638 -39.905968 24.999693 16711746
3.8832543 -40.685738 23.151796 16711746
25.511532 -44.761971 31.42239 16711746
16.84621 -33.946533 16.933722 16711746
-9.0182886 -32.222275 10.977305 16711746
14.797675 -35.151737 25.454395 16711746
4.2803202 -40.673775 25.89123 16711746
16.746561 -45.385788 25.837568 16711746
8.1112614 -37.183807 18.660767 16711746
7.2598009 -33.691101 18.494894 16711746
17.529724 -32.539547 22.577745 16711746
13.919868 -37.567825 19.7829 16711746
13.013499 -45.128845 19.518032 16711746
-17.349829 -41.481445 12.939632 16711746
15.266777 -35.623596 21.884787 16711746
3.3534808 -44.798576 25.756733 16711746
15.281051 -35.550148 21.884535 16711746
10.671102 -42.016998 24.338528 16711746
7.4629459 -37.271664 14.988286 16711746
22.719976 -38.019764 21.3515 16711746
13.546436 -35.907604 21.060186 16711746
13.349238 -42.03614 22.838213 16711746
7.3109689 -31.447681 17.77359 16711746
-18.409132 -39.967014 10.175679 16711746
13.138842 -31.796524 18.250221 16711746
13.222349 -40.870892 20.063189 16711746
14.002946 -40.069378 19.234282 16711746
17.781237 -32.770889 20.81439 16711746
5.577086 -34.497288 23.56983 16711746
3.8441091 -40.171108 23.029804 16711746
19.17067 -38.335674 17.157953 16711746
4.5448189 -35.737057 16.601444 16711746
36.696709 -49.534233 21.27339 16711746
15.157016 -39.107578 33.07016 16711746
12.640416 -41.596653 26.79764 16711746
-20.428738 -39.83469 13.419016 16711746
26.060644 -48.18774 27.793842 16711746
20.150093 -33.278362 20.953203 16711746
4.6320167 -38.685398 25.512712 16711746
12.380016 -40.434265 19.395538 16711746
-15.476296 -35.144669 12.644309 16711746
16.110514 -36.880955 18.130703 16711746
-29.447477 -43.409111 11.878749 16711746
19.532919 -36.143742 24.315905 16711746
-10.164686 -47.447636 31.856758 16711746
13.717338 -27.894749 25.183607 16711746
8.4133158 -39.874073 24.272243 16711746
12.767991 -40.569317 26.015825 16711746
19.433744 -47.925587 17.718662 16711746
29.392683 -44.816399 26.25099 16711746
-8.7576599 -61.352428 29.846132 16711746
8.5315256 -36.142845 17.754887 16711746
6.8747582 -32.108341 17.929646 16711746
10.714527 -32.462872 21.745741 16711746
33.762859 -46.358086 23.944279 16711746
18.57608 -34.698677 22.380898 16711746
6.6334581 -34.764565 22.041637 16711746
6.0441699 -35.734211 21.323236 16711746
-6.7839384 -58.604191 44.21603 16711746
1.3279743 -39.689922 23.260063 16711746
-5.9764333 -56.829739 33.007046 16711746
6.8089051 -47.314293 28.098503 16711746
5.9682755 -35.886292 19.905754 16711746
-2.0827348 -29.8605 14.712558 16711746
-4.86976 -54.136513 41.602013 16711746
0.48270002 -44.885338 28.606329 16711746
-44.159321 -42.694405 18.633528 16711746
-11.046775 -32.979469 10.07326 16711746
-24.339767 -43.028973 23.043509 16711746
29.848637 -46.594578 18.730953 16711746
64.704857 -109.76122 54.415176 16711746
-18.674799 -39.663902 11.610036 16711746
36.00872 -46.693005 23.734184 16711746
133.8282 -283.46744 93.017365 16711746
4.3699298 -28.937357 18.756065 16711746
0.99325413 -35.87878 18.696548 16711746
2.3407946 -34.506344 17.078878 16711746
-4.7038398 -36.94043 10.939598 16711746
4.2593131 -38.849854 21.158207 16711746
10.07723 -34.358444 21.098478 16711746
-0.10116789 -33.649582 19.557158 16711746
17.015314 -28.366577 19.570208 16711746
15.455925 -37.102463 22.135284 16711746
17.929373 -29.903019 20.730719 16711746
6.8013859 -35.081562 15.077631 16711746
18.847038 -31.062654 22.745991 16711746
15.326898 -30.451206 20.803425 16711746
11.326804 -35.462234 21.060163 16711746
11.621808 -31.56587 19.299236 16711746
2.1855752 -40.38866 15.836462 16711746
34.870174 -47.584454 24.63549 16711746
-17.208069 -42.674236 12.856152 16711746
8.8171597 -34.548439 19.117949 16711746
27.839592 -41.182644 16.245861 16711746
20.908504 -39.399593 21.720125 16711746
14.383423 -39.292461 19.380491 16711746
18.826065 -31.781021 22.388029 16711746
37.627113 -51.055122 23.442247 16711746
37.56216 -57.793697 32.933571 16711746
-33.039066 -44.284882 8.6878014 16711746
-29.989012 -41.890705 9.5538826 16711746
32.102966 -42.425072 23.090204 16711746
34.852409 -53.248768 27.590117 16711746
-7.2708015 -94.670158 44.605553 16711746
-5.2354951 -84.002167 41.171993 16711746
-24.317244 -47.213531 26.094828 16711746
-1.144595 -37.15625 12.375882 16711746
59.20071 -98.520378 50.624348 16711746
-3.7033606 -35.263382 19.380608 16711746
-3.8630736 -37.601601 18.230961 16711746
31.052271 -50.062962 15.92904 16711746
40.0508 -61.368816 31.230042 16711746
-23.784739 -35.854092 14.033905 16711746
20.892862 -35.349884 17.837847 16711746
-23.663492 -37.364544 25.772991 16711746
-6.5119696 -50.434254 9.3820944 16711746
-8.9945126 -46.771217 30.877832 16711746
-0.34467912 -28.797949 17.775106 16711746
-81.791718 -114.73768 45.258442 16711746
11.134126 -37.939568 23.820124 16711746
16.37775 -34.512592 23.691378 16711746
11.488813 -27.579866 22.071615 16711746
1.4938031 -39.685841 21.414463 16711746
31.959204 -43.534904 20.979469 16711746
34.684692 -49.943264 19.316681 16711746
6.4856286 -38.641865 25.282755 16711746
12.771609 -47.868912 28.520155 16711746
-5.8249712 -52.936161 23.671824 16711746
11.312751 -45.580811 24.904518 16711746
-2.9663761 -31.993834 17.397703 16711746
2.3112004 -34.598953 19.770575 16711746
1.8883904 -38.387901 21.801662 16711746
-23.371681 -39.240772 20.986938 16711746
-23.107698 -35.338951 19.317657 16711746
7.6074977 -31.212343 18.682722 16711746
3.1033638 -42.84214 28.315302 16711746
-0.63239068 -42.6026 23.129086 16711746
0.89090312 -51.312645 30.742096 16711746
11.963626 -36.093632 21.786137 16711746
14.432329 -36.51775 22.254885 16711746
1.3213402 -38.185669 21.382114 16711746
-24.638697 -40.45631 20.908115 16711746
9.284565 -39.086857 22.147581 16711746
3.8616104 -40.045883 27.410896 16711746
-9.0114889 -45.945869 25.912609 16711746
1.1828061 -40.026489 24.133934 16711746
-7.9836125 -49.836273 20.869568 16711746
4.8862324 -32.816936 21.857933 16711746
1.371316 -40.386497 21.537212 16711746
9.2874861 -40.27412 22.250225 16711746
9.7568913 -31.215708 24.080578 16711746
11.770318 -35.569397 21.886723 16711746
16.400167 -31.285612 22.922478 16711746
19.949995 -31.489761 21.482059 16711746
14.841238 -36.142117 21.464561 16711746
11.819682 -36.144035 21.965847 16711746
18.284342 -33.733936 22.173809 16711746
13.550629 -31.273598 22.600536 16711746
13.051148 -35.107067 20.417179 16711746
17.889307 -31.78215 20.38302 16711746
12.857609 -27.444336 19.296247 16711746
18.477337 -32.028522 20.909498 16711746
2.59799 -33.727997 18.630163 16711746
2.4669924 -30.66923 17.584816 16711746
2.2437863 -36.644825 16.282627 16711746
-0.9936651 -33.787151 18.004343 16711746
9.0888071 -28.384615 18.710987 16711746
16.307064 -28.900902 19.715021 16711746
5.0791993 -26.709694 20.585325 16711746
-1.3678154 -50.247108 31.39913 16711746
21.421652 -37.18029 17.181578 16711746
5.8415627 -30.572659 20.911283 16711746
-7.0670047 -52.858189 28.059645 16711746
5.0415735 -37.049698 23.630405 16711746
17.652107 -29.521633 28.765366 16711746
6.6119647 -38.757423 24.339241 16711746
15.285512 -46.418747 25.949238 16711746
-13.459988 -71.291824 44.481865 16711746
-36.627377 -49.716713 27.766024 16711746
-12.426933 -41.961571 24.964939 16711746
-24.615572 -47.547157 26.147602 16711746
-6.4403243 -58.642414 35.83461 16711746
-20.509672 -48.333813 28.398796 16711746
15.283058 -37.91581 21.539743 16711746
38.427319 -58.647148 30.752529 16711746
18.843699 -39.403603 24.525097 16711746
1.9946709 -33.928665 16.391878 16711746
-29.111853 -45.793591 25.508039 16711746
0.39020368 -33.65691 18.468346 16711746
-40.821072 -93.000687 -8.7156219 16711746
-0.22661443 -38.341404 14.468642 16711746
29.460264 -45.116119 28.433176 16711746
2.1205039 -37.9235 16.67692 16711746
-12.429995 -45.651001 21.271563 16711746
-0.7321775 -41.130733 19.643503 16711746
0.9644767 -33.386665 17.626143 16711746
10.438057 -22.320141 21.225739 16711746
9.6228189 -33.028282 18.50345 16711746
18.336269 -32.448845 23.669182 16711746
4.0027575 -42.052326 26.08177 16711746
13.736732 -34.462101 23.801321 16711746
12.744346 -35.632763 23.203293 16711746
14.415478 -42.773376 19.150803 16711746
14.608062 -34.424511 24.342278 16711746
-8.7619085 -44.64257 21.222822 16711746
5.4157534 -37.487865 25.989651 16711746
18.683764 -33.875893 24.777462 16711746
6.3623629 -34.621998 19.835546 16711746
-9.863656 -46.508144 23.609251 16711746
-11.839749 -36.59008 22.318581 16711746
7.2275763 -31.94223 17.679518 16711746
0.66992742 -28.415613 19.431562 16711746
10.423985 -26.322477 21.143467 16711746
-6.1480522 -41.561958 28.564676 16711746
14.112933 -34.719296 22.424671 16711746
11.209209 -35.15947 22.761515 16711746
15.794036 -42.294884 26.047554 16711746
-8.0988874 -54.925148 28.543135 16711746
0.6336019 -37.172428 18.086241 16711746
0.8286919 -36.777664 18.109436 16711746
15.780541 -36.734081 24.957479 16711746
-13.652277 -51.015099 25.667599 16711746
0.82831979 -35.23539 19.092363 16711746
12.491132 -35.953293 22.6052 16711746
0.59912026 -38.95998 17.579863 16711746
20.087914 -32.966373 21.001251 16711746
-0.47608182 -38.336132 13.620659 16711746
-12.171277 -43.746212 25.168901 16711746
41.115089 -59.091656 29.522797 16711746
11.872184 -34.889942 19.125893 16711746
9.6331854 -34.130295 20.286963 16711746
35.845943 -54.277843 30.004406 16711746
-11.423138 -45.406792 32.131584 16711746
38.001648 -46.790787 28.166069 16711746
-17.633844 -34.858559 12.819956 16711746
16.7166 -41.907478 27.54961 16711746
30.637236 -39.598438 24.462759 16711746
10.68422 -36.058468 21.680935 16711746
18.566559 -41.270947 37.455376 16711746
1.3169105 -38.755966 19.076195 16711746
8.7377548 -34.161636 23.36397 16711746
29.518541 -42.559685 19.717072 16711746
-0.052630734 -42.685627 24.540373 16711746
6.7031198 -33.052917 18.042431 16711746
-9.4643764 -42.471344 23.245949 16711746
16.876003 -34.33102 21.637793 16711746
1.0204252 -34.551899 18.829231 16711746
-1.2946095 -30.775789 17.341413 16711746
22.661783 -46.45343 27.543007 16711746
20.486197 -30.515543 22.904676 16711746
11.812414 -37.407703 21.737434 16711746
11.042404 -36.910423 20.035322 16711746
-7.9652791 -44.04924 25.692301 16711746
-15.533461 -43.048141 27.650381 16711746
12.80369 -31.940119 22.525927 16711746
-8.9576902 -38.748363 22.659496 16711746
1.9781462 -43.625957 21.734768 16711746
16.743473 -29.313467 20.62545 16711746
-1.5432874 -34.435646 17.267115 16711746
-0.84857541 -38.6395 20.893085 16711746
12.57213 -34.242214 23.14673 16711746
1.9370399 -37.421505 16.171423 16711746
13.33084 -37.235168 20.465572 16711746
12.886327 -35.773106 23.499395 16711746
-10.460823 -46.058109 22.290562 16711746
12.918113 -30.880598 21.66893 16711746
2.2403326 -34.517921 18.072088 16711746
-8.761631 -41.753681 23.122458 16711746
-7.0379715 -44.305248 20.124176 16711746
2.2772253 -36.945606 20.198975 16711746
29.745987 -42.836555 19.623888 16711746
-8.8799744 -45.3689 32.433323 16711746
-3.8357699 -38.783836 20.208572 16711746
-8.8169117 -52.40818 26.127298 16711746
12.853933 -40.831612 18.984171 16711746
-4.510787 -38.910587 24.76359 16711746
16.979082 -42.144573 24.06455 16711746
4.3300362 -31.304956 22.930922 16711746
-6.665235 -44.145466 20.167152 16711746
11.476956 -34.250725 23.850647 16711746
13.066719 -36.266205 20.409761 16711746
-3.2746513 -48.440567 27.163769 16711746
-11.84782 -49.677788 33.419609 16711746
17.938278 -28.778103 22.763245 16711746
10.044343 -30.721691 20.3221 16711746
5.952877 -33.537678 23.724619 16711746
-0.78479165 -37.470654 18.569984 16711746
26.954874 -38.81197 19.910936 16711746
16.475382 -32.647701 21.577982 16711746
2.620796 -38.012161 23.951454 16711746
12.806122 -36.772705 21.295567 16711746
18.663496 -34.862244 22.20241 16711746
18.060488 -31.401323 20.915583 16711746
13.237135 -30.61503 18.995552 16711746
10.980114 -36.036892 20.124567 16711746
17.173983 -32.501862 24.01787 16711746
-0.74008757 -35.73217 19.028564 16711746
10.701334 -33.854137 21.769321 16711746
17.046379 -32.306519 24.275312 16711746
-0.41026065 -36.906384 14.999605 16711746
12.913716 -36.275425 20.42831 16711746
11.816071 -36.709759 22.002844 16711746
12.108222 -38.020321 19.53138 16711746
16.019697 -34.721699 22.553003 16711746
15.703927 -35.625134 22.352079 16711746
-1.46083 -37.281948 26.185635 16711746
-0.01104792 -38.063286 18.321472 16711746
15.150384 -37.544785 20.361971 16711746
6.7051368 -35.325966 18.444109 16711746
27.469854 -38.231197 21.644018 16711746
11.343476 -39.430645 21.102757 16711746
-0.60515267 -31.787077 19.836475 16711746
19.258558 -28.677149 23.904078 16711746
5.7300544 -34.467773 17.396851 16711746
14.091159 -35.164803 22.52277 16711746
-0.14377193 -37.718979 20.821243 16711746
0.14743154 -38.99353 19.182549 16711746
-0.34610051 -33.837082 19.669098 16711746
30.135771 -41.894489 21.689245 16711746
11.577093 -30.973827 18.106295 16711746
15.001163 -39.063293 19.79203 16711746
-4.5058184 -42.604919 19.824984 16711746
-0.2893028 -36.678089 19.390602 16711746
-0.29572383 -41.786114 21.455408 16711746
14.84635 -35.605782 22.160875 16711746
16.039486 -27.134384 21.24164 16711746
4.7806287 -26.217081 19.058844 16711746
15.613331 -33.295895 22.523279 16711746
14.425279 -29.943302 27.535933 16711746
17.613279 -29.620283 21.118994 16711746
12.548504 -32.826233 21.429148 16711746
16.353979 -35.336376 23.033798 16711746
4.1664014 -34.266804 23.307903 16711746
0.63325578 -33.489079 18.406389 16711746
21.441959 -34.684242 26.08329 16711746
-49.492222 -88.859772 30.651382 16711746
30.023518 -47.358105 30.017822 16711746
2.271482 -40.092648 28.073538 16711746
-2.3523123 -38.149734 16.331497 16711746
-17.691713 -52.567177 37.12228 16711746
13.294124 -34.473347 23.906933 16711746
-3.0380802 -32.087284 30.397835 16711746
-5.2712994 -32.548927 25.25633 16711746
15.800899 -33.665344 22.549082 16711746
-3.2631235 -35.719994 17.560699 16711746
12.824124 -36.751823 21.254986 16711746
-2.0953336 -36.100952 23.649185 16711746
29.658152 -38.373283 24.224491 16711746
26.036325 -42.995049 27.982086 16711746
25.920219 -43.071915 27.926966 16711746
26.045305 -36.453861 21.557402 16711746
25.336643 -44.215046 31.420019 16711746
9.8477211 -40.081139 33.231251 16711746
31.926249 -43.121902 24.575256 16711746
18.983713 -41.549923 40.822891 16711746
18.230099 -35.234203 21.988953 16711746
0.39939263 -34.835041 17.126152 16711746
-2.5675919 -41.264118 27.982502 16711746
11.41022 -39.255806 21.157074 16711746
15.816515 -32.772884 21.253485 16711746
16.869104 -34.689758 21.163908 16711746
12.469576 -36.200939 23.09347 16711746
24.420223 -59.648754 51.863674 16711746
13.112996 -39.824272 19.041708 16711746
-1.9703686 -45.954205 22.269133 16711746
-21.434256 -40.626003 12.331224 16711746
24.303856 -40.139133 29.031084 16711746
-5.8852739 -35.81757 20.732574 16711746
23.844515 -42.904903 26.568409 16711746
15.723122 -37.309029 30.600256 16711746
19.611748 -52.709 42.419945 16711746
23.704096 -43.161114 29.707785 16711746
7.2404809 -26.179453 24.963381 16711746
-27.144709 -122.83279 30.519802 16711746
44.492996 -83.935295 71.582184 16711746
21.452965 -51.097691 49.163551 16711746
22.654194 -39.367821 27.677448 16711746
20.219707 -45.037128 49.027508 16711746
22.828613 -41.917332 35.073025 16711746
29.372332 -45.706753 30.237827 16711746
26.83877 -47.346283 42.80888 16711746
23.260265 -53.656597 50.147633 16711746
7.8096809 -47.630577 39.358227 16711746
16.615225 -38.614254 32.980984 16711746
23.043936 -44.685284 28.604845 16711746
20.34259 -37.162968 25.90239 16711746
19.095991 -35.056362 24.229324 16711746
22.501455 -51.45298 48.636181 16711746
25.118292 -43.726433 41.219471 16711746
21.484247 -49.189407 50.093441 16711746
7.9511647 -50.325844 40.783428 16711746
13.130688 -36.244511 29.242075 16711746
14.223479 -34.574524 21.114975 16711746
-0.75615025 -55.393909 50.698792 16711746
16.391264 -38.586628 32.27652 16711746
13.090004 -35.702168 29.093122 16711746
15.808017 -36.010612 31.184986 16711746
16.275509 -38.09391 22.544729 16711746
16.452921 -36.572208 21.285147 16711746
27.381042 -39.25864 24.288465 16711746
16.194794 -38.75214 20.546309 16711746
28.565512 -35.33606 26.294357 16711746
32.059589 -44.695663 27.634293 16711746
19.275305 -58.524422 32.286911 16711746
32.29306 -58.729305 51.048855 16711746
28.716257 -67.748207 64.371689 16711746
29.05757 -51.703884 45.098705 16711746
34.963993 -91.462044 83.275574 16711746
27.643394 -43.015522 30.066126 16711746
29.586517 -52.957668 46.13203 16711746
25.694403 -43.046322 29.076286 16711746
19.42337 -63.617794 30.488615 16711746
31.118578 -52.260498 43.939247 16711746
28.564339 -40.605122 29.695883 16711746
30.896482 -43.587791 31.630737 16711746
23.568848 -41.221233 35.806271 16711746
24.03134 -40.861809 25.946833 16711746
22.484085 -36.597961 28.413361 16711746
30.50939 -45.757908 29.657448 16711746
9.8080502 -32.976387 20.717316 16711746
24.282063 -39.98637 30.427406 16711746
14.457343 -35.59037 20.944586 16711746
0.61035311 -33.747543 22.775784 16711746
21.11824 -34.741928 28.072277 16711746
14.533673 -32.07822 23.153435 16711746
16.53409 -29.342865 24.236876 16711746
14.946606 -33.816456 21.818659 16711746
13.921111 -29.524742 22.957239 16711746
2.2084303 -34.056328 22.375572 16711746
29.477053 -42.386166 26.485308 16711746
16.310719 -43.355888 33.8876 16711746
17.535347 -34.139168 22.424578 16711746
17.39274 -42.509434 37.324356 16711746
25.186365 -38.113338 25.731001 16711746
26.13599 -39.266415 28.68712 16711746
8.9646959 -36.654743 20.259514 16711746
16.255907 -52.74971 52.094364 16711746
8.2184706 -53.774223 20.261026 16711746
35.445599 -68.508049 63.468456 16711746
31.547546 -42.222824 24.033512 16711746
24.316353 -40.806267 27.649399 16711746
27.984203 -43.207378 27.103512 16711746
18.383106 -49.053112 27.167233 16711746
29.260736 -38.051926 24.134678 16711746
42.143974 -74.701286 66.981735 16711746
-6.3663173 -68.747231 50.157555 16711746
24.451395 -38.305794 24.825741 16711746
-47.22707 -90.883942 8.6867418 16711746
21.340322 -34.538052 28.056601 16711746
15.123507 -23.249016 26.539997 16711746
19.466614 -32.635651 26.810616 16711746
5.6442461 -26.693293 24.094332 16711746
0.86084604 -26.695314 23.213402 16711746
5.8519287 -26.4368 24.208462 16711746
