# .PCD v.7 - Point Cloud Data file format
VERSION .7
FIELDS x y z rgb
SIZE 4 4 4 4
TYPE F F F F
COUNT 1 1 1 1
WIDTH 200
HEIGHT 1
VIEWPOINT 0 0 0 1 0 0 0
POINTS 200
DATA ascii

 0.0889179 -0.0116175 -0.0058296 16777215
 0.0908373 -0.0162083 -0.0034035 16777215
 0.0970897 -0.0277461 0.0029690 16777215
 0.0949621 -0.0252880 0.0037482 16777215
 0.0969551 -0.0310181 0.0070024 16777215
 0.0987314 -0.0338390 0.0044784 16777215
 0.0987909 -0.0358159 0.0057921 16777215
 0.0991984 -0.0365558 0.0104765 16777215
 0.1007994 -0.0418442 0.0119723 16777215
 0.1029423 -0.0407844 0.0162424 16777215
 0.1083293 -0.0437458 0.0184801 16777215
 0.1105335 -0.0462820 0.0211039 16777215
 0.1175347 -0.0529125 0.0262002 16777215
 0.1236224 -0.0517689 0.0318278 16777215
 0.1264766 -0.0539353 0.0398092 16777215
 0.1319854 -0.0614909 0.0471272 16777215
 0.1399196 -0.0636606 0.0662495 16777215
 0.1462113 -0.0701565 0.0791920 16777215
 0.1456503 -0.0774388 0.1089072 16777215
 0.1564771 -0.0897091 0.1234661 16777215
 0.1575131 -0.0895522 0.1414171 16777215
 0.1744930 -0.0928729 0.1945007 16777215
 0.1804087 -0.1084566 0.2035479 16777215
 0.1917478 -0.1126160 0.2197748 16777215
 0.1839155 -0.1130473 0.2616980 16777215
 0.1897735 -0.1307123 0.2581369 16777215
 0.2094148 -0.1308798 0.2817705 16777215
 0.2122417 -0.1210688 0.3303691 16777215
 0.2304922 -0.1393022 0.3300909 16777215
 0.2168420 -0.1492603 0.3463838 16777215
 0.2225949 -0.1533458 0.3637939 16777215
 0.2483860 -0.1519472 0.3927281 16777215
 0.2661234 -0.1416276 0.4259777 16777215
 0.2879318 -0.1348677 0.4714465 16777215
 0.2828875 -0.1409092 0.5031798 16777215
 0.2811599 -0.1643700 0.5066241 16777215
 0.3041172 -0.1460314 0.5325451 16777215
 0.3393884 -0.1566384 0.5553015 16777215
 0.3304077 -0.1594663 0.5866261 16777215
 0.3444764 -0.1664879 0.6194627 16777215
 0.3488400 -0.1698569 0.6374658 16777215
 0.3631203 -0.1473414 0.6788120 16777215
 0.3844716 -0.1579507 0.6844772 16777215
 0.3877653 -0.1655708 0.6998193 16777215
 0.3980482 -0.1754854 0.7130816 16777215
 0.3971566 -0.1748682 0.7228404 16777215
 0.4176153 -0.1580289 0.7718003 16777215
 0.4284984 -0.1792969 0.7780976 16777215
 0.3949675 -0.1864066 0.8259010 16777215
 0.4447404 -0.1844749 0.8207092 16777215
 0.4242832 -0.1821345 0.8648795 16777215
 0.4605340 -0.1919374 0.8721010 16777215
 0.4746935 -0.1992936 0.8854775 16777215
 0.4777549 -0.2098480 0.9055582 16777215
 0.4794260 -0.2321389 0.9143742 16777215
 0.4865024 -0.2408302 0.9313518 16777215
 0.4852796 -0.1948475 0.9762066 16777215
 0.4695097 -0.2080641 1.0214067 16777215
 0.5051457 -0.2393450 1.0390941 16777215
 0.5166863 -0.2472475 1.0665116 16777215
 0.5207197 -0.2534905 1.0850993 16777215
 0.5495461 -0.2509862 1.1129873 16777215
 0.5681245 -0.2639208 1.1396980 16777215
 0.5679980 -0.2696361 1.1663915 16777215
 0.5716792 -0.2697685 1.1809921 16777215
 0.6041201 -0.2552268 1.1967082 16777215
 0.6020122 -0.2516133 1.2278925 16777215
 0.5941240 -0.2518137 1.2537975 16777215
 0.5845423 -0.2463270 1.2762613 16777215
 0.6006266 -0.2336187 1.2985461 16777215
 0.6110674 -0.2269337 1.3098992 16777215
 0.5996624 -0.2412494 1.3255576 16777215
 0.5854709 -0.2474433 1.3370843 16777215
 0.6053092 -0.2547115 1.3479064 16777215
 0.6245707 -0.2519431 1.3652740 16777215
 0.6467081 -0.2515549 1.3838147 16777215
 0.6538521 -0.2488150 1.3999560 16777215
 0.6560955 -0.2483352 1.4178135 16777215
 0.6836191 -0.2545008 1.4252352 16777215
 0.6804011 -0.2549823 1.4356449 16777215
 0.6824542 -0.2600625 1.4411941 16777215
 0.7003694 -0.2449248 1.4539286 16777215
 0.7166362 -0.2415725 1.4590716 16777215
 0.7110142 -0.2489850 1.4774092 16777215
 0.7037964 -0.2629400 1.4838845 16777215
 0.7114290 -0.2639691 1.5062551 16777215
 0.7125009 -0.2718700 1.5268936 16777215
 0.7089145 -0.2840711 1.5382581 16777215
 0.7111601 -0.2660669 1.5591831 16777215
 0.7040936 -0.2662057 1.5869577 16777215
 0.7007264 -0.2716265 1.6034863 16777215
 0.6941826 -0.2845368 1.6244240 16777215
 0.6841708 -0.2869687 1.6442937 16777215
 0.6909309 -0.2866802 1.6692166 16777215
 0.7027621 -0.2818564 1.6876397 16777215
 0.7096817 -0.2837891 1.7047966 16777215
 0.7159675 -0.2870204 1.7269857 16777215
 0.7204183 -0.2774661 1.7520925 16777215
 0.7269168 -0.2837886 1.7658910 16777215
 0.7337673 -0.2951642 1.7883292 16777215
 0.7363212 -0.3035581 1.8061000 16777215
 0.7435668 -0.3046384 1.8244560 16777215
 0.7566588 -0.3046327 1.8354211 16777215
 0.7669373 -0.3080705 1.8509927 16777215
 0.7705809 -0.3028738 1.8744024 16777215
 0.7641535 -0.3002728 1.8926286 16777215
 0.7862517 -0.2990736 1.9129362 16777215
 0.8009241 -0.3033586 1.9276843 16777215
 0.8019146 -0.3053534 1.9538982 16777215
 0.8123807 -0.3172856 1.9708105 16777215
 0.8263842 -0.3167053 1.9986985 16777215
 0.8278163 -0.3207678 2.0208521 16777215
 0.8275045 -0.3198151 2.0421369 16777215
 0.8295441 -0.3017808 2.0720146 16777215
 0.8506084 -0.3162650 2.0904031 16777215
 0.8528017 -0.3159043 2.1054444 16777215
 0.8630059 -0.3175874 2.1188104 16777215
 0.8644717 -0.3239185 2.1338267 16777215
 0.8567899 -0.3065538 2.1515019 16777215
 0.8505036 -0.2877114 2.1729968 16777215
 0.8535867 -0.3010261 2.1873908 16777215
 0.8588860 -0.2952315 2.2065473 16777215
 0.8696512 -0.2973378 2.2166505 16777215
 0.8711596 -0.2932335 2.2362139 16777215
 0.8797298 -0.2913947 2.2549913 16777215
 0.8803604 -0.2940491 2.2695236 16777215
 0.8843406 -0.3018650 2.2771628 16777215
 0.8892046 -0.3080251 2.2844341 16777215
 0.8899807 -0.3045508 2.3002689 16777215
 0.8896889 -0.3034213 2.3087218 16777215
 0.8850580 -0.2925252 2.3273695 16777215
 0.8808073 -0.2982709 2.3360085 16777215
 0.8829235 -0.3019840 2.3446341 16777215
 0.8790441 -0.2911704 2.3485353 16777215
 0.8782476 -0.2903864 2.3537183 16777215
 0.8858485 -0.2981331 2.3581970 16777215
 0.8843405 -0.2985480 2.3615880 16777215
 0.8775560 -0.2881070 2.3651965 16777215
 0.8844524 -0.2958504 2.3681335 16777215
 0.8848156 -0.3006939 2.3699572 16777215
 0.8854027 -0.2963671 2.3728206 16777215
 0.8814539 -0.2882206 2.3710358 16777215
 0.8615293 -0.2674835 2.3720026 16777215
 0.8715571 -0.2759711 2.3767412 16777215
 0.8743000 -0.2782542 2.3793223 16777215
 0.8725479 -0.2778903 2.3812637 16777215
 0.8711151 -0.2782956 2.3845358 16777215
 0.8723403 -0.2815473 2.3846989 16777215
 0.8715125 -0.2812303 2.3862925 16777215
 0.8720155 -0.2819991 2.3885677 16777215
 0.8720264 -0.2791805 2.3907213 16777215
 0.8691142 -0.2728642 2.3886807 16777215
 0.8735242 -0.2745532 2.3928845 16777215
 0.8735839 -0.2827265 2.3916638 16777215
 0.8738414 -0.2818309 2.3954484 16777215
 0.8741900 -0.2821617 2.3966017 16777215
 0.8693404 -0.2748863 2.3955505 16777215
 0.8711409 -0.2773305 2.3973536 16777215
 0.8699162 -0.2787606 2.3997049 16777215
 0.8693890 -0.2777954 2.4011247 16777215
 0.8703123 -0.2787861 2.4023898 16777215
 0.8701027 -0.2786106 2.4039109 16777215
 0.8710973 -0.2803682 2.4050989 16777215
 0.8718053 -0.2819748 2.4060645 16777215
 0.8714315 -0.2823102 2.4078810 16777215
 0.8672988 -0.2803987 2.4090457 16777215
 0.8737137 -0.2834890 2.4116971 16777215
 0.8764047 -0.2869359 2.4131470 16777215
 0.8776103 -0.2884632 2.4142728 16777215
 0.8786463 -0.2892426 2.4157183 16777215
 0.8780720 -0.2883250 2.4162469 16777215
 0.8787421 -0.2881790 2.4193206 16777215
 0.8843340 -0.2973935 2.4220617 16777215
 0.8805377 -0.2951370 2.4221306 16777215
 0.8811466 -0.2916208 2.4233708 16777215
 0.8826686 -0.2947479 2.4248369 16777215
 0.8817889 -0.2958124 2.4287596 16777215
 0.8847708 -0.3007655 2.4314892 16777215
 0.8852379 -0.3008302 2.4336362 16777215
 0.8877882 -0.3020650 2.4370294 16777215
 0.8884006 -0.3032756 2.4390004 16777215
 0.8887997 -0.3045081 2.4391217 16777215
 0.8893126 -0.3011047 2.4403517 16777215
 0.8858457 -0.2944060 2.4407804 16777215
 0.8856145 -0.2934762 2.4409714 16777215
 0.8862647 -0.2924000 2.4416518 16777215
 0.8847444 -0.2944803 2.4422655 16777215
 0.8871857 -0.2963626 2.4437504 16777215
 0.8879277 -0.2952195 2.4449062 16777215
 0.8886246 -0.2960492 2.4461961 16777215
 0.8882415 -0.2949590 2.4476874 16777215
 0.8877674 -0.2946183 2.4495213 16777215
 0.8889705 -0.2962109 2.4505792 16777215
 0.8898918 -0.2964718 2.4526045 16777215
 0.8911754 -0.2988292 2.4528687 16777215
 0.8901374 -0.3004676 2.4551919 16777215
 0.8908294 -0.3030202 2.4564266 16777215
 0.8908466 -0.3023143 2.4574857 16777215
 0.8900646 -0.3031598 2.4579325 16777215
 0.8872710 -0.3004761 2.4581876 16777215
