# .PCD v.7 - Point Cloud Data file format
VERSION .7
FIELDS x y z rgb
SIZE 4 4 4 4
TYPE F F F F
COUNT 1 1 1 1
WIDTH 1186
HEIGHT 1
VIEWPOINT 0 0 0 1 0 0 0
POINTS 1186
DATA ascii
0.3092730 -2.2815959 1.5453595 16711746
1.2919098 -2.2954836 0.7794784 16711746
-0.5417173 -1.7851408 0.4688607 16711746
1.4144615 -2.0451024 0.4597148 16711746
0.2076121 -1.8576272 0.5071530 16711746
0.8806031 -2.3719802 0.8243620 16711746
1.3928065 -2.2243350 0.9696176 16711746
1.8004018 -2.1323292 0.5929193 16711746
1.3990091 -2.3231938 0.8516633 16711746
-0.3979550 -1.6156423 0.5135022 16711746
1.9632896 -1.9831448 0.2936774 16711746
-0.3998173 -1.4810588 0.4331464 16711746
-0.5067146 -1.7923338 0.4143810 16711746
1.7534438 -2.2545953 1.2019721 16711746
0.9115548 -2.5075850 0.7928581 16711746
1.1885444 -2.2227414 1.3255744 16711746
1.2489262 -2.0965846 0.2862396 16711746
-1.3138465 -1.7970775 0.8655418 16711746
-0.5230932 -1.9781653 1.2193233 16711746
0.1773241 -1.4383467 0.8815555 16711746
0.6231011 -0.9358535 0.4976019 16711746
0.0461648 -1.4544021 0.5002113 16711746
0.3129694 -1.3106275 0.7058010 16711746
-0.6281831 -2.1177664 1.1279191 16711746
0.3248915 -2.0165088 1.2848059 16711746
1.1324358 -2.1880579 0.5297879 16711746
0.7243911 -1.9715036 0.4167001 16711746
0.6721323 -1.9095325 0.5295080 16711746
1.1334414 -2.7692826 1.2086997 16711746
-1.1077001 -2.0168321 0.6637873 16711746
0.3225591 -2.2620292 1.0638199 16711746
0.3263531 -2.2975357 1.0704154 16711746
-1.4355930 -1.9859134 0.9398456 16711746
-0.3923474 -1.8436527 1.0302554 16711746
0.6143156 -1.9520389 0.5595278 16711746
0.8208232 -2.2136569 1.5972275 16711746
1.5511260 -2.0897644 1.3152915 16711746
-2.4443727 -2.1327894 1.8589461 16711746
0.2380770 -3.1876719 3.6003096 16711746
-0.4819391 -2.1895390 1.5683876 16711746
-2.3306923 -2.1695166 0.4653617 16711746
2.3014858 -2.1729803 1.5323679 16711746
-0.7199510 -2.0339274 0.7089033 16711746
-0.3625542 -2.2425764 0.3807763 16711746
1.1895481 -2.4077499 1.5315176 16711746
-0.7641371 -2.4338567 1.2559433 16711746
-0.8088211 -2.1918161 0.5329794 16711746
1.2982539 -2.4611554 1.0077671 16711746
1.5099947 -2.5964904 1.1749032 16711746
1.0286325 -2.6189795 0.7935992 16711746
0.1399702 -2.4955382 0.3550994 16711746
-0.7895986 -2.2331414 0.9327589 16711746
0.9770902 -2.2968733 0.3767915 16711746
-0.8722379 -1.9894716 1.1926131 16711746
-1.4381050 -2.3357291 1.4653003 16711746
0.0454283 -2.7601686 1.8315547 16711746
1.3616691 -2.3837090 1.4317288 16711746
-0.7392488 -2.1354835 0.6781753 16711746
1.1354425 -2.1648834 0.6821493 16711746
2.4564705 -2.3067791 1.5469906 16711746
-1.4860942 -2.1926088 0.5106012 16711746
-1.8190684 -2.4222031 2.5117340 16711746
1.3584231 -2.3967233 0.8027061 16711746
1.2824123 -2.7193668 1.5342216 16711746
-0.4926713 -2.2559149 0.7071190 16711746
-1.4995698 -2.3858535 0.5877666 16711746
1.3675060 -2.6364431 1.2224170 16711746
1.5565892 -2.1663637 0.4378571 16711746
-0.7054093 -1.2919104 0.9125357 16711746
0.5354466 -1.6330012 0.4909876 16711746
1.4384620 -2.9468701 1.5725703 16711746
1.7472242 -2.3386261 1.2952361 16711746
0.5118830 -3.2009959 1.5311315 16711746
-1.5143512 -1.8783076 0.9335356 16711746
1.7154388 -2.3939579 1.6511308 16711746
1.1264516 -1.8529526 0.3723340 16711746
0.0726054 -4.0164766 4.2935500 16711746
0.6613715 -2.0334046 1.4874321 16711746
-1.6820459 -1.8865839 0.6057779 16711746
0.0254446 -3.5308335 3.2759166 16711746
-1.9576679 -2.5466125 2.6161783 16711746
1.1211561 -3.6097887 2.4768212 16711746
1.1503681 -2.5112865 2.0507166 16711746
1.3138057 -2.9360852 1.4613916 16711746
-1.9060954 -2.7996221 0.9263155 16711746
-0.3569930 -1.9657196 0.4000309 16711746
1.4883305 -2.2907915 0.4835867 16711746
1.2129861 -2.7374752 0.7560067 16711746
-1.2834377 -2.1257071 0.5765252 16711746
0.9041070 -2.6678176 0.7061449 16711746
-1.2756953 -2.7057049 1.1996218 16711746
-1.8679876 -2.7591331 0.4089078 16711746
1.3144408 -2.3042119 0.9023034 16711746
-2.1894565 -2.0494120 1.0659286 16711746
-1.8408732 -2.5866725 0.5063946 16711746
-0.3045308 -1.9492437 0.5106432 16711746
1.9409539 -2.3932331 0.3886181 16711746
-0.4558487 -2.0950315 0.5339279 16711746
-2.1237350 -3.0656219 0.9041131 16711746
1.1323367 -2.6161454 0.6420713 16711746
0.8834006 -2.4298494 0.8933427 16711746
0.6588652 -2.1773453 0.6024277 16711746
0.4244667 -2.4960060 1.4228638 16711746
1.6401072 -2.2724195 0.3907845 16711746
1.2696024 -2.6145749 1.1397277 16711746
-0.4043863 -2.0824308 0.5857337 16711746
0.5143077 -1.9384829 0.5918192 16711746
-0.0392738 -3.1249323 1.5508478 16711746
1.9091591 -2.2492864 0.6953017 16711746
-0.8650162 -1.4319448 0.7246213 16711746
-1.5428661 -2.1783102 0.9348485 16711746
0.5285876 -2.1298239 0.7305391 16711746
0.4447377 -2.0882301 0.5717448 16711746
-0.4868422 -1.9580170 0.5788595 16711746
-0.6636592 -1.5824721 0.7451787 16711746
0.4697309 -2.3276620 0.8480047 16711746
-1.1299039 -1.6896111 0.4896282 16711746
-0.9552640 -1.6135807 0.4882586 16711746
0.6633621 -1.8548225 0.6006300 16711746
-1.4378951 -1.8848205 0.7386889 16711746
0.1837790 -2.1003454 1.5361993 16711746
0.3375639 -3.0677133 2.1581898 16711746
1.2438719 -2.3948309 0.8346714 16711746
0.6116866 -1.9633349 1.3822395 16711746
-1.6603906 -2.2222693 0.4605926 16711746
1.0513470 -2.2321751 0.9851276 16711746
1.9349662 -2.7286704 1.9099025 16711746
1.6246885 -2.0571716 1.5538908 16711746
1.2720813 -2.6237645 0.9474139 16711746
1.8573749 -3.4348488 1.7191186 16711746
2.7155290 -3.5649271 2.4583304 16711746
1.4970214 -2.8512189 0.7859297 16711746
1.5210168 -2.9785221 1.9418203 16711746
-0.6775762 -2.0937994 0.8127776 16711746
-0.5466074 -1.9697583 0.6074768 16711746
0.6184925 -2.2981648 0.7713405 16711746
0.4470581 -2.2751887 0.7215267 16711746
0.4780179 -1.9825096 0.5622286 16711746
-0.2265360 -2.4976325 1.2434887 16711746
-0.4335302 -1.7251714 0.5801204 16711746
0.0960874 -2.4001107 1.1687697 16711746
1.2360086 -2.2738540 0.9375583 16711746
1.8156221 -3.6209044 2.4973638 16711746
0.3957638 -2.0500836 0.6980506 16711746
-0.2246307 -1.1877930 1.4571818 16711746
0.6410276 -2.4059072 0.8856322 16711746
-0.4563107 -1.5444320 0.6055618 16711746
-0.2078099 -2.4079752 1.2216628 16711746
1.1004814 -2.4884515 0.7544924 16711746
-0.7988043 -1.8628188 0.6307058 16711746
1.4345599 -2.8990948 1.6809783 16711746
-0.1008025 -2.6458385 1.4438008 16711746
1.6302373 -2.4217024 0.7551672 16711746
-0.3364276 -2.8157871 2.0799391 16711746
0.4614929 -2.9604380 0.7323943 16711746
0.4928776 -3.0271516 2.1406281 16711746
2.4877677 -3.4808712 1.1563250 16711746
1.2421638 -3.1525261 1.9562529 16711746
1.4292767 -2.4031732 0.7655808 16711746
1.2791702 -3.5210493 1.0214343 16711746
-0.9002185 -2.0011978 0.5673454 16711746
2.3830047 -2.5894413 0.7937130 16711746
1.7792777 -3.1399508 1.2147667 16711746
-1.4046972 -1.5392140 0.6270030 16711746
2.0198188 -3.1431081 1.6370955 16711746
1.0297151 -2.8407500 1.3472198 16711746
0.4292257 -2.3421547 1.2200317 16711746
0.6340007 -2.6806962 1.4009109 16711746
1.9436656 -3.5272081 1.8599126 16711746
4.6701217 -3.8206427 4.9963441 16711746
1.6185175 -2.6021852 1.5843796 16711746
-1.5404822 -1.7438158 0.7251707 16711746
-0.4045654 -2.2006946 1.4253032 16711746
-1.3684288 -7.9409781 2.3892889 16711746
1.5230305 -2.5776637 2.0917847 16711746
1.0829962 -2.4835277 1.1969442 16711746
1.1062037 -2.7192307 1.7328656 16711746
0.2181441 -2.3332129 1.2364093 16711746
2.7319498 -3.5463367 2.5195997 16711746
1.5535975 -2.6531491 0.8480907 16711746
-0.3903971 -2.6516209 2.1337202 16711746
1.7728465 -2.7897131 1.0315784 16711746
0.3046359 -2.5050440 1.3546125 16711746
0.7638882 -2.1277275 0.5872859 16711746
0.9231916 -2.2356191 0.8974025 16711746
1.1771268 -2.1601756 0.6932812 16711746
0.4451214 -2.2179537 0.9478230 16711746
0.7238410 -2.4138477 1.0269160 16711746
-0.1741525 -2.1818888 1.1350751 16711746
0.8117358 -1.5618751 0.9202984 16711746
1.3586950 -2.7223926 2.3444142 16711746
2.2813067 -3.3150520 2.2646263 16711746
0.5653797 -2.1356313 0.5572839 16711746
0.7271334 -2.8067105 1.5490901 16711746
1.7671920 -2.6412508 0.9037963 16711746
-0.2767196 -2.7257657 1.6208428 16711746
0.3912682 -2.2087505 1.1507872 16711746
1.3910955 -2.7290776 0.6757415 16711746
2.5058293 -3.2246978 0.9256999 16711746
0.7005464 -2.5665760 1.4422078 16711746
-2.6305902 -2.5132306 1.1284702 16711746
0.8717473 -2.2558658 1.3321587 16711746
2.3239338 -3.2436955 2.0675445 16711746
2.4670355 -2.7403016 0.6689996 16711746
0.9408930 -3.5823915 1.8761861 16711746
2.4825680 -2.6566393 1.8557465 16711746
-2.0745058 -2.7626569 2.7462521 16711746
1.8740091 -3.1603522 1.6219405 16711746
3.1247365 -3.8489609 3.4001913 16711746
-0.2925268 -2.7958646 2.2416570 16711746
2.2772012 -3.0171616 2.0286000 16711746
1.0512056 -3.5608926 2.8120518 16711746
2.2154982 -2.9269795 1.3916111 16711746
-0.3692813 -2.9672296 2.1473091 16711746
-0.4160151 -3.2929420 2.3898315 16711746
0.2154979 -2.1715701 1.1937402 16711746
1.1544977 -2.8425756 3.5674956 16711746
-1.4097196 -2.4150600 0.8184642 16711746
1.8964329 -2.8622189 1.2728477 16711746
1.1756527 -3.2830856 3.7599919 16711746
1.9558326 -2.8912120 1.4543769 16711746
3.9501343 -3.8355966 3.5671332 16711746
2.5484056 -2.4501536 1.2453221 16711746
1.7925520 -3.2799459 2.5354590 16711746
-0.0334128 -2.4903924 1.4198629 16711746
1.3377557 -3.1471717 0.7521891 16711746
-1.6447183 -2.1603763 0.4877803 16711746
1.0454516 -2.7692416 1.7593179 16711746
4.5395107 -4.0358448 3.4644127 16711746
0.2941947 -2.4267833 1.4898388 16711746
1.1346323 -2.8059239 1.0053821 16711746
1.1101475 -2.5316701 1.8790197 16711746
2.9955606 -5.3845887 5.2436342 16711746
0.2655941 -4.0372448 4.5284796 16711746
-0.1501366 -3.0346255 2.5224750 16711746
0.9059847 -1.9557254 0.6102219 16711746
1.5383350 -2.4505303 1.1298397 16711746
1.0260253 -2.2511065 1.1658475 16711746
1.5203112 -2.4021585 1.1101069 16711746
0.5066094 -2.0184917 0.5551168 16711746
-0.7595970 -2.4157801 0.5582443 16711746
0.4234114 -2.2960575 0.7085084 16711746
2.6658080 -2.8123162 1.3321972 16711746
0.6738918 -1.6256397 0.6932228 16711746
0.9702677 -1.7766758 0.5063514 16711746
0.4173519 -1.9656967 0.5151302 16711746
1.0198350 -1.4021887 0.6010770 16711746
0.1252469 -1.5924294 1.1039579 16711746
0.9169378 -1.1743972 0.6038586 16711746
1.6266267 -3.1794255 2.3504522 16711746
1.1209651 -2.5512736 1.6101738 16711746
0.6722522 -2.3784664 0.8595824 16711746
1.2427540 -2.4303620 1.6284578 16711746
0.5584655 -2.7773669 1.5354552 16711746
-0.6608326 -3.1087351 1.7779208 16711746
1.0776916 -2.3365750 0.9671153 16711746
1.7986926 -2.9499788 3.1688852 16711746
1.3690658 -2.7448661 1.4458985 16711746
0.8931088 -2.7484446 1.7718942 16711746
2.0268390 -3.0223773 1.5112839 16711746
-0.5186269 -2.6137609 0.7109273 16711746
1.2359337 -3.4060423 2.9118564 16711746
2.0148327 -4.5473895 2.5290723 16711746
3.4890299 -4.4415412 3.7980752 16711746
0.6987134 -2.8717308 1.9665656 16711746
0.8944637 -2.7398913 1.7736515 16711746
1.2591399 -3.2840729 3.9884388 16711746
2.4807224 -3.1925244 2.3068814 16711746
2.2291474 -2.9712405 2.3429918 16711746
1.9515011 -3.4561312 2.2662771 16711746
1.7012067 -2.9940596 1.3958038 16711746
1.4485530 -2.5061693 0.9659673 16711746
2.0719690 -3.5486040 2.6192954 16711746
1.2991958 -2.4800432 0.9984545 16711746
-0.9300866 -2.6017570 1.3049797 16711746
0.7681769 -2.6945226 0.6514250 16711746
0.0015140 -2.1933489 1.8735778 16711746
3.5514979 -2.8505833 2.5680211 16711746
2.9372771 -5.1458807 6.0987029 16711746
5.6668339 -5.7918882 6.7366738 16711746
0.1900936 -2.6228657 1.0862029 16711746
0.3636629 -2.3196573 0.6575331 16711746
1.6151885 -2.9404595 1.5066633 16711746
2.2663066 -2.8630078 1.3840466 16711746
-0.2835132 -2.6681471 1.2823765 16711746
3.6368783 -3.2374470 1.8901232 16711746
1.9883933 -3.2286184 2.3335063 16711746
1.8851457 -2.5169396 1.5865940 16711746
-0.0894877 -2.8374786 1.3264049 16711746
1.8043633 -3.4395723 2.3793037 16711746
0.6019805 -2.5771208 1.3347094 16711746
4.1716065 -5.4643564 4.6979246 16711746
0.4020201 -1.0730340 1.1440036 16711746
1.1863427 -2.5324113 1.4823133 16711746
0.5865731 -1.9791276 0.5252827 16711746
1.0338144 -2.1472726 0.8231195 16711746
0.2364803 -2.3367484 0.7318004 16711746
0.9009683 -1.3516393 0.5104445 16711746
0.3174065 -0.7275785 0.6284475 16711746
1.4158936 -1.1825284 0.7803335 16711746
1.2726206 -2.6647332 1.9241481 16711746
1.7144753 -2.7750022 1.7781051 16711746
2.2329786 -3.1662040 2.0650868 16711746
1.1556820 -2.6870396 0.6827057 16711746
-0.5302473 -3.3141968 2.2084363 16711746
1.6785078 -2.6346655 0.6827732 16711746
1.2793599 -2.1107414 0.7524274 16711746
-0.4585099 -2.6858556 2.0028002 16711746
2.1562033 -2.2895043 0.9575055 16711746
3.4095659 -6.4134154 0.7828927 16711746
-0.2618916 -1.3641627 0.8766646 16711746
-0.0787918 -1.6202720 0.7026181 16711746
0.7835513 -1.8869349 1.2538972 16711746
0.1299590 -1.7094657 0.7223157 16711746
0.8353810 -1.9765185 0.8172625 16711746
-0.1357819 -3.5899076 1.7014297 16711746
1.0669056 -2.2875528 0.9605606 16711746
1.3203299 -2.8020947 1.9875288 16711746
2.1365733 -3.2262907 1.9698123 16711746
-0.6213163 -3.5443306 2.5603194 16711746
0.8167915 -2.1238034 1.1309589 16711746
0.5908406 -2.3420556 0.8691329 16711746
0.3513544 -2.2628176 1.0948685 16711746
0.2153882 -2.0836055 1.0137255 16711746
-0.3104088 -1.5043151 1.4795659 16711746
1.6074430 -2.4330580 0.8593166 16711746
1.8839360 -3.5679207 2.7080564 16711746
1.3122430 -3.0330677 2.0675879 16711746
0.6558912 -0.7901703 1.1356627 16711746
1.0347910 -2.3335650 1.6241678 16711746
2.7735374 -3.3120615 1.0522486 16711746
-0.8740471 -7.1197848 3.6043527 16711746
1.5412265 -2.4652245 1.1335565 16711746
-0.4736041 -2.6369083 1.2202160 16711746
1.0654421 -2.3202240 0.7695974 16711746
1.0777363 -2.3803339 0.7850189 16711746
-0.3667940 -2.2775552 1.5054858 16711746
0.7228163 -2.8297911 3.1796885 16711746
1.8406935 -3.3527808 1.8076915 16711746
-0.5300903 -2.2751775 1.6311183 16711746
-0.6145484 -3.0015874 1.9355570 16711746
1.5011606 -2.2163496 0.7273026 16711746
-0.1311776 -2.4899876 1.0498503 16711746
-0.3209175 -2.5195506 1.7669672 16711746
1.6557658 -3.5765336 1.7454091 16711746
1.4969784 -3.0833106 2.0663068 16711746
1.5507300 -3.1314123 1.9791256 16711746
-1.3911804 -1.8509262 1.2244387 16711746
-0.0521441 -1.9502306 1.2176828 16711746
-0.4570481 -2.5981977 1.3826821 16711746
0.4035214 -2.2310855 0.7264950 16711746
1.0486825 -2.2660396 0.9500785 16711746
1.1662842 -2.3836360 1.2337842 16711746
-0.3871666 -2.8141792 1.9250070 16711746
2.1663806 -3.0879664 1.3393421 16711746
0.9014557 -2.2311783 0.8483578 16711746
-0.8369582 -2.2618158 1.9680599 16711746
1.1352515 -2.7311225 2.0331228 16711746
1.8588415 -3.0066929 1.3332003 16711746
1.1395911 -2.7496204 1.0010641 16711746
-0.4777566 -2.0773311 1.1471577 16711746
-0.5667670 -2.5888772 1.2467557 16711746
-0.3386213 -3.0603852 1.7497189 16711746
-1.8916248 -1.9362816 1.4144323 16711746
0.1637271 -3.3754292 1.2479436 16711746
-0.4705117 -3.0549130 1.1612513 16711746
2.5990050 -2.5706778 0.8592026 16711746
-1.9031343 -3.3289733 2.4193003 16711746
-0.5077124 -2.6932478 2.2048798 16711746
2.0322006 -2.7397993 1.6915113 16711746
1.3420230 -2.6656151 1.7359120 16711746
3.0769167 -4.3421717 3.6233611 16711746
0.9301876 -1.4151274 1.6911925 16711746
-2.9289155 -3.0913482 1.4665024 16711746
-1.5292348 -2.2943447 1.3652725 16711746
-0.7944257 -2.1417170 0.9599472 16711746
2.7407532 -3.1110201 1.3282423 16711746
-1.1458589 -1.9556029 1.3738259 16711746
-0.4525087 -2.5108495 2.1258562 16711746
0.5701467 -2.7421367 1.1798124 16711746
-0.0835158 -1.8128321 1.0467918 16711746
4.8823385 -4.6344872 5.1174517 16711746
3.1777048 -3.6599472 2.6536088 16711746
4.2377348 -5.1007447 4.2169127 16711746
0.7171751 -4.6355014 5.5218549 16711746
4.4683256 -5.9752231 5.6653519 16711746
-1.0757455 -2.7470622 1.7997972 16711746
1.8249285 -3.0052896 1.3728137 16711746
0.1665900 -2.0359423 0.8447063 16711746
1.1110940 -1.9450766 1.9818734 16711746
1.9943194 -2.4943480 2.2735157 16711746
-0.5479064 -2.4667084 1.8324763 16711746
0.1543954 -2.1115475 0.7760056 16711746
-0.5636628 -2.4781258 1.8376250 16711746
-0.5444201 -2.8767982 1.2791348 16711746
1.3936691 -2.9154150 2.3911023 16711746
-1.0778996 -1.8685632 1.3394562 16711746
-1.1609434 -2.2007074 1.0667722 16711746
0.5979531 -2.1276515 1.1205651 16711746
-1.1579771 -1.9553685 1.3772284 16711746
2.4224532 -3.0756202 1.2221714 16711746
-1.6045165 -3.1295469 1.7336982 16711746
-0.7897813 -3.5769277 2.7997339 16711746
-0.4916025 -2.3114100 1.2055842 16711746
0.9021833 -2.0044699 0.8310250 16711746
0.7917460 -1.8191803 1.1403985 16711746
-0.2875406 -1.9866120 1.3896155 16711746
-0.1680371 -1.6070803 0.9823946 16711746
-0.5821990 -1.7749575 0.7873374 16711746
1.9714446 -2.7852812 2.2816472 16711746
-0.3719924 -2.1671143 1.0095015 16711746
-0.5781186 -2.7330699 2.0473104 16711746
1.5801809 -2.3216596 0.7469874 16711746
-1.6306307 -2.1911979 1.2117413 16711746
2.9965563 -3.8104503 1.0598818 16711746
-0.4621199 -3.2000341 1.1016959 16711746
-0.4828611 -2.3560951 1.4024738 16711746
-1.5476837 -1.9668897 1.2205361 16711746
-0.1683375 -2.6548531 1.4544892 16711746
3.0321739 -3.7453449 3.2103729 16711746
-0.1044074 -2.4707487 1.5896595 16711746
-0.5858141 -2.3698874 1.8262959 16711746
-0.2216264 -3.0656016 2.3634775 16711746
0.2534181 -3.6955276 4.2760744 16711746
0.2520863 -3.5462873 4.1270857 16711746
-0.7641047 -2.2166984 0.9321522 16711746
-0.5576684 -1.8229460 1.1258682 16711746
0.3618425 -1.9194499 0.9410706 16711746
-0.5578278 -1.6210368 1.0799220 16711746
0.4719608 -1.6381273 0.8370786 16711746
-0.8328862 -1.5359657 0.7090941 16711746
0.8174614 -1.8712562 0.8165795 16711746
-1.0100139 -2.4151528 1.6163858 16711746
1.9722587 -3.3117104 2.5002415 16711746
1.8965082 -3.8280606 2.7572832 16711746
0.4877956 -2.3942564 1.3348839 16711746
-1.0044063 -1.7811394 0.5804542 16711746
0.8094652 -3.2941403 3.6597257 16711746
-0.2640538 -2.7050855 1.6040171 16711746
-0.4505157 -2.3385386 1.1509348 16711746
-0.2844524 -2.7670283 1.6281550 16711746
3.4569561 -3.1971319 2.0951443 16711746
-0.1719498 -2.0281222 1.0835123 16711746
-0.6316653 -1.8488227 1.0613447 16711746
0.2082587 -2.1227686 0.8858377 16711746
0.1524020 -1.9550835 0.7601044 16711746
0.6044334 -1.9169604 0.7785094 16711746
0.1279233 -1.7715096 0.8350083 16711746
3.2630706 -3.6988981 2.6878111 16711746
1.8849229 -2.1391182 2.9157991 16711746
0.6166443 -1.7809236 1.6855512 16711746
0.9861343 -2.0985630 0.8487163 16711746
1.3336302 -2.2283463 1.1701496 16711746
-1.5884814 -2.1158252 1.2582114 16711746
1.1741009 -2.1350055 0.7502663 16711746
1.1180613 -2.1322443 0.6934867 16711746
-0.8532851 -2.3323166 1.0762060 16711746
0.2327505 -2.0310843 0.8731434 16711746
0.0522381 -2.0528841 1.0230050 16711746
-0.8316959 -2.2834074 1.0653290 16711746
0.4026233 -2.1258917 1.2827581 16711746
-1.2721339 -1.9092586 1.2954857 16711746
0.2360249 -2.1749516 0.9491588 16711746
0.0561451 -2.0923312 1.1470485 16711746
1.3106273 -2.5117543 0.9957829 16711746
-0.5227237 -2.7316635 1.8080727 16711746
-0.8684892 -2.2442749 1.1580718 16711746
0.3803860 -2.6696396 0.9602286 16711746
-0.3820797 -2.3619320 1.3098961 16711746
1.3586251 -2.7412636 0.8046041 16711746
0.8516908 -1.4145103 1.6066219 16711746
0.4790683 -2.0151021 1.1275200 16711746
0.5222234 -0.5810264 0.8738915 16711746
1.2822337 -2.6982255 1.7983872 16711746
-0.5696397 -2.8109176 2.1951609 16711746
3.3021703 -4.2426805 3.2776494 16711746
1.1705363 -2.0946052 1.8737959 16711746
2.1363358 -2.8087032 1.9528457 16711746
1.7925165 -2.5368483 1.3888502 16711746
0.4697450 -0.4456691 0.8612652 16711746
-1.4525243 -2.1916747 0.7949059 16711746
3.0739329 -5.3726525 5.4921865 16711746
-1.5570282 -2.3389559 0.8258098 16711746
-0.7972339 -2.4320722 0.8566048 16711746
-1.8401145 -1.8498412 0.8984897 16711746
-0.8191432 -2.1823444 1.1442868 16711746
1.3905060 -2.3191199 0.6573718 16711746
0.8939818 -1.6108402 1.5990041 16711746
-0.9748204 -2.0653629 0.9155716 16711746
1.5337546 -2.9778705 0.9815082 16711746
-0.8245350 -2.2292137 0.9315514 16711746
1.7701361 -2.8470802 1.1418530 16711746
1.1870261 -2.5763943 1.1571783 16711746
-0.3683293 -2.1145089 0.7807971 16711746
1.1920007 -2.3519411 1.6926363 16711746
1.7177471 -3.0741904 0.8777137 16711746
-0.9960988 -2.0985706 0.9227947 16711746
0.9517049 -1.6727520 1.7787776 16711746
-0.3921274 -2.3664157 1.3789616 16711746
0.6357558 -2.6100860 1.6250265 16711746
-0.8962685 -1.8844734 1.6458952 16711746
1.5035965 -2.9420648 1.2298487 16711746
-0.2402804 -2.2485464 1.0684029 16711746
0.1125753 -2.1242461 0.7729300 16711746
-0.2068035 -2.5591273 1.3965740 16711746
-0.7590865 -1.9284142 1.5428821 16711746
0.6620431 -2.0900934 1.6730486 16711746
0.8828825 -2.1632025 1.0988384 16711746
0.2065936 -1.6918256 0.8052858 16711746
0.2633532 -1.5226394 1.1016288 16711746
0.5680932 -1.5045805 0.8482882 16711746
0.9859022 -2.5203786 1.1684016 16711746
1.1441286 -2.2086043 1.6283256 16711746
-0.6878320 -2.3956854 1.4147650 16711746
0.9123766 -2.3948362 2.0616636 16711746
-0.2204702 -2.2628782 0.9384027 16711746
-0.3629845 -2.1593800 0.9394989 16711746
-1.1696373 -2.5478227 1.6399523 16711746
0.1424649 -2.2143302 0.8459505 16711746
0.5411538 -1.9524387 1.8320640 16711746
1.5871719 -2.8227141 1.4477900 16711746
-0.5659097 -1.8808439 1.2086743 16711746
0.0797255 -1.4261476 1.0701998 16711746
0.5082006 -3.0335846 2.1316230 16711746
-1.3316725 -1.9190807 1.2108026 16711746
-0.7371228 -1.9363549 0.9293360 16711746
1.8729054 -3.1077285 1.8737142 16711746
0.3676347 -2.3975976 1.0304304 16711746
0.4514406 -2.1956186 1.2482816 16711746
1.4099022 -3.0250301 1.2556503 16711746
-0.3710481 -2.3317878 1.0422021 16711746
-1.0460967 -2.1386862 1.2466383 16711746
-1.0339882 -2.0578949 0.8170386 16711746
-1.4977146 -2.0998154 1.3054298 16711746
1.5767695 -3.0340154 1.1997498 16711746
-1.2777988 -2.0289526 1.0606254 16711746
0.0349456 -1.8674926 0.7046742 16711746
-1.3505321 -2.8829153 1.4453139 16711746
-0.7005306 -3.7528565 1.6122389 16711746
-0.8076809 -2.3668942 0.8140224 16711746
0.4321335 -1.5143958 0.8443372 16711746
0.7738625 -0.9600359 1.5167629 16711746
0.4914433 -1.5328654 1.5160211 16711746
-1.6373439 -2.3629875 1.6515040 16711746
0.6997972 -1.9703826 1.2492453 16711746
1.6870462 -2.9943373 1.9427934 16711746
2.3055360 -3.0207400 2.3748639 16711746
2.1087661 -2.7114024 2.2042010 16711746
2.5655797 -2.1447008 1.8958329 16711746
-1.5993237 -2.2022302 1.3066089 16711746
2.7562823 -3.4907739 2.7768788 16711746
3.5529449 -4.2250371 3.5392909 16711746
-1.2194077 -1.7529554 0.9539747 16711746
-1.1125430 -1.7562215 1.1377048 16711746
0.5022537 -1.8889487 0.9218507 16711746
0.5044906 -2.1600924 0.8994604 16711746
-1.2052389 -2.0109487 1.1759295 16711746
0.4667095 -1.8279142 0.7818940 16711746
-0.5900261 -2.2316294 1.8090771 16711746
-0.3940208 -2.1040380 1.3167286 16711746
-0.6067410 -2.0159247 1.2845957 16711746
-0.7043289 -2.2412779 1.2737905 16711746
-0.2548824 -2.3329337 1.0885524 16711746
0.5499660 -2.4416440 1.2956358 16711746
-0.4143217 -2.1696715 1.3854650 16711746
-1.4407283 -1.6397151 0.9670706 16711746
0.2702306 -2.1696763 2.2947109 16711746
-1.1891199 -1.9574196 1.2609661 16711746
-0.6767364 -2.1416061 1.6516104 16711746
0.4735655 -2.1449730 0.8163462 16711746
0.5284798 -2.2031262 1.2293115 16711746
-0.4313697 -2.0874596 0.8191607 16711746
-0.3491793 -1.6695560 1.0070436 16711746
0.7361489 -2.0009027 1.2198631 16711746
-0.3728948 -2.0361769 1.2900685 16711746
-1.6167097 -1.7215042 1.3279426 16711746
-0.5874435 -1.6026057 0.9270505 16711746
-1.3983098 -1.4288541 1.4771664 16711746
0.6996717 -2.1283278 1.2737987 16711746
-1.0248976 -1.8222265 1.5634606 16711746
-0.6372671 -2.2900999 1.3798157 16711746
-0.8679934 -1.9453987 1.3049254 16711746
-0.9167421 -1.7460607 1.5723088 16711746
0.6030652 -2.3086956 1.5087630 16711746
-0.3473553 -2.0912194 1.2690184 16711746
-0.4604292 -2.2654057 1.3592566 16711746
-0.1930742 -2.0561550 1.0952820 16711746
1.3466777 -2.1929748 2.1450694 16711746
-0.4352031 -2.2916884 1.4349984 16711746
-0.9684893 -1.7025099 1.1709855 16711746
-0.8546054 -1.4467043 1.2368375 16711746
0.0789437 -1.7371885 0.8461186 16711746
0.1170637 -1.8406359 0.8956167 16711746
-0.9379803 -1.2533343 1.9187787 16711746
0.8283160 -1.8947201 1.9587890 16711746
-0.8644184 -1.8966622 0.8494925 16711746
0.6469130 -2.0136487 0.9169457 16711746
-1.1053754 -1.2413198 0.9247063 16711746
-0.0898113 -1.9710636 1.4164997 16711746
0.2316312 -1.7443235 1.0393770 16711746
0.2743632 -1.8826199 2.0643847 16711746
-0.2454599 -2.1189086 0.8991276 16711746
-0.6309546 -2.0144198 1.4014525 16711746
1.2601422 -2.5851772 1.5947312 16711746
-1.0231405 -1.2391613 1.8629932 16711746
1.2831911 -2.1430109 2.0965869 16711746
-0.8720451 -0.8922357 1.6096096 16711746
-0.2852490 -1.3491114 1.4190981 16711746
-1.3308911 -1.4579568 1.3464686 16711746
0.0442655 -2.0199594 0.8792711 16711746
-1.2367570 -1.5901630 1.8256819 16711746
-0.3980564 -1.2142019 1.5935850 16711746
0.3847182 -1.8511649 0.8404350 16711746
1.2599583 -2.5802608 1.9204304 16711746
-1.0275359 -2.0255198 1.3069688 16711746
0.2084234 -2.1408737 0.9617593 16711746
-0.9444919 -1.9904828 1.6215018 16711746
-1.0729488 -2.0796602 1.3251560 16711746
1.0694458 -3.0486381 2.4744656 16711746
-0.6215364 -2.2309253 1.0290958 16711746
-1.0207458 -2.0693393 1.7563500 16711746
1.0986240 -2.7638276 1.0146476 16711746
-0.4982944 -2.0362282 0.9710639 16711746
-1.1116353 -1.7746600 1.1345652 16711746
0.2982805 -2.7977993 3.0591693 16711746
2.1919382 -3.3365314 1.9953227 16711746
3.9739883 -4.3059697 0.7363589 16711746
-0.6939349 -2.3601027 1.1824946 16711746
-0.2017878 -2.4796402 1.1878040 16711746
3.6776581 -3.4468377 1.9833195 16711746
1.4789879 -4.1347575 3.6791699 16711746
-3.2128849 -2.6526530 2.8846421 16711746
3.1239018 -2.8916409 1.3857441 16711746
3.4682090 -3.6699841 1.1954334 16711746
0.5079703 -2.7999279 1.5400594 16711746
-1.2737035 -2.0220532 1.0639929 16711746
1.2473160 -2.6507227 2.3660433 16711746
-0.2162614 -1.7415045 0.8062794 16711746
-0.8173468 -2.2476933 0.8623124 16711746
-0.3362378 -2.1273000 1.2365060 16711746
-0.4609683 -2.0694885 1.1466933 16711746
0.9888305 -2.0995896 2.9003251 16711746
-0.9194251 -1.9830859 0.8609378 16711746
1.1952870 -2.4331572 2.4250615 16711746
1.2281531 -2.5115409 1.5615168 16711746
-1.5172642 -1.6565937 2.2822380 16711746
-1.7968531 -2.1949570 2.4568088 16711746
1.5814952 -2.5273154 1.1006987 16711746
1.2969093 -2.7985196 1.5651908 16711746
-0.1623380 -1.2911353 0.7007400 16711746
1.9257302 -3.2732835 1.2533333 16711746
0.2910893 -1.5935696 1.2981484 16711746
0.0416292 -1.9546891 0.8720359 16711746
-1.3612367 -1.7458334 2.4903300 16711746
1.0636692 -2.2096107 3.0198741 16711746
-1.2050582 -1.9904801 1.3879275 16711746
-0.5843202 -1.6934724 1.0596598 16711746
-0.4899292 -1.3798627 0.7999861 16711746
0.9924425 -3.2364707 2.2341580 16711746
2.0369165 -3.4285614 2.5741384 16711746
1.5907720 -3.8243492 3.6337993 16711746
1.6735951 -2.9287012 1.8751500 16711746
-0.6031984 -2.4273622 1.3569877 16711746
-0.5489867 -2.6666360 1.8704269 16711746
1.2216254 -2.8018768 2.0203316 16711746
1.4748545 -2.9470572 1.5405127 16711746
-0.5332869 -2.4363110 1.8118366 16711746
0.6178199 -2.4885743 1.5774245 16711746
-1.8666681 -2.0076435 0.7029700 16711746
0.9230431 -2.4638772 0.9226385 16711746
1.0742719 -2.9028730 1.2493780 16711746
-0.7217627 -2.0280983 0.9256241 16711746
0.3114795 -2.0886121 1.0604641 16711746
1.6878489 -3.5124290 3.4386694 16711746
-0.3481067 -2.5619786 1.6531339 16711746
-0.5536546 -3.0077472 3.5982969 16711746
-1.8465722 -1.9630122 0.6958497 16711746
2.3093996 -4.0316963 3.9789388 16711746
1.1485724 -2.1599462 0.8672192 16711746
0.0049172 -0.5487483 0.8478476 16711746
0.1032777 -2.5725095 1.2948413 16711746
-0.6196970 -3.2624023 4.0701332 16711746
2.1154797 -4.1315637 3.3232365 16711746
1.8496130 -3.0327713 1.5489647 16711746
5.5906057 -6.7618952 8.6436062 16711746
-0.4293241 -2.5517104 1.3861940 16711746
0.0622679 -1.1721766 1.3095945 16711746
0.1990469 -1.3141768 0.7274414 16711746
0.1414371 -0.8886577 0.6877437 16711746
-0.3050283 -0.6689405 0.7313077 16711746
1.4206877 -2.1645389 0.9600727 16711746
-0.2010945 -1.4037305 0.7199178 16711746
1.2333485 -1.6787217 1.0574622 16711746
1.3719285 -2.0061851 0.8175873 16711746
0.0853163 -2.3273079 1.1360508 16711746
-0.7852561 -1.3484708 1.6355729 16711746
1.3130114 -2.7510333 1.6422414 16711746
-0.5186052 -2.2113233 1.2807181 16711746
1.1646967 -1.9662747 1.1925541 16711746
0.5766847 -2.4842803 1.5024595 16711746
-1.5010577 -2.2908826 2.5894570 16711746
-0.7910444 -1.3466425 0.8300213 16711746
1.2456897 -2.9470396 1.2806727 16711746
3.3435664 -3.0802288 2.0509284 16711746
0.4205330 -2.1698909 1.4491705 16711746
0.7627339 -2.0121555 0.8350376 16711746
-1.4725444 -2.1487713 1.1559786 16711746
1.1878570 -2.6858263 2.6457808 16711746
0.2234221 -1.7821389 1.4303725 16711746
3.4234293 -4.6076784 0.9989157 16711746
-1.1782616 -3.0289137 1.7236338 16711746
3.2698433 -3.0529325 1.6444916 16711746
-1.5071229 -2.6522801 2.7949257 16711746
1.6023804 -2.5437148 1.6524401 16711746
0.2763714 -3.1865861 2.2779317 16711746
0.3456471 -1.7054240 1.8418431 16711746
0.1797871 -4.5289431 5.0352802 16711746
1.1464293 -2.0701289 2.1072636 16711746
-1.3581601 -2.3586013 1.4403152 16711746
-0.6101221 -1.6434239 0.9296749 16711746
-0.4082181 -1.7963480 1.2125168 16711746
-0.6245655 -1.9963710 1.4016960 16711746
1.2719392 -2.4920208 1.2329847 16711746
1.2902633 -2.5278866 1.2423993 16711746
-1.4200053 -2.0869479 1.2706952 16711746
0.4554229 -1.3624233 0.8142612 16711746
1.2827743 -2.4888327 2.0877550 16711746
-0.3267871 -1.6507912 0.7294576 16711746
-0.6539086 -1.4994690 0.7337181 16711746
-0.6984311 -1.7434976 0.6990727 16711746
-1.7356250 -2.8953917 2.9814823 16711746
-0.5838464 -1.0289932 0.8898368 16711746
0.3177383 -1.1848425 1.5112596 16711746
0.3507024 -1.3203173 1.3332804 16711746
2.0797124 -2.6990414 2.1831181 16711746
0.1334364 -1.6733327 0.8700553 16711746
1.3768767 -3.2109268 3.1056349 16711746
-0.7554133 -3.5590193 3.7543714 16711746
0.2437112 -4.0376911 4.5473013 16711746
0.7113500 -1.9566234 0.9202608 16711746
-1.9671109 -1.9559851 1.2887902 16711746
-2.1064219 -2.0726647 1.3199341 16711746
-0.9078456 -1.9973249 0.9309975 16711746
2.2222569 -3.0472505 0.8734277 16711746
0.2579990 -1.8515980 0.8946432 16711746
-0.5458724 -1.7305048 0.7777048 16711746
-0.5223585 -1.7677461 1.1701041 16711746
0.4550317 -2.3125057 0.9554794 16711746
-0.3042385 -1.7410935 0.8247351 16711746
0.8864787 -1.3769631 1.0374159 16711746
1.8295989 -2.4262052 1.4917861 16711746
2.7661641 -3.2629004 3.8731875 16711746
-1.2811600 -1.8794038 1.2275438 16711746
2.3153071 -4.2537050 4.7652879 16711746
0.8415352 -3.0266237 2.6532929 16711746
-8.5825205 -6.7000246 8.1074495 16711746
-1.0994278 -1.7673208 1.3746759 16711746
3.5288630 -2.8087192 0.8876805 16711746
-1.0927951 -2.1099985 1.3300654 16711746
-0.6239641 -1.7305775 0.9425030 16711746
-1.8438212 -2.0647962 1.0933048 16711746
-0.9090561 -2.4820697 1.2925440 16711746
0.4747473 -1.9896660 1.1226914 16711746
3.0317616 -2.4296234 0.8885961 16711746
0.6632556 -1.9732907 1.2265009 16711746
2.8226039 -3.4125471 3.0057955 16711746
3.6125288 -3.7383456 1.6561300 16711746
3.6634221 -3.1444800 1.0974287 16711746
1.6578883 -3.0880177 3.1647379 16711746
3.6777720 -2.9200978 1.1654632 16711746
2.8305211 -3.2484016 4.1929088 16711746
0.9753903 -1.6739204 1.6019086 16711746
1.5564494 -2.6907477 2.0417466 16711746
1.9578643 -2.4233828 1.8228054 16711746
-0.4241686 -1.6206348 0.7437611 16711746
1.1485279 -2.0558982 1.8898842 16711746
1.5188926 -2.5480034 2.5336659 16711746
0.9504695 -1.6734325 1.5991589 16711746
-1.6130781 -2.3068879 1.2068423 16711746
-1.4425640 -2.2093019 0.7606285 16711746
2.6437902 -2.6775193 1.9289186 16711746
0.6276056 -1.4094771 1.0543474 16711746
2.1371546 -2.4953349 1.7514516 16711746
2.9223344 -3.0483885 2.1050637 16711746
0.7673211 -1.6789294 1.1621299 16711746
2.4588156 -2.8574047 2.2321231 16711746
0.3941689 -2.5192218 1.5777950 16711746
2.6388745 -2.3339982 2.0063939 16711746
0.4423080 -1.9041011 0.9178232 16711746
0.5091916 -2.0597155 1.0783371 16711746
0.5060623 -1.8725692 0.9528710 16711746
0.0119610 -2.4722826 2.2670004 16711746
1.0768777 -1.9510878 1.7478461 16711746
-0.8006328 -1.7938958 1.0177746 16711746
0.4122360 -2.1013355 1.0470988 16711746
1.6532257 -2.5962396 1.1542488 16711746
0.0213754 -2.4817460 2.2690914 16711746
1.7329096 -2.1161158 0.8333471 16711746
1.6695501 -2.3577566 0.8230338 16711746
-1.3507104 -1.7117548 1.0087749 16711746
1.3725342 -2.7985070 0.7817625 16711746
1.7353413 -2.0625522 1.0200062 16711746
0.9808843 -2.5998385 1.2155652 16711746
0.4850394 -1.6567855 0.9992160 16711746
0.4853244 -1.6729435 0.9670052 16711746
1.4605199 -1.5938078 1.9167329 16711746
1.7682369 -2.2174242 1.0090836 16711746
-0.9641739 -1.9337357 1.2794975 16711746
-0.5593182 -1.4450402 0.7699134 16711746
-0.7537597 -1.3062110 0.8452910 16711746
1.8733153 -2.3136799 0.9345200 16711746
-0.2170341 -1.9746425 2.6079464 16711746
-0.2799015 -1.5114131 0.9763168 16711746
1.7470292 -2.3581271 1.1632448 16711746
-0.9408688 -1.4258537 0.9203391 16711746
0.5325536 -2.4226556 1.0446345 16711746
1.0881190 -2.4821804 1.6043777 16711746
1.2245297 -2.4666440 1.7881798 16711746
1.4068899 -2.4398596 0.9016816 16711746
-1.1898865 -1.7938200 0.8930280 16711746
-0.3941686 -2.3406837 2.1745982 16711746
2.5257688 -2.5025094 0.8869114 16711746
1.3127555 -3.1625273 1.1278191 16711746
0.0401182 -1.9226750 1.8629758 16711746
2.5357208 -2.0601082 1.7364364 16711746
1.8135965 -1.7887405 0.7786929 16711746
0.5317698 -1.6807646 1.1065315 16711746
0.7728384 -2.1976759 2.8052347 16711746
0.7109798 -2.7321849 2.0460031 16711746
5.6861486 -6.8437409 8.1161451 16711746
-0.3705696 -2.3947530 1.7712245 16711746
0.4385098 -1.9532368 1.1666918 16711746
2.8470559 -3.4645307 1.9727002 16711746
0.6430451 -1.8195528 1.0262494 16711746
2.0876751 -2.1478114 0.9099597 16711746
-1.0139133 -1.4449557 0.8530039 16711746
0.4540991 -0.3172354 0.8168153 16711746
-2.0008144 -2.0800509 0.7283933 16711746
0.2712827 -1.8974295 1.3835641 16711746
0.6705909 -0.8667392 1.0810643 16711746
1.9044014 -1.9450355 0.8235457 16711746
1.6891756 -1.6732820 0.8457209 16711746
-1.6603500 -1.9590919 1.2256039 16711746
0.5169684 -2.2921999 1.1132835 16711746
-1.3661199 -1.6414403 1.2035272 16711746
0.4646068 -1.5211750 0.9758269 16711746
2.1465685 -2.2379987 0.7448815 16711746
0.4003275 -1.6700042 1.0005690 16711746
1.8483720 -3.1914663 1.4868737 16711746
1.3874338 -3.2384758 1.1829438 16711746
-1.5556633 -1.7828828 0.5977595 16711746
-1.9043500 -2.5415418 1.1510167 16711746
1.0225183 -2.7636888 1.7004766 16711746
1.5404328 -2.7920003 1.7802211 16711746
1.7316451 -2.2080362 0.7974451 16711746
2.0520318 -1.5824170 0.8476743 16711746
0.7088129 -2.6017213 1.9760896 16711746
-0.5619074 -1.4822032 0.7665426 16711746
-0.0201071 -3.7109215 3.9870026 16711746
1.1558728 -2.3257942 1.4766661 16711746
-0.6027440 -2.3331907 1.6998508 16711746
1.6212672 -2.6117008 0.8310518 16711746
1.3113929 -2.5836968 0.7712052 16711746
1.0804006 -2.8961368 1.4684073 16711746
1.0217086 -2.8664739 1.3615420 16711746
1.3168143 -2.2401071 1.7441356 16711746
1.9007736 -2.2175853 0.7003698 16711746
1.8287356 -1.6977515 0.8565100 16711746
0.6527511 -1.7517722 1.8244536 16711746
2.3395998 -2.3438907 1.3013618 16711746
1.1091658 -1.8328048 1.8665303 16711746
0.9509018 -3.0411313 1.5379744 16711746
0.2398679 -2.7561696 1.1647129 16711746
0.7249854 -2.5702457 1.2338828 16711746
1.2327634 -2.4991879 1.2693839 16711746
1.0352366 -2.8130593 1.0445729 16711746
1.0685912 -1.8488039 2.1787112 16711746
1.9526979 -2.2969320 0.6960636 16711746
1.1642629 -2.7780495 1.2338282 16711746
2.3597143 -2.1322632 0.6234494 16711746
2.1779940 -1.8363580 0.5801932 16711746
1.7634428 -2.3252344 0.9164970 16711746
1.9989308 -2.3851836 1.1358542 16711746
1.9112864 -3.3463871 2.2175241 16711746
0.2018737 -2.2647588 1.7456537 16711746
1.9920018 -2.5652218 0.8361483 16711746
2.0758579 -1.7715025 2.0804319 16711746
-0.1888994 -1.8396996 2.0783751 16711746
1.4189128 -2.2815795 1.2350694 16711746
1.1845176 -2.0326154 1.8648379 16711746
2.6431727 -2.4591167 0.9074031 16711746
2.9073997 -3.1293511 2.6859772 16711746
2.4085712 -2.5968881 1.7418563 16711746
0.8682529 -1.4228951 1.7811166 16711746
-1.1435387 -3.3375642 2.0968084 16711746
2.2314126 -2.1802080 0.6655434 16711746
-0.9777616 -2.7979009 3.1012888 16711746
2.2284973 -2.6488485 2.7564852 16711746
-0.1037242 -2.8220165 2.4583740 16711746
1.9305373 -2.3809905 1.3080493 16711746
0.7421749 -6.7222729 2.3433650 16711746
1.6105130 -2.4376500 1.9637547 16711746
1.7852286 -2.0318022 2.2641699 16711746
1.5668890 -1.7806110 1.8212352 16711746
0.4656726 -0.3241284 0.8309649 16711746
0.3802544 -0.3411286 0.8847647 16711746
0.3558113 -2.7317240 1.3614829 16711746
2.4091148 -1.8687676 1.8683987 16711746
0.4827932 -2.4782188 1.2590048 16711746
1.4641701 -2.2731643 2.0848339 16711746
2.0635314 -1.5933814 1.6936303 16711746
1.5217109 -1.5897970 2.2565975 16711746
1.5244287 -2.0575607 0.9255061 16711746
1.4189764 -2.6678293 2.0846157 16711746
2.0769920 -2.5414169 2.0201840 16711746
1.0380656 -2.8660462 2.4058948 16711746
3.1209078 -2.7556105 2.6834722 16711746
1.8959885 -2.0246432 1.4258790 16711746
-0.1753399 -4.8938375 2.6953881 16711746
0.3357941 -1.8463280 1.5233786 16711746
0.1399810 -2.5171754 1.2387878 16711746
1.7256042 -1.9140098 1.6261996 16711746
0.5504819 -2.5017824 1.2477301 16711746
0.1152924 -1.7139860 1.6410455 16711746
1.6490120 -2.1057243 1.4261703 16711746
0.2604903 -2.5839367 1.0696298 16711746
0.6256434 -2.1712911 1.3492295 16711746
0.1948540 -2.1782811 1.1689162 16711746
0.2503433 -1.6366398 1.4629292 16711746
0.6366802 -2.0167682 1.6179551 16711746
0.3699755 -1.6599650 1.7146749 16711746
1.6099796 -1.7585921 1.1589099 16711746
0.3033356 -1.8865695 1.7016426 16711746
0.4576413 -1.4615619 2.1662047 16711746
1.5879912 -1.6585892 2.0878298 16711746
0.6677653 -2.1410623 1.5628248 16711746
0.3229254 -1.4734687 1.4912683 16711746
0.6715765 -2.0304160 2.1076171 16711746
0.9412579 -2.0664113 2.6570239 16711746
0.2481353 -2.4914401 1.4917073 16711746
0.4682553 -0.2387118 0.8639058 16711746
1.3893825 -1.7649041 1.5475842 16711746
0.7061127 -1.4282146 1.4755371 16711746
1.6941218 -1.8105059 0.7890128 16711746
1.3566303 -2.1038582 0.8586460 16711746
1.5052096 -1.7466869 1.2708213 16711746
0.0621959 -1.5428807 1.5222914 16711746
2.1423252 -3.6929042 2.5971467 16711746
0.9908679 -1.5993594 1.5928247 16711746
1.7809273 -3.2178433 1.5769230 16711746
1.4662195 -2.2915547 0.7525140 16711746
1.7049838 -2.7580373 0.9268700 16711746
2.6773453 -2.8432500 1.9004890 16711746
2.5584035 -2.2015827 1.5652965 16711746
1.7732601 -2.8780348 1.7098782 16711746
-0.0226413 -2.4349341 1.4032375 16711746
1.5940521 -2.3453984 1.8169372 16711746
1.2507535 -1.9860409 1.7631843 16711746
1.4748011 -2.5319672 1.6629598 16711746
1.6705595 -2.1229970 1.6890680 16711746
0.9064662 -2.0492775 1.0245855 16711746
0.1875440 -2.2350099 1.5230097 16711746
1.6583078 -2.2616613 1.7164100 16711746
0.4221316 -2.4549117 1.2821589 16711746
0.6607788 -2.2244668 1.0858991 16711746
1.3640380 -2.1037171 1.0473431 16711746
1.1211648 -2.2630105 1.7107768 16711746
1.0708528 -1.9581007 2.1280832 16711746
0.5411026 -1.9668180 1.2242607 16711746
0.6567813 -2.0085154 1.0684167 16711746
0.7854945 -2.0057647 1.0252434 16711746
0.8580568 -2.1372206 1.8697197 16711746
0.7094966 -1.6481059 2.2899828 16711746
1.2290949 -2.2987914 0.9858365 16711746
0.3750474 -1.9418983 1.3644340 16711746
0.6111589 -2.5438395 1.0948205 16711746
-0.3046943 -1.1316464 1.6430533 16711746
1.8678428 -1.5723940 1.6546757 16711746
-0.2596425 -1.8767521 1.7024519 16711746
0.5776694 -2.0846627 1.1761574 16711746
0.3094190 -2.5685174 1.4198227 16711746
0.6624629 -2.5323000 1.6760170 16711746
0.0208633 -2.7801383 1.1493875 16711746
0.9805622 -2.5945816 1.2522722 16711746
0.5290877 -2.0357049 1.2065030 16711746
-0.1712404 -1.7548510 1.7766802 16711746
0.4370254 -1.3132914 1.6024435 16711746
0.4180944 -1.4642712 2.0708861 16711746
1.6045562 -1.7526358 1.2297302 16711746
1.0942537 -1.7525017 1.5045531 16711746
0.6800050 -2.4117367 1.3419440 16711746
1.3766358 -2.3361299 1.1308056 16711746
0.4347723 -1.4388031 1.4139673 16711746
1.3293068 -2.4696836 1.0168279 16711746
1.4411536 -2.5884547 2.5308278 16711746
1.9116323 -3.4476805 2.2519300 16711746
1.7027411 -2.9967959 1.9068398 16711746
0.7279529 -2.5976951 2.9356234 16711746
0.8654287 -4.6440516 4.6322427 16711746
2.0336235 -2.4984360 1.9971302 16711746
2.9068196 -3.3477056 4.6056104 16711746
1.5595118 -2.4428275 1.5650017 16711746
-0.3103961 -2.4528723 2.6586411 16711746
2.0074654 -2.3121109 2.1369345 16711746
2.0849812 -2.8391466 2.2540193 16711746
2.0121281 -2.1303627 1.9650118 16711746
1.9397478 -2.1373417 1.8457046 16711746
-1.6433768 -2.2567194 1.5965729 16711746
-0.1696306 -2.2050328 1.5242385 16711746
-1.7717835 -2.3852589 1.6408364 16711746
1.0880719 -1.4368898 1.1884304 16711746
0.2832913 -1.6703327 1.1291819 16711746
2.0459304 -1.8455764 1.1681334 16711746
1.6233950 -1.6010797 1.3646051 16711746
1.0573239 -2.0933533 1.1964554 16711746
-0.6606170 -1.9246864 1.8473005 16711746
1.7440816 -2.4249532 1.9135063 16711746
0.7709616 -2.6306498 1.2496145 16711746
0.4096909 -2.4192491 1.1561307 16711746
1.6500616 -1.8367305 1.1347345 16711746
0.4265786 -2.6443641 1.2152598 16711746
1.8512888 -2.3646038 1.8704655 16711746
0.5615834 -2.5342581 1.1475295 16711746
0.3385296 -1.5841868 1.1966574 16711746
0.5112337 -2.0188534 0.9225956 16711746
0.7785745 -1.1095642 1.0810276 16711746
0.5093520 -1.9833956 1.2585086 16711746
-0.1279765 -1.8400464 1.5210344 16711746
0.9401330 -1.8432655 1.0299851 16711746
0.3806584 -2.1282651 1.0240531 16711746
1.9797947 -1.9544821 1.2145113 16711746
0.1726735 -2.0366251 0.9851627 16711746
2.8623774 -3.3505695 3.0203440 16711746
-1.5223426 -2.0888526 1.5551680 16711746
0.9087780 -3.4537985 3.0964811 16711746
-6.0330024 -4.9795275 6.3134584 16711746
2.6624858 -2.4143910 1.4035542 16711746
-0.2103818 -1.8582989 1.1359069 16711746
-1.9481704 -11.5623970 3.8787658 16711746
-0.1412373 -1.5466886 1.4667964 16711746
0.7001531 -1.6217631 1.0798792 16711746
-0.2231452 -2.1359951 1.6317763 16711746
0.8146125 -1.2156128 1.4148093 16711746
0.8995723 -2.2983034 1.2026879 16711746
0.6826146 -1.8576872 1.3414694 16711746
1.3044111 -2.3734732 1.1299320 16711746
0.2751164 -1.1219169 1.1532122 16711746
1.0159957 -1.9190485 1.0685973 16711746
1.9277236 -2.2356145 1.1960050 16711746
1.0296047 -1.6197110 2.0046222 16711746
-0.0849450 -1.6339432 1.5190804 16711746
-1.5981312 -2.2647691 2.8664792 16711746
0.0125755 -1.4584711 1.2571715 16711746
-0.0256787 -1.2552764 1.0774225 16711746
0.9088434 -4.0513220 2.6321983 16711746
-2.7773161 -2.3721428 2.0819676 16711746
-3.9147909 -3.0836184 3.1634827 16711746
1.5236856 -2.9489400 1.7973279 16711746
0.8808616 -3.0677202 3.4276218 16711746
0.2138734 -2.1646597 1.5439186 16711746
-2.6050985 -2.2441595 2.5513256 16711746
1.7672192 -3.2610550 3.0475142 16711746
-0.4864575 -1.4530557 0.8354252 16711746
0.8531597 -1.1543511 0.9233329 16711746
0.9373157 -1.3166004 1.0033693 16711746
0.1308436 -1.4742571 1.2762113 16711746
1.4433988 -1.3380462 1.0925622 16711746
0.4545495 -1.2395667 1.5622637 16711746
0.3123920 -1.9563727 1.2013203 16711746
1.2694302 -2.1701007 2.4771297 16711746
0.7865644 -1.4720321 1.0134299 16711746
1.5566087 -2.1175828 1.1385926 16711746
1.8341038 -1.7378592 1.5868664 16711746
-0.0749035 -1.7440675 1.4555191 16711746
0.2208919 -1.9602150 1.4305038 16711746
-0.2999770 -5.7310119 2.4113412 16711746
1.2600703 -2.3962080 1.3984976 16711746
0.1665277 -1.6956278 1.3327266 16711746
1.2831314 -1.3436174 1.0023776 16711746
0.8372931 -1.3576112 1.2094220 16711746
1.2936015 -2.3644545 1.4288208 16711746
0.1742985 -2.4271064 2.7116342 16711746
-0.0251143 -1.7342027 1.3639842 16711746
1.7129964 -2.7080748 1.8299955 16711746
1.8253695 -2.1405365 1.2568783 16711746
-1.3009410 -3.9450762 2.4537790 16711746
0.8122959 -1.3076468 1.4645208 16711746
0.9434196 -1.6063516 1.6533337 16711746
-2.5620046 -7.5552063 3.6941974 16711746
-0.4599483 -3.5639107 3.8883827 16711746
0.8380271 -1.2972053 1.2639540 16711746
1.4718809 -1.1647323 1.6341143 16711746
0.6450985 -1.4811296 1.0850823 16711746
0.2609001 -1.4288689 1.0820575 16711746
0.5862518 -0.8253814 0.9605145 16711746
0.9949692 -1.1793334 1.2511839 16711746
1.1535190 -1.4118444 1.0505750 16711746
1.6619738 -2.0161469 1.2016352 16711746
-0.1863505 -1.9390599 1.3521526 16711746
-0.1814186 -1.8117362 1.1288267 16711746
2.0070760 -1.8506275 1.0442889 16711746
1.3713390 -1.1006838 1.3963516 16711746
1.2496933 -2.7157378 1.5710734 16711746
-2.1023991 -1.8895708 2.2067769 16711746
-0.3911176 -2.1730456 1.5523809 16711746
-1.0906128 -1.7615211 0.7741132 16711746
0.9432716 -1.7414027 1.4355850 16711746
1.4536656 -1.8139683 1.3049371 16711746
1.2307339 -2.3131740 1.4145552 16711746
1.2735898 -1.4929020 2.5688705 16711746
1.4345632 -1.5300493 1.1649892 16711746
1.1305345 -1.8473071 1.1794864 16711746
2.6216118 -2.9710574 1.0987585 16711746
1.7610229 -2.3083031 2.3205242 16711746
2.3811815 -3.1730928 1.8454438 16711746
3.1061466 -2.8129766 2.7368238 16711746
2.0999913 -2.8773382 2.6525609 16711746
0.4287769 -1.8180088 1.4126495 16711746
1.2783593 -1.5165143 1.2381234 16711746
1.1676580 -1.4516929 1.2350672 16711746
0.6993355 -0.7248917 1.1019384 16711746
0.6003149 -0.6903242 1.2056818 16711746
1.5018470 -2.5816665 1.9842262 16711746
2.2663438 -3.8862033 4.1855006 16711746
-0.3164507 -2.2353570 1.0439990 16711746
-0.0906320 -1.3414503 1.3484186 16711746
1.5830381 -4.8509502 5.6375604 16711746
0.4525932 -6.5765705 7.1227579 16711746
0.3049584 -2.7559042 2.5539093 16711746
0.9558253 -3.2694716 1.7796198 16711746
2.0024817 -2.2335923 1.1289871 16711746
2.3896272 -2.5549166 2.9103611 16711746
0.9544055 -3.4325662 2.1235018 16711746
0.9008369 -3.3547661 2.1151421 16711746
-3.0230947 -4.9779959 1.1385952 16711746
2.1224730 -2.8727789 3.9382360 16711746
2.1181903 -1.8485998 0.9632137 16711746
2.5117927 -2.7052228 3.4938078 16711746
2.5370789 -2.8228166 3.2412241 16711746
-1.9413416 -3.1362450 0.8765270 16711746
-2.4543192 -4.0109830 1.3197302 16711746
2.0643828 -2.0204725 1.5602458 16711746
1.3626399 -1.7997314 1.0055776 16711746
2.1101255 -1.9788942 1.1265808 16711746
1.2063504 -1.6848016 1.5349853 16711746
2.6696994 -1.7413380 1.2262651 16711746
1.5106748 -1.4458377 1.7662989 16711746
1.6182421 -1.2716883 1.6311147 16711746
1.0136309 -2.0498340 1.3979321 16711746
1.0123181 -2.0249829 1.3929982 16711746
0.6301890 -1.7958316 1.9865164 16711746
1.2441436 -1.4763108 1.0607977 16711746
0.9583738 -2.0233922 1.9326097 16711746
0.5676416 -1.8225995 2.0679533 16711746
0.7494198 -1.8011632 1.8902017 16711746
2.3213010 -1.9504503 1.4791623 16711746
-0.6390988 -2.7832148 3.2743785 16711746
2.6003137 -2.8212535 3.6271172 16711746
2.4425943 -2.6441035 3.1131024 16711746
-0.5193015 -2.7493396 3.2971735 16711746
1.6896811 -2.2643831 2.1551437 16711746
-0.3235236 -2.6784964 1.8902631 16711746
1.8016044 -2.0997124 2.1114182 16711746
-7.7435379 -5.1641064 6.9208236 16711746
1.4433398 -2.9934144 2.7438309 16711746
0.5462948 -1.6290767 1.0175060 16711746
2.0081682 -2.8404355 2.4682751 16711746
0.5326154 -3.1652896 2.5166543 16711746
2.2892358 -2.8216631 3.1007702 16711746
2.6499135 -5.2330604 5.0783401 16711746
0.7083070 -1.3046933 1.2071394 16711746
1.1835729 -2.0307045 2.1849194 16711746
1.0570620 -1.5750062 1.2969640 16711746
0.9677623 -1.9941034 1.1044072 16711746
0.6731569 -1.5933698 1.1655234 16711746
1.9822683 -1.9761151 1.4478867 16711746
0.1004649 -1.6531434 1.8294370 16711746
0.9482305 -2.7273242 2.2733769 16711746
0.6871932 -1.2756463 1.1997645 16711746
0.6626653 -1.2861053 1.2213458 16711746
0.3656309 -1.2197638 1.1646564 16711746
0.2365158 -0.8593556 1.2444377 16711746
1.4900962 -2.3521686 3.1077323 16711746
0.7410062 -1.3333622 1.4005599 16711746
1.0519083 -1.7142775 1.0846580 16711746
1.1032540 -1.4466773 1.3465817 16711746
