# .PCD v.7 - Point Cloud Data file format
VERSION .7
FIELDS x y z rgb
SIZE 4 4 4 4
TYPE F F F F
COUNT 1 1 1 1
WIDTH 151
HEIGHT 1
VIEWPOINT 0 0 0 1 0 0 0
POINTS 151
DATA ascii

 0.1124813 -0.0855832 0.0658019 16777215
 0.1152445 -0.0842200 0.0642558 16777215
 0.1269569 -0.0852796 0.0641178 16777215
 0.1378800 -0.0897304 0.0623688 16777215
 0.1372865 -0.0918449 0.0630898 16777215
 0.1339591 -0.0909998 0.0636743 16777215
 0.1309009 -0.0934022 0.0656980 16777215
 0.1174495 -0.0921977 0.0681603 16777215
 0.1071509 -0.0907895 0.0694417 16777215
 0.0919595 -0.0887288 0.0713783 16777215
 0.0779599 -0.0846774 0.0711193 16777215
 0.0691485 -0.0825502 0.0688103 16777215
 0.0698759 -0.0821139 0.0684953 16777215
 0.0823006 -0.0847218 0.0770156 16777215
 0.0946563 -0.0934565 0.0820365 16777215
 0.0981660 -0.0907836 0.0890756 16777215
 0.0951980 -0.0936259 0.0975631 16777215
 0.0931258 -0.1000109 0.1073150 16777215
 0.1349233 -0.0766658 0.2964240 16777215
 0.1875734 -0.0783926 0.4096617 16777215
 0.1715180 -0.0492223 0.4913355 16777215
 0.2322766 -0.1126723 0.5977787 16777215
 0.2930200 -0.0510298 0.6509757 16777215
 0.3261889 -0.0823532 0.7949546 16777215
 0.3507503 0.0054751 0.8700099 16777215
 0.3609609 -0.0578073 1.0242378 16777215
 0.4283665 -0.0714585 1.0919257 16777215
 0.4621327 -0.0545259 1.1520317 16777215
 0.5135857 -0.0317878 1.2215613 16777215
 0.5227578 -0.0697028 1.2190582 16777215
 0.5354306 -0.0783441 1.2610953 16777215
 0.5095085 -0.0770534 1.3567587 16777215
 0.5514466 -0.0839439 1.4268212 16777215
 0.5653790 -0.1117966 1.4977255 16777215
 0.5805506 -0.1233079 1.5620278 16777215
 0.5790458 -0.0379691 1.6528848 16777215
 0.6870362 0.0631167 1.8317256 16777215
 0.7134023 0.0133308 1.8968418 16777215
 0.7219618 -0.0133201 1.8956809 16777215
 0.7392234 -0.0433084 1.9309564 16777215
 0.7651426 -0.0636295 2.0492754 16777215
 0.8226312 -0.0869086 2.1144271 16777215
 0.8785785 -0.1070924 2.2395902 16777215
 0.9007259 -0.0876987 2.3744490 16777215
 0.9337621 -0.1112597 2.4568524 16777215
 0.9411125 -0.1986059 2.5693684 16777215
 0.9868211 -0.1846379 2.6179922 16777215
 1.0027410 0.0057554 2.6984558 16777215
 1.0864576 -0.0038586 2.7952096 16777215
 1.1060889 -0.1517912 2.9556582 16777215
 1.1377925 -0.1070294 3.0635591 16777215
 1.1754609 -0.1266029 3.1577773 16777215
 1.2011468 -0.1624162 3.2496843 16777215
 1.2314811 -0.1860108 3.3401799 16777215
 1.2086241 -0.1432022 3.3593054 16777215
 1.2762825 -0.1176993 3.3952596 16777215
 1.2930174 -0.1646338 3.5670335 16777215
 1.2599283 -0.0807382 3.6337729 16777215
 1.3514109 -0.1446418 3.7763691 16777215
 1.4449080 -0.1183952 3.8531663 16777215
 1.4223232 -0.0302875 3.9710302 16777215
 1.4031173 -0.1085799 4.0451889 16777215
 1.4563395 -0.1615124 4.1171331 16777215
 1.5032177 -0.1005185 4.1398811 16777215
 1.5577503 -0.1334682 4.2627287 16777215
 1.5144635 -0.1386518 4.3727627 16777215
 1.5538337 -0.1515803 4.4083529 16777215
 1.5644990 -0.1343434 4.5161686 16777215
 1.6229980 -0.1200829 4.5821099 16777215
 1.6375517 -0.1480770 4.6270223 16777215
 1.5979745 -0.2513702 4.7795172 16777215
 1.6815453 -0.1465135 4.7915492 16777215
 1.7382020 -0.1263332 4.8827963 16777215
 1.7741921 -0.1227546 4.9823551 16777215
 1.7883922 -0.1294465 5.0523710 16777215
 1.8344470 -0.1603627 5.1413679 16777215
 1.8847874 -0.1252322 5.2209692 16777215
 1.9329013 -0.1395116 5.3976369 16777215
 1.9593279 -0.2055790 5.4671016 16777215
 1.9728090 -0.1854014 5.6065588 16777215
 1.9735544 -0.2813556 5.7022095 16777215
 2.0424328 -0.2393019 5.6812582 16777215
 2.0456867 -0.2047284 5.8213539 16777215
 2.1375351 -0.2008798 5.8824701 16777215
 2.1449080 -0.2032013 5.9467096 16777215
 2.1527503 -0.1223319 6.1290827 16777215
 2.1890533 -0.1276605 6.2512197 16777215
 2.2053914 -0.1661735 6.2986441 16777215
 2.2161093 -0.0696588 6.4562092 16777215
 2.2329798 -0.0617058 6.4988165 16777215
 2.2923124 -0.1305733 6.6675305 16777215
 2.3386667 -0.0877790 6.6770658 16777215
 2.3348269 -0.1266856 6.7616162 16777215
 2.4188707 0.0998173 6.8753443 16777215
 2.4544718 0.0161595 6.9631662 16777215
 2.4392779 -0.0417550 7.0699000 16777215
 2.4489627 0.0668790 7.1616912 16777215
 2.4998791 0.0389791 7.2565842 16777215
 2.5221214 0.0539839 7.3313503 16777215
 2.5380032 -0.0806530 7.4690676 16777215
 2.5395124 -0.0380278 7.6350040 16777215
 2.5611773 -0.1149788 7.7632580 16777215
 2.6619723 -0.1321611 7.7941561 16777215
 2.6061072 -0.0584044 7.8664994 16777215
 2.5695598 0.0349565 7.9159012 16777215
 2.6373773 0.0546174 7.8864508 16777215
 2.6632943 0.0271635 7.9213877 16777215
 2.6633544 -0.0173869 8.0392017 16777215
 2.6464982 -0.1053872 8.2755651 16777215
 2.7181728 0.0288458 8.2963276 16777215
 2.6628449 0.0480466 8.3440399 16777215
 2.7574091 -0.0287943 8.4216633 16777215
 2.8181407 -0.0071077 8.5363960 16777215
 2.9195628 -0.0178404 8.5813332 16777215
 3.0456252 0.0293589 8.6623650 16777215
 3.0667994 0.0688519 8.7603760 16777215
 3.1154141 0.0372739 8.8130379 16777215
 2.8864064 0.0226021 9.0529070 16777215
 2.9891539 0.0167975 9.1357355 16777215
 2.9890177 0.0271220 9.1137466 16777215
 2.9757299 -0.0252452 9.3023224 16777215
 3.0105901 0.0143738 9.3623638 16777215
 3.0566947 0.0085053 9.3895588 16777215
 3.0960970 -0.0233297 9.4736233 16777215
 3.1430993 0.0020838 9.5407085 16777215
 3.1416030 0.0107470 9.5716534 16777215
 3.2038269 0.0117278 9.6325645 16777215
 3.1304355 0.0562472 9.6951618 16777215
 3.2441535 0.0076132 9.7656364 16777215
 3.1506763 -0.0176620 9.8636799 16777215
 3.2069414 -0.0327616 9.9458866 16777215
 3.1988204 -0.0012913 9.9934559 16777215
 3.2419641 -0.0466514 9.9906235 16777215
 3.2612031 -0.0391154 10.0851517 16777215
 3.2939181 -0.0359969 10.0738688 16777215
 3.3172848 -0.0608048 10.1917801 16777215
 3.3415294 -0.0784326 10.2375183 16777215
 3.3835316 -0.0458331 10.3211269 16777215
 3.3762305 0.0572896 10.3502541 16777215
 3.4111371 -0.0067797 10.4279442 16777215
 3.4556291 0.0578852 10.4319954 16777215
 3.4990463 0.0605755 10.4880829 16777215
 3.5243082 0.1026950 10.5376015 16777215
 3.5161934 0.0902104 10.5643196 16777215
 3.5085585 0.0958314 10.5633335 16777215
 3.4966180 0.0725636 10.5786476 16777215
 3.4928894 0.0401917 10.5931559 16777215
 3.4988329 0.0554347 10.5911369 16777215
 3.5019290 0.0245733 10.6077824 16777215
 3.5305896 0.0160813 10.6469650 16777215
 3.4677343 0.0700054 10.7237415 16777215
