# .PCD v.7 - Point Cloud Data file format
VERSION .7
FIELDS x y z rgb
SIZE 4 4 4 4
TYPE F F F F
COUNT 1 1 1 1
WIDTH 93
HEIGHT 1
VIEWPOINT 0 0 0 1 0 0 0
POINTS 93
DATA ascii

-0.4303124 0.4193217 0.8327823 16711746
-0.3800114 0.4054396 0.8378934 16711746
-0.2603067 0.3578859 0.8565472 16711746
-0.4751651 0.3385028 0.6843079 16711746
-0.6492147 0.3277372 0.7234218 16711746
-0.6305212 0.3002911 0.6108400 16711746
-0.6318317 0.3047639 0.7025648 16711746
-0.9070038 -0.0408805 1.2982541 16711746
-0.6198775 0.0284514 1.2073904 16711746
0.4385022 0.3428110 1.3296689 16711746
0.4001620 0.2474888 1.2071000 16711746
0.3792126 0.2570160 1.2498941 16711746
-0.2301421 -0.0442401 1.4397113 16711746
-0.6029295 0.3259412 0.7369433 16711746
-0.6574913 0.3552265 0.7869534 16711746
-0.5925519 0.3200314 0.7530389 16711746
-0.6045419 0.3896871 0.9112589 16711746
0.3863580 0.2178812 1.1686925 16711746
-0.7351464 0.2249987 0.7126139 16711746
-0.7313496 0.2210503 0.7470399 16711746
-0.2813738 0.0788394 1.7381095 16711746
-0.3222102 0.0671118 1.7322689 16711746
0.4746584 0.2564453 1.1052531 16711746
0.3984938 0.2089109 1.1337930 16711746
0.4914052 0.3889135 1.3414720 16711746
0.4098595 0.3600402 1.3911542 16711746
0.3887019 0.3097452 1.3303626 16711746
-0.0626472 0.3075270 1.1445895 16711746
0.3215262 0.4428416 1.5908482 16711746
0.2109701 0.3704251 1.5470337 16711746
0.1825574 0.4317671 0.8419854 16711746
0.2305135 0.5113930 0.8515840 16711746
0.2168494 0.4668834 0.8394455 16711746
0.2677302 0.4400850 0.7821716 16711746
-0.0331894 0.4455996 0.9875149 16711746
0.1570017 0.4699174 0.9070108 16711746
-0.0210138 0.5556885 1.0485847 16711746
0.2639922 0.3706058 1.0486114 16711746
0.3552390 0.4466475 1.0651624 16711746
0.2950984 0.4532008 1.1029751 16711746
0.3057659 0.4157568 1.0591495 16711746
0.0796508 0.3363020 1.1407188 16711746
0.1817233 0.3689849 1.1165873 16711746
0.2073245 0.4343397 1.1644329 16711746
0.4762763 0.3977696 0.7107115 16711746
0.6221147 0.3393399 0.8819984 16711746
0.6736331 0.3593639 0.7706550 16711746
0.5952493 0.2685099 0.6788592 16711746
0.4272850 0.3593151 0.7620359 16711746
-0.7585817 0.2499733 0.8021332 16711746
-0.6534799 0.2537613 0.9933914 16711746
-0.6514928 0.2002944 0.8539253 16711746
-0.8282477 0.3275156 0.9390662 16711746
-0.8458381 0.3063592 0.9297712 16711746
-0.8061201 0.1575033 1.3378803 16711746
-0.7411741 0.1004128 1.1884179 16711746
-1.0249611 0.2414073 1.1260364 16711746
-0.8897867 0.1683169 1.0747303 16711746
-0.9140187 0.1653758 0.9824061 16711746
-0.9234858 0.2268281 1.2406721 16711746
-0.8401564 0.2078487 1.4047153 16711746
-0.2642477 0.3169717 1.5314399 16711746
-0.2466105 0.2498361 1.4363976 16711746
-0.0511013 0.3257332 1.5502273 16711746
-0.4612630 0.4949018 1.7189975 16711746
-0.3550124 0.4052741 1.6165599 16711746
-0.4384901 0.1966271 0.8016747 16711746
-0.5227298 0.2858108 1.3417130 16711746
-0.5347199 0.2394799 1.2266425 16711746
-0.6983163 0.4404500 1.4420131 16711746
-0.3936973 0.3157560 1.0231531 16711746
-0.4753520 0.3765755 1.5178118 16711746
-0.6371225 0.0926491 1.4356911 16711746
-0.5755103 0.0908177 1.5205967 16711746
-0.8764350 0.2526349 1.5146588 16711746
-0.4585873 0.3172058 0.5983871 16711746
-0.5611866 0.3127127 0.7125338 16711746
-0.5718270 0.2945934 0.7484423 16711746
-0.5171001 0.2846056 0.5097550 16711746
-0.8677170 0.4685934 0.7968530 16711746
-0.6741177 0.3572226 0.7351705 16711746
-0.3901590 0.2501868 0.4862422 16711746
-0.6606227 0.4092149 0.7985218 16711746
-0.3140483 0.4246734 0.8917295 16711746
-0.1956975 0.5087756 1.0029924 16711746
-0.3302213 0.3468921 0.6104862 16711746
-0.3105318 0.3323922 0.5799012 16711746
-0.2879635 0.4071563 1.1861755 16711746
-0.2653546 0.3716104 0.9097288 16711746
-0.9361148 -0.0253697 1.3713698 16711746
-0.6873894 0.0463691 1.0276169 16711746
-0.2424518 -0.0266014 1.4838642 16711746
-0.5986108 -0.1686664 1.5176177 16711746
