# .PCD v.7 - Point Cloud Data file format
VERSION .7
FIELDS x y z rgb
SIZE 4 4 4 4
TYPE F F F F
COUNT 1 1 1 1
WIDTH 194
HEIGHT 1
VIEWPOINT 0 0 0 1 0 0 0
POINTS 194
DATA ascii

0.0202953 -1.0446126 0.4046016 16711746
0.4407735 -0.8259200 0.2441279 16711746
0.6079761 -0.6319174 0.2541179 16711746
0.3786167 -0.7404961 0.3777807 16711746
0.2838808 -0.8702913 0.5296391 16711746
0.7307841 -0.7882577 0.4164108 16711746
0.1754311 -1.0459055 0.6690581 16711746
0.2427766 -0.9254694 0.3765507 16711746
0.6694428 -0.8709672 0.6323273 16711746
0.4853257 -0.7135037 0.2284471 16711746
-0.0287737 -1.3319538 0.9421302 16711746
-0.5812606 -1.4918882 0.9476166 16711746
-0.0657546 -1.1369661 0.6865318 16711746
-2.1222579 -4.6400304 1.8333597 16711746
-0.0930473 -1.5423785 0.8852477 16711746
0.6299130 -0.5970038 0.1852253 16711746
-0.3879667 -1.4886924 1.1475955 16711746
0.2865615 -0.8389717 0.3506347 16711746
0.1262369 -0.8689465 0.3840874 16711746
0.1886639 -1.5296639 0.6747724 16711746
0.6141682 -0.6190428 0.2356601 16711746
0.1423250 -1.1110123 0.5389113 16711746
0.2463265 -0.9207568 0.3413348 16711746
0.3339870 -0.8031668 0.4441381 16711746
0.4616303 -0.8936024 0.5131441 16711746
0.4305786 -0.8588528 0.2773712 16711746
0.1062358 -1.2126380 0.4449466 16711746
0.5764998 -0.6898692 0.3359503 16711746
0.3341202 -0.7611959 0.5280405 16711746
-1.8355519 -2.6686859 1.1703794 16711746
-0.7437167 -1.8498924 0.7141586 16711746
-3.9865701 -2.8852191 1.8919224 16711746
-2.5018148 -4.4888124 2.0195851 16711746
-3.6730785 -2.6200714 1.7354690 16711746
-0.7367328 -3.7148404 3.7342339 16711746
0.0102302 -0.1170719 0.1335422 16711746
0.0094088 -0.1174496 0.1342234 16711746
-0.0493181 -1.0841588 0.5312735 16711746
-2.4136882 -3.8684719 1.8884138 16711746
-0.3191806 -3.3523269 2.7625673 16711746
-2.1016691 -3.3355889 1.6327477 16711746
-3.1691818 -5.0193834 2.0854023 16711746
-1.6422988 -4.7480168 2.1333907 16711746
0.3630703 -0.6500803 0.2941281 16711746
0.3954735 -0.8656327 0.3213325 16711746
-2.0660474 -3.2141709 2.2147090 16711746
-3.2779913 -4.7445750 2.0881691 16711746
-3.0048687 -4.5909481 1.7843928 16711746
-2.5068409 -3.8529880 2.4135139 16711746
-2.1713850 -4.4382944 2.0419312 16711746
-1.0060108 -0.4220293 0.4467218 16711746
-1.8197494 -4.5460262 1.8505751 16711746
-2.0088367 -4.4425130 2.0389943 16711746
-3.7416701 -5.0704551 2.3980429 16711746
-2.2235641 -4.2027812 1.8343377 16711746
-3.1783800 -5.2438407 2.1884930 16711746
-2.5277393 -4.1736326 1.7400213 16711746
-0.6766198 -2.4303272 4.0822225 16711746
-2.9255400 -4.1266751 3.7932000 16711746
-4.3517308 -3.8866489 3.8033490 16711746
0.3256942 -0.7161458 0.3256606 16711746
0.3942468 -0.8964675 0.3436778 16711746
-2.4122818 -3.7082613 2.3221567 16711746
-2.4261823 -4.1062407 2.0404282 16711746
-3.3051326 -5.1426601 2.0484638 16711746
-2.5232229 -4.3019667 1.8984846 16711746
-3.8053472 -5.2272739 2.4482975 16711746
-0.9326538 -0.3911835 0.4144339 16711746
0.0684687 -2.3775604 1.1593330 16711746
-2.7729397 -4.4212890 2.4053915 16711746
0.3693626 -0.9028335 0.3581386 16711746
0.3774624 -0.8094997 0.3458010 16711746
0.3637289 -0.8018178 0.3644184 16711746
-3.0377591 -3.9688692 2.1780074 16711746
-2.4864898 -3.6756253 1.7956400 16711746
-2.6085205 -4.4311032 1.9656850 16711746
-2.2617958 -4.3318973 1.8791627 16711746
-4.4245067 -4.7107182 2.8365791 16711746
-1.3385768 -3.3381877 1.8394769 16711746
-3.4501352 -4.1849108 3.2512255 16711746
-1.1783195 -3.4545619 1.5469017 16711746
-2.0175922 -4.5606418 2.1337273 16711746
-3.4861927 -5.0553193 2.3196521 16711746
-3.5998249 -4.9442697 2.2988925 16711746
-2.7571270 -4.3946590 1.8496484 16711746
0.2938117 -0.5458595 0.2776693 16711746
0.3187144 -0.7213044 0.3485282 16711746
-2.1260748 -3.3872850 2.7484496 16711746
-3.7757878 -3.9216654 3.5991147 16711746
-2.6874993 -4.0976472 2.5577855 16711746
0.3637212 -0.6567634 0.3061864 16711746
0.3607424 -0.7653949 0.3276397 16711746
-3.1174004 -4.2293081 3.6248701 16711746
-3.0610795 -3.8830917 3.1765738 16711746
-3.2481432 -2.9397712 2.6477234 16711746
-2.4239089 -4.1146832 2.0359538 16711746
-0.8145257 -3.0366197 1.4118353 16711746
-0.0351827 -0.6448645 0.3086626 16711746
0.0157358 -0.1106487 0.1151217 16711746
-1.3985252 -4.1034327 1.8337883 16711746
0.1943149 -1.8809309 0.7973174 16711746
-4.2243781 -4.5050926 2.7113519 16711746
-2.6677170 -3.8801935 2.5257757 16711746
-0.9430944 -3.6601851 1.9455721 16711746
0.3269061 -0.6234181 0.3069300 16711746
-3.2063980 -4.9041367 2.3182173 16711746
-3.7470925 -5.1342273 2.3716328 16711746
-3.1425138 -4.6917830 2.0943990 16711746
-3.7967637 -5.0655804 2.2672544 16711746
-0.5988171 -3.0051570 2.0558302 16711746
-0.4624900 -2.2559550 1.5941600 16711746
-3.0013916 -3.0857275 1.6632184 16711746
-3.2860131 -2.4372225 1.7442307 16711746
-0.7995371 -0.3429660 0.3585130 16711746
-2.4196818 -3.4289045 3.1427734 16711746
-4.1461978 -3.0972703 4.0201983 16711746
-3.4421136 -4.4949789 2.4689326 16711746
-4.3819356 -5.2219863 2.4286025 16711746
0.0103573 -0.1149448 0.1254068 16711746
-1.5241671 -3.7765548 2.0684414 16711746
-1.4368498 -4.0829659 1.9057664 16711746
-1.5380547 -4.1364040 1.9022146 16711746
0.4016252 -0.9963022 0.3934240 16711746
0.3076856 -0.7043020 0.3381850 16711746
-2.3789546 -2.2343836 1.3605005 16711746
-3.3845313 -2.7658539 1.6471882 16711746
0.1727332 -1.8482050 0.8426750 16711746
0.1005508 -1.5377711 0.6766598 16711746
-2.8886302 -3.8000774 1.8457532 16711746
-2.5912676 -3.5682137 1.6588570 16711746
0.4062702 -0.7009994 0.2977262 16711746
-5.3247352 -3.9355719 2.5865207 16711746
-3.3405116 -2.7653198 1.7029313 16711746
-3.2733278 -2.3840475 1.8459533 16711746
-3.0348799 -2.2569306 1.6435947 16711746
-0.6235896 -3.2284551 3.0936754 16711746
-0.1787836 -1.8496928 1.5848321 16711746
0.3099294 -0.5909001 0.2915997 16711746
-0.7878214 -3.4538252 2.3659961 16711746
-3.5207579 -3.1287670 2.6668203 16711746
-2.7743468 -3.8882542 3.5680196 16711746
-3.4324121 -3.5625634 3.2841599 16711746
-1.6197277 -3.8851645 2.7777627 16711746
-1.7818149 -3.7059858 2.5071816 16711746
-2.5373766 -4.4740348 2.8108375 16711746
-3.1946335 -4.1818571 2.3075690 16711746
-4.4479046 -4.4940991 2.4643228 16711746
-4.3411107 -4.6250811 2.7899969 16711746
-3.1758575 -4.0097232 3.2887194 16711746
0.2722158 -0.8969975 0.4238272 16711746
-4.3343415 -2.1009591 4.2729812 16711746
0.2906762 -0.6104276 0.3095547 16711746
0.3330106 -0.7390457 0.3350345 16711746
-4.6096983 -2.6506152 4.8651996 16711746
-0.4154280 -2.3519399 1.2279471 16711746
-0.7577657 -2.8767600 1.4445508 16711746
-0.3425275 -3.2400594 1.7937611 16711746
-2.9473777 -3.8695369 2.1209729 16711746
-4.4006543 -4.8093596 2.6006837 16711746
-0.4650970 -1.6450763 0.9690939 16711746
-4.0138149 -2.8140016 4.1742067 16711746
-3.6454170 -2.6666589 3.8346539 16711746
-2.3566766 -2.1430070 1.3725076 16711746
-2.2803252 -2.1413140 1.3046353 16711746
-0.1846684 -2.8068891 2.1010151 16711746
-0.0815231 -1.9494203 1.1416509 16711746
-3.9433250 -3.4642086 3.8746541 16711746
-2.0294459 -4.5411568 2.2225235 16711746
-4.9567642 -4.9449253 2.4012520 16711746
-2.5862312 -3.7386637 2.0427444 16711746
-3.2152188 -4.5802460 2.9614575 16711746
0.2098515 -1.6723995 0.7981576 16711746
-0.6899022 -2.7576766 4.0201440 16711746
-0.4846362 -2.6645329 2.7023187 16711746
-3.9800956 -1.8063903 3.7220409 16711746
-4.7228274 -2.1600528 4.8857121 16711746
0.2906971 -0.5479086 0.2692863 16711746
0.3697459 -0.6841713 0.3157226 16711746
-0.6624933 -3.1883509 1.9272594 16711746
-1.8207815 -4.2461405 2.8323741 16711746
0.2920988 -0.6031088 0.2669567 16711746
0.2507015 -0.5272660 0.2990167 16711746
-0.8819665 -4.1401815 2.6637731 16711746
-3.9371104 -3.8530941 2.2856290 16711746
-0.1384255 -2.0817752 1.3418108 16711746
-0.3802531 -3.0884845 1.8620352 16711746
-0.4583945 -2.9243109 2.2450526 16711746
-2.6083863 -2.5991366 2.7008085 16711746
-0.4580810 -2.5981505 1.3533629 16711746
-2.0191257 -4.8099747 3.4348752 16711746
-3.5933552 -4.7169685 2.5852566 16711746
0.2215167 -0.7484084 0.4343023 16711746
-1.6294249 -4.1950183 4.9653683 16711746
-3.5756204 -3.1469815 3.5046940 16711746
