# .PCD v.7 - Point Cloud Data file format
VERSION .7
FIELDS x y z rgb
SIZE 4 4 4 4
TYPE F F F F
COUNT 1 1 1 1
WIDTH 252
HEIGHT 1
VIEWPOINT 0 0 0 1 0 0 0
POINTS 252
DATA ascii

0.4864094 -1.0087119 0.5284928 16711746
-0.2388674 -0.9929383 0.4752238 16711746
-0.3056608 -0.9634506 0.4937433 16711746
0.5285593 -1.0445554 0.3190478 16711746
-0.0538493 -0.8530917 0.3712217 16711746
0.0121182 -0.9324517 0.7738243 16711746
0.0358393 -1.0169153 0.7187763 16711746
0.3643607 -1.0224450 0.8209562 16711746
-0.6151602 -6.7330694 4.0412650 16711746
-3.7355471 -2.3422911 2.2706146 16711746
-0.2263157 -6.3294497 5.5955601 16711746
-4.6756377 -2.5967345 3.2322960 16711746
-0.9666454 -4.0206695 6.4403672 16711746
-1.9133748 -6.2904711 5.7331581 16711746
0.7945769 -4.3155355 5.6121011 16711746
-4.5451159 -4.3750615 2.6528027 16711746
-3.8023810 -4.4606237 2.4703822 16711746
-3.1289191 -1.9900352 1.9267913 16711746
0.9228889 -5.1764126 6.7300911 16711746
-1.0156676 -5.0013294 6.3144646 16711746
-6.7253418 -3.3882506 4.8808570 16711746
1.4434834 -4.7848215 3.9979830 16711746
1.3650860 -4.9348321 4.0655985 16711746
1.2183285 -0.9186394 0.6595677 16711746
-4.6757517 -3.9200675 2.8835146 16711746
0.0873559 -3.2637596 2.5079222 16711746
-0.7338214 -7.2223115 4.3448358 16711746
0.3487630 -7.1001053 6.3906860 16711746
-4.1593285 -2.4196575 7.9087682 16711746
1.4472789 -4.9988637 3.3175173 16711746
1.0075459 -0.7654880 0.5004615 16711746
2.2790327 -2.4705954 2.6697578 16711746
0.0666388 -5.2275090 5.3606696 16711746
-5.6435242 -2.7587993 6.4027429 16711746
-6.9558177 -5.6224813 3.6287029 16711746
-5.4015918 -5.5096879 5.5310736 16711746
2.1960957 -3.1385694 2.9258072 16711746
1.9482368 -3.5051179 1.9385027 16711746
0.0061511 -4.3613186 2.4146073 16711746
1.5353726 -1.1997339 0.9908584 16711746
-0.6939783 -5.0072198 3.1831584 16711746
1.9982156 -2.9033229 1.9567606 16711746
0.7682894 -4.3448658 5.6046138 16711746
-5.6196303 -6.6882944 3.6773248 16711746
2.3026175 -3.0540190 5.3565698 16711746
-3.0037577 -7.3729973 5.0803838 16711746
-2.6819649 -2.1040552 7.6926746 16711746
-6.7309847 -3.4653521 4.6835661 16711746
1.3283758 -1.1679376 0.7254115 16711746
1.4550346 -1.3502915 0.8065090 16711746
2.0035181 -3.1506441 2.1346035 16711746
1.9924607 -3.4749527 2.4753935 16711746
0.9676505 -4.6777720 5.4405279 16711746
-0.5634144 -7.2820153 6.0398989 16711746
-6.8474016 -6.1192732 3.9301879 16711746
-5.3921833 -3.8317378 6.3064480 16711746
-4.5998058 -2.9854267 2.9188375 16711746
-6.6387215 -3.8831379 3.9565754 16711746
0.1487530 -5.2322598 3.9351137 16711746
-4.4042144 -3.8601878 2.7359636 16711746
1.0411844 -4.3333135 6.1200800 16711746
-5.1621547 -2.7697301 6.9104729 16711746
-0.8558024 -4.8634896 6.3007326 16711746
1.8087211 -4.0731344 4.3212752 16711746
0.6476600 -4.9706783 5.4158673 16711746
1.0434947 -4.8700600 4.3707852 16711746
0.9921079 -0.6980254 0.5001078 16711746
2.1118979 -2.2602065 1.9634633 16711746
1.4636999 -1.1795698 1.0369302 16711746
0.5942959 -0.4188828 0.2482150 16711746
1.6768930 -1.8419554 1.0782485 16711746
1.7776761 -1.8822716 1.3539428 16711746
-6.0104465 -4.4468703 3.8288202 16711746
-6.9340658 -6.3574944 3.8936040 16711746
-1.6694714 -6.7476449 5.2600665 16711746
-1.6323111 -6.8944678 5.1234512 16711746
-1.0221401 -5.3811283 6.2937064 16711746
1.8405393 -1.3803049 1.3444648 16711746
1.2230427 -4.2582669 4.9658179 16711746
-3.3558862 -2.2665153 2.2365861 16711746
-5.8895497 -5.9413290 3.4785717 16711746
-0.0288958 -5.6821752 4.3576770 16711746
-0.4946549 -5.3467579 3.8587890 16711746
-4.3449454 -2.8198395 2.7572112 16711746
-1.2892258 -5.8281698 5.7686315 16711746
-1.7249814 -5.8774037 5.8955479 16711746
0.1923585 -5.1487393 5.3126245 16711746
1.5540106 -4.6309795 3.6480315 16711746
2.2518957 -3.1442535 3.0406804 16711746
1.6341853 -5.8657260 3.2145250 16711746
0.5270471 -2.6398408 7.8916121 16711746
-3.9760585 -2.8548706 8.0501862 16711746
2.5668273 -2.0455303 3.2846224 16711746
2.8250911 -2.2198815 3.1583610 16711746
2.0065627 -2.7458909 2.1437402 16711746
2.0146637 -2.3148599 1.7479903 16711746
-1.2317692 -5.7919583 5.7684703 16711746
0.2527287 -5.6398168 5.0429931 16711746
-0.0625952 -5.5999322 5.4892921 16711746
0.1042881 -5.9518018 4.7789073 16711746
-0.6891706 -5.4819217 5.7172623 16711746
-0.7091330 -5.5860081 5.6471400 16711746
-7.1661773 -6.3990188 4.6185651 16711746
-6.8264413 -6.7752099 4.7831688 16711746
2.0210118 -2.8101835 2.2455962 16711746
1.1056974 -0.9432117 0.5448024 16711746
0.4072684 -5.9186230 4.3518686 16711746
-3.4006300 -3.0407891 7.1739101 16711746
-5.6735334 -2.9691417 6.6618309 16711746
-3.3890407 -1.9957089 4.2346773 16711746
-3.7847919 -2.1961448 7.1494160 16711746
-3.6853139 -2.5857751 7.1469998 16711746
-4.5116963 -2.5457413 6.6644287 16711746
-4.8117580 -2.3415370 6.4543600 16711746
1.9510553 -3.5728185 1.9505759 16711746
-7.0046797 -3.0968387 4.2408800 16711746
1.2961091 -0.9096077 0.8272331 16711746
1.6714201 -2.9169374 2.4269662 16711746
-1.0906736 -5.6971555 6.6269484 16711746
1.8344269 -1.3716098 1.3349801 16711746
1.1447005 -3.9552689 2.5481014 16711746
1.7772392 -4.0210705 4.2984166 16711746
0.8564408 -5.7961416 4.5862465 16711746
1.5516716 -1.0886483 0.9859992 16711746
-4.0308285 -2.7386706 4.6614780 16711746
-3.3211753 -2.3360741 3.8306460 16711746
0.9207137 -4.3943849 5.3083396 16711746
0.9753513 -4.6422329 5.3701296 16711746
1.9531612 -2.4348381 1.6998910 16711746
-6.9730749 -4.1838684 4.0044951 16711746
-0.0223790 -6.1110578 3.3830595 16711746
-3.4401803 -4.1836357 2.3398368 16711746
-3.0418642 -2.6550009 1.9002684 16711746
-1.3984389 -4.8659277 4.8882308 16711746
1.8642883 -1.7050104 1.4203700 16711746
-5.5480051 -6.7152267 3.7417870 16711746
-1.6046911 -5.6732831 5.6860709 16711746
-1.3004025 -5.2436843 8.5691986 16711746
0.1950881 -4.8373036 5.6383834 16711746
-3.6657929 -3.3411541 2.0463049 16711746
-1.0412799 -5.3390326 7.4436169 16711746
-6.1829982 -3.6901526 3.4424713 16711746
-0.9723125 -4.3870974 6.7191367 16711746
-0.8394548 -5.1466293 5.6619930 16711746
-0.6708941 -7.2359576 4.2878075 16711746
1.5152210 -4.5576239 3.8781388 16711746
-6.8448243 -3.3351464 4.6282306 16711746
1.0480061 -0.8326270 0.5214875 16711746
1.4267459 -1.2719303 0.8315885 16711746
1.0552695 -0.9984257 0.5706419 16711746
1.1787095 -3.4756320 2.6997163 16711746
0.9219156 -4.8722453 5.0875869 16711746
-5.0193534 -3.0129209 2.9162223 16711746
0.0043508 -6.4162498 4.2702942 16711746
-4.4838085 -5.6195335 2.8415537 16711746
-0.0206350 -0.6629516 0.5342708 16711746
1.9609154 -2.2582297 1.7000300 16711746
1.3306891 -1.1736056 0.7338028 16711746
-5.6356301 -3.1637001 3.0875745 16711746
1.6525834 -4.7745061 2.6672187 16711746
-0.0815290 -4.6255946 4.1017513 16711746
2.2055535 -3.0341961 2.4087911 16711746
-6.5629597 -4.5208220 4.3267012 16711746
2.1730509 -2.9606161 2.3688729 16711746
-2.3013244 -3.0755908 1.9039366 16711746
-5.2171755 -2.4019821 6.9633446 16711746
-1.7601085 -5.2627072 6.2953625 16711746
1.3942209 -2.9465537 5.7048178 16711746
1.8522693 -2.3939552 1.5064722 16711746
-0.8878812 -5.4544864 5.8495669 16711746
-0.3892488 -5.7351670 5.5458612 16711746
-0.1822627 -6.1192770 4.8340602 16711746
-1.1034083 -7.2312999 4.5237131 16711746
-1.5207821 -6.2063241 4.8118906 16711746
-0.8350832 -6.7512951 4.7787495 16711746
-6.6382952 -5.3758011 3.4532127 16711746
1.7856479 -1.8917454 1.3694410 16711746
1.6643047 -1.7320287 1.0774893 16711746
1.3179301 -1.1751267 0.7360796 16711746
1.9133061 -1.7733854 1.4682088 16711746
1.8228047 -1.6419940 1.3230247 16711746
1.5677531 -1.1188228 1.0073932 16711746
1.4714187 -1.0511951 0.9096789 16711746
1.2360774 -0.9274729 0.6727630 16711746
0.4846695 -5.4673142 4.9136157 16711746
0.2660093 -5.4633174 4.9205365 16711746
1.1686099 -4.4645824 4.7133236 16711746
-5.6047621 -3.0432150 6.2468615 16711746
-4.7755136 -3.2087259 5.2882051 16711746
-2.5647740 -1.3322891 3.0232215 16711746
1.2826475 -4.0566025 5.2343974 16711746
2.2524207 -2.7713599 3.0047834 16711746
2.1729660 -3.0554733 3.2712688 16711746
1.2978785 -0.9013995 0.7952213 16711746
2.1859915 -2.0489981 2.2088900 16711746
-5.9329109 -2.8319890 6.1741071 16711746
-1.0359745 -4.8976045 6.9554830 16711746
1.9380947 -3.3989928 2.4339757 16711746
2.0154495 -2.8040748 2.2189906 16711746
-5.9650993 -6.9059119 4.2498245 16711746
-2.3306978 -1.9723707 1.3377810 16711746
-6.1208634 -3.4953699 3.9755931 16711746
0.2307558 -5.5072436 5.1130137 16711746
0.0257197 -3.5100534 2.7863197 16711746
-6.5701566 -6.2635922 4.4164405 16711746
-6.0100303 -5.2644625 3.7379062 16711746
-5.9005661 -3.6770947 6.6556859 16711746
0.8838425 -4.3018222 6.2391572 16711746
-3.0002959 -2.3326919 8.4828949 16711746
2.1225827 -3.3078096 3.0102279 16711746
1.6489407 -1.7932557 1.0438290 16711746
-5.9553714 -5.9440799 5.0104465 16711746
-1.4019886 -5.4162707 6.3384657 16711746
-1.1805781 -6.3220735 5.4106441 16711746
-1.2526206 -4.9753675 4.0454464 16711746
0.4354640 -4.2081594 6.8685384 16711746
-5.8333626 -2.8216233 6.1628470 16711746
1.4331046 -5.1821861 3.0866728 16711746
1.2126689 -5.5631685 3.3224411 16711746
1.9953442 -3.1500225 2.4831965 16711746
0.4975812 -5.3338952 4.7563930 16711746
1.4413594 -1.0186310 0.8783566 16711746
1.0794420 -0.8698083 0.5433412 16711746
1.9586246 -3.0160186 2.1009722 16711746
2.1091933 -2.9784546 2.3180141 16711746
-7.0253625 -5.5725608 4.7534094 16711746
-0.4574236 -6.6907597 4.6800385 16711746
-0.1025163 -6.6848340 4.3786273 16711746
-4.9068189 -5.9195809 5.4893069 16711746
-0.2162291 -5.8239632 5.0930009 16711746
-0.7920628 -6.0379028 5.5150819 16711746
-1.7297996 -5.2811122 6.2768474 16711746
0.1794464 -5.0036039 5.4762363 16711746
-6.3615403 -3.5452271 5.4416471 16711746
-5.5192504 -4.4490523 5.8336759 16711746
-2.8419640 -4.7664323 3.1246426 16711746
1.2149667 -4.9942155 3.8146739 16711746
1.5433315 -4.4696712 3.4959760 16711746
0.8149760 -6.0282745 3.7059844 16711746
-4.1237497 -2.8404763 6.8694215 16711746
0.1339532 -4.8150492 5.7193780 16711746
-5.2622552 -3.5956378 6.0899997 16711746
-4.6435819 -2.6761949 6.5686088 16711746
1.4855543 -3.9078813 5.0775938 16711746
0.8295190 -4.0696082 5.9308786 16711746
2.1996279 -3.2111986 4.5326028 16711746
2.2548814 -2.7502086 2.9780285 16711746
-4.1554794 -2.9610047 6.8326859 16711746
-2.7127907 -7.7304997 5.1749983 16711746
-6.9896383 -4.9326167 4.7795596 16711746
1.2772340 -1.1295832 0.7064719 16711746
-3.4861593 -3.7632258 2.3458622 16711746
