# .PCD v.7 - Point Cloud Data file format
VERSION .7
FIELDS x y z rgb
SIZE 4 4 4 4
TYPE F F F F
COUNT 1 1 1 1
WIDTH 54
HEIGHT 1
VIEWPOINT 0 0 0 1 0 0 0
POINTS 54
DATA ascii

0.0264472 -0.7867459 0.7375203 16711746
-0.4840065 -0.2185029 0.6256204 16711746
-0.5807196 -0.2423809 0.6886751 16711746
0.6830264 -0.9779232 0.6642753 16711746
0.8507722 -0.7925828 0.9228369 16711746
-0.1995117 -0.6815705 0.6904311 16711746
-0.3684294 -0.2345139 0.7090387 16711746
0.5208148 -0.7709628 1.2346083 16711746
-0.0859089 -1.0240209 0.8194438 16711746
0.6411526 -1.1343501 0.9325860 16711746
0.1684047 -0.8417387 0.7084600 16711746
0.7674011 -0.7179589 1.3032004 16711746
0.1916913 -1.0400898 1.5985136 16711746
0.0902461 -0.4232934 0.7637209 16711746
0.4412123 -0.6543698 0.7789092 16711746
0.3803458 -0.8190205 0.9675667 16711746
0.5936859 -0.9258779 1.0205981 16711746
0.1072018 -0.7330541 0.9285721 16711746
0.0785706 -0.2512225 0.7381563 16711746
0.0772021 -0.3210181 0.8606778 16711746
0.2642691 -0.4408832 1.1797597 16711746
0.0925609 -0.3045276 1.0630296 16711746
0.2921217 -0.3565861 1.2283090 16711746
1.3027718 -0.2909599 1.1361066 16711746
-0.5125382 -0.4215789 0.7293019 16711746
-0.5792760 -0.3031043 0.6800115 16711746
-0.1631098 -0.5307077 0.9020986 16711746
-0.2947682 -0.4663495 0.8059534 16711746
-0.3024136 -0.4246171 0.7823803 16711746
-0.4771726 -0.5451044 0.9791667 16711746
-0.0453471 -0.7194033 0.8606394 16711746
-0.3460498 -0.4774975 0.7006152 16711746
-0.4453933 -0.2439496 0.8608603 16711746
-0.4654643 -0.3542154 0.8894705 16711746
-0.4499946 -0.2790070 0.7688491 16711746
0.0468486 -0.2835153 0.8681033 16711746
-0.1883708 -0.3896335 0.8795323 16711746
-0.0913746 -0.5671035 1.1137351 16711746
-0.3697968 -0.4545346 0.9948730 16711746
-0.5157965 -0.3601266 1.0621270 16711746
-0.3721449 -0.3298282 0.8820651 16711746
0.3249679 -0.8425078 0.5732167 16711746
-0.3255351 -0.5855670 0.6618755 16711746
-0.0502641 -0.1516085 0.1863655 16711746
-2.8666661 -4.6334443 2.2101605 16711746
-3.5586004 -2.1389520 1.9818957 16711746
0.9661828 -1.3767749 2.3708174 16711746
-0.5372475 -3.5845969 3.1238317 16711746
-0.4063838 -2.9291451 1.8155261 16711746
-0.1689930 -0.6177574 0.3396025 16711746
-6.1062317 -4.7292480 3.1411819 16711746
-0.5761281 -2.9926155 3.0885587 16711746
-5.6032043 -4.0371289 3.1908360 16711746
-4.7147985 -4.3351336 3.0599043 16711746
