# .PCD v.7 - Point Cloud Data file format
VERSION .7
FIELDS x y z rgb
SIZE 4 4 4 4
TYPE F F F F
COUNT 1 1 1 1
WIDTH 281
HEIGHT 1
VIEWPOINT 0 0 0 1 0 0 0
POINTS 281
DATA ascii

 0.0728479 -0.0066850 -0.0323840 16777215
 0.0706945 -0.0188766 -0.0296881 16777215
 0.0603957 -0.0204310 -0.0253970 16777215
 0.0599336 -0.0257374 -0.0224182 16777215
 0.0601413 -0.0255539 -0.0190230 16777215
 0.0568952 -0.0301625 -0.0076911 16777215
 0.0707788 -0.0253026 -0.0159986 16777215
 0.0682349 -0.0290726 -0.0107859 16777215
 0.0729930 -0.0278060 -0.0159055 16777215
 0.0734937 -0.0265909 -0.0100886 16777215
 0.0787497 -0.0286127 -0.0166130 16777215
 0.0792587 -0.0262705 -0.0051951 16777215
 0.0840788 -0.0297513 -0.0068033 16777215
 0.0926268 -0.0303372 0.0070804 16777215
 0.0922073 -0.0337879 0.0069385 16777215
 0.0956720 -0.0406763 0.0309528 16777215
 0.0883721 -0.0504812 0.0370577 16777215
 0.1012713 -0.0421608 0.0421782 16777215
 0.1065498 -0.0583631 0.0425950 16777215
 0.1315466 -0.0581656 0.0702622 16777215
 0.1246378 -0.0650485 0.0890315 16777215
 0.1233155 -0.0746810 0.1123077 16777215
 0.1328192 -0.0892368 0.1139250 16777215
 0.1557979 -0.0723597 0.1990560 16777215
 0.1833155 -0.0912906 0.2298377 16777215
 0.1772861 -0.0893086 0.2497713 16777215
 0.2001813 -0.0818154 0.2909038 16777215
 0.2161330 -0.0754114 0.3203541 16777215
 0.2373144 -0.1068875 0.3393157 16777215
 0.2411855 -0.1159186 0.3575547 16777215
 0.2561221 -0.1055567 0.3749488 16777215
 0.2888702 -0.0308011 0.4263468 16777215
 0.3211847 -0.0274134 0.4320124 16777215
 0.3197666 -0.0490099 0.4585895 16777215
 0.2846341 -0.0907746 0.4933473 16777215
 0.2835033 -0.0890477 0.4963931 16777215
 0.3182083 -0.0818043 0.5418431 16777215
 0.3097207 -0.0986764 0.5519145 16777215
 0.3203755 -0.1168079 0.5582858 16777215
 0.3326392 -0.1199455 0.5947623 16777215
 0.3231930 -0.1160001 0.5920938 16777215
 0.3433019 -0.1138454 0.6765192 16777215
 0.3894591 -0.1161486 0.7056408 16777215
 0.3965498 -0.1306646 0.7533476 16777215
 0.4229097 -0.1353106 0.7733191 16777215
 0.4118146 -0.1324433 0.8273039 16777215
 0.4112931 -0.1432878 0.8535767 16777215
 0.4436315 -0.1204355 0.8833049 16777215
 0.4593609 -0.1173763 0.9070688 16777215
 0.4473725 -0.1638047 0.9266360 16777215
 0.4313290 -0.1794890 0.9689210 16777215
 0.4417849 -0.1985366 0.9730190 16777215
 0.5208006 -0.1206003 1.0207870 16777215
 0.5605607 -0.1536641 1.0307440 16777215
 0.5545089 -0.1814809 1.0585784 16777215
 0.5763165 -0.2029005 1.0712036 16777215
 0.5650157 -0.2165802 1.0982699 16777215
 0.6068006 -0.2079585 1.1323063 16777215
 0.6343668 -0.2145193 1.1725849 16777215
 0.5977701 -0.2179754 1.2240266 16777215
 0.6189291 -0.2248384 1.2570177 16777215
 0.6418390 -0.2394007 1.2732078 16777215
 0.6815183 -0.2109231 1.2990571 16777215
 0.6927921 -0.2408752 1.3391391 16777215
 0.7107085 -0.2258888 1.3758066 16777215
 0.7242215 -0.2312236 1.4048967 16777215
 0.7237494 -0.2199463 1.4343493 16777215
 0.7691353 -0.2538114 1.4611433 16777215
 0.7805246 -0.2497389 1.4957197 16777215
 0.7881579 -0.2508702 1.5315517 16777215
 0.7896793 -0.2580879 1.5375783 16777215
 0.8180404 -0.2939528 1.5688900 16777215
 0.8111261 -0.2830574 1.6129386 16777215
 0.8218334 -0.2982602 1.6409030 16777215
 0.8314144 -0.3036836 1.6526738 16777215
 0.8379112 -0.2960982 1.6702520 16777215
 0.8611423 -0.3170734 1.6804028 16777215
 0.8766255 -0.3036764 1.7044927 16777215
 0.8965451 -0.3183657 1.7298727 16777215
 0.8926520 -0.3571075 1.7620250 16777215
 0.8930878 -0.3513201 1.7902931 16777215
 0.9239042 -0.3583493 1.8110715 16777215
 0.9494080 -0.3939948 1.8188404 16777215
 0.9414424 -0.3915158 1.8697052 16777215
 0.9704198 -0.4102319 1.9084717 16777215
 0.9837359 -0.3850264 1.9187460 16777215
 0.9618577 -0.3798842 1.9443409 16777215
 0.9686545 -0.3678249 1.9744289 16777215
 1.0157511 -0.3562810 2.0281410 16777215
 1.0310673 -0.3548343 2.0365396 16777215
 1.0353656 -0.3760926 2.0708194 16777215
 1.0685203 -0.3824295 2.0965230 16777215
 1.0815974 -0.3955965 2.1324537 16777215
 1.1147814 -0.3833100 2.1649342 16777215
 1.0960763 -0.4309490 2.1775692 16777215
 1.0951293 -0.3671910 2.2100642 16777215
 1.1045356 -0.3618518 2.2477584 16777215
 1.1557777 -0.3660159 2.2916923 16777215
 1.1745676 -0.3931772 2.3208697 16777215
 1.1846455 -0.4035413 2.3388505 16777215
 1.1564375 -0.3966110 2.3639469 16777215
 1.1598600 -0.3885010 2.3643284 16777215
 1.1906525 -0.3928584 2.3860176 16777215
 1.2025197 -0.4141777 2.3933470 16777215
 1.1897466 -0.4359125 2.4212937 16777215
 1.1292032 -0.3721704 2.4951682 16777215
 1.1970905 -0.4086155 2.4860137 16777215
 1.1332399 -0.3383942 2.5517306 16777215
 1.1774812 -0.3637787 2.5731018 16777215
 1.1704192 -0.3512632 2.5714068 16777215
 1.1223500 -0.3315264 2.5779440 16777215
 1.1354926 -0.3348302 2.6125343 16777215
 1.1974528 -0.3216303 2.6811507 16777215
 1.2283715 -0.3803570 2.7243719 16777215
 1.1932186 -0.3832553 2.8220644 16777215
 1.2131793 -0.4167510 2.8265927 16777215
 1.2488697 -0.4258224 2.8782234 16777215
 1.2728380 -0.4144567 2.9022729 16777215
 1.2929007 -0.4351982 2.9550991 16777215
 1.2921138 -0.4488580 2.9769089 16777215
 1.3028202 -0.4636880 3.0092912 16777215
 1.3362776 -0.4533637 3.0547342 16777215
 1.3563665 -0.4677980 3.0763805 16777215
 1.3427458 -0.4991331 3.1031003 16777215
 1.3871574 -0.4996188 3.1654677 16777215
 1.3755687 -0.5243264 3.1923237 16777215
 1.3664095 -0.4951285 3.2426953 16777215
 1.4424140 -0.4764339 3.2741315 16777215
 1.4444449 -0.4658124 3.2952747 16777215
 1.4457712 -0.4679701 3.3387902 16777215
 1.4706804 -0.4757501 3.3490252 16777215
 1.4720222 -0.4638253 3.3657825 16777215
 1.4710698 -0.4646010 3.3957715 16777215
 1.4703863 -0.4601758 3.4207635 16777215
 1.4875517 -0.4701812 3.4436576 16777215
 1.4546088 -0.4496669 3.4863515 16777215
 1.4610543 -0.4190581 3.5333850 16777215
 1.4795098 -0.4492382 3.5586019 16777215
 1.4844271 -0.4345201 3.5926366 16777215
 1.4880736 -0.4315929 3.6239586 16777215
 1.4512028 -0.4060055 3.6986303 16777215
 1.5100471 -0.3787066 3.7372069 16777215
 1.5387235 -0.3786355 3.7520454 16777215
 1.5629597 -0.4041112 3.7853897 16777215
 1.5690950 -0.4182595 3.8203092 16777215
 1.5758212 -0.4323773 3.8324308 16777215
 1.5994420 -0.4285526 3.8466747 16777215
 1.6006266 -0.4228065 3.8763082 16777215
 1.5855678 -0.3960737 3.9303019 16777215
 1.5485773 -0.3614926 3.9617071 16777215
 1.5275271 -0.3922555 3.9883647 16777215
 1.5367283 -0.3983617 4.0038128 16777215
 1.5828904 -0.3852826 4.0154409 16777215
 1.5448304 -0.3570858 4.0665946 16777215
 1.5430248 -0.3709311 4.0938654 16777215
 1.5597600 -0.3918513 4.0968528 16777215
 1.5767394 -0.3763092 4.1717882 16777215
 1.6023737 -0.4027649 4.1982865 16777215
 1.5859313 -0.4056447 4.2127757 16777215
 1.5701706 -0.3929260 4.2316618 16777215
 1.6280527 -0.3980700 4.2514858 16777215
 1.6102129 -0.4138094 4.2521996 16777215
 1.6220130 -0.3947881 4.2578139 16777215
 1.6445544 -0.3866522 4.2841945 16777215
 1.6327423 -0.3987558 4.2916636 16777215
 1.6180066 -0.3870811 4.3298740 16777215
 1.6360066 -0.4044319 4.3648944 16777215
 1.6337483 -0.3782703 4.3921232 16777215
 1.6698192 -0.4111055 4.4368205 16777215
 1.6694361 -0.4074876 4.4857445 16777215
 1.6898036 -0.4047968 4.4991045 16777215
 1.6957126 -0.4017062 4.5069923 16777215
 1.7282051 -0.4012117 4.5427823 16777215
 1.7638563 -0.4020647 4.5696192 16777215
 1.7771685 -0.4012359 4.5770512 16777215
 1.7662637 -0.3997322 4.6137795 16777215
 1.7706314 -0.3996618 4.6325722 16777215
 1.7938057 -0.4219857 4.6446586 16777215
 1.8238603 -0.4280044 4.6636519 16777215
 1.8119158 -0.4206853 4.7006168 16777215
 1.8001699 -0.3495131 4.7432451 16777215
 1.8258837 -0.3279548 4.8198056 16777215
 1.8542843 -0.3463264 4.8236647 16777215
 1.8479100 -0.3608665 4.8588595 16777215
 1.8322654 -0.3481693 4.8818431 16777215
 1.8398849 -0.3181723 4.8865123 16777215
 1.8780372 -0.3330290 4.9087720 16777215
 1.8594522 -0.3357574 4.9577389 16777215
 1.8830669 -0.3620107 4.9947333 16777215
 1.8661485 -0.3794003 5.0324364 16777215
 1.8950211 -0.3396999 5.0511680 16777215
 1.9124811 -0.3174366 5.0989103 16777215
 1.9282333 -0.3249106 5.1092496 16777215
 1.9422972 -0.3320339 5.1278763 16777215
 1.9484915 -0.3596188 5.1492429 16777215
 1.9632442 -0.3542581 5.1766500 16777215
 1.9537861 -0.3624010 5.2226095 16777215
 1.9628094 -0.3626393 5.2469878 16777215
 1.9691849 -0.3569571 5.2658410 16777215
 1.9747558 -0.3654969 5.2728786 16777215
 1.9916238 -0.3614250 5.3001246 16777215
 2.0166585 -0.3172501 5.3473783 16777215
 2.0253673 -0.3218603 5.3786922 16777215
 2.0389190 -0.3118459 5.4018145 16777215
 2.0432327 -0.3268198 5.4425921 16777215
 2.0482607 -0.3376250 5.4811010 16777215
 2.0461564 -0.3488623 5.4808855 16777215
 2.0543079 -0.3656676 5.5107536 16777215
 2.0579116 -0.3713911 5.5349193 16777215
 2.0759335 -0.3357222 5.5457015 16777215
 2.0828588 -0.3579829 5.5614038 16777215
 2.0874484 -0.3432320 5.6281209 16777215
 2.0979600 -0.3068261 5.6573915 16777215
 2.0918779 -0.2995766 5.6668735 16777215
 2.1082935 -0.3058099 5.6800237 16777215
 2.1144953 -0.3422173 5.6876478 16777215
 2.1263661 -0.3445284 5.7141938 16777215
 2.1390324 -0.3389981 5.7495179 16777215
 2.1253188 -0.3469638 5.7516222 16777215
 2.1470342 -0.3366081 5.7850122 16777215
 2.1507416 -0.3349862 5.8229747 16777215
 2.1559598 -0.3379706 5.8495321 16777215
 2.1397171 -0.3124386 5.8958526 16777215
 2.1621048 -0.3008307 5.9188852 16777215
 2.1956840 -0.3442171 5.9387422 16777215
 2.2295623 -0.3596901 5.9719429 16777215
 2.2236333 -0.3616842 6.0094061 16777215
 2.2392716 -0.3771245 6.0362945 16777215
 2.2311525 -0.3527832 6.0867820 16777215
 2.2222283 -0.3700767 6.1001892 16777215
 2.2340455 -0.3680249 6.1126895 16777215
 2.2337720 -0.3464603 6.1214690 16777215
 2.2544005 -0.3692598 6.1415844 16777215
 2.2867324 -0.3570050 6.1810260 16777215
 2.2864840 -0.3169270 6.2301517 16777215
 2.2833982 -0.3488538 6.2709928 16777215
 2.2843633 -0.3506074 6.2715440 16777215
 2.2820210 -0.3509874 6.2950339 16777215
 2.2900987 -0.3541421 6.3235626 16777215
 2.3142717 -0.3542349 6.3343711 16777215
 2.3233874 -0.3558626 6.3427429 16777215
 2.3345714 -0.3701744 6.3537741 16777215
 2.3479748 -0.3380995 6.3746219 16777215
 2.3557634 -0.3408887 6.3975267 16777215
 2.3803551 -0.3443968 6.4261289 16777215
 2.3663001 -0.3567662 6.4325743 16777215
 2.3930964 -0.3214805 6.4581127 16777215
 2.4062035 -0.3384895 6.4832082 16777215
 2.3990536 -0.3354602 6.5225959 16777215
 2.4090433 -0.3443317 6.5178447 16777215
 2.4167233 -0.3509760 6.5351324 16777215
 2.3923190 -0.3565617 6.5941687 16777215
 2.4697969 -0.3515310 6.5864072 16777215
 2.4727118 -0.3431265 6.6333733 16777215
 2.4831896 -0.3502562 6.6612248 16777215
 2.4892890 -0.3705332 6.6744800 16777215
 2.5450304 -0.3697648 6.6945367 16777215
 2.5446506 -0.3716424 6.7283783 16777215
 2.5364089 -0.3545661 6.7605305 16777215
 2.5605311 -0.3817837 6.7843885 16777215
 2.5448785 -0.3938155 6.7994900 16777215
 2.5610616 -0.3937654 6.8347192 16777215
 2.5513315 -0.4066328 6.8742847 16777215
 2.5452065 -0.4135878 6.8935652 16777215
 2.5292072 -0.4091637 6.9305582 16777215
 2.5144908 -0.3949809 6.9444838 16777215
 2.5147362 -0.3489628 6.9656281 16777215
 2.5422678 -0.3797219 7.0024824 16777215
 2.5750384 -0.3844731 7.0017614 16777215
 2.5752013 -0.3811276 7.0074077 16777215
 2.5781312 -0.3894348 7.0264659 16777215
 2.5346327 -0.3416212 7.0717039 16777215
 2.5847900 -0.3160300 7.1331134 16777215
 2.5939145 -0.3304851 7.1442003 16777215
 2.5985048 -0.3363360 7.1499004 16777215
 2.6038435 -0.3455576 7.1575937 16777215
 2.6017933 -0.3469291 7.1607833 16777215
 2.6047571 -0.3520634 7.1628036 16777215
 2.5931640 -0.3451486 7.1615987 16777215
 2.6044576 -0.3469896 7.1802354 16777215
 2.5979400 -0.3362935 7.1764317 16777215
