# .PCD v.7 - Point Cloud Data file format
VERSION .7
FIELDS x y z rgb
SIZE 4 4 4 4
TYPE F F F F
COUNT 1 1 1 1
WIDTH 87
HEIGHT 1
VIEWPOINT 0 0 0 1 0 0 0
POINTS 87
DATA ascii

0.1392779 -0.1034162 0.0195975 16711746
1.6994648 -2.1570041 0.1573886 16711746
0.5560600 -1.3770987 -0.1485616 16711746
-9.9048672 -17.1206055 -0.6383646 16711746
0.2381484 -0.2961634 -0.0395402 16711746
1.4349447 -1.6374506 0.5960924 16711746
0.6060130 -0.8280689 -0.1081060 16711746
0.3201312 -0.3260304 0.0187695 16711746
0.4216884 -0.6071027 -0.0226994 16711746
3.8085849 -3.2072217 0.9061848 16711746
-0.0088440 -0.0934383 0.0017416 16711746
0.0852691 -0.0680236 0.0129576 16711746
-0.0433874 -0.0730290 0.0372079 16711746
0.0947241 -0.0656588 0.0029186 16711746
0.0822949 -0.0503127 0.0114899 16711746
0.0802167 -0.0479758 0.0096679 16711746
0.0985260 -0.0846102 0.0278307 16711746
0.0194104 -0.0482399 0.0576150 16711746
0.2683180 -0.6047274 0.1492570 16711746
1.1379734 -1.4063494 0.5287881 16711746
0.0531463 -0.0093643 0.0035139 16711746
0.0740145 -0.0071134 0.0095520 16711746
0.0671204 0.0054492 0.0017880 16711746
0.0161035 -0.0297183 0.0164738 16711746
0.0227119 -0.0208299 0.0130589 16711746
0.0277713 -0.0214157 0.0088850 16711746
0.0269508 -0.0206293 0.0123970 16711746
0.0175997 -0.0296547 0.0130730 16711746
0.0090984 -0.0354731 0.0138535 16711746
-0.0025889 -0.0440236 0.0126474 16711746
0.0848151 -0.0450217 0.0120714 16711746
0.0418627 -0.0292556 0.0403342 16711746
0.0028347 -0.0471513 0.0180524 16711746
0.0250695 -0.0222637 0.0315765 16711746
0.0717487 0.0001730 0.0015613 16711746
0.0614845 -0.0087640 0.0018513 16711746
0.0348699 -0.0242319 0.0072325 16711746
0.0312359 -0.0294803 0.0069956 16711746
0.0036932 -0.0556905 0.0217380 16711746
0.0787583 -0.0118585 -0.0015547 16711746
0.0510253 -0.0712574 0.0198115 16711746
0.0099802 -0.0362103 0.0485671 16711746
-0.0008207 -0.0460529 0.0213393 16711746
0.0272234 -0.0238437 0.0099937 16711746
0.0000926 -0.0415346 0.0120236 16711746
0.0218476 -0.0569623 0.0014620 16711746
0.0436449 -0.0605095 0.0019522 16711746
-0.0038760 -0.0461927 0.0221890 16711746
0.0764113 -0.0648851 0.0156846 16711746
0.0100085 -0.0417832 0.0406975 16711746
0.0830972 -0.0654520 0.0070676 16711746
0.0496346 -0.0769324 0.0208351 16711746
0.0703972 -0.0220072 0.0109637 16711746
0.0069296 -0.0748312 0.0068490 16711746
0.0048140 -0.0341935 0.0537543 16711746
0.0740745 -0.0088519 0.0149605 16711746
-1.7033329 -2.6355069 0.4317352 16711746
-0.7437932 -1.8759050 0.0260657 16711746
0.0257133 -0.0936983 0.0029189 16711746
-0.0096772 -0.0590230 0.0164123 16711746
0.0289277 -0.0364497 0.0516224 16711746
0.0971402 -0.1168930 0.0249979 16711746
0.0738642 -0.0642012 0.0072098 16711746
0.0851688 -0.0095164 0.0085892 16711746
0.0467168 -0.0134321 0.0045657 16711746
-0.0109107 -0.0464474 0.0149844 16711746
-0.0201382 -0.0550836 0.0232622 16711746
-0.0272181 -0.0574622 0.0178128 16711746
-0.0323232 -0.0631925 0.0197967 16711746
0.0722906 -0.0046929 0.0073809 16711746
-0.0121718 -0.0502291 0.0266571 16711746
0.0175448 -0.0220367 0.0149212 16711746
0.0318083 -0.1233924 0.0257820 16711746
0.0129574 -0.0343188 0.0119589 16711746
-0.0140290 -0.0443081 0.0609813 16711746
0.0616041 -0.0672836 0.0292180 16711746
0.0015781 -0.0350454 0.0200139 16711746
-0.0219227 -0.0556494 0.0287611 16711746
0.0410478 -0.0657829 0.0036566 16711746
0.0274277 -0.0386815 0.0529468 16711746
0.0806827 -0.0280130 0.0113759 16711746
-0.0027761 -0.0383383 0.0521635 16711746
0.0760007 -0.0161469 0.0079263 16711746
0.0693389 -0.0232966 0.0246803 16711746
0.0694701 0.0020472 0.0014782 16711746
0.0797802 -0.0196394 0.0181049 16711746
0.0876978 -0.0129063 0.0031078 16711746
