# .PCD v.7 - Point Cloud Data file format
VERSION .7
FIELDS x y z rgb
SIZE 4 4 4 4
TYPE F F F F
COUNT 1 1 1 1
WIDTH 56
HEIGHT 1
VIEWPOINT 0 0 0 1 0 0 0
POINTS 56
DATA ascii

 2.2024686 -0.3292658 5.7484126 16777215
 0.0195421 -0.0007959 0.0569109 16777215
0.2461459 -0.9857700 0.3015952 16711746
-0.1643236 -0.6728671 0.6654770 16711746
0.2601242 -1.2458527 0.2894452 16711746
0.3355883 -1.3465645 0.2977832 16711746
-0.4465154 -0.9639094 0.1932622 16711746
0.7405106 -1.0614052 0.4916268 16711746
0.2380734 -0.7787932 0.5796842 16711746
0.1046191 -1.1251868 0.7313855 16711746
-0.5397621 -1.2846826 0.0810801 16711746
-0.5303705 -1.1634967 0.0751008 16711746
0.9921544 -0.9189858 0.2508256 16711746
0.5328259 -1.0146710 0.2359141 16711746
0.4892589 -1.2168111 0.2351467 16711746
-0.5446830 -0.7311579 0.0751293 16711746
-0.4552441 -0.8971601 0.1076991 16711746
-0.3985815 -0.8348726 0.0358079 16711746
-0.0179357 -1.0797858 0.3211174 16711746
0.0352975 -1.2067263 0.2782151 16711746
0.5794894 -1.2752364 0.1131904 16711746
1.0670393 -0.9292158 0.2723936 16711746
-0.1556308 -0.6543102 0.6818401 16711746
0.0380911 -1.1498557 0.4478628 16711746
-0.0871720 -0.8094835 0.5063165 16711746
0.1096217 -0.8245585 0.2730399 16711746
-0.0515260 -0.7471849 0.3607273 16711746
-0.4919960 -0.7505221 0.0751534 16711746
-0.6527665 -0.8325426 0.0670612 16711746
0.0828946 -0.9947146 0.2586320 16711746
0.0817694 -0.7594226 0.0617018 16711746
-0.1185435 -0.8577237 0.0688603 16711746
-0.3911482 -1.0132163 0.1335428 16711746
-0.2620801 -1.0943389 0.1376977 16711746
0.5245039 -1.0064484 0.2683322 16711746
0.3511344 -0.8972384 0.1782403 16711746
0.2212857 -1.1916672 0.2907761 16711746
0.3424232 -0.8700442 0.0418401 16711746
0.4591928 -0.9539918 0.3106900 16711746
-0.4592018 -0.7183827 0.0933836 16711746
0.5998764 -1.1807652 0.6445096 16711746
-0.4649819 -0.8223823 0.0570785 16711746
1.1741092 -1.3229791 0.1479428 16711746
0.3983004 -1.1001347 0.0487864 16711746
-0.0803452 -1.0439806 0.7864641 16711746
0.6654791 -1.0454363 0.4275267 16711746
0.0172840 -1.0884948 0.4670762 16711746
0.1047631 -1.3176742 0.4045799 16711746
0.8170793 -1.1303174 0.4165084 16711746
-0.1092483 -0.7464140 0.5240651 16711746
0.2485840 -0.9835908 0.2631896 16711746
0.5562340 -0.9313510 0.5063421 16711746
0.7830836 -1.8209000 0.6761216 16711746
-0.1021279 -0.6504879 0.5657176 16711746
-0.1752825 -0.6904408 0.6427323 16711746
-0.1220176 -0.6132784 0.5360769 16711746
