# .PCD v.7 - Point Cloud Data file format
VERSION .7
FIELDS x y z rgb
SIZE 4 4 4 4
TYPE F F F F
COUNT 1 1 1 1
WIDTH 86
HEIGHT 1
VIEWPOINT 0 0 0 1 0 0 0
POINTS 86
DATA ascii

1.2409648 -1.1628597 0.1732619 16711746
-0.2647264 -0.3758160 -0.0184280 16711746
-3.4773657 1.5880063 -2.2354038 16711746
0.3106475 -0.7000534 0.6595490 16711746
0.7075229 -1.1325539 0.0600181 16711746
0.0474080 -0.7572064 0.5510678 16711746
1.9897802 -1.9344038 0.2193419 16711746
0.0348208 -0.7206566 0.0661520 16711746
-0.1815960 -0.2738608 0.2640938 16711746
0.0031604 -0.2522343 0.1204320 16711746
0.7671016 -1.2295891 -0.0357339 16711746
0.4674878 -1.0860088 0.5827676 16711746
0.9745234 -1.3389649 0.8846480 16711746
0.5547974 -0.7083635 0.4664221 16711746
0.7064397 -1.4917538 0.4636673 16711746
1.4835765 -1.2489371 0.2846717 16711746
0.9896508 -1.1078284 0.5217623 16711746
0.8375363 -0.9886273 0.5008664 16711746
0.3804915 -0.6726003 0.1067654 16711746
2.1217096 -1.8596139 0.3739346 16711746
1.3420295 -2.3996980 0.5053694 16711746
0.9760316 -1.3002473 0.1092755 16711746
-0.0521643 -0.4322504 0.1376402 16711746
0.4732328 -0.7752653 0.3705426 16711746
-0.1403718 -0.3024935 0.1814480 16711746
-0.0832352 -0.1947287 0.1120179 16711746
0.0034290 -0.2536459 0.1210914 16711746
0.6897886 -1.5057610 0.4374076 16711746
-0.2414607 -0.2943263 -0.0027518 16711746
-0.2730771 -0.3262947 -0.0007587 16711746
0.0030036 -0.2602675 0.1241635 16711746
0.9627418 -1.0529238 0.0510633 16711746
0.1279460 -0.6026914 0.0738922 16711746
0.5034276 -0.8943647 -0.0130133 16711746
0.4749629 -0.9635969 0.6069015 16711746
0.9724457 -1.6668626 -0.0736161 16711746
0.7572950 -1.1805024 -0.0731351 16711746
0.0317876 -0.6085522 0.0088863 16711746
0.4793101 -1.2314756 0.3424608 16711746
0.0027919 -0.2565666 0.1224993 16711746
1.1545348 -1.7388233 0.6156179 16711746
1.1182634 -1.7315494 0.5894309 16711746
0.6246507 -0.9323112 0.0814401 16711746
0.9597845 -1.5950269 0.1473954 16711746
0.6855994 -1.1118858 0.0774791 16711746
0.4864845 -1.0542942 0.6184267 16711746
0.0165897 -0.7637262 0.0888560 16711746
1.2380538 -1.7402178 0.6954468 16711746
1.0317526 -1.2952074 0.7630138 16711746
0.5423435 -0.7531648 0.4484906 16711746
0.8604347 -1.0414715 0.4568195 16711746
0.1989892 -0.5494301 0.1595256 16711746
0.3420981 -0.8020123 0.6413722 16711746
0.5366275 -0.9786137 0.7132326 16711746
0.3281589 -0.7598882 0.6490529 16711746
0.5468136 -1.0354038 0.6847425 16711746
1.6567757 -1.3606840 1.2186358 16711746
1.7595435 -1.0189798 1.1367344 16711746
0.8455333 -1.0561570 0.8826770 16711746
1.1648319 -1.2562473 0.9471657 16711746
1.2493687 -1.2072457 1.0912745 16711746
0.8143299 -1.2695639 0.7712704 16711746
0.4909304 -1.6574670 1.9876432 16711746
0.3373059 -0.6854019 0.6863969 16711746
-3.1332903 1.6844426 -2.2153730 16711746
0.4603011 -0.5152169 0.5486924 16711746
1.1635417 -1.1326233 0.0802758 16711746
0.0018118 -0.2283301 0.1098256 16711746
0.0027610 -0.2564675 0.1224561 16711746
2.4191630 -1.9519192 0.5791249 16711746
-0.2374833 -0.3702218 -0.0322379 16711746
-0.2390102 -0.4372828 -0.0211282 16711746
-0.1462177 -0.2494390 0.1134085 16711746
-2.4441206 1.0194982 -1.8509612 16711746
0.0028925 -0.1471582 0.0729853 16711746
0.0049079 -0.1823407 0.0792542 16711746
0.0027873 -0.1491054 0.0740950 16711746
0.0028376 -0.1494518 0.0741552 16711746
0.0774256 -0.1295701 0.1276750 16711746
1.4113585 -3.5079341 1.0566467 16711746
-1.0038301 -4.0438409 0.8417671 16711746
-2.7346399 -2.0419061 0.7994347 16711746
-3.2296691 -2.5231512 0.8127245 16711746
0.8291857 -3.7358358 0.9787621 16711746
0.0560835 -0.1372908 0.0776332 16711746
-2.6360211 -3.1718936 0.3154489 16711746
