# .PCD v.7 - Point Cloud Data file format
VERSION .7
FIELDS x y z rgb
SIZE 4 4 4 4
TYPE F F F F
COUNT 1 1 1 1
WIDTH 71
HEIGHT 1
VIEWPOINT 0 0 0 1 0 0 0
POINTS 71
DATA ascii

0.5293792 -1.0272977 -0.0269025 16711746
0.3297876 -0.6483817 0.0397101 16711746
-0.8418509 -0.8734105 -0.0335342 16711746
-0.8865506 -0.9643049 -0.0491896 16711746
-1.6370720 -1.9041826 0.2239236 16711746
0.7548708 -0.9124396 0.2310323 16711746
0.8336313 -0.7602141 0.1117154 16711746
0.6865435 -0.8515172 0.2655295 16711746
-3.5293455 -3.4130180 1.4220657 16711746
-0.8108927 -0.9878399 -0.0949521 16711746
-2.5507131 -2.7432153 0.1712697 16711746
-2.1010625 -2.1862340 0.1420733 16711746
0.7870297 -0.7968798 0.0580036 16711746
-2.4681652 -2.8420372 0.5783042 16711746
0.5783765 -0.8961896 0.2474203 16711746
35.3017006 22.3967247 -31.5633335 16711746
35.3981705 23.0770493 -31.4459400 16711746
-1.6664033 -1.8942963 0.1690283 16711746
0.0370451 -0.7976454 0.3964380 16711746
0.8048097 -1.1367184 0.0133029 16711746
-0.0939158 -0.9829421 0.3428846 16711746
-3.3774691 -2.3154097 2.0445166 16711746
0.5156760 -1.2681046 -0.0301640 16711746
-3.1812057 -3.0035567 0.4582371 16711746
-3.5290539 -3.1646121 0.3485511 16711746
-4.0471783 -4.0606589 0.7552373 16711746
0.7738460 -1.0963273 -0.0742153 16711746
-1.4049444 -0.9749258 0.3702804 16711746
-6.5424891 -4.8110056 1.6210679 16711746
-4.5155311 -3.7286210 0.5388337 16711746
0.4524668 -0.8445447 0.3816061 16711746
0.0678746 -0.6777437 0.3381220 16711746
0.6185901 -1.4179788 0.1023006 16711746
-2.4274917 -1.8917615 0.4883146 16711746
0.6771372 -0.9496855 0.0381367 16711746
0.5579028 -0.9120175 -0.0072870 16711746
0.0426164 -0.5007812 0.2618323 16711746
-3.7446783 -3.9473693 0.6477091 16711746
-2.9198248 -2.9089358 0.4190496 16711746
0.5911271 -0.7247740 0.3138250 16711746
0.0377705 -0.6553683 0.3314948 16711746
-3.5333092 -3.8422899 0.4853188 16711746
0.5885342 -1.3795506 0.1385229 16711746
0.3406785 -0.8694828 0.0822066 16711746
0.0374622 -0.7945902 0.3949933 16711746
-0.4518927 -1.6187810 0.1067910 16711746
-0.4653120 -1.5343465 0.0870184 16711746
0.5428807 -0.9229274 -0.0230726 16711746
0.6459503 -1.0801429 -0.0508329 16711746
-3.4192898 -2.1545267 2.0409083 16711746
0.4512013 -1.0764170 0.1752052 16711746
-1.8229065 -1.3217589 1.2243042 16711746
0.0379737 -0.7650286 0.3812377 16711746
-4.0718493 -3.2847867 2.5539911 16711746
55.9003906 27.2320423 -35.0860863 16711746
0.7075590 -0.9467866 0.2080804 16711746
0.7558600 -0.9903667 -0.0368024 16711746
-3.0018327 -2.9084790 0.2041531 16711746
-2.2959669 -1.9032086 0.1561875 16711746
-0.9050584 -0.8968852 -0.0520780 16711746
-5.9705758 -5.1100903 2.1466179 16711746
-1.4139535 -0.9761874 0.3857074 16711746
0.0373183 -0.8049169 0.3997631 16711746
-1.3938999 -1.2032119 0.3848336 16711746
1.7200013 -3.8170595 2.2935774 16711746
0.4692739 -0.8909632 0.6343009 16711746
0.2608845 -0.5602226 0.2487257 16711746
1.2529104 -1.9497867 1.9746243 16711746
0.4722753 -0.8956321 0.6368958 16711746
0.0747486 -0.6831915 0.4627342 16711746
0.0624584 -0.6202813 0.4252765 16711746
