# .PCD v.7 - Point Cloud Data file format
VERSION .7
FIELDS x y z rgb
SIZE 4 4 4 4
TYPE F F F F
COUNT 1 1 1 1
WIDTH 122
HEIGHT 1
VIEWPOINT 0 0 0 1 0 0 0
POINTS 122
DATA ascii

0.5730985 -0.3803780 0.4115634 16711746
0.1922799 -0.2596306 0.2476106 16711746
0.5890753 -0.7081758 0.5730569 16711746
0.2293427 -0.2286237 0.2337451 16711746
1.3844959 -1.4036093 1.4131075 16711746
0.7616085 -0.5053002 0.3959440 16711746
0.4219857 -0.3170974 0.2613030 16711746
0.5221338 -0.3909682 0.3506330 16711746
-0.6080138 0.9621478 -1.1778291 16711746
-0.5659963 1.1478045 -1.2651933 16711746
-1.2926491 2.4043841 -3.2159059 16711746
-0.6965225 1.5070798 -1.6138256 16711746
-0.5888289 1.7955655 -1.8828039 16711746
0.9654664 -2.6760194 2.6711404 16711746
-1.5255350 2.6230724 -2.8830762 16711746
0.0346237 -0.1962570 0.2159067 16711746
0.0087899 -2.2086153 1.8348401 16711746
-0.0931979 -2.0248413 1.9259155 16711746
-0.5104359 0.6719975 -0.8330580 16711746
-4.6527252 3.5857253 -4.9210815 16711746
-1.0165285 0.8996091 -1.2070751 16711746
2.5062363 -3.4872737 3.4643075 16711746
2.2324343 -5.7262321 1.0367777 16711746
1.9181733 -5.5248237 1.6748581 16711746
1.3146940 -1.1417894 0.5281857 16711746
0.6300747 -0.9229026 0.3324489 16711746
0.4071945 -0.6666847 0.2368825 16711746
1.8322620 -1.4874632 0.7637516 16711746
2.1599324 -3.7933688 -0.0712131 16711746
-0.0755372 -0.6020761 0.1691518 16711746
-0.0807566 -0.6123366 0.1636553 16711746
0.8569384 -1.0787295 0.9613072 16711746
0.5125950 -0.6660821 0.0585794 16711746
0.0579386 -0.6326138 0.3577295 16711746
1.2880397 -2.0947855 1.0195104 16711746
0.2626085 -0.2455254 0.2415252 16711746
0.2221223 -0.2527245 0.2785243 16711746
1.7578249 -3.3428211 0.7433388 16711746
0.3229832 -0.6585267 0.2361404 16711746
2.2821541 -5.6054506 1.5544298 16711746
0.7966455 -2.4378247 0.4365205 16711746
0.2661627 -0.5595990 0.2260667 16711746
-0.0335478 -2.5005457 0.9284236 16711746
0.5210618 -1.3425153 0.5219071 16711746
0.9271038 -2.5946465 0.9125310 16711746
0.4337791 -0.5613071 0.1695259 16711746
0.3016954 -0.3407029 0.1810354 16711746
1.1381470 -7.0285048 -0.0772974 16711746
0.9251007 -2.1873064 0.3499041 16711746
0.1638234 -0.3179836 0.2634648 16711746
0.6391472 -0.9874374 0.3997564 16711746
-0.4890591 -4.9272437 0.6630319 16711746
0.2673611 -0.2646236 0.2525808 16711746
0.1045100 -1.1867390 0.3406931 16711746
0.4681810 -0.9935890 0.2535255 16711746
0.6450022 -1.0925624 0.8168547 16711746
1.9684292 -3.4332664 2.3812397 16711746
0.5547695 -0.5786223 0.4487461 16711746
0.2664502 -4.9298825 1.0145572 16711746
0.1125873 -1.7071674 0.1247542 16711746
0.0531393 -0.7650881 0.0802884 16711746
0.4731252 -0.5039947 0.3031541 16711746
0.4282841 -0.5737422 0.0223457 16711746
0.4504662 -1.2948569 0.2365121 16711746
1.3390383 -5.5830903 1.1006438 16711746
0.1775596 -0.2395442 0.1805239 16711746
0.2437841 -0.4007537 0.1484057 16711746
0.0586498 -0.7615368 0.0668208 16711746
0.1617719 -0.3409359 0.2780422 16711746
0.1696811 -0.6299297 0.2386003 16711746
2.1029515 -3.1853271 1.9315422 16711746
0.3050700 -0.4627439 0.3063652 16711746
0.1300364 -4.6877971 1.5369859 16711746
1.5964985 -2.2837379 0.8893698 16711746
0.3143076 -0.3820848 0.1876735 16711746
1.1977284 -1.8607281 1.5964103 16711746
0.5683736 -0.7705956 0.2768610 16711746
0.5902297 -1.0180044 0.0890750 16711746
0.3598175 -0.6102847 0.0651045 16711746
0.7291408 -0.8813942 0.6644332 16711746
0.3611704 -0.4146042 0.3320348 16711746
0.1867886 -0.2275759 0.2026059 16711746
0.7094736 -1.5173471 0.6444269 16711746
1.9757911 -4.3411937 1.8009567 16711746
0.2098775 -0.4277617 0.2139909 16711746
2.0775366 -4.7847738 1.7819883 16711746
0.2125695 -0.3972752 0.1941794 16711746
2.1280134 -3.4516118 2.8271980 16711746
0.4838060 -1.8200194 0.1939916 16711746
0.0610762 -0.5810900 0.3495011 16711746
0.3235784 -0.6146817 0.4016042 16711746
0.2947130 -0.5911573 0.3672862 16711746
0.1446880 -0.2884258 0.2585061 16711746
0.9668290 -1.2938435 0.5950451 16711746
0.4030541 -0.6290601 0.0937577 16711746
0.5203303 -2.1050875 0.1666041 16711746
0.5407108 -2.2882676 0.1443752 16711746
2.0483258 -4.3289771 2.2650337 16711746
1.6675122 -3.6601470 1.9715022 16711746
1.1916379 -4.1895823 0.6868837 16711746
0.3698329 -0.5666543 0.2268066 16711746
0.5660588 -2.0784354 0.2997501 16711746
0.5338849 -2.2300782 -0.0326891 16711746
0.3460114 -0.5134342 0.0752290 16711746
0.2936900 -0.4334510 0.3907579 16711746
0.5657411 -1.1782556 0.8846852 16711746
0.0673297 -2.7539837 2.0544562 16711746
0.8436920 -2.0394423 1.3606479 16711746
0.9542174 -2.3256648 1.4050761 16711746
0.4437782 -0.8083145 0.5902517 16711746
0.4163899 -0.9185805 0.5860870 16711746
0.9617186 -2.4036763 1.0112243 16711746
0.6502174 -1.6069862 0.6441079 16711746
0.0407915 -0.5455178 0.2078885 16711746
0.4273711 -1.3494689 0.1431988 16711746
0.3930616 -1.3735740 0.1418241 16711746
0.4103292 -1.4881170 0.0697531 16711746
0.8865296 -1.1436424 0.4254395 16711746
1.6277792 -2.2914953 0.8213426 16711746
0.3311988 -0.4187035 0.1880259 16711746
0.9523280 -2.0315018 0.3846762 16711746
1.2183626 -7.0365553 0.0041303 16711746
