# .PCD v.7 - Point Cloud Data file format
VERSION .7
FIELDS x y z rgb
SIZE 4 4 4 4
TYPE F F F F
COUNT 1 1 1 1
WIDTH 112
HEIGHT 1
VIEWPOINT 0 0 0 1 0 0 0
POINTS 112
DATA ascii

 0.8412249 -0.1187595 1.9296132 16777215
 0.0595854 -0.0095130 0.1328526 16777215
2.0674858 -1.8897011 1.2304574 16711746
-2.8748946 5.4648137 -6.3123946 16711746
-0.3217294 0.9480056 -0.9543573 16711746
-1.9981071 9.3584766 -10.3226776 16711746
-0.8851700 2.7512834 -3.5564935 16711746
-1.5374045 7.1346040 -8.8558073 16711746
4.8107042 -6.7211161 6.9902611 16711746
-3.8063788 10.5971165 -10.8623619 16711746
-0.6007707 0.9063169 -0.9108373 16711746
0.3018175 -1.0810205 1.0727977 16711746
-0.5112099 0.5352394 -0.6598688 16711746
-0.1443775 -0.8743901 0.6829795 16711746
-0.7398250 -1.6614391 1.1380674 16711746
0.5863560 -0.8032259 0.5042950 16711746
0.1664682 -0.8334052 0.1289143 16711746
0.1534538 -0.7503755 0.6891105 16711746
-0.1342805 -0.8839456 0.5750825 16711746
-0.2075381 -0.9872144 0.6179981 16711746
-0.8339151 -4.3527346 2.2229066 16711746
-0.1449083 -1.4974051 0.7352868 16711746
1.9348052 -2.0635629 1.5859128 16711746
-0.4977838 -1.1904507 0.3735618 16711746
0.3843625 -0.7631494 0.3594368 16711746
0.9790576 -1.6520877 1.0320591 16711746
0.9139954 -1.7943761 1.0900052 16711746
0.6126873 -0.6297312 0.1378944 16711746
-0.8835105 -1.8110099 0.4729475 16711746
0.8695541 -1.8095785 1.2089568 16711746
0.4154890 -0.8106375 0.5959517 16711746
0.8447115 -1.9410255 1.2247604 16711746
0.4839630 -0.6849324 0.7333871 16711746
4.5602608 -6.8456531 6.0504761 16711746
0.2739324 -0.7224247 0.2237926 16711746
0.0102340 -0.8212546 0.1526073 16711746
0.6685745 -1.3296964 0.8259476 16711746
-0.5807825 -1.5547354 0.9227258 16711746
0.7076482 -0.8457388 0.1983033 16711746
0.2026267 -0.8278375 0.0841762 16711746
0.7433261 -1.4271619 0.7485784 16711746
2.4871645 -1.8298725 1.0923157 16711746
0.5618604 -0.6180993 0.4044710 16711746
0.8377808 -0.8069949 0.5452461 16711746
-0.5930627 -1.1524885 0.0405847 16711746
-0.4031531 -1.3769232 0.1737785 16711746
-0.1870931 -1.1952645 0.0919883 16711746
-0.5051844 -0.9561649 0.2565081 16711746
1.0460972 -0.7337649 0.1385727 16711746
0.5882944 -0.6364123 0.1447440 16711746
0.8436602 -1.6124347 1.4378014 16711746
0.8972793 -2.1101322 0.9265326 16711746
0.3910404 -0.8276922 0.4791483 16711746
0.3195858 -0.5994269 0.3717425 16711746
0.3967950 -0.7464078 0.0936439 16711746
0.8816068 -1.0267338 0.5451357 16711746
5.9668245 10.2554970 -11.4278393 16711746
0.6607900 -0.5881743 0.1721649 16711746
0.7010972 -0.9549946 0.5260369 16711746
-0.2898829 -1.3064857 0.7375553 16711746
-0.3885468 -1.9870183 1.0152469 16711746
0.4402461 -1.1485728 0.4232432 16711746
0.4749723 -0.6792957 0.4266981 16711746
-0.4025493 -1.3876673 0.2396019 16711746
-0.4739838 -1.9619284 0.7857163 16711746
0.7105027 -1.2485613 0.6032072 16711746
0.3179639 -0.5605378 0.3327017 16711746
0.3326947 -0.7761648 0.3887406 16711746
4.2619648 -7.1268449 5.4625087 16711746
1.1400295 -0.8032992 0.5845510 16711746
-0.2041206 -0.7177244 0.2660366 16711746
-0.4045680 -1.1039078 0.1971197 16711746
1.3553594 -0.9481484 0.3118651 16711746
2.1722732 -2.0117669 1.7436285 16711746
1.4848737 -4.1212931 1.8190345 16711746
-0.0389410 -1.0610917 0.6138289 16711746
-1.5119122 -3.5907819 1.9854397 16711746
6.4223933 13.1277466 -14.4934235 16711746
5.2820621 11.2068090 -11.7090998 16711746
6.9104152 12.5728159 -14.7651806 16711746
5.0432029 12.5906935 -11.5021400 16711746
0.3274779 -0.8435166 0.0722498 16711746
0.1075711 -0.7577758 0.0788644 16711746
0.2216479 -0.8047835 0.1258181 16711746
1.1849035 -0.8498291 0.1808561 16711746
0.6921573 -0.9035514 0.1401331 16711746
0.4534948 -0.9250857 0.5375859 16711746
1.1033241 -1.6365023 0.8969983 16711746
0.8081015 -1.0679066 0.6005783 16711746
0.4876844 -0.5342038 0.2951297 16711746
0.9696699 -0.9569954 0.5333627 16711746
0.4912721 -0.4893170 0.3173105 16711746
0.2736390 -0.7125353 0.2374591 16711746
0.8462183 -1.7472515 1.3371102 16711746
4.4235592 -6.9560370 5.7194176 16711746
0.3874226 -1.5147183 1.1957742 16711746
0.3230405 -0.6296396 0.4602554 16711746
4.1042299 -7.3616486 5.0252891 16711746
0.8972213 -1.7532687 1.1539100 16711746
6.6285467 -9.1338539 6.5644321 16711746
5.7691035 -6.2592707 6.0680666 16711746
5.4672074 -6.3621626 5.7382774 16711746
3.9008770 -6.5487776 5.1781626 16711746
-3.1957681 -14.9649820 7.3434768 16711746
2.9296856 -4.1128097 4.3192816 16711746
3.5008688 -9.3663082 3.2191596 16711746
1.7466271 -5.6416178 1.9548570 16711746
12.0906324 -28.0621452 12.1155748 16711746
-3.0490336 -13.1883354 6.9804382 16711746
2.4052463 -3.8109927 3.3934121 16711746
5.3319836 -5.9845352 2.0639629 16711746
-12.9612560 -60.7948189 11.9846783 16711746
