# .PCD v.7 - Point Cloud Data file format
VERSION .7
FIELDS x y z rgb
SIZE 4 4 4 4
TYPE F F F F
COUNT 1 1 1 1
WIDTH 112
HEIGHT 1
VIEWPOINT 0 0 0 1 0 0 0
POINTS 112
DATA ascii

0.3303214 -0.9851595 0.1676342 16711746
0.3220509 -0.9228722 0.2326374 16711746
0.7897919 -3.4457452 0.3546751 16711746
0.9717452 -0.6822549 0.6110348 16711746
0.7406540 -0.8834276 0.6278224 16711746
0.7888310 -0.6359470 0.4225466 16711746
0.7969198 -0.7612950 0.4721809 16711746
-0.0194668 -0.8960962 0.2872963 16711746
0.2949530 -0.2572131 0.4363906 16711746
0.6121076 -0.4627572 0.4789741 16711746
0.5548082 -0.3136432 0.4363374 16711746
-2.0840366 4.4046264 -5.4609532 16711746
-2.3410153 3.0498393 -3.9889953 16711746
0.4179928 -0.6654695 0.8140804 16711746
-2.4106076 3.2988167 -4.0207748 16711746
0.3261645 -0.4681186 0.6794295 16711746
-0.0545088 -0.8455212 0.4070969 16711746
0.4312246 -0.7186829 0.5814762 16711746
0.8749511 -2.0841577 0.9731947 16711746
-1.6756821 -3.1119153 1.0003130 16711746
-0.5513831 -3.2707183 1.6657681 16711746
0.2613493 -0.8091879 0.3654518 16711746
-0.1900069 -1.8126507 0.1149197 16711746
0.8401693 -1.7888962 0.9587085 16711746
0.6590292 -0.7115768 0.3918172 16711746
-0.1230976 -2.3242750 0.1826198 16711746
0.4631452 -0.7869638 0.5618959 16711746
0.8051654 -1.6273414 0.9782362 16711746
0.5568960 -0.9468160 0.7440673 16711746
0.3868891 -0.6599120 0.5646005 16711746
0.3134996 -0.8966966 0.2683067 16711746
3.8707862 5.9785023 -6.4778442 16711746
4.1008873 5.7266846 -7.4293866 16711746
2.1502225 3.6526139 -4.4056954 16711746
3.6534705 5.4685855 -6.5595078 16711746
-1.7502490 -4.3660960 3.9250336 16711746
0.5288337 -1.0682081 0.4028147 16711746
0.3441035 -1.3466663 0.4101460 16711746
0.3443624 -1.4891123 0.1880512 16711746
0.4651218 -1.1138518 0.9244552 16711746
-0.8798508 -1.7427109 0.5907381 16711746
-0.7126914 -1.8044331 0.2682808 16711746
0.4618725 -1.3340870 0.3854401 16711746
0.8662539 -0.7123933 0.2884194 16711746
-0.3176877 -2.3822231 1.1761882 16711746
-1.3853112 -3.7902818 0.5292492 16711746
-1.4492502 -3.6578767 0.5057560 16711746
-1.2178570 -3.3854635 1.5989730 16711746
-0.0520285 -1.6918206 0.5154225 16711746
-0.2781968 -5.8695168 0.8792178 16711746
-1.1182630 -3.9866695 0.3695751 16711746
-2.4796073 -8.1788988 1.2898180 16711746
-0.2885408 -2.5292253 0.2377984 16711746
-1.3981411 -2.9769862 -0.0680632 16711746
-0.7398576 -2.9067833 0.2712243 16711746
-1.7160677 -2.3909206 1.0405074 16711746
-5.0285378 -6.7405372 1.3897148 16711746
0.1708329 -1.0331436 1.1483971 16711746
0.5936093 -4.6835980 5.0834002 16711746
0.3868176 -0.3272982 0.5464853 16711746
-0.3514153 -1.2091986 0.9946406 16711746
-0.3890731 -1.0001658 0.7111785 16711746
8.2029133 6.8896432 -8.4222841 16711746
0.7943775 3.0490232 -3.4599671 16711746
1.1349010 4.6352239 -5.0319562 16711746
0.8811194 -0.9476744 0.5450032 16711746
0.6477415 -0.6519376 0.4156190 16711746
0.9329647 -1.0462751 0.5561535 16711746
0.3696686 -0.5749376 0.2910889 16711746
0.4295927 -0.5963098 0.3765368 16711746
0.5597625 -0.7477803 0.4264488 16711746
0.6542448 -0.5647209 0.4349759 16711746
-3.0902691 -5.1604557 3.6996548 16711746
0.4518231 -0.6656341 0.3358955 16711746
-1.0842274 -3.6618702 1.4946979 16711746
-1.0066580 -3.7131422 1.4752966 16711746
0.4857042 -0.5437959 0.3518897 16711746
0.4796899 -0.6230308 0.6847433 16711746
0.2515211 -0.4420676 0.5468050 16711746
0.3078701 -0.4681152 0.6049452 16711746
0.2098457 -0.5786855 0.6399890 16711746
0.2922316 -2.0479195 0.1582142 16711746
0.2833597 -0.7952877 0.5667192 16711746
0.8960807 -0.7610403 0.2242270 16711746
-5.3207250 -6.5130744 1.8038002 16711746
-0.0083657 -0.6865505 0.5740743 16711746
0.7508565 -1.6736342 0.6353510 16711746
-0.0848949 -1.1373202 0.4552708 16711746
0.3057859 -0.7693863 0.6976711 16711746
-1.6300862 -3.3277416 0.7441390 16711746
-0.8196436 -1.7845129 0.4488329 16711746
-7.9049211 -12.6743164 -1.7122456 16711746
1.2601370 -5.0186043 4.6515985 16711746
0.1831860 -1.9209998 0.2318187 16711746
2.1031573 -5.0168791 2.8715625 16711746
0.9406203 -1.1698784 0.5464250 16711746
0.3151616 -0.4171962 0.4252382 16711746
0.7171669 -1.7006150 1.3643103 16711746
0.3694554 -1.7194394 1.2607216 16711746
0.5742600 -0.3591071 0.5350966 16711746
0.6032401 -0.4053418 0.5366682 16711746
0.9163423 -0.4975118 0.6836900 16711746
0.8252214 -0.4473321 0.6820586 16711746
0.5528427 -0.4789771 0.6148782 16711746
0.2305026 -0.4745904 0.3798690 16711746
-1.4967093 -3.2736993 3.2695677 16711746
-0.0641282 -1.2106799 0.2659250 16711746
0.5119948 -0.4944825 0.3540841 16711746
0.0728756 -0.9846777 0.4747817 16711746
-0.0082816 -3.5127892 1.2098252 16711746
0.6282564 -0.6334762 0.3212837 16711746
0.4399317 -0.6549453 0.3620122 16711746
