# .PCD v.7 - Point Cloud Data file format
VERSION .7
FIELDS x y z rgb
SIZE 4 4 4 4
TYPE F F F F
COUNT 1 1 1 1
WIDTH 197
HEIGHT 1
VIEWPOINT 0 0 0 1 0 0 0
POINTS 197
DATA ascii

 0.9167490 -0.1331102 2.1434083 16777215
 0.0236020 -0.0049752 0.0506117 16777215
-0.4836974 -1.0925927 0.0677638 16711746
-0.2929595 -0.6819010 0.0476127 16711746
-0.7391338 -1.6216874 0.1675035 16711746
-0.3020363 -0.6653263 0.0852576 16711746
-0.7517995 -1.5824519 0.1472487 16711746
1.6009982 -1.4364198 1.0512052 16711746
0.1317939 -1.8184098 1.5165778 16711746
0.1085228 -1.1092856 0.3863008 16711746
0.3588044 -1.0348811 0.4184337 16711746
0.2416648 -0.9598949 0.1439955 16711746
0.1026249 -0.7530842 0.1119301 16711746
-0.0893089 -1.0693532 0.6285213 16711746
-0.1117363 -1.5795015 0.8777725 16711746
0.4927865 -0.8351059 0.2971241 16711746
0.8406033 -1.4164904 0.4478805 16711746
0.8648171 -1.1396108 0.5124444 16711746
0.2229199 -0.7713409 0.1570276 16711746
0.5492268 -0.6655279 0.0966563 16711746
0.6076551 -0.6749210 0.0765955 16711746
0.2710237 -1.3744051 0.5440530 16711746
0.5749840 -0.8779287 0.4535372 16711746
-0.2339081 -0.9793171 0.2477919 16711746
-1.2227089 -1.0920038 0.3419926 16711746
-0.7332229 -0.9718124 0.1393176 16711746
0.0089051 -0.7501165 0.3168768 16711746
-0.5894105 -1.5572330 0.5643261 16711746
0.2389403 -1.5287894 0.8732805 16711746
0.1355748 -0.5667177 0.3430607 16711746
0.1668734 -0.9688970 0.5502168 16711746
0.7725866 -1.6332451 0.6038963 16711746
0.8359892 -1.6085162 0.5656918 16711746
0.7276021 -0.9122841 0.0824851 16711746
0.3103108 -0.6490418 0.2354401 16711746
0.4067487 -0.8015280 0.2677442 16711746
-0.1595842 -1.5890054 0.9453320 16711746
1.3750321 -1.9391990 1.1899215 16711746
-0.5134791 -0.9876023 0.1246244 16711746
0.1698388 -0.5437686 0.2164085 16711746
0.2274464 -0.7296458 0.1108173 16711746
0.4183780 -0.9961020 0.0978216 16711746
0.4824127 -0.6447864 0.1189962 16711746
0.4866182 -0.5925308 0.1405539 16711746
0.6736615 -1.5591787 0.7074358 16711746
0.5733987 -0.9148101 0.4550711 16711746
0.1591342 -0.6661997 0.2779729 16711746
0.2917869 -0.6558480 0.1825655 16711746
0.4883588 -1.4607074 0.4949880 16711746
1.0164965 -0.7931972 0.4139415 16711746
1.0301915 -0.8920354 0.4242120 16711746
0.7565745 -0.9636759 0.5366479 16711746
0.4401010 -0.6223121 0.1738388 16711746
0.5693644 -0.8863295 0.3022498 16711746
-0.1717234 -0.8724700 -0.0026403 16711746
-0.7027438 -1.4879075 0.5324767 16711746
-0.1941577 -0.7447562 0.2320360 16711746
0.7621770 -0.9156114 0.6423225 16711746
0.3171794 -0.9014465 0.2148540 16711746
1.0308107 -1.2928224 0.6618569 16711746
0.8530931 -1.0309750 0.5201649 16711746
0.1905030 -0.7427274 0.0870651 16711746
1.4751340 -2.2018077 1.9547005 16711746
0.9875519 -1.5545429 1.3582318 16711746
1.0622597 -1.5757530 1.3337804 16711746
0.9933029 -1.6031971 1.3628750 16711746
0.2915123 -1.0062274 0.0542004 16711746
0.0579824 -0.8124155 0.4329657 16711746
0.0271397 -0.8818963 0.4639585 16711746
0.2149622 -0.5789897 0.0415910 16711746
0.2200429 -0.5807006 0.0359868 16711746
0.1831191 -0.6925148 0.1708003 16711746
0.1461536 -0.5680416 0.1395539 16711746
0.4458077 -1.4178084 0.2811330 16711746
0.8917597 -1.9541918 1.3771482 16711746
0.6810106 -0.9524975 0.1328520 16711746
0.0356182 -1.1247104 0.6264408 16711746
0.0119152 -1.1467983 0.6162745 16711746
0.2572383 -1.1828382 0.3884565 16711746
0.1464627 -0.6508757 0.2209549 16711746
0.0424339 -1.3193026 0.5413267 16711746
0.0302970 -0.7543489 0.3166195 16711746
0.2456546 -0.7360386 0.0944762 16711746
0.2401260 -0.7423878 0.0809920 16711746
0.8079950 -1.8803931 1.6315767 16711746
0.2220594 -2.3592684 2.0471168 16711746
0.0768599 -0.6568266 0.2165071 16711746
0.2819880 -0.9807512 0.1153657 16711746
0.4693688 -0.4740267 0.0640481 16711746
0.9076082 -2.1556306 0.9153283 16711746
0.2823204 -0.6910511 0.3091089 16711746
-1.0386189 -1.1086701 0.8186009 16711746
0.5926496 -1.2538826 0.8102408 16711746
0.2721312 -0.8786931 0.3595444 16711746
0.2540541 -1.5829326 0.8450708 16711746
0.1439577 -0.6505347 0.3616452 16711746
0.2856548 -2.1201017 1.5647445 16711746
0.0999052 -0.9213724 0.7053529 16711746
0.4619964 -0.5382293 0.2050527 16711746
0.6675565 -1.2892882 0.7715250 16711746
0.2004246 -0.9275082 0.3471045 16711746
0.0995211 -0.4668472 0.1921817 16711746
0.3740313 -0.6341242 0.2090864 16711746
0.9261026 -0.9620236 0.6608730 16711746
1.3857650 -1.4916645 1.0020665 16711746
0.5017589 -0.5105426 0.3602784 16711746
0.3681292 -2.0484564 2.1116741 16711746
1.7524825 -1.7770977 1.8865577 16711746
-1.0320408 -1.2300338 0.8400229 16711746
-0.8057699 -1.0038460 0.6663014 16711746
-0.1296114 -2.0246620 1.4333894 16711746
-0.0053951 -2.3680804 1.2597209 16711746
0.8772103 2.3434277 -2.8780942 16711746
0.4103041 2.1511054 -2.7765675 16711746
0.3502331 1.7657225 -2.2369187 16711746
-0.4490373 -2.2938845 1.9653199 16711746
-0.2729322 -1.5993474 1.4175272 16711746
-0.0597811 -1.6982071 1.4972312 16711746
0.6494488 2.5023298 -2.5009878 16711746
0.5723096 2.5632038 -2.4557462 16711746
0.6415379 -1.2391725 0.7854534 16711746
0.2056976 -1.9528083 0.9386197 16711746
-0.5822486 -1.7613137 0.5313396 16711746
-0.4301853 -1.1154155 0.3340720 16711746
-0.2946502 -0.8914244 0.2672023 16711746
0.0179510 -1.7577527 0.7478582 16711746
-0.3912415 -0.7074265 0.1608106 16711746
0.1743083 -0.8119088 0.0415482 16711746
0.3040175 -0.7240089 0.0434135 16711746
0.2294272 -0.6351643 0.2134741 16711746
0.4890245 -1.5559779 0.4305859 16711746
0.1664626 -0.6465160 0.2172869 16711746
0.3937007 -0.5288720 0.2413149 16711746
0.5358866 -0.7495441 0.3039478 16711746
0.5333377 -0.7709391 0.2997552 16711746
0.3771224 -0.5808071 0.2335990 16711746
-0.2536727 -0.9011506 0.3128644 16711746
-1.0040797 -1.1250116 0.8687532 16711746
0.3556501 -0.5400521 0.0878180 16711746
0.3569898 -1.7238930 1.0370097 16711746
0.8733329 -1.5269537 0.5762200 16711746
0.3602625 -0.9817434 0.2634965 16711746
1.0224797 -1.6693945 1.3580040 16711746
0.8923248 -1.4634115 1.3733703 16711746
0.1725294 -0.9561394 0.6536825 16711746
0.5922945 -1.4297841 0.7907277 16711746
-0.0609307 2.0491972 -2.2440217 16711746
-0.3784770 1.9691530 -2.2835431 16711746
-0.4082524 2.0381258 -2.1969178 16711746
-0.4315296 1.8549758 -2.3385530 16711746
0.2647199 -0.5074489 0.5268559 16711746
1.0431150 -2.2389979 2.0403936 16711746
1.3694601 -1.8779315 1.9966683 16711746
0.8263578 -1.4312873 1.3874607 16711746
0.8021622 -1.9946357 2.0958960 16711746
-1.0648462 1.6810634 -1.9212033 16711746
0.1992608 -2.2541289 2.0722194 16711746
-0.0037910 -0.6834587 0.6797134 16711746
-0.4477217 2.0376556 -2.1640415 16711746
0.5866356 -1.0907381 0.5804543 16711746
0.0305443 -1.2288754 0.5858260 16711746
0.0582796 -1.2422141 0.5844937 16711746
0.2571114 -0.4885731 0.2654554 16711746
0.6858369 -1.5227363 0.7153281 16711746
0.5935565 -1.5169369 0.4489934 16711746
0.3157049 -0.8481876 0.2547069 16711746
0.5738569 -1.2538714 0.5631794 16711746
0.5955265 -1.2950532 0.5489179 16711746
0.9361784 -1.9050548 1.3735092 16711746
0.2013999 -0.6616514 0.1323774 16711746
0.1857737 -0.7196805 0.1337933 16711746
0.2685795 -1.0004178 0.0632374 16711746
-0.3488629 -0.8738443 0.1304028 16711746
0.0392592 -0.9332369 0.3559573 16711746
0.0617632 -1.0888605 0.6384973 16711746
0.3424238 -0.6498592 0.3922729 16711746
0.7221572 -1.3513355 0.7360278 16711746
0.5184559 -1.0894022 0.5948722 16711746
0.8935013 -0.9205723 0.5543098 16711746
0.4972633 -0.5726048 0.3331971 16711746
0.3650520 -0.5288668 0.2547295 16711746
0.4801522 -0.7603188 0.3256477 16711746
0.1752152 -0.4985714 0.2864476 16711746
0.0716015 -0.8754412 0.4724531 16711746
0.5267224 -1.2672050 0.8404029 16711746
0.4258605 -0.9649815 0.6113257 16711746
0.1981617 -1.5946032 1.0386049 16711746
1.0865198 -1.3108950 1.2538434 16711746
1.4542726 -1.6864896 1.5649343 16711746
1.1092407 -1.0967683 1.1476460 16711746
1.6000743 -1.3153822 1.0259392 16711746
0.6932186 -0.9371510 0.6918059 16711746
1.6250535 -1.4305612 1.1149629 16711746
-0.8948786 1.6365119 -2.0635812 16711746
-1.0560645 1.5803790 -1.9634649 16711746
-1.0121161 1.6517159 -1.9662671 16711746
-0.7929972 1.6458291 -2.1508901 16711746
