# .PCD v.7 - Point Cloud Data file format
VERSION .7
FIELDS x y z rgb
SIZE 4 4 4 4
TYPE F F F F
COUNT 1 1 1 1
WIDTH 195
HEIGHT 1
VIEWPOINT 0 0 0 1 0 0 0
POINTS 195
DATA ascii

-0.0265518 -0.3141117 0.1890177 16711746
0.0190989 -0.1612559 0.1284966 16711746
1.5039834 -2.0881641 0.5497518 16711746
0.1155409 -0.3014880 0.1738220 16711746
1.4054593 -1.6363035 0.5111151 16711746
1.2748823 -0.9896004 0.1631515 16711746
0.3724371 -1.2260239 0.4939434 16711746
0.1463792 -0.4241541 0.1703083 16711746
0.2333486 -0.2718602 0.0566573 16711746
1.1406999 -1.4192002 0.2079123 16711746
0.4553211 -0.6380706 0.2669969 16711746
0.3698592 -2.6922343 0.7961540 16711746
0.4846987 -0.6413740 0.0127002 16711746
1.4872437 -1.3739461 0.2795513 16711746
0.6561716 -0.8282173 0.4924468 16711746
0.1988129 -0.2403700 0.1484079 16711746
0.3140104 -0.4191631 0.2417430 16711746
-0.0182305 -0.2422521 0.1791559 16711746
0.4899864 -1.3738052 0.7902853 16711746
0.1619841 -0.4961033 0.2879304 16711746
0.4588236 -0.8118756 0.2011269 16711746
1.1647719 -2.0130701 0.6985136 16711746
1.3086474 -1.1280062 0.2178948 16711746
1.6655197 -2.3196838 0.2080130 16711746
1.5825306 -2.3898170 0.2339751 16711746
1.4447901 -2.1350305 0.1852075 16711746
1.6302882 -1.9461308 0.4804857 16711746
1.3743074 -1.7686772 0.4128670 16711746
0.1077986 -0.1981725 0.1148323 16711746
0.5935311 -1.2833589 0.6603732 16711746
2.0486853 -2.6070118 0.5110296 16711746
-0.0858645 -1.9467933 0.8933879 16711746
1.1485431 -1.9770091 0.1711304 16711746
0.3231821 -2.1659775 0.3802541 16711746
0.5595597 -1.6424924 0.3829982 16711746
0.6923568 -2.0405557 0.4264127 16711746
0.9831555 -1.6097455 0.2461267 16711746
0.9692999 -1.3998201 0.1681203 16711746
1.0482448 2.6180325 -3.2690935 16711746
0.5687004 -1.7685481 0.4935042 16711746
0.3033497 -1.0901623 0.3096085 16711746
2.0469005 -2.2101018 0.7203707 16711746
1.5708854 -1.5708402 0.4951159 16711746
1.1004902 -2.6641555 0.3386743 16711746
1.5197073 -3.6210346 0.3421335 16711746
0.1636334 -0.3994246 0.1958111 16711746
0.6034830 -1.6305023 0.7746423 16711746
0.5941596 -2.5781870 0.7654129 16711746
0.4296899 -1.8622918 0.5215699 16711746
0.6615946 -1.2003528 0.3634687 16711746
0.8565115 -1.5501100 0.4316719 16711746
0.1684067 -0.2348432 0.0939854 16711746
0.7913769 -1.7972829 0.2610258 16711746
2.2877357 -2.1412961 -0.0330764 16711746
-0.0140377 -0.3176077 0.1819725 16711746
0.7103578 -2.3163655 0.4351875 16711746
0.8247759 -2.5695944 0.4480283 16711746
0.5734287 -2.0943587 0.3718632 16711746
0.6085886 -1.0615695 0.4094818 16711746
0.4630305 -0.8173239 0.2971209 16711746
0.3957095 -0.7382802 0.1594649 16711746
0.8576185 -2.0628672 0.5304425 16711746
0.1868440 -0.5114653 0.1579587 16711746
0.3234591 -1.0171701 0.5587011 16711746
0.1394120 -0.1492534 0.0981260 16711746
0.1830672 -0.1756769 0.0535685 16711746
-0.0813682 -1.9513855 1.1030730 16711746
3.1210561 -2.3783050 0.5304428 16711746
2.0553176 -1.5633496 0.3027907 16711746
0.3639200 -1.1968564 0.3948058 16711746
0.7875916 -2.6870844 0.9102788 16711746
0.0300759 -0.1404175 0.1313579 16711746
1.5311135 -1.6589193 -0.0450275 16711746
0.0977903 -2.0656142 0.7081186 16711746
0.4473169 -1.4764310 0.7330673 16711746
0.1122654 -0.2105473 0.1583914 16711746
0.1253673 -0.2201860 0.1594661 16711746
0.1742584 -0.2757795 0.1244162 16711746
0.1555216 -0.2216666 0.1108460 16711746
0.4962724 -0.7662088 0.3546369 16711746
0.3231475 -1.0728152 0.4848549 16711746
0.5326457 -1.9234560 0.8278672 16711746
0.2239728 -0.2446223 0.1455087 16711746
1.6224058 -2.7200689 -0.2056046 16711746
0.1977946 -0.2060449 0.0693539 16711746
1.9881436 -2.2662764 0.5921982 16711746
1.0112704 -1.4930978 0.5130774 16711746
0.2724489 -0.4005454 0.1321012 16711746
0.1977868 -0.4653817 0.2456074 16711746
0.1720852 -0.4491730 0.2379501 16711746
0.1400333 -0.2716967 0.1677634 16711746
0.1738477 -0.3288923 0.1903660 16711746
0.1038743 -0.1987425 0.1416764 16711746
0.1130879 -0.2347018 0.1584054 16711746
0.3807667 -0.3375975 0.1645082 16711746
0.2388129 -0.1957070 0.0976098 16711746
0.1742399 -0.1507843 0.0759497 16711746
1.7485989 -3.0072627 0.1664100 16711746
1.5721735 -2.0954113 0.1889065 16711746
0.7713646 -0.8272929 0.1622082 16711746
0.3383569 -0.3282813 0.1156370 16711746
0.9384956 -0.8952243 0.2690962 16711746
0.3381976 -2.7118545 0.9199973 16711746
0.0402208 -0.1797098 0.1538500 16711746
0.1041780 -0.1858308 0.1256476 16711746
0.0805492 -0.1579546 0.1075927 16711746
0.1098185 -0.2069281 0.1342260 16711746
0.0979735 -0.2027619 0.1291675 16711746
0.3493925 -0.9595032 0.5936823 16711746
0.0124889 -0.3461535 0.2291014 16711746
0.1182381 -0.1142187 0.1000807 16711746
0.1577519 -0.1297569 0.1097743 16711746
0.1020170 -0.1332964 0.1205479 16711746
0.2354904 -0.1929929 0.1201316 16711746
0.1151643 -0.1672911 0.1047028 16711746
0.3475222 -0.5235512 0.3540078 16711746
0.1756598 -0.2107031 0.1414685 16711746
0.1904664 -0.1962328 0.1356198 16711746
0.0899062 2.6645603 -3.1902077 16711746
0.0706376 -0.1442133 0.1375449 16711746
0.0069370 -0.1425284 0.1385940 16711746
0.0219396 -0.1236776 0.1184597 16711746
0.0824948 -0.2584900 0.2572205 16711746
0.0363811 -0.1327078 0.1248216 16711746
0.0076169 -0.1255120 0.1374169 16711746
0.0426040 -0.1415238 0.1493360 16711746
0.1003245 -0.1256610 0.1292197 16711746
-0.0485541 -0.3000737 0.2111241 16711746
-0.0167579 -0.2936814 0.2091538 16711746
-0.0176576 -0.2350395 0.1648985 16711746
-0.0324381 -0.1611188 0.1419289 16711746
-0.0308482 -0.2731671 0.2133745 16711746
0.9835484 2.6515658 -3.1343529 16711746
0.3267656 2.6752682 -3.2476897 16711746
0.5142858 2.6438220 -3.2128835 16711746
1.2622592 -1.7905260 0.2730314 16711746
0.3312538 -0.3834055 0.0694629 16711746
1.3218089 -1.9862127 -0.0736293 16711746
0.4519951 -0.4140431 0.0815403 16711746
0.9114556 -1.7432063 0.1130700 16711746
1.4542807 -1.9451127 0.0894806 16711746
0.6947221 -3.0365522 0.6155384 16711746
0.3411923 -0.6192068 0.0372961 16711746
1.1683848 -2.2491367 0.0702831 16711746
0.8152677 -2.0321345 0.7379540 16711746
0.1542302 -2.1217484 0.6647179 16711746
0.9751453 -1.6082631 0.5432854 16711746
1.2091291 -1.8272055 0.5666671 16711746
-0.2044594 -2.4665871 0.8846616 16711746
0.1824355 -0.2221171 0.1318319 16711746
0.2097047 -0.2498658 0.1429951 16711746
0.1914162 -0.2442497 0.1376853 16711746
0.9617553 -3.0579233 0.6629390 16711746
0.9105414 -2.3901227 0.1529187 16711746
0.0908480 -2.7220933 0.8846291 16711746
0.1251350 -2.4373200 0.7714851 16711746
1.0967894 -2.3658051 0.6950879 16711746
0.8622671 -1.9909424 0.5426320 16711746
0.0709796 -0.1719678 0.0783781 16711746
0.4061617 -1.1419343 0.4681231 16711746
0.7128361 -1.3761139 0.4565998 16711746
0.7493224 -1.5165256 0.4774902 16711746
0.1673295 -0.3832460 0.1517493 16711746
0.9024734 -1.9855621 0.6104329 16711746
-0.1337219 -2.6764276 1.0658216 16711746
0.7452874 -1.9089203 0.2559341 16711746
1.2523555 -3.5474112 0.6779051 16711746
1.8065623 -2.8615873 -0.0241945 16711746
0.1390738 -0.3362762 0.0974525 16711746
0.8310263 -2.3034234 0.6156154 16711746
0.8549861 -2.1664243 0.5186040 16711746
0.1896304 -0.6412424 0.1786704 16711746
0.5428886 -1.8113464 0.4533998 16711746
0.5523627 -1.9418776 0.4660753 16711746
1.0851356 -1.6782732 0.1189045 16711746
1.7224027 -2.6028612 0.1032798 16711746
1.4357015 -3.2169189 0.5254691 16711746
0.0915893 -0.1537508 0.1164730 16711746
0.0761557 -0.1637237 0.1403388 16711746
0.0810761 -0.1269682 0.1155917 16711746
0.0259465 -0.2551453 0.1818370 16711746
0.0117688 -0.1447746 0.1264130 16711746
0.0346323 -0.1778892 0.1438706 16711746
0.6184810 -1.0094981 0.9133033 16711746
3.1329296 -8.8487682 0.1886840 16711746
0.5236508 -0.5498616 0.5111395 16711746
6.3656654 -11.9151201 8.2374716 16711746
0.9236391 -1.7739998 1.1825027 16711746
0.8899583 -1.8054701 1.2160738 16711746
-0.4128003 -6.5232401 2.7200022 16711746
5.4847322 -8.2890797 8.3159895 16711746
3.5687134 -8.2580662 3.9136720 16711746
0.0006652 -10.8909464 4.5191765 16711746
0.1940187 -0.5365307 0.6715142 16711746
3.0830333 -40.2239456 8.2082281 16711746
