# .PCD v.7 - Point Cloud Data file format
VERSION .7
FIELDS x y z rgb
SIZE 4 4 4 4
TYPE F F F F
COUNT 1 1 1 1
WIDTH 95
HEIGHT 1
VIEWPOINT 0 0 0 1 0 0 0
POINTS 95
DATA ascii

-0.2268970 -0.9835860 0.6840193 16711746
-0.2784814 -0.9598842 0.6200976 16711746
0.3650262 0.4158041 -0.4071375 16711746
0.3747927 0.3543342 -0.4136099 16711746
0.4435459 0.4495687 -0.3488625 16711746
0.4582164 0.4008655 -0.3409072 16711746
0.1097199 0.4427047 -0.5573575 16711746
0.2717431 -0.8322753 0.6633392 16711746
0.3478035 -1.0987737 0.7651355 16711746
0.8532016 -0.5055987 0.6049203 16711746
-0.1594274 0.4626763 -0.6348430 16711746
0.4355929 -0.6091783 0.7560338 16711746
0.3250344 -0.6345876 0.8111587 16711746
0.4403735 -0.5733485 0.8001470 16711746
0.2959108 0.4248006 -0.4170716 16711746
-0.0155241 -1.0573964 0.6263188 16711746
-0.0469447 -0.9407344 0.5451121 16711746
-0.0132271 -0.9264071 0.6182166 16711746
-0.3449124 -1.1728209 0.3269693 16711746
-0.9897164 -0.9734760 0.3855298 16711746
-0.0106649 -0.9976861 0.5043560 16711746
-0.1971679 -1.2618823 0.7896963 16711746
0.4899913 0.4884734 -0.3430193 16711746
0.7702624 0.6379180 -0.3863013 16711746
0.0208451 -0.7942294 0.7468908 16711746
-0.0353059 -0.8150581 0.7279511 16711746
-0.0491225 -0.8681639 0.7509367 16711746
-0.4554313 -0.8780287 0.6557329 16711746
-0.2265606 -0.8752019 0.7239341 16711746
-0.3479332 -0.8761305 0.6963854 16711746
0.0516851 -0.7265327 0.8061073 16711746
-0.6442696 0.3783786 -0.7125798 16711746
-0.6244879 0.3908951 -0.8036902 16711746
0.5490643 -0.5828761 0.7580783 16711746
0.7229947 -0.5445149 0.7927033 16711746
-0.6922651 -0.8554970 0.6659954 16711746
-0.1527947 -1.0596662 0.6179870 16711746
0.0310775 -0.8484750 0.7111461 16711746
0.0130927 -0.8550016 0.6834024 16711746
0.5770257 0.5800427 -0.3837605 16711746
0.5991865 -0.8046222 0.4606428 16711746
-0.4245836 -0.9522106 0.7133085 16711746
0.5248867 0.5162401 -0.4123175 16711746
0.2947080 -0.7739664 0.8385511 16711746
0.3247791 0.4764012 -0.3912958 16711746
0.1339734 -0.9249976 0.6524779 16711746
0.8271496 -0.5223829 0.5919279 16711746
0.3131825 -1.1022772 0.5268211 16711746
0.1058962 -0.9771775 0.7348561 16711746
0.2884346 -0.7423375 0.7664593 16711746
0.4510069 0.3504645 -0.3412932 16711746
0.5014510 -0.9650880 0.5078579 16711746
0.0108303 -1.0983536 0.4895248 16711746
0.2751965 -0.8400758 0.5729343 16711746
-0.8924333 -1.0250998 0.4667866 16711746
0.5096940 -0.8811482 0.6497410 16711746
0.2205788 0.4428923 -0.4453848 16711746
0.2481941 0.3998401 -0.4434009 16711746
-0.0269943 -0.7883270 0.7890949 16711746
0.0330234 0.0228777 0.0382814 16711746
0.2723283 0.4682074 -0.4418090 16711746
-0.6057996 -1.2871596 0.4281996 16711746
0.3801961 -0.8503826 0.7648540 16711746
0.4712745 -0.7723365 0.7195070 16711746
0.5058894 -0.7051405 0.6587200 16711746
0.3741128 -0.7364803 0.7429676 16711746
0.3265273 -0.8879036 0.7570770 16711746
0.1146610 -0.7908228 0.6859492 16711746
0.2915182 -0.7591765 0.7328195 16711746
-0.2142692 -1.1857486 0.5165039 16711746
-0.1868573 -1.0777137 0.6129810 16711746
-0.0272144 -0.9212166 0.6999850 16711746
-0.3435572 -1.0657187 0.5850376 16711746
0.2599135 -0.8961202 0.4626326 16711746
0.4346692 -0.8550066 0.7868833 16711746
-9.7385902 -12.6274872 2.5709205 16711746
5.4300818 -6.3109765 10.2187386 16711746
36.9938660 -112.9678268 44.1525841 16711746
23.1582794 -22.2701721 9.8543663 16711746
31.2194519 -111.4591064 54.0568314 16711746
42.3507576 -162.6092529 72.2223892 16711746
15.5325031 -54.5369644 31.3589153 16711746
49.1189117 -84.0622406 72.7676468 16711746
6.2967229 -7.3146157 11.8347540 16711746
-14.3248425 -152.4628754 62.5859756 16711746
108.9859543 -251.8823700 94.1753311 16711746
-0.3375756 -39.9413414 31.9436684 16711746
61.3423882 -146.5428925 52.1520805 16711746
97.6808548 -220.3226471 96.8047943 16711746
24.3643627 -13.1652479 10.0737820 16711746
55.7877464 -109.2526779 53.4535294 16711746
47.7566452 -168.3795319 39.6002388 16711746
-8.5412531 -349.1187134 79.3320694 16711746
-16.6846962 -266.9736023 60.5867882 16711746
70.3669510 -206.0193939 39.6677628 16711746
