# .PCD v.7 - Point Cloud Data file format
VERSION .7
FIELDS x y z rgb
SIZE 4 4 4 4
TYPE F F F F
COUNT 1 1 1 1
WIDTH 167
HEIGHT 1
VIEWPOINT 0 0 0 1 0 0 0
POINTS 167
DATA ascii

 0.7204514 -0.0969278 1.6268651 16777215
 0.0173062 -0.0025011 0.0467602 16777215
0.4762643 -0.5551050 0.6241625 16711746
1.1458972 -1.2721753 1.3430041 16711746
0.5215233 -0.6000133 0.6531146 16711746
0.5798703 -0.4575316 0.5751076 16711746
0.4515859 -0.4489709 0.5716268 16711746
-0.4298108 -4.4645019 2.3469803 16711746
0.0853312 -1.7044619 0.1865821 16711746
0.6262854 -3.6718388 0.4887604 16711746
0.4214146 -1.3692374 0.0497055 16711746
0.2556351 -2.9006155 0.0116303 16711746
0.2386143 -3.2636633 -0.0308285 16711746
0.2594587 -2.7882445 0.1965697 16711746
0.1010290 -1.6003338 0.1353043 16711746
0.2600445 -1.0804397 0.1043753 16711746
0.5555058 -2.5896304 0.1205068 16711746
0.4780032 -0.5055156 0.1248022 16711746
0.2114254 -1.4595070 1.1071730 16711746
0.3679614 -0.4558464 0.0552034 16711746
0.4361539 -0.6782908 0.3597364 16711746
0.2642358 -0.3541018 0.2057018 16711746
0.3358750 -0.7133964 0.1133693 16711746
0.6189052 -1.3537331 0.1511025 16711746
0.0575853 -1.9735521 0.3641523 16711746
0.3988645 -0.5242942 0.1692444 16711746
0.5189762 -0.6568956 0.1864476 16711746
0.5880874 -2.8781018 0.4600550 16711746
0.5721872 -3.6929853 0.5835519 16711746
0.1755080 -0.7581078 0.2889028 16711746
0.4556755 -0.5915726 0.1580352 16711746
0.7976425 -1.1558042 0.8402832 16711746
0.7219533 -1.8115538 1.4866395 16711746
1.0991944 -2.0807121 1.8180459 16711746
0.3977929 -2.7623317 2.1893990 16711746
1.3024150 -3.0004930 1.6948434 16711746
0.8487583 -1.3593987 0.7953389 16711746
0.4390648 -1.2255945 0.8495769 16711746
0.6917564 -1.5114812 1.0071306 16711746
0.5178857 -0.8795279 0.6245031 16711746
0.6379512 -1.3148714 0.9067954 16711746
0.9599696 -1.1589354 0.9679781 16711746
0.7358007 -1.0256622 0.7871093 16711746
1.5159369 -1.5763940 1.5920385 16711746
1.1554440 -1.3967171 1.3202171 16711746
1.1944873 -1.4671633 1.3556768 16711746
0.3198648 -0.3006554 0.0844568 16711746
0.2995129 -0.9142555 0.4002283 16711746
1.3437793 -3.0366781 1.4855815 16711746
0.1924106 -0.7077643 0.2336042 16711746
0.1737648 -0.9169412 0.3120616 16711746
0.3668988 -0.2656702 0.1646772 16711746
0.4471135 -0.3609188 0.1993333 16711746
0.5132253 -0.2972352 0.1628827 16711746
0.5261117 -0.3910501 0.2320653 16711746
-0.2247961 -2.9799709 1.2348289 16711746
0.4250575 -0.4341888 0.3960137 16711746
0.3404823 -0.7775871 0.1395393 16711746
0.4076214 -0.8004699 0.0220324 16711746
1.0389861 -1.1780999 0.9800112 16711746
0.5334311 -0.6432744 0.5215001 16711746
0.3403657 -0.2716512 0.1374779 16711746
0.2510724 -0.6830878 0.4650559 16711746
0.3539500 -0.6512274 0.3766922 16711746
0.5325294 -0.6979348 0.4506525 16711746
0.7049622 -1.0206058 0.6329910 16711746
0.0010101 -3.6394265 1.5378786 16711746
0.3709036 -0.8650022 0.2115326 16711746
0.2922507 -0.7397429 0.1884336 16711746
0.3685136 -0.2871875 0.2081347 16711746
0.2800193 -1.0942905 0.1478909 16711746
0.2831440 -1.2518868 0.1572283 16711746
0.5208172 -1.1869059 0.2054173 16711746
0.3298021 -0.6683218 0.1230358 16711746
0.4884230 -0.8438247 0.1150745 16711746
0.3266855 -0.6145270 0.0911408 16711746
0.6031525 -3.1709123 0.3850994 16711746
0.3148701 -2.0890257 0.2556871 16711746
0.2950328 -1.9243152 0.2171287 16711746
0.2603570 -0.8553813 0.0789221 16711746
0.3864533 -0.9314793 0.3601647 16711746
0.9385139 -2.5432453 0.8960196 16711746
0.6329907 -0.7719170 0.5795507 16711746
0.3390194 -0.7497569 0.6046343 16711746
1.2049229 -3.9819551 2.8294613 16711746
1.1613166 -2.4519749 2.2415314 16711746
1.1752636 -3.2519243 2.8888142 16711746
0.3828652 -0.4200164 0.1225659 16711746
0.3926069 -0.4550132 0.1186513 16711746
0.3900762 -0.5984558 0.1224774 16711746
0.4086812 -0.6757844 0.1119344 16711746
0.4648188 -0.4951753 0.1584364 16711746
0.4701047 -0.8335341 0.2102930 16711746
0.4881930 -0.9112298 0.2241741 16711746
0.5027277 -0.9650856 0.2229983 16711746
0.2754866 -0.9566320 0.3161601 16711746
0.2667390 -0.2996265 0.1230034 16711746
0.3500771 -0.6948505 0.3299451 16711746
0.3894677 -0.8106877 0.3748370 16711746
0.5261746 -0.9647068 0.5716028 16711746
1.2742339 -2.7533419 1.4989797 16711746
0.3652402 -1.0447736 0.2220252 16711746
1.3739967 -3.7772579 2.1921079 16711746
0.2439694 -0.7401650 0.4597027 16711746
0.2730501 -1.6718010 0.1717587 16711746
0.3908683 -0.4408448 0.1118904 16711746
0.3817797 -0.9051676 0.1731512 16711746
0.3145760 -0.7221066 0.0596782 16711746
0.1002160 -0.7470484 0.2560306 16711746
0.1340701 -1.1408938 0.3553779 16711746
0.4064302 -4.3605223 3.3583102 16711746
-0.1605592 -2.5244589 1.3039684 16711746
0.2582086 -0.7698031 0.1107910 16711746
0.3125946 -0.5679409 0.1669650 16711746
0.6309681 -0.5147290 0.5340202 16711746
0.4550360 -0.3118030 0.2878279 16711746
0.4163955 -0.2303231 0.2464836 16711746
0.5562531 -0.6671527 0.4670594 16711746
-1.1027851 2.2808480 -2.9409895 16711746
-1.0902932 2.3510168 -2.8394587 16711746
-2.6320081 3.2590561 -4.2141151 16711746
1.1567243 -3.2272842 3.1204245 16711746
1.1540247 -3.3654759 3.0061071 16711746
0.6456993 -0.8861911 0.9888455 16711746
1.5607550 -2.3453312 2.2448480 16711746
0.9610828 -1.6453686 1.5846847 16711746
1.4221500 -1.9586481 2.2323596 16711746
-2.8460379 2.8885398 -3.9869158 16711746
0.4904255 -0.5283368 0.6026804 16711746
0.3659882 -0.3896779 0.1567786 16711746
1.1497885 -2.2761905 1.3939297 16711746
1.2420957 -2.5030479 1.2257550 16711746
0.6710753 -1.4444845 0.7121577 16711746
1.3230207 -2.7969103 1.2580158 16711746
0.3728198 -0.6567424 0.1133091 16711746
0.4359688 -0.6783835 0.1811644 16711746
1.7888246 -3.7261033 2.3951836 16711746
0.5113001 -1.8644404 0.2922518 16711746
0.3147120 -0.4819511 0.0555877 16711746
0.5576822 -0.4069364 0.1873330 16711746
-0.0331983 -1.2533863 0.3402948 16711746
0.3685167 -0.8140692 0.1813343 16711746
0.7859797 -1.8092952 0.3121870 16711746
1.4147145 -3.5760872 1.6122179 16711746
0.5247822 -2.1356518 0.5292403 16711746
0.2170107 -0.6768223 0.1211946 16711746
0.8193752 -2.0236578 0.8736739 16711746
1.4372241 -3.8134825 1.6296306 16711746
0.6729252 -1.5815698 0.6849724 16711746
0.4038202 -1.0228571 0.3566785 16711746
0.4277935 -0.6442185 0.1788988 16711746
0.8310772 -1.2146643 0.8254305 16711746
0.6200700 -0.8359309 0.5777030 16711746
0.9371172 -1.5493166 1.3286490 16711746
0.6750336 -1.0494350 0.5826949 16711746
0.4044432 -0.5401289 0.3099317 16711746
0.3289480 -0.3171699 0.1001763 16711746
4.0697422 -4.5956388 6.9419007 16711746
3.0405414 -4.8191595 4.2764492 16711746
24.7334137 -52.8148041 26.1374207 16711746
6.1048021 -47.8842545 43.4580383 16711746
5.5529943 -34.0018997 30.2888279 16711746
2.4643621 -5.6532345 2.5714107 16711746
7.7924623 -62.4978714 46.8094101 16711746
-5.2888207 -54.2769928 42.1266174 16711746
6.3734479 -89.6863022 49.1386032 16711746
0.4768351 -3.8015611 2.9151673 16711746
