# .PCD v.7 - Point Cloud Data file format
VERSION .7
FIELDS x y z rgb
SIZE 4 4 4 4
TYPE F F F F
COUNT 1 1 1 1
WIDTH 146
HEIGHT 1
VIEWPOINT 0 0 0 1 0 0 0
POINTS 146
DATA ascii

 1.5047832 -0.2407331 3.6902490 16777215
 0.0196425 -0.0025711 0.0667889 16777215
0.0908225 -0.9475357 0.3124698 16711746
0.2354559 -0.9460436 0.3236716 16711746
0.2202716 -0.9537102 0.3438668 16711746
-0.0045257 -0.9773576 0.1633378 16711746
-0.0448701 -0.9914060 0.2322698 16711746
-0.0736222 -1.1308547 0.2362412 16711746
0.0376368 -1.0766896 0.4316346 16711746
-0.2989879 -1.2156762 0.5252359 16711746
-0.6003950 -1.6634816 0.7693032 16711746
0.3731707 -0.7837878 0.1768128 16711746
0.6683344 -0.8769731 0.0548076 16711746
0.5029131 -0.8665850 0.5333692 16711746
0.1975089 -0.9387509 0.0964342 16711746
0.3182178 -0.9862050 0.4004283 16711746
0.2872180 -0.8874249 0.3445071 16711746
0.3217668 -1.0284607 0.3300990 16711746
0.1598887 -1.0230846 0.9602444 16711746
-0.1674352 -1.3564454 0.6832889 16711746
-0.1915976 -1.4214225 0.6818787 16711746
0.4981841 -0.9614701 0.6824967 16711746
0.4799517 -0.8168049 0.5688191 16711746
0.0316241 -1.0372959 0.2558159 16711746
0.0149028 -1.0587808 0.2420115 16711746
0.4993126 -0.7741862 0.7463109 16711746
0.6450469 -0.9447040 0.8429327 16711746
0.1576323 -1.0197994 0.7396872 16711746
0.1635605 -1.1275401 0.9319891 16711746
0.6117330 -0.9715398 0.6034493 16711746
0.7950958 -0.7501307 0.0085668 16711746
-0.3537082 -1.3801340 0.6483097 16711746
-0.1889438 -1.3065618 0.4019210 16711746
0.2663809 -0.7539196 0.4742142 16711746
0.3816930 -0.8012823 0.1010209 16711746
0.4934736 -0.9567746 0.4583141 16711746
0.1515211 -0.9656470 0.1432033 16711746
0.0084680 -0.8915224 0.4701293 16711746
-0.9079905 -1.5131181 0.7387822 16711746
-0.1296746 -1.0290046 0.6712464 16711746
-0.2003733 -1.1231507 0.6876801 16711746
0.3098731 -0.9644812 0.1466541 16711746
0.1625499 -0.9461673 0.1827219 16711746
0.2559278 -1.0109955 0.1446349 16711746
0.3087300 -1.0929590 0.2652682 16711746
0.0996325 -0.8184115 0.0384993 16711746
0.1994925 -1.0787399 0.0591777 16711746
0.6320994 -1.1544020 0.7506731 16711746
0.0722974 -1.0353854 0.6249146 16711746
0.5049065 -0.8717540 0.7123322 16711746
0.6104903 -1.0482553 0.8256602 16711746
0.2940415 -0.9153660 0.6576325 16711746
0.1849906 -0.9981955 0.3241164 16711746
0.2833175 -0.9666008 0.2036306 16711746
0.6631366 -0.8968718 0.6034445 16711746
0.2783079 -0.7896274 0.0890571 16711746
0.3076573 -0.8414323 0.0777635 16711746
0.6899511 -0.7868450 0.0885072 16711746
0.4160831 -1.1469198 0.3332224 16711746
0.7551284 -0.8419715 0.2076084 16711746
0.6764254 -0.8533875 0.4106895 16711746
0.4469795 -0.9541380 0.0957201 16711746
0.4728549 -0.9922734 0.1331294 16711746
0.5364160 -0.8998069 0.6845193 16711746
0.7973364 -0.7950191 0.0443350 16711746
0.7957104 -0.8527275 0.5954002 16711746
-0.0934690 -1.3948823 0.8370720 16711746
-0.1473772 -1.4765939 0.9018148 16711746
-0.0796972 -1.4292061 0.7877221 16711746
-0.0963155 -1.2407143 0.6841661 16711746
0.5429164 -1.1599007 0.4613170 16711746
-0.8529282 -1.1960396 -0.0454154 16711746
-0.1565554 -1.2988769 0.7213967 16711746
-0.2114327 -1.3980263 0.7386163 16711746
0.6385976 -0.8965523 0.4309906 16711746
0.2693195 -0.8210400 0.4261426 16711746
0.2459601 -1.0645034 0.3996908 16711746
0.9644356 -0.7125607 0.0990777 16711746
0.9567334 -0.8622478 0.1042261 16711746
0.8410790 -0.7247985 0.0768351 16711746
0.4632393 -0.9715847 0.4896443 16711746
0.2240974 -1.4537216 0.6948071 16711746
0.9651120 -0.7278997 0.0546093 16711746
0.8948478 -0.7433149 0.0673323 16711746
-0.4334261 -1.3660492 0.4614029 16711746
0.3256105 -1.0293672 0.3228758 16711746
-0.0142249 -1.0158947 0.3639274 16711746
0.5544494 -0.9262393 0.6559676 16711746
0.1943232 -1.1638675 0.3415338 16711746
0.6710669 -0.7900466 0.6699293 16711746
0.6629733 -0.7694728 0.4666452 16711746
-0.4788756 -1.3960662 0.5679452 16711746
0.3018028 -0.8560777 0.1088363 16711746
0.4045080 -1.0563293 0.4732295 16711746
0.6962196 -0.7693290 0.1585551 16711746
0.3125560 -0.9488920 0.1852155 16711746
0.4068125 -0.7939195 0.0378388 16711746
0.6338379 -0.8815114 0.1276058 16711746
0.4435584 -1.0113184 0.4745392 16711746
-0.1107078 -1.1882044 0.2185820 16711746
0.6136881 -0.8902797 0.1399218 16711746
0.5107471 -0.9137952 0.2926117 16711746
0.9711273 -0.7558184 0.2254508 16711746
0.1634968 -0.9687868 0.0511550 16711746
0.4117285 -0.9975781 0.0550790 16711746
0.3920125 -0.9684494 0.3598373 16711746
0.9020997 -0.7500733 0.6034492 16711746
0.8794796 -0.7607777 0.6029668 16711746
0.8806663 -0.7424694 0.1071926 16711746
0.2841652 -0.9701926 0.1928116 16711746
0.2881393 -0.9725949 0.1772250 16711746
0.4513085 -0.9309413 0.5279899 16711746
-0.1211855 -1.4847913 0.8306778 16711746
0.0974969 -1.1212698 0.5290794 16711746
-0.7781597 -1.2673715 -0.0260917 16711746
-0.7735415 -1.2614926 -0.0352952 16711746
0.1880926 -0.9413536 0.1223010 16711746
0.2311594 -1.0417284 0.1091008 16711746
0.1728109 -0.9771475 0.3702953 16711746
0.5993056 -0.8655729 0.0182504 16711746
0.1515124 -0.8463092 0.1860081 16711746
0.8082440 -0.8941189 0.2467223 16711746
0.5550045 -0.7897285 0.1414008 16711746
-0.3176503 -1.2553922 0.4979269 16711746
-0.0481115 -0.9637111 0.2559409 16711746
0.3854410 -1.0345849 0.2098343 16711746
0.3366950 -1.0766224 0.2165651 16711746
0.1195136 -0.9582812 0.2446665 16711746
0.4045339 -0.9079954 0.0808660 16711746
0.4016839 -1.0366427 0.0763700 16711746
0.3016164 -0.9766546 0.0384884 16711746
0.1615938 -0.9706407 0.0776740 16711746
0.6378002 -0.8722797 0.1470894 16711746
0.8394848 -0.8170675 0.1857129 16711746
0.8003234 -0.7740832 0.1538091 16711746
0.5648429 -0.6930803 0.0281849 16711746
0.0770588 -1.0381719 0.4230479 16711746
0.4851222 -0.8859128 0.3178938 16711746
0.5051406 -0.8048308 0.5596255 16711746
0.1712525 -1.1397359 0.6709262 16711746
0.0671315 -1.1625012 0.7753461 16711746
0.2007671 -1.0498174 0.6876073 16711746
0.9016255 -0.6281375 0.6792060 16711746
0.8773394 -0.6680386 0.6810945 16711746
0.1885079 -0.9746068 0.9373513 16711746
0.2586989 -0.7624919 0.8891161 16711746
