# .PCD v.7 - Point Cloud Data file format
VERSION .7
FIELDS x y z rgb
SIZE 4 4 4 4
TYPE F F F F
COUNT 1 1 1 1
WIDTH 54
HEIGHT 1
VIEWPOINT 0 0 0 1 0 0 0
POINTS 54
DATA ascii

 1.5094625 -0.2473710 3.7393019 16777215
 0.1163223 -0.0203029 0.2839543 16777215
0.6508411 -0.9746943 0.8834440 16711746
1.0004792 -1.7089823 1.3079301 16711746
0.6248752 -1.0849937 1.0305507 16711746
2.1231153 -3.2063487 2.8434873 16711746
0.9812281 -1.5722003 1.4301457 16711746
0.5966806 -0.8289803 0.8621373 16711746
3.9266243 -9.8645334 8.3272810 16711746
0.6360086 -1.1690586 1.1912739 16711746
1.0470062 -1.5073066 1.6184579 16711746
1.0242434 -1.6565385 1.5974737 16711746
0.5029535 -0.8275205 0.7135492 16711746
4.6208954 -5.5760188 4.6643796 16711746
0.8758067 -0.8555053 0.8172441 16711746
0.5218974 -0.5923792 0.6336179 16711746
-2.5008793 6.4990625 -7.2046332 16711746
-0.2063964 0.3931386 -0.2773420 16711746
-2.8586857 4.0159554 -4.8109322 16711746
0.4390958 -0.6001589 0.6769558 16711746
0.4704680 -0.6443183 0.6891334 16711746
1.2657251 -2.3754897 1.8003267 16711746
0.6232360 -0.6416982 0.5101206 16711746
0.2670448 -1.3841468 0.8882682 16711746
0.3172148 -0.6318409 0.6307683 16711746
0.2588156 -1.2261400 0.7431073 16711746
0.3294599 -0.6522895 0.4920506 16711746
0.7054315 -1.6657696 1.3302875 16711746
0.2689418 -1.1120511 1.0569606 16711746
0.5088565 -0.3909728 0.2610222 16711746
0.5586740 -0.5318872 0.2715196 16711746
0.5135955 -0.3886489 0.2946437 16711746
0.5970243 -0.6238633 0.7213657 16711746
0.2543327 -0.9822385 1.1626902 16711746
0.2118163 -1.4269232 1.5564435 16711746
0.7504454 -1.2213781 0.9892340 16711746
0.5283733 -0.7715256 0.6954750 16711746
0.6397181 -1.0413073 0.8571317 16711746
0.5329967 -0.8010617 0.8204899 16711746
1.0060998 -1.0124811 0.8193769 16711746
-3.2783706 6.1564298 -8.7856340 16711746
-1.2544982 12.3022680 -12.8231850 16711746
2.0941715 -3.8727307 3.7497644 16711746
0.6124464 -1.2682334 1.4199773 16711746
3.3703845 -4.9815302 4.9675555 16711746
-0.2823333 0.7291815 -0.5312526 16711746
0.5829488 -5.0799565 5.1013708 16711746
0.0974146 -0.9589038 1.1605767 16711746
-0.3204435 0.3146204 -0.2101345 16711746
-1.5435351 1.6141520 -2.2323534 16711746
-4.5174046 4.0963640 -4.7603340 16711746
0.3715357 -0.5456378 0.5334453 16711746
0.3175624 -0.7487783 0.5295824 16711746
0.2678419 -0.5569077 0.4280436 16711746
