# .PCD v.7 - Point Cloud Data file format
VERSION .7
FIELDS x y z rgb
SIZE 4 4 4 4
TYPE F F F F
COUNT 1 1 1 1
WIDTH 62
HEIGHT 1
VIEWPOINT 0 0 0 1 0 0 0
POINTS 62
DATA ascii

 1.7390096 -0.2780805 4.2623043 16777215
 0.0252261 -0.0090952 0.0684689 16777215
0.5046679 -0.7483708 0.5781144 16711746
0.2311918 -0.8089339 0.8519375 16711746
0.4795560 -0.6987518 0.8060536 16711746
-0.4761483 0.6843807 -0.8100910 16711746
-0.6956838 0.8293321 -0.9703218 16711746
-1.4532033 -1.3968960 0.6893755 16711746
-0.0683511 -1.0805054 0.7875590 16711746
0.1813436 -0.9207016 0.7194899 16711746
0.4091559 -0.7453046 0.5691386 16711746
0.4861023 -0.8235856 0.6127124 16711746
-0.4371558 -1.4125550 0.3280557 16711746
-1.1791337 -2.0153453 0.6282650 16711746
0.3879899 -0.6862632 0.0802080 16711746
-0.1963548 -1.3618274 0.0857636 16711746
0.3601556 -0.8507237 0.3490740 16711746
-0.1082061 -0.8846421 0.2034608 16711746
-1.9172156 -1.4936366 0.6879784 16711746
-1.5491476 -1.3375585 0.5844021 16711746
-0.0983480 -1.3410791 0.3109095 16711746
-0.0837861 -1.2191463 0.3188997 16711746
0.4262927 -0.7422374 0.6249685 16711746
0.3958842 -0.8368207 0.6846861 16711746
0.3572465 -0.9088493 0.4766643 16711746
-0.1997621 -1.3914933 0.2971014 16711746
-0.1794143 -1.3596102 0.4154825 16711746
0.3781793 -0.7554939 0.0499786 16711746
-0.0163435 -1.2156373 0.6911051 16711746
0.2073132 -0.9704672 0.6384174 16711746
-0.0167781 -1.1379788 0.0409929 16711746
0.4469671 -0.8529950 0.5972674 16711746
0.2054378 -0.6592936 0.1024390 16711746
-1.1305301 -1.6417657 0.6998203 16711746
0.3577427 -0.9944603 0.4500597 16711746
-0.5902938 -1.7362655 0.4832016 16711746
0.0884099 -1.0699449 0.1901415 16711746
0.5246602 -0.6253869 0.5752010 16711746
0.5543293 -0.6870041 0.6246215 16711746
0.1848790 -0.5525109 0.0539751 16711746
0.5744360 0.8591428 -0.9284708 16711746
-0.1043227 -1.3104608 0.4107623 16711746
-0.1802524 -1.5871589 0.4437905 16711746
-0.8649562 -1.8583225 0.4600320 16711746
-0.0390873 -1.1165199 0.1949144 16711746
0.1407842 -0.8173447 0.0808918 16711746
-0.0351207 -0.9906629 0.7577498 16711746
0.2282414 -0.9466960 0.7185311 16711746
0.4076775 -0.7313883 0.5204364 16711746
0.4807121 -0.7135296 0.6651027 16711746
0.6219245 -0.6192071 0.6448951 16711746
0.5453150 -0.5834647 0.6728353 16711746
0.6348368 -0.5981077 0.6746178 16711746
0.7519049 -0.5935467 0.5673648 16711746
-0.3711465 -0.9951455 0.7774952 16711746
-0.4716870 -0.9163793 0.7428694 16711746
0.4280513 0.8151461 -0.7859028 16711746
0.1573488 0.6090230 -0.6590747 16711746
0.1368088 0.5865002 -0.5101593 16711746
-0.5463644 -1.0469819 0.8560286 16711746
0.1555940 -0.8188542 0.0525620 16711746
0.1495887 -0.7829198 0.0959445 16711746
