# .PCD v.7 - Point Cloud Data file format
VERSION .7
FIELDS x y z rgb
SIZE 4 4 4 4
TYPE F F F F
COUNT 1 1 1 1
WIDTH 64
HEIGHT 1
VIEWPOINT 0 0 0 1 0 0 0
POINTS 64
DATA ascii

 1.7863591 -0.2887509 4.4397435 16777215
 0.0263721 -0.0072117 0.0602304 16777215
0.3213268 1.8457576 -2.1271243 16711746
0.3760799 1.9122859 -2.3007786 16711746
-0.2445050 -0.4958283 0.4783414 16711746
0.1165289 -1.0331291 0.4185240 16711746
2.2819667 -1.6861571 0.8755969 16711746
-0.5020207 0.6280046 -0.8929419 16711746
-0.3635766 1.4904765 -1.9350744 16711746
0.3911656 -0.9244589 0.9979870 16711746
0.6823949 -1.2537163 1.2556145 16711746
0.4787104 -0.7095687 0.7985521 16711746
0.6267193 -0.9384581 0.9620249 16711746
0.5480565 -1.4538587 1.6370151 16711746
0.0743346 -0.5008879 0.4279977 16711746
0.1834733 -0.7684882 0.6249284 16711746
0.1477973 -1.0381612 0.8355341 16711746
0.2547204 -0.8221489 0.5209191 16711746
0.2382666 -0.7506199 0.5010617 16711746
1.1079155 -0.6062757 0.7528718 16711746
0.2681129 -0.2847788 0.2926390 16711746
0.4425534 -0.8099882 0.9327338 16711746
0.6347046 -1.5113354 1.6501085 16711746
0.1487249 -1.4741001 1.4424810 16711746
0.0858908 -0.2427003 0.3024715 16711746
0.2406576 -1.1683220 1.2075212 16711746
1.0890504 -0.7334231 0.9515431 16711746
-0.9808936 0.9107429 -1.2028561 16711746
0.1203071 -0.5771989 0.3938881 16711746
0.0678402 -0.7705298 0.6915181 16711746
0.0345941 -1.0269773 0.8956649 16711746
0.8786560 -1.9115815 1.4378133 16711746
0.3855485 -1.0442485 0.8162625 16711746
0.1363428 -0.2365787 0.2662058 16711746
0.6536732 -1.0565785 1.0058782 16711746
1.1205215 -1.8689982 1.3116159 16711746
0.4070100 -1.1412435 1.0112456 16711746
0.5445730 -0.5382670 0.5043338 16711746
1.4575809 -1.0062089 0.4785186 16711746
0.4969634 -0.8377578 0.5750946 16711746
0.0417456 -0.5596480 0.4954584 16711746
0.7511840 -1.0238479 0.7674431 16711746
0.5989842 -0.8149597 0.5734546 16711746
0.1874187 -0.9185106 0.8029693 16711746
0.6134558 -1.2031156 0.7405996 16711746
0.6465838 -1.2645692 0.7489635 16711746
0.0338029 -0.8746129 0.8110307 16711746
0.2311629 -1.0312207 0.6835793 16711746
1.3702987 -1.0877529 1.1000248 16711746
0.7127074 -0.6641154 0.6689269 16711746
0.6329938 -0.5768140 0.6012703 16711746
0.6985142 -0.5301187 0.4684594 16711746
0.7434390 -0.9839963 0.6383500 16711746
-0.3474087 0.7093465 -0.8801960 16711746
-0.4789000 1.2657639 -1.4310523 16711746
-0.3632225 0.6367562 -0.7758714 16711746
2.6563582 -8.2289724 5.5811243 16711746
8.9822979 -10.7347441 16.1731091 16711746
2.4098370 -6.2351985 7.3679962 16711746
1.6339419 -18.3652496 10.7229052 16711746
11.3409300 -14.0780268 20.4061565 16711746
0.2342391 -4.7134204 4.2990341 16711746
0.2608673 -4.7100396 4.2657948 16711746
195.9259186 -232.3832703 61.7125244 16711746
