# .PCD v.7 - Point Cloud Data file format
VERSION .7
FIELDS x y z rgb
SIZE 4 4 4 4
TYPE F F F F
COUNT 1 1 1 1
WIDTH 68
HEIGHT 1
VIEWPOINT 0 0 0 1 0 0 0
POINTS 68
DATA ascii

 2.0687947 -0.3069270 5.3220477 16777215
 0.0214778 -0.0058507 0.0599662 16777215
0.3234310 -0.7307969 0.5236901 16711746
0.4705039 -0.8158725 0.5884427 16711746
0.4659769 -0.6180163 0.5205100 16711746
0.2869531 -0.8937045 0.5601297 16711746
0.3557124 -0.9245861 0.7019176 16711746
0.5643885 -0.5487333 0.5465739 16711746
-0.3078486 0.6696994 -0.8839277 16711746
0.4563795 -0.8688495 0.5259984 16711746
0.1777349 -1.2090204 0.5412291 16711746
0.1324412 -0.8376963 0.4908005 16711746
0.1058734 -1.0327224 0.3192550 16711746
0.4038749 -1.0831152 0.4143681 16711746
-0.3656967 -1.7368995 0.1475644 16711746
0.0393049 -0.7738199 0.7127494 16711746
0.0202196 -0.9158082 0.5813494 16711746
0.0254930 -1.2257174 0.6789162 16711746
0.0356170 -0.8671694 0.5853911 16711746
0.0245943 0.4039842 -0.4301006 16711746
-0.0082792 -0.7074872 0.7360733 16711746
0.4140898 -0.9850904 0.2760550 16711746
-0.3092418 -1.7584049 0.2595323 16711746
-0.6216356 -1.5350381 0.1911262 16711746
-0.3470654 -0.8619161 0.3144733 16711746
0.0529451 0.4420221 -0.4266073 16711746
0.3486139 -0.6995022 0.4676220 16711746
0.1126229 -1.3440181 0.5283209 16711746
0.0588058 -1.4495866 0.5586224 16711746
0.2054987 -0.8153496 0.1981014 16711746
0.3559512 -0.8352314 0.4691925 16711746
-0.2403600 -1.2382642 0.1726810 16711746
0.0791322 -0.8037389 0.4748538 16711746
0.3278875 -1.0143031 0.6671204 16711746
0.0268136 -1.2816659 0.6721026 16711746
-0.0477884 0.5208894 -0.6061945 16711746
0.4054868 -0.7478715 0.8197364 16711746
0.3002278 -0.6174217 0.8103716 16711746
0.4323037 -0.5679723 0.7750352 16711746
0.0790079 -0.8601227 0.8657883 16711746
-0.0165596 0.3633607 -0.3543533 16711746
0.0113748 0.3255139 -0.3145560 16711746
-0.9984890 -1.0766973 0.2742690 16711746
0.4054043 -0.7733065 0.7743714 16711746
0.0555681 -0.8745573 0.7231240 16711746
0.2876540 -0.7429411 0.6583807 16711746
0.0767379 -0.7528807 0.7160425 16711746
0.1632666 -0.7087669 0.6985932 16711746
-0.0612415 -0.8422529 0.6102522 16711746
0.2179527 -1.0195442 0.4897972 16711746
-0.0164785 -0.8198615 0.6373513 16711746
-0.0473718 -0.7994915 0.5935987 16711746
0.2003141 -1.2021596 0.7081174 16711746
0.1367234 -0.8288820 0.7046608 16711746
0.0687757 -1.0925611 0.3902847 16711746
-0.0320751 -1.1067042 0.7324159 16711746
-0.1901100 -0.8293183 0.8677176 16711746
0.4053752 -0.7658672 0.4396760 16711746
0.3826010 -0.7993887 0.4494669 16711746
0.2586559 -0.7644510 0.3300110 16711746
0.2449269 -1.0537758 0.5678604 16711746
0.5262195 -0.7119479 0.4864714 16711746
0.1077826 -0.7951993 0.3838435 16711746
0.1684938 -1.0183398 0.7695429 16711746
0.0746052 -1.1023456 0.5182978 16711746
0.3819514 -0.8257542 0.3629776 16711746
0.2229940 -1.1517842 0.7151251 16711746
-0.0014481 -0.9017333 0.5352523 16711746
