# .PCD v.7 - Point Cloud Data file format
VERSION .7
FIELDS x y z rgb
SIZE 4 4 4 4
TYPE F F F F
COUNT 1 1 1 1
WIDTH 147
HEIGHT 1
VIEWPOINT 0 0 0 1 0 0 0
POINTS 147
DATA ascii

0.5645201 -1.1343322 0.2838706 16711746
0.6057464 -1.1385621 0.2710754 16711746
0.4592654 -0.8839505 0.2179112 16711746
0.3680470 -0.8687963 0.2384069 16711746
0.4104730 -0.8840876 0.2181773 16711746
0.2194280 -0.6990297 0.1189016 16711746
0.6804965 -1.0611351 0.4909844 16711746
-0.3962249 -0.7812260 0.2639756 16711746
-0.4949397 -0.9449052 0.2711542 16711746
-0.2277688 -1.0836706 0.5124298 16711746
-0.0494094 -1.0223953 0.3460670 16711746
-0.0940907 -1.0502050 0.4208047 16711746
-0.2618901 -0.8999589 0.2677774 16711746
-0.1400112 -0.9298826 0.3824315 16711746
-0.1793560 -1.1986113 0.4434549 16711746
0.8294662 -0.9213208 0.2513877 16711746
0.0199269 -0.8975874 0.5286648 16711746
0.0006420 -0.9075143 0.5100807 16711746
0.5996803 -0.7491048 0.5037997 16711746
-0.4611823 -0.9943146 0.2416977 16711746
-0.1787707 -0.9640544 0.4516821 16711746
-0.1933330 -1.0136704 0.4417521 16711746
0.4356334 -1.0243237 0.3499706 16711746
0.5495993 -1.0328450 0.4601097 16711746
0.3400554 -1.0537471 0.3879705 16711746
0.1660319 -0.8297616 0.3716972 16711746
0.2833613 -0.9270793 0.3878213 16711746
0.8514570 -0.8287967 0.4560628 16711746
0.0670212 -0.9440184 0.0839134 16711746
0.1030783 -1.2034070 0.0825430 16711746
-0.0684517 -0.7257425 0.1364436 16711746
0.1098540 -0.9150685 0.1479446 16711746
0.0179081 -0.9151564 0.1417687 16711746
-0.2651582 -1.0677210 0.1635818 16711746
-0.5851248 -0.8125085 0.3379433 16711746
-0.1351298 -0.7431993 0.2132772 16711746
0.2675282 -1.1643571 0.4520711 16711746
-0.0142300 -0.7473645 0.6467686 16711746
-0.1585820 -1.1464034 0.5255913 16711746
0.8686705 -0.8862579 0.3848892 16711746
-0.1568661 -1.0813351 0.5821124 16711746
0.4576992 -0.8208023 0.3304873 16711746
0.3926398 -0.9863172 0.3771851 16711746
0.6440068 -0.7881393 0.0557790 16711746
0.2306197 -0.8999461 0.4524555 16711746
-0.0464878 -0.8720741 0.1881071 16711746
-0.3831705 -0.7830114 0.2862746 16711746
0.5301854 -0.8237236 0.3800863 16711746
0.5678102 -0.8457516 0.3620108 16711746
0.5037054 -0.7504628 0.4465724 16711746
0.5187567 -0.7687343 0.4347114 16711746
0.5652497 -0.7766148 0.0581616 16711746
0.4724382 -1.3204838 0.4242480 16711746
0.2555051 -0.6818634 0.2344055 16711746
1.2931666 -1.0052902 0.2673594 16711746
0.7695231 -1.0754750 0.5173559 16711746
0.2862514 -1.0237447 0.5955452 16711746
0.4471051 -0.8656833 0.2524111 16711746
-0.1398126 -0.8204885 0.4867218 16711746
0.3966641 -1.0001724 0.4911734 16711746
0.3954347 -0.8822656 0.2716326 16711746
0.3648180 -0.8455448 0.2459620 16711746
0.2372560 -0.8291926 0.0898497 16711746
-0.0116591 -0.7566355 0.3370064 16711746
1.0910689 -1.1784842 0.5499251 16711746
0.9034516 -0.9466515 0.2848865 16711746
0.8574089 -0.9607248 0.2834393 16711746
0.3398548 -1.0300915 0.3417731 16711746
0.2862300 -1.0105555 0.2506828 16711746
0.2624143 -0.9753348 0.3025387 16711746
0.3325952 -1.2062160 0.5584389 16711746
-0.0145433 -0.8988035 0.1348049 16711746
-0.0289871 -0.8904481 0.1393750 16711746
0.2522936 -1.0326138 0.6495929 16711746
0.0714015 -1.1096779 0.3394058 16711746
0.0370646 -1.0912931 0.3309258 16711746
0.3794805 -0.8063766 0.3560658 16711746
0.3000273 -0.9187713 0.4067623 16711746
0.2566153 -0.9536624 0.6227890 16711746
0.0330765 -0.9238551 0.1347527 16711746
0.3553265 -1.3546090 0.1601289 16711746
0.0471344 -1.0149648 0.4457097 16711746
0.4266432 -0.8831148 0.4984118 16711746
1.1505263 -0.7631774 0.1278356 16711746
-0.3134607 -0.8697547 0.2250831 16711746
0.3608592 -1.0587026 0.2053945 16711746
-0.3063177 -0.7539977 0.0922191 16711746
0.4322959 -0.7554098 0.0744974 16711746
0.2767634 -1.0289044 0.1816805 16711746
1.0074099 -1.1643987 0.5249500 16711746
0.7229660 -0.9459465 0.6740056 16711746
-0.4651064 -0.8361986 0.6498978 16711746
-0.1859957 -0.7922995 0.6999828 16711746
0.3572766 -0.8622715 0.1990323 16711746
0.1527065 -0.6683847 0.2163502 16711746
0.2997994 -1.0255655 0.2265973 16711746
-0.1898593 -0.9725770 0.2286723 16711746
-0.0134381 -1.0816525 0.2809585 16711746
-0.0416933 -1.0642905 0.2759644 16711746
0.3500961 -1.0413059 0.2430501 16711746
0.6256627 -1.0988353 0.4073074 16711746
0.8979660 -1.0767543 0.5752723 16711746
-0.4581701 -1.0157439 0.1722214 16711746
-0.4812393 -0.9928573 0.1623419 16711746
-0.4040286 -0.8100709 0.1192903 16711746
-0.5474399 -0.9180379 0.1927089 16711746
-0.5072316 -0.7199587 0.1445314 16711746
-0.5155892 -0.9415355 0.2193585 16711746
-0.0349711 -0.8823515 0.1702585 16711746
0.1355646 -1.1911288 0.2536162 16711746
0.0171832 -0.8978333 0.2156338 16711746
0.1124971 -0.9552999 0.1781507 16711746
-0.2234657 -0.7692211 0.1351731 16711746
-0.2267189 -0.8457042 0.2191222 16711746
-0.1109558 -1.0523244 0.1083971 16711746
0.3422098 -0.7403407 0.0483004 16711746
0.3437417 -1.3583201 0.0753670 16711746
0.1247689 -0.7774386 0.1278528 16711746
0.1379842 -0.6756252 0.1064692 16711746
0.4216118 -1.0760132 0.1663874 16711746
0.6493201 -0.7877259 0.0256345 16711746
0.4147746 -1.1318969 0.6752512 16711746
0.0347491 -0.7841753 0.3377025 16711746
0.5110323 -1.3190360 0.4639147 16711746
0.4322104 -1.2819085 0.4424929 16711746
0.2872195 -0.9921352 0.6905373 16711746
0.2121501 -0.9636320 0.6671065 16711746
0.4300869 -0.9527778 0.4378192 16711746
0.3296786 -1.0747010 0.2191122 16711746
0.0618425 -1.0826700 0.4973247 16711746
0.0303533 -1.3302972 0.3273598 16711746
-0.1560516 -0.8579719 0.2745978 16711746
-0.1261050 -0.9054906 0.2734041 16711746
-0.1408633 -0.9919779 0.2779008 16711746
-0.0553537 -0.8535988 0.2317860 16711746
-0.0629728 -0.9071842 0.5605304 16711746
-0.7986827 -0.7272786 0.4356606 16711746
0.4078936 -1.0979358 0.1093214 16711746
0.6170021 -0.9681273 0.5100446 16711746
0.6126637 -1.0075942 0.5186180 16711746
0.4292089 -0.9981053 0.3837367 16711746
-0.4043725 -1.0270371 0.3250081 16711746
1.1871960 -0.7464319 0.2372433 16711746
0.8232298 -1.1133646 0.4970019 16711746
0.8114821 -1.1174852 0.4852314 16711746
-0.4081950 -1.0397768 0.2871048 16711746
0.0638072 -1.1079143 0.3334702 16711746
