# .PCD v.7 - Point Cloud Data file format
VERSION .7
FIELDS x y z rgb
SIZE 4 4 4 4
TYPE F F F F
COUNT 1 1 1 1
WIDTH 85
HEIGHT 1
VIEWPOINT 0 0 0 1 0 0 0
POINTS 85
DATA ascii

0.5297371 -1.7185144 0.7705121 16711746
0.3004244 -0.8316347 0.4101634 16711746
0.8893841 -0.6960506 0.1133134 16711746
0.7539154 -2.1282017 1.6180769 16711746
0.2471327 -0.2652735 0.2825922 16711746
-0.1248758 -0.8045292 0.3229651 16711746
-0.4137900 -1.0881118 0.3850164 16711746
-0.0231161 -1.0081207 0.4789011 16711746
0.7376003 -0.4723098 0.3051337 16711746
1.3259083 -8.4883738 0.4977986 16711746
0.3714735 -0.8179613 0.5177422 16711746
0.3271666 -0.5854987 0.2925091 16711746
-0.2756267 -2.0443814 0.3212223 16711746
0.0789832 -1.8582040 0.2639409 16711746
0.1493770 -1.8579963 0.0974329 16711746
-0.3897262 -1.0006237 0.5132494 16711746
1.4125037 -3.6475701 1.1018651 16711746
0.4817073 -0.4833369 0.2082083 16711746
0.2437246 -0.2949733 0.2531114 16711746
0.6954270 -1.6008776 1.3590523 16711746
0.6586452 -0.8526879 0.8011220 16711746
0.6377532 -1.2644081 1.1582148 16711746
1.6656123 -1.8944113 0.3069271 16711746
0.0336802 -0.9140205 0.4983048 16711746
0.2293860 -0.5803883 0.1811969 16711746
-0.0405571 -1.7377666 0.6331269 16711746
0.8619307 -0.8594503 0.0337177 16711746
0.4439251 -0.3410795 0.2533007 16711746
0.7112938 -0.8712046 0.2680847 16711746
0.4487873 -1.0107247 0.4629477 16711746
0.9775217 -0.7342792 0.0299902 16711746
0.5426185 -1.2986908 0.2979759 16711746
0.5989380 -0.5215275 0.0890410 16711746
-0.0471731 -1.2793508 0.2667825 16711746
-0.3837719 -4.2440252 0.5344172 16711746
0.7003297 -1.4958314 0.1698896 16711746
0.4151453 -0.7972983 0.1260052 16711746
1.5998048 -3.8439684 0.8357035 16711746
0.6002254 -0.7216808 0.3896998 16711746
0.5271866 -1.9575517 0.1597897 16711746
0.4247639 -0.7253989 0.1839277 16711746
0.2787676 -1.6985615 0.2373276 16711746
0.1958671 -0.5000188 0.3932207 16711746
0.5091268 -0.8808673 0.4269514 16711746
1.4111385 -4.5177279 0.8321320 16711746
0.5089954 -0.4568727 0.1132982 16711746
-0.2921185 -1.1583269 0.3733224 16711746
0.5115675 -0.8476383 0.4254345 16711746
0.3074082 -0.5258968 0.3092257 16711746
0.7894335 -0.9553871 0.1108099 16711746
1.0743176 -3.8785396 1.5198157 16711746
1.6252894 -5.7323146 4.2807398 16711746
0.6138326 -0.4242496 0.1753581 16711746
0.2047939 -0.2079849 0.2658639 16711746
0.7367511 -0.9427825 0.8337584 16711746
0.7507775 -0.8158674 0.2201372 16711746
0.4985954 -1.0365860 0.6969548 16711746
0.9243335 -1.4845421 1.0673343 16711746
0.7657024 -2.9937594 1.9142621 16711746
0.6784663 -0.3735296 0.5377673 16711746
0.6374947 -0.3588056 0.5244236 16711746
1.8636813 -1.4223101 1.1414758 16711746
0.2145328 -0.3495126 0.4395064 16711746
0.4674200 -0.7026099 0.7807272 16711746
0.5751535 -0.3082463 0.5289687 16711746
0.2913042 -0.4920663 0.1789158 16711746
2.0406501 -5.7839737 0.9845446 16711746
0.9038230 -5.6257181 0.8051841 16711746
1.3581090 -8.5236397 -0.1044332 16711746
0.4903932 -1.6035188 0.0580165 16711746
0.4375651 -0.7500466 0.1545805 16711746
0.7092805 -0.9778288 0.2605163 16711746
0.5116630 -0.7162344 0.1266258 16711746
0.4033824 -0.4333439 0.2762378 16711746
0.4107237 -0.4649707 0.2709742 16711746
2.0843844 -4.7230744 1.6854417 16711746
0.8433713 -1.6950823 0.9682662 16711746
0.1210880 -1.6245971 0.5394046 16711746
0.7740276 -2.5737751 1.7881674 16711746
0.8258140 -2.4674222 1.6829731 16711746
0.2621426 -0.8209214 0.6303789 16711746
0.0148078 -0.9529347 0.4909436 16711746
0.4009513 -0.5547205 0.2594114 16711746
0.2895753 -0.4249704 0.2259361 16711746
0.1624382 -1.0213341 0.1000319 16711746
