# .PCD v.7 - Point Cloud Data file format
VERSION .7
FIELDS x y z rgb
SIZE 4 4 4 4
TYPE F F F F
COUNT 1 1 1 1
WIDTH 76
HEIGHT 1
VIEWPOINT 0 0 0 1 0 0 0
POINTS 76
DATA ascii

 2.0696106 -0.3126333 5.3499689 16777215
 0.0787965 -0.0182412 0.2043673 16777215
0.6136538 -0.7339171 0.6828879 16711746
-0.1199510 -1.2880141 0.9302596 16711746
-0.0831625 -1.2018950 0.9119674 16711746
-0.0659712 -1.1389307 0.9063917 16711746
0.1085217 -1.3283148 0.7074836 16711746
0.0764958 -0.7982821 0.5976889 16711746
1.5392245 -1.5674546 1.3025826 16711746
0.0728507 -0.5139347 0.7102823 16711746
0.7852718 -0.7270556 0.7614337 16711746
0.1724484 -0.8752074 0.9125395 16711746
0.1861883 -0.8903002 0.9072715 16711746
0.0855552 -1.1394711 0.7611331 16711746
0.0659328 -1.1713160 0.6399287 16711746
0.1219657 -0.8523400 0.5573595 16711746
0.6676963 -0.5900684 0.6127849 16711746
0.3846262 -1.5581355 0.8607556 16711746
-0.1069321 -1.5814043 0.8146165 16711746
0.2753652 -1.4224271 1.2846992 16711746
0.5690553 -1.2223405 0.7913330 16711746
0.4343964 -0.7262627 0.7147711 16711746
0.7148143 -1.8195664 1.8949282 16711746
0.5618546 -0.6353541 0.6799542 16711746
0.4410495 -0.6318890 0.6760646 16711746
0.2495209 -0.6132005 0.5785491 16711746
1.1179219 -1.0679333 1.1521651 16711746
0.4741937 -0.4566146 0.5825312 16711746
0.5680848 -0.4861279 0.7192807 16711746
1.1578074 -0.7372338 1.0297028 16711746
1.6880260 -0.9311530 0.9497935 16711746
0.2506640 -0.3994429 0.6827890 16711746
-2.2275426 3.0571871 -4.9072695 16711746
-1.1847197 2.1486325 -3.0249214 16711746
-2.2061665 2.6483335 -4.0732288 16711746
0.6346431 -0.8963049 0.6900328 16711746
0.1495258 -0.9824913 0.5022949 16711746
0.0455515 -2.3131173 1.4097091 16711746
-1.2609284 -1.3512311 0.4392253 16711746
0.0685318 -1.6777501 0.8848562 16711746
0.4941660 -0.5611733 0.6020881 16711746
0.5255879 -0.6761559 0.6794505 16711746
1.0567098 -1.2732072 1.0950626 16711746
0.1002650 -0.8995036 0.6629714 16711746
0.8431514 -0.7042391 0.7618997 16711746
0.3847979 -0.8804106 0.5913178 16711746
-0.0152733 -0.7858736 0.7195504 16711746
0.7613792 -0.9355988 0.8427263 16711746
0.3932697 -0.5576427 0.7898043 16711746
0.4986185 -0.6641468 0.8737878 16711746
0.1805102 -0.1936584 0.4211676 16711746
1.2539853 -1.6248758 2.2938695 16711746
1.3775562 -1.7534736 2.3896985 16711746
0.1639679 -0.6849176 0.8208433 16711746
-4.5923953 3.9398727 -6.4385176 16711746
2.0435803 -1.9945914 2.6586418 16711746
0.4597457 -0.3741343 0.7328249 16711746
-0.0681543 -0.9876032 0.9371476 16711746
-0.4783646 -2.5153048 1.9262816 16711746
-0.0784846 -0.8763798 0.9237128 16711746
-0.2704717 -2.0530410 1.7957180 16711746
0.0658200 -4.8929043 4.2724171 16711746
0.0367257 -0.6950605 0.4194215 16711746
-1.4164944 -1.5090518 0.4956344 16711746
2.0300038 -3.3760870 3.1551497 16711746
0.3958380 -0.5499157 0.6233706 16711746
0.3571807 -0.4900966 0.6261011 16711746
2.7883039 -4.3519883 4.4178343 16711746
0.9813445 -1.1803751 1.3546033 16711746
-1.5280536 -5.6629858 4.7114363 16711746
0.2045896 4.5842581 -5.4484262 16711746
0.0318589 4.8105545 -5.3801279 16711746
2.1714334 4.8364062 -5.5454593 16711746
3.4652703 6.2592201 -8.1781616 16711746
-0.0250192 -0.5777229 0.7488857 16711746
1.1485792 3.5008285 -3.4315841 16711746
