# .PCD v.7 - Point Cloud Data file format
VERSION .7
FIELDS x y z rgb
SIZE 4 4 4 4
TYPE F F F F
COUNT 1 1 1 1
WIDTH 61
HEIGHT 1
VIEWPOINT 0 0 0 1 0 0 0
POINTS 61
DATA ascii

 1.5786045 -0.2590015 3.8778222 16777215
 0.0147814 -0.0025624 0.0367986 16777215
-0.0206401 0.0611486 -0.0565012 16711746
0.2361014 -0.7466048 0.6831456 16711746
0.3794715 -0.5395512 0.6111568 16711746
-0.3893839 0.5569012 -0.6326258 16711746
0.2245340 -0.8517337 0.7905490 16711746
-0.4266264 0.5485903 -0.7151080 16711746
-0.3972278 -1.2135928 0.8429576 16711746
-0.1593356 -0.9770159 0.5069025 16711746
0.3125150 -0.7947385 0.6178319 16711746
0.3049184 -1.1999085 0.5764107 16711746
0.3815546 -1.0486565 0.6404647 16711746
-0.5579225 -1.0103860 0.2886800 16711746
-0.1498258 -0.9498650 0.4565635 16711746
-0.2142185 -0.9456370 0.5570653 16711746
-0.1886115 -1.0513209 0.5978412 16711746
-0.3723533 -1.0584910 0.8381547 16711746
0.1060260 -1.3094181 0.0913191 16711746
-0.0359508 -0.0522963 0.0359926 16711746
-0.1010645 -1.1422460 0.1117213 16711746
-0.4838480 -0.8281417 0.2544643 16711746
-1.0591005 -1.2267082 0.8376881 16711746
-0.1562941 -1.0100219 0.4262191 16711746
0.4090321 -0.8011543 0.5833014 16711746
0.3324882 -0.8162974 0.5862861 16711746
0.0359778 0.0451043 -0.0090265 16711746
0.2260533 0.4451547 -0.3894862 16711746
0.4031111 -0.8412204 0.5461220 16711746
0.1789616 -0.8416766 0.6603612 16711746
0.4483281 -0.7933803 0.5143737 16711746
0.4740946 -1.1452597 0.7300733 16711746
0.4449937 -0.7580658 0.5327509 16711746
0.5220541 -0.7454053 0.6606789 16711746
-0.0074739 0.0449840 -0.0181051 16711746
-0.3706994 0.6009371 -0.7597597 16711746
-0.3841790 0.5221015 -0.6308324 16711746
-0.1209096 -1.0836102 0.2945446 16711746
-0.0216198 -1.0361332 0.1878492 16711746
0.2853643 -0.9445814 0.5085188 16711746
0.5146366 -0.7972198 0.6269853 16711746
0.4011765 -0.7776084 0.6025561 16711746
0.3223711 -0.7318043 0.6508000 16711746
0.4660105 -0.6950183 0.6720315 16711746
0.2414366 -0.8129519 0.7002957 16711746
0.0025478 -1.1044586 0.5471210 16711746
-0.5276855 -1.0207635 0.2644414 16711746
-0.8006043 -0.8420764 0.2985626 16711746
-0.6428713 -1.1671336 0.3519077 16711746
0.5999426 -0.6936343 0.6007673 16711746
0.2548002 -1.2717917 0.1700989 16711746
-0.2393093 -0.9312038 0.3513246 16711746
-0.3153715 -1.1126771 0.4572078 16711746
0.0810423 0.0579456 -0.0107269 16711746
0.6484649 -1.0183047 0.4483109 16711746
-0.1862655 -0.2060303 0.0875994 16711746
0.0298700 -1.1086742 0.3644974 16711746
-0.5032005 -0.9995299 0.2957910 16711746
-0.4363577 -1.0403235 0.1945600 16711746
0.0704339 0.0369012 -0.0088485 16711746
0.4617853 -1.1658370 0.3303384 16711746
