# .PCD v.7 - Point Cloud Data file format
VERSION .7
FIELDS x y z rgb
SIZE 4 4 4 4
TYPE F F F F
COUNT 1 1 1 1
WIDTH 52
HEIGHT 1
VIEWPOINT 0 0 0 1 0 0 0
POINTS 52
DATA ascii

 1.6099188 -0.2667502 3.9599843 16777215
 -0.0076953 -0.1533874 0.2528000 16777215
0.4511080 -1.1223423 0.4547442 16711746
0.4977316 -1.0003068 0.6599650 16711746
0.4868750 -0.8899750 0.6897686 16711746
0.5267138 -0.9067869 0.6837673 16711746
0.4885372 -0.9055336 0.6688789 16711746
0.3081460 -0.7879660 0.6546444 16711746
0.3467716 -0.9008244 0.6973570 16711746
0.6236630 -0.9377056 0.8171460 16711746
0.3053216 -0.6781206 0.7608581 16711746
0.2444023 -0.5727663 0.6417284 16711746
-0.5290206 0.6870914 -0.8049480 16711746
0.4939891 -0.7096643 0.8675318 16711746
0.0369055 -0.5533111 0.5293218 16711746
-0.0545576 -0.1183326 0.1606921 16711746
0.1385216 -0.5461413 0.5857840 16711746
-0.1745324 -0.5730238 0.4298013 16711746
0.6296210 -1.1388315 0.6800987 16711746
0.1131879 -0.8743343 0.5409794 16711746
0.3910905 -1.2111791 0.3132978 16711746
0.0934709 -0.7536386 0.5467371 16711746
0.2003549 -0.8328061 0.5826158 16711746
0.1480537 -0.7871425 0.6144312 16711746
0.4640972 -1.1383520 0.4861324 16711746
0.3108195 -0.7663181 0.7158608 16711746
0.5252202 -0.8240140 0.7802582 16711746
0.5097524 -0.8389576 0.7814126 16711746
0.0735088 -0.7083597 0.5411192 16711746
0.2059291 -0.7850696 0.6355026 16711746
0.0557559 -0.6086988 0.5316961 16711746
0.1785452 -0.7980056 0.7269330 16711746
0.5933524 -0.9579199 0.7415830 16711746
0.5103859 -0.9664251 0.7496639 16711746
0.1401173 -0.8143200 0.5596942 16711746
0.5496296 -0.9768479 0.6988657 16711746
0.5099736 -0.9826141 0.7023060 16711746
0.5947245 -1.0883203 0.7444949 16711746
1.0986663 -1.1031501 0.5525863 16711746
0.0569513 -0.5038519 0.5083622 16711746
0.5718257 -0.9719049 0.7044019 16711746
0.0709122 -0.7580870 0.5301632 16711746
0.2940326 -1.0071225 0.6715253 16711746
1.0218742 -0.9372100 0.9280923 16711746
1.2869025 -1.0416120 0.7980451 16711746
-0.3624241 0.7230526 -0.8592870 16711746
-0.4583717 0.6821219 -0.8189066 16711746
0.3016996 -0.7080340 0.7423937 16711746
0.4895534 -0.8846567 0.6986109 16711746
1.3804357 1.2279766 -1.3210205 16711746
0.8167233 1.1088473 -1.1500101 16711746
-0.0212278 0.9436477 -1.0327811 16711746
