# .PCD v.7 - Point Cloud Data file format
VERSION .7
FIELDS x y z rgb
SIZE 4 4 4 4
TYPE F F F F
COUNT 1 1 1 1
WIDTH 162
HEIGHT 1
VIEWPOINT 0 0 0 1 0 0 0
POINTS 162
DATA ascii

 1.6613996 -0.2673259 4.0793276 16777215
 0.0398968 0.0143061 0.0957528 16777215
0.2358331 -1.0738049 0.1305605 16711746
0.2883080 -1.0453750 0.3414491 16711746
0.2583013 -1.0667713 0.3186404 16711746
0.5731245 -0.9539527 0.3418002 16711746
0.3686286 -1.0526338 0.3330758 16711746
0.2856404 -1.0650749 0.2779116 16711746
-0.5568647 -1.1971419 0.3597337 16711746
0.8815871 -0.8950495 0.2672281 16711746
0.6403275 -0.9915411 0.1422781 16711746
0.4943719 -0.7864116 0.6265506 16711746
0.5189267 -0.7941185 0.6033677 16711746
0.4663710 -0.8258254 0.6133444 16711746
0.4587291 -1.0220813 0.0927553 16711746
0.6255634 -0.9772224 0.2399418 16711746
0.8273289 -0.8180905 0.4415699 16711746
0.0336227 -1.0907315 0.2611721 16711746
0.7734946 -0.9588533 0.2660340 16711746
0.4076310 -1.0582923 0.2375230 16711746
0.4566369 -1.0407684 0.2293615 16711746
0.7329261 -0.9661043 0.1165478 16711746
0.0303349 -1.0832944 0.4578292 16711746
0.0622086 -1.0808686 0.4474191 16711746
0.3707675 -0.9972445 0.4579345 16711746
1.2813427 -0.8777739 0.1089945 16711746
0.3504452 -1.0429804 0.2885870 16711746
0.9294099 -0.7927786 0.4326994 16711746
0.6003043 -0.8633882 0.4819157 16711746
0.7849466 -0.7569093 0.5081433 16711746
1.1158260 -0.7880767 0.3012989 16711746
0.9664322 -0.8417283 0.3474534 16711746
0.8757225 -0.8933054 0.3050251 16711746
-0.5749918 -1.1270496 0.1254281 16711746
-0.1739885 -1.0424277 -0.0300888 16711746
0.6119212 -0.9968988 0.1583324 16711746
-0.5042810 -1.1883755 0.2893115 16711746
-0.4020209 -1.0846536 0.0961154 16711746
0.8867515 -0.6562718 0.5265335 16711746
0.7607254 -0.9481144 0.2929558 16711746
-0.0906689 -1.1013824 0.4932922 16711746
-0.0734105 -1.0966271 0.4742162 16711746
-0.1227581 -1.1562562 0.4885184 16711746
0.6056721 -0.6824466 0.6163686 16711746
0.9514519 -0.9295241 0.1495425 16711746
0.9705738 -0.9110708 0.2413771 16711746
-0.0411387 -1.1128241 0.2845269 16711746
0.4650984 -0.9984341 0.2111948 16711746
0.6078022 -1.0023825 0.2259533 16711746
0.5064204 -0.9940816 0.2513514 16711746
0.4935319 -0.7410627 0.6341370 16711746
-0.1893101 -1.0898688 0.0847121 16711746
-1.2801596 -1.1409202 0.3820780 16711746
-0.0194487 -1.0757933 0.5262420 16711746
0.3653949 -0.8784356 0.6359713 16711746
0.4725830 -0.8153979 0.6001480 16711746
0.7128795 -0.4701277 0.6081519 16711746
0.5000065 -0.7329563 0.6501426 16711746
0.6957347 -0.6352583 0.5889812 16711746
0.7165685 -0.7085450 0.5424083 16711746
0.5794089 -0.7639357 0.5901023 16711746
0.7370707 -0.6163910 0.5734581 16711746
-0.6754062 -1.0853325 0.0717844 16711746
0.6587894 -0.8027536 0.5117468 16711746
0.4655142 -0.9359017 0.5047278 16711746
-1.3897247 -1.1728940 0.8188663 16711746
0.1601299 -1.0712975 0.1391653 16711746
0.7105571 -0.8240270 0.4970258 16711746
1.0890055 -0.8919077 0.1872139 16711746
1.1544406 -0.8916237 0.1518582 16711746
0.4650384 -0.9720884 0.4128651 16711746
0.5973392 -1.0029676 0.2105815 16711746
0.5920830 -1.0128955 0.1885057 16711746
0.7293557 -0.7798352 0.5121504 16711746
0.7059150 -0.8454145 0.4591721 16711746
0.6705297 -0.8845641 0.4671556 16711746
0.6658667 -0.8676021 0.4522788 16711746
0.1383053 -1.1010129 0.2220514 16711746
-0.5163301 -1.1554520 0.3401366 16711746
1.0071431 -0.9180181 0.0891070 16711746
-0.8840668 -1.1670254 0.1208819 16711746
1.0114485 -0.9417214 0.0715467 16711746
0.5201268 -0.9637438 0.4027356 16711746
0.3953774 -0.7810282 0.6606266 16711746
0.4019057 -0.8132571 0.6660672 16711746
0.3493901 -0.7881570 0.7012975 16711746
0.3897467 -0.7709953 0.6842448 16711746
0.3386116 -0.9235063 0.5721507 16711746
0.3351150 -0.9299058 0.5560302 16711746
0.4738028 -0.8513696 0.5823262 16711746
0.3827157 -1.0926852 0.1248722 16711746
0.2104170 -1.0823609 0.0648153 16711746
0.2386879 -1.0678523 0.0886624 16711746
0.8065605 -0.9827258 0.0637798 16711746
0.4111254 -1.0077313 0.4212228 16711746
0.5165713 -0.9736888 0.4215285 16711746
0.5133266 -0.9034494 0.4974703 16711746
0.3945875 -1.0402153 0.3378571 16711746
0.0813262 -1.0848317 0.3977492 16711746
0.7724348 -0.9098983 0.3508838 16711746
0.0201553 -1.1279433 0.3569305 16711746
0.8100823 -0.9234059 0.2909952 16711746
0.7969007 -0.9496948 0.2860341 16711746
0.7322980 -0.9755794 0.2444975 16711746
0.2761693 -1.0508819 0.0705567 16711746
0.0315993 -1.1347836 0.2302278 16711746
0.6601763 -0.6827171 0.5725563 16711746
-0.3765804 1.4794637 -1.4631169 16711746
-0.3542172 1.2942973 -1.5396509 16711746
0.3912434 -0.6929992 0.7226191 16711746
-0.5305024 1.4956411 -1.4124103 16711746
-0.1628999 -0.3498198 0.2857700 16711746
0.1170890 -0.8444134 0.8035460 16711746
-0.8543279 1.1135002 -1.4463886 16711746
0.4971784 -1.0222578 0.3545957 16711746
0.3613691 -1.0627980 0.1074700 16711746
0.3492506 -1.0064352 0.4884788 16711746
0.0774939 -1.0691148 0.6077126 16711746
0.7359440 -0.9681296 0.1928806 16711746
0.0477447 -1.0394892 0.6056784 16711746
0.0170478 -1.0772449 0.6124361 16711746
0.5650839 -1.0145842 0.1706557 16711746
0.7261666 -0.9471130 0.3205352 16711746
0.6561011 -0.9862685 0.1851776 16711746
0.8526369 -0.9235073 0.2623915 16711746
0.1667285 -0.9914995 0.5739352 16711746
0.3048622 -1.0474627 0.3622489 16711746
0.1294439 -0.9816513 0.6212178 16711746
0.0870775 -1.0018710 0.6298985 16711746
0.1297854 -0.9830732 0.6191528 16711746
0.4941385 -0.5901338 0.6884445 16711746
-0.1609927 -1.0492110 0.7285412 16711746
-0.0099586 -1.0253500 0.6412249 16711746
0.4313089 1.5805699 -1.4688829 16711746
-0.3060485 -1.0337340 0.8721293 16711746
1.0652324 1.6440322 -1.4232804 16711746
0.1404044 -1.1304893 0.1720593 16711746
0.2607194 -1.0738916 0.1422326 16711746
0.2088491 -1.0809339 0.1360280 16711746
0.0873943 -1.0178851 0.6206132 16711746
0.5623675 -0.9795456 0.3562996 16711746
0.9551218 -0.7643488 0.4477389 16711746
0.8864765 -0.7908353 0.4390011 16711746
0.1198679 -1.0825342 0.4094301 16711746
0.5896761 -1.0156446 0.1400782 16711746
-0.2692052 -1.0767760 0.1005519 16711746
0.6820782 -0.9832824 0.1614663 16711746
0.4353961 -0.8547526 0.6269721 16711746
0.5839975 -1.0163814 0.2744738 16711746
0.5965932 -0.9333744 0.3871186 16711746
0.3253567 -1.0325724 0.2742881 16711746
0.1897661 -1.0584159 0.0050552 16711746
0.0050057 -1.1105005 0.4453601 16711746
-0.7893867 -1.2270738 0.1340485 16711746
0.6165153 -0.7473646 0.5620129 16711746
0.4227120 -1.0469975 0.3028823 16711746
0.2997077 -1.0776229 0.2049803 16711746
0.3131103 -1.0751789 0.2233019 16711746
0.0010727 -0.9312129 0.7903291 16711746
-0.0946345 -1.0849823 0.5010390 16711746
0.3797592 -0.9537609 0.5467020 16711746
0.4055549 -0.8282786 0.6361577 16711746
