# .PCD v.7 - Point Cloud Data file format
VERSION .7
FIELDS x y z rgb
SIZE 4 4 4 4
TYPE F F F F
COUNT 1 1 1 1
WIDTH 137
HEIGHT 1
VIEWPOINT 0 0 0 1 0 0 0
POINTS 137
DATA ascii

0.5136226 -0.6800511 0.7832760 16711746
0.1041543 -0.9421732 0.3330098 16711746
-0.4692400 -1.0995451 0.6560068 16711746
0.5800534 -0.4611710 0.4212143 16711746
0.6146106 -0.5355499 0.4317952 16711746
0.6894801 -0.6094047 0.4406315 16711746
-12.4682207 -13.2649145 4.9482574 16711746
-15.6241999 -15.1876421 6.8162618 16711746
4.4718304 9.4841318 -10.3009949 16711746
6.9999304 17.9905109 -20.5042381 16711746
5.6912451 10.0933714 -10.7855082 16711746
12.8809252 15.5005913 -13.6289454 16711746
0.4558330 -1.0440645 0.4584990 16711746
0.2072393 -0.7744509 0.3937096 16711746
0.0888939 -1.5075179 0.4354451 16711746
0.4646565 -0.6220163 0.3493623 16711746
0.4864159 -1.6826826 1.0121348 16711746
0.6211566 -1.3459774 0.6064004 16711746
-3.8347001 -9.9141922 2.1925755 16711746
-0.7131487 -2.3548224 0.8228525 16711746
-7.0687642 -21.6920605 4.6462202 16711746
-3.1251793 -8.5845165 1.9323041 16711746
0.4776840 -0.6233296 0.3292903 16711746
0.5489452 -0.6450586 0.3817379 16711746
0.5920745 -0.5599512 0.5936061 16711746
0.6585072 -0.6367012 0.4967064 16711746
-0.9347535 -7.4783812 3.1108153 16711746
-0.0126565 -1.3651885 0.9527576 16711746
0.6156777 -0.4158295 0.4190102 16711746
0.5950711 -1.1184808 0.7223838 16711746
0.6145820 -1.3458854 0.6381387 16711746
0.5649883 -0.6818728 0.3223946 16711746
0.0668516 -1.4594780 0.7149181 16711746
0.0631052 -1.9832239 0.8216224 16711746
-0.0997792 -1.2735682 0.9610529 16711746
-1.2027762 -2.7374244 0.9375271 16711746
-0.2777110 -8.8416176 5.9174843 16711746
0.4830707 -0.8760579 0.4551882 16711746
0.4555581 -1.0403348 0.4221458 16711746
-0.5998165 -3.7397885 1.0167305 16711746
0.3674748 -0.5191749 0.3878510 16711746
0.6191308 -0.3915967 0.3541039 16711746
9.9343538 7.7997589 -6.2298670 16711746
0.6126382 -0.6205382 0.4487732 16711746
-7.4395638 -9.3224211 5.1199012 16711746
0.5944297 -1.0256293 0.7098390 16711746
0.5702598 -0.8225124 0.7301197 16711746
0.3318504 -1.1862175 0.8359448 16711746
0.5687361 -0.3402661 0.4332633 16711746
-0.6833600 -6.5986300 1.0393702 16711746
-3.1256111 -15.4777975 1.6178495 16711746
0.0405264 -1.3082240 0.3654396 16711746
-4.1211381 -17.5955772 1.3227332 16711746
0.3336488 -0.8661143 0.6345904 16711746
11.5524511 15.2698822 -12.4564791 16711746
-7.1060104 -21.5603771 8.0229959 16711746
-0.7434110 -2.4584749 1.1530014 16711746
0.0504975 -1.0458198 0.8110691 16711746
0.6797228 -0.6061350 0.4642522 16711746
0.0906772 -2.0449932 0.5090839 16711746
0.4414729 -0.4021737 0.5625804 16711746
0.4308696 -0.9464275 0.5508050 16711746
0.4163733 -0.9369554 0.5386567 16711746
0.1510901 -0.6897516 0.5026081 16711746
0.4391209 -0.6501638 0.3627257 16711746
0.4311769 -0.6349708 0.3529738 16711746
0.0487927 -2.8566937 0.6531483 16711746
-1.6410655 -3.3035500 1.2225940 16711746
-5.0787225 -13.2238026 3.2423170 16711746
0.5944054 -0.4150570 0.6043756 16711746
-16.5815487 -13.9640846 7.1008773 16711746
0.5201742 -0.7023160 0.3225762 16711746
0.4507707 -0.6223697 0.3178641 16711746
0.1275249 -1.8344177 0.7160933 16711746
0.3304571 -0.7507055 0.5038949 16711746
-0.2593236 -1.4947549 0.1696712 16711746
-0.8762203 -1.5994090 0.7353155 16711746
-2.2219944 -3.7517002 1.1452347 16711746
-15.7662134 -19.0195694 6.6497383 16711746
-10.9007807 -18.5882378 3.4543500 16711746
0.0121954 -1.8746647 1.1296067 16711746
0.2912404 -0.8758690 0.4377722 16711746
0.3535503 -0.8068004 0.4048113 16711746
0.4527577 -1.0649257 0.4138400 16711746
0.2434780 -2.0064955 0.4179468 16711746
0.2812060 -1.0401009 0.3559685 16711746
0.5400547 -0.4053272 0.3818927 16711746
0.5946909 -0.4148855 0.3059632 16711746
0.7188900 -0.7483571 0.3056134 16711746
0.4241727 -1.0930927 0.4961340 16711746
0.6218387 -0.8294226 0.5527472 16711746
2.7665091 -10.0428228 8.6340446 16711746
-0.2975691 -8.4626760 6.1930733 16711746
0.0830633 -5.6386790 4.7649708 16711746
0.3536903 -0.6829324 0.6857311 16711746
0.5400690 -0.8837796 0.8406174 16711746
0.4648524 -1.5605707 1.1174586 16711746
0.8893923 -0.7650822 0.8502563 16711746
0.4442195 -0.3934333 0.5603117 16711746
-4.6218176 7.4306736 -9.9688787 16711746
-2.0867827 6.1982498 -7.8629193 16711746
0.3441663 -0.7992861 1.0800169 16711746
-0.3891749 0.8878533 -0.7068543 16711746
-12.0136652 -12.8823605 5.5046139 16711746
-0.4749028 -4.5902743 2.6466236 16711746
0.0584504 -0.6323125 0.6337913 16711746
0.4651313 -0.8720313 0.4803957 16711746
0.3603414 -0.5469016 0.3748737 16711746
-0.2274000 -1.2667286 0.5815955 16711746
-0.0331369 -0.9320471 0.4669050 16711746
-5.3097367 -13.4491634 3.6412477 16711746
-2.8592823 -8.1766882 2.2204628 16711746
-1.1382606 -2.7234755 0.9201393 16711746
-1.0396630 -2.6475716 0.9856183 16711746
0.5015574 -0.6209717 0.7684010 16711746
0.3521546 -0.4348847 0.6302915 16711746
0.8841338 -1.3764473 1.2644689 16711746
0.6099316 -0.4786994 0.4325064 16711746
0.4327148 -0.3643363 0.5878190 16711746
0.4753251 -0.5607149 0.3860590 16711746
0.0757779 -0.6606995 0.4493816 16711746
0.0885836 -0.9029611 0.4850783 16711746
0.1353397 -1.2962164 1.0694644 16711746
0.6138465 -1.2059214 0.6485128 16711746
0.5894646 -1.2733644 0.6554497 16711746
0.5942991 -1.1970305 0.7371925 16711746
0.6139044 -1.5419770 0.6182623 16711746
-2.7522612 -3.9059217 5.0350218 16711746
-3.1262071 -3.9674528 5.2300310 16711746
-2.5541663 -21.4446831 2.6603334 16711746
48.5492897 -67.2120895 29.0105877 16711746
12.2414579 -40.9955330 7.2197328 16711746
9.2823620 -32.4291344 6.7734270 16711746
0.8207258 -6.1851282 6.8475962 16711746
33.1966057 -128.3597717 70.5137863 16711746
-18.2885170 -162.2564545 53.2467957 16711746
-108.8917542 -204.5640564 57.9451256 16711746
