# .PCD v.7 - Point Cloud Data file format
VERSION .7
FIELDS x y z rgb
SIZE 4 4 4 4
TYPE F F F F
COUNT 1 1 1 1
WIDTH 132
HEIGHT 1
VIEWPOINT 0 0 0 1 0 0 0
POINTS 132
DATA ascii

 1.1995990 -0.1944897 2.9238672 16777215
 0.0162350 -0.0070832 0.0437589 16777215
0.8357397 -0.7878653 0.8286504 16711746
0.6033866 -0.4857120 0.4540622 16711746
0.6328925 -0.7496942 0.5541837 16711746
0.6721576 -0.9678789 0.6983870 16711746
0.4908252 -0.7351937 0.5771344 16711746
-0.4605301 0.7023394 -0.9469148 16711746
-0.1872488 0.6744097 -0.9019619 16711746
0.2953572 -0.8402354 0.8712201 16711746
0.5524195 -0.7604050 0.8552352 16711746
0.4243393 -0.8391733 0.9639716 16711746
1.0447611 -0.6822467 0.6982459 16711746
0.6050660 1.0938070 -1.1953603 16711746
0.0259107 -0.9418808 0.5364857 16711746
0.5908826 -0.9120111 0.6804454 16711746
0.5675312 -0.7918942 0.5985803 16711746
0.6511890 -0.7157584 0.6600070 16711746
0.6817191 -0.6421345 0.2707883 16711746
0.9399729 -0.8827213 0.4507044 16711746
0.6341588 -0.6715246 0.3346094 16711746
0.2775918 -0.8535163 0.9862177 16711746
-0.4794742 0.6471771 -0.7952505 16711746
0.5198013 -0.8374489 0.9908432 16711746
-0.0091261 -0.9433125 0.9483111 16711746
-0.6189362 0.7563931 -1.0410138 16711746
-0.6677744 0.6731597 -1.1100585 16711746
-1.0802681 0.6475769 -1.3274875 16711746
1.0275857 -0.7155256 0.9967793 16711746
0.7858818 -0.7413373 0.9168541 16711746
-0.1369104 -1.0046612 0.8610967 16711746
0.5406014 -0.9026278 0.7728558 16711746
0.5197660 -0.8001522 0.6679780 16711746
0.7137479 -0.7398992 0.4962778 16711746
0.7578189 -0.8774909 0.5529029 16711746
-0.4836136 -1.2236340 0.2345528 16711746
0.3650085 -0.8457543 0.3406885 16711746
0.3751727 -0.8385149 0.3235648 16711746
0.4539730 -0.9984279 0.8029242 16711746
0.3485184 -0.8545725 0.6733999 16711746
0.3591082 -0.8561653 0.5698305 16711746
0.5112093 -0.6173411 0.3380406 16711746
0.4794554 -0.9148725 0.2567005 16711746
0.7562325 -0.8065103 0.6189015 16711746
0.6218065 -0.6223094 0.3604858 16711746
0.7863706 -0.8327007 0.5802412 16711746
0.7429850 -0.9124279 0.4161235 16711746
-0.1047100 -1.2210938 0.6094199 16711746
0.5072504 -0.7431901 0.2712125 16711746
-0.5769989 -1.2573999 0.2963044 16711746
-0.2926233 -1.3394530 0.7179642 16711746
-0.2284951 -1.1449758 0.5984019 16711746
0.5107127 -0.7820438 0.7084702 16711746
0.4064548 -0.8620015 0.8175903 16711746
0.2880474 -0.9353771 0.8545623 16711746
0.2702074 -0.8768187 0.7911962 16711746
-0.0227649 -1.0489156 0.7449466 16711746
0.2485048 -0.9137514 0.7429218 16711746
0.1059706 -0.9865359 0.8179218 16711746
0.5034539 -0.9261985 0.5848113 16711746
0.2786463 -0.9159944 0.6889768 16711746
0.3966129 -0.8208926 0.6128626 16711746
0.5087783 -0.8560811 0.6305917 16711746
0.2569637 -0.9686604 0.6737189 16711746
0.8056309 -0.4905518 0.5588984 16711746
0.8107159 -0.4574993 0.5323166 16711746
0.8594725 -0.7236216 0.7474336 16711746
0.8330142 -0.7832149 0.7405133 16711746
0.7841048 -0.8676827 0.8687320 16711746
0.5970109 -0.8560120 0.8281741 16711746
0.8530920 -0.7317178 0.8360262 16711746
0.4313430 -0.8676524 0.4711383 16711746
0.2692114 -0.9660540 0.3567476 16711746
0.7906036 -0.7097121 0.3596146 16711746
0.8759639 -0.6024449 0.3222805 16711746
0.8041327 -0.5291055 0.3787031 16711746
0.6266794 -0.7105966 0.3426269 16711746
0.5963061 -0.8375593 0.5227844 16711746
0.7315054 -0.6782901 0.4389836 16711746
0.6427360 -0.8003774 0.3038354 16711746
0.5109361 -0.6767480 0.2903197 16711746
-0.0138517 -1.1411542 0.0763384 16711746
0.4506655 -1.1436133 0.7259457 16711746
0.3383099 -0.9320583 0.5747849 16711746
0.3565147 -0.9190736 0.5562449 16711746
0.5983478 -0.9017467 0.3567969 16711746
0.3700970 -0.8340601 0.3906147 16711746
0.7550548 -0.7369985 0.1389951 16711746
-0.0276270 -1.1226287 0.5535856 16711746
0.5598338 -0.5552129 0.4694210 16711746
0.6517758 -0.7025343 0.5719014 16711746
0.5078523 -0.8954365 0.3279424 16711746
0.2348118 -0.9528629 0.7395880 16711746
0.2289198 -0.9645211 0.7305269 16711746
-0.6357781 -1.2812066 0.3601305 16711746
-0.2323825 -1.0436287 0.5895019 16711746
0.6208889 -0.8378105 0.4920715 16711746
0.5782266 -0.8357378 0.4092189 16711746
0.4721006 -0.7345837 0.3647766 16711746
0.0881908 -0.9936384 0.6789645 16711746
0.5744006 -0.7709429 0.3567883 16711746
-0.1118614 -1.2004229 0.0970381 16711746
0.7682496 1.1114823 -1.2592913 16711746
0.6857671 1.1074822 -1.2192553 16711746
0.3789655 -0.9870717 0.4257557 16711746
0.2854721 -0.8866975 0.7353925 16711746
0.2032699 -1.0615718 0.3271304 16711746
0.7024239 -0.9309371 0.5986832 16711746
0.1524398 -1.1209558 0.3146561 16711746
0.0385585 -1.0342443 0.8169469 16711746
0.0304031 -1.1259365 0.8653937 16711746
-0.1308912 -1.1150298 0.5394259 16711746
0.4192638 -0.8838787 0.6164207 16711746
0.5147982 -0.8243922 0.6502075 16711746
0.4492826 -0.7644469 0.5992764 16711746
0.3733729 -0.8316622 0.4013336 16711746
0.3527626 -0.9035431 0.3151560 16711746
0.3272031 -0.9169991 0.3084313 16711746
0.5303114 -0.6859571 0.2447734 16711746
0.7177118 1.1994742 -1.4112049 16711746
0.7349082 -0.7832277 0.4388322 16711746
0.5125799 -0.5747102 0.3100060 16711746
-0.0567596 -1.0634289 0.8693343 16711746
-0.0530994 -1.1459599 0.7389205 16711746
0.4238608 0.7973592 -1.0704267 16711746
0.5031693 0.8240621 -1.0877182 16711746
-0.0720124 -1.0230023 0.9617507 16711746
-0.4340568 -1.1313174 1.1342438 16711746
-0.0695809 -0.9227555 1.0650090 16711746
0.4512923 -0.8567291 0.4457950 16711746
0.3923137 -0.8966048 0.5140947 16711746
0.4483740 -0.8241032 0.4850486 16711746
