# .PCD v.7 - Point Cloud Data file format
VERSION .7
FIELDS x y z rgb
SIZE 4 4 4 4
TYPE F F F F
COUNT 1 1 1 1
WIDTH 82
HEIGHT 1
VIEWPOINT 0 0 0 1 0 0 0
POINTS 82
DATA ascii

 0.3107095 -0.0204333 0.6186731 16777215
 0.0024945 -0.0009569 0.0075946 16777215
0.2342958 0.3242055 -0.3201907 16711746
-0.1295493 -1.7617910 0.7919157 16711746
0.1177326 0.2559064 -0.3012839 16711746
0.1273748 -0.8421548 0.6462500 16711746
0.0485698 -0.8686445 0.5826994 16711746
0.4084554 -0.6502936 0.6283020 16711746
-0.0971613 -0.8478805 0.5732824 16711746
0.0802267 -1.1398859 0.6322420 16711746
0.0399395 -1.1611298 0.6390620 16711746
-0.3071126 -1.5917624 0.6755429 16711746
-0.1616044 -1.2831297 0.7060038 16711746
0.5490839 -1.0117602 0.6373103 16711746
0.5533757 -1.1330222 0.7007127 16711746
-0.1983530 -1.5255251 0.4912772 16711746
-0.0180646 -1.2777934 0.6816478 16711746
-0.0287393 -0.9132953 0.4572946 16711746
-0.2277058 -0.7109803 0.3685182 16711746
-0.2441061 -0.7592907 0.3638369 16711746
0.1039194 -0.6926619 0.5448990 16711746
0.0923055 -1.5037913 0.7030106 16711746
-0.0666040 -1.7748611 0.7229272 16711746
0.6765947 -1.2771032 0.8577865 16711746
0.6285697 -1.2086495 0.7747045 16711746
0.5765523 -1.1807537 0.7681126 16711746
0.3824424 -0.9943580 0.8187073 16711746
0.3464296 -0.6147166 0.5411729 16711746
0.0049842 -0.7851592 0.5853866 16711746
0.5070689 -1.1003612 0.6809707 16711746
0.3543896 -1.4335079 0.8140900 16711746
0.1065152 -1.3562549 0.8057193 16711746
0.8433849 -1.0436194 0.8299192 16711746
0.5415370 -0.6289192 0.6460025 16711746
0.5865294 -0.6796226 0.6463829 16711746
0.8442488 -0.8022217 0.8219939 16711746
0.6386760 -0.9352316 0.6971244 16711746
-0.3049439 0.3742092 -0.5341104 16711746
-0.0378517 0.2867288 -0.3328445 16711746
0.4004166 -0.5483609 0.6739604 16711746
0.3215986 -0.5074377 0.5923021 16711746
-0.0042144 -0.6516126 0.5700708 16711746
0.0956477 -0.5990914 0.5733966 16711746
0.0119675 -0.4867209 0.4880157 16711746
-0.4078012 0.4001535 -0.5639346 16711746
0.4624472 -0.5185665 0.6071181 16711746
0.6680285 -0.7172105 0.7821605 16711746
0.4653322 -0.5574148 0.5909449 16711746
0.7711938 -0.5797759 0.7123321 16711746
-0.1567575 -0.8836334 0.5810916 16711746
-0.2225181 -0.7257769 0.4979374 16711746
-0.0393694 -0.6836761 0.5496649 16711746
-0.3453813 -0.6401830 0.4405044 16711746
-0.1910211 -1.2095866 0.6775948 16711746
-0.1441785 -1.2543787 0.6517308 16711746
-0.0517500 -1.2908773 0.7460448 16711746
-0.0824566 -0.4620612 0.4446490 16711746
-0.0047788 -0.0253940 0.0332286 16711746
0.0893656 0.2121212 -0.2224464 16711746
-0.1308231 -0.4106152 0.4194401 16711746
0.6750157 -0.9919202 1.0033979 16711746
3.0432892 -3.3763714 1.8665496 16711746
0.7286661 -1.1358643 1.0864664 16711746
2.7329473 -5.1178212 3.6077871 16711746
0.5964167 -1.4896016 0.7213128 16711746
1.4874134 -2.3660030 2.1545529 16711746
0.7206597 -1.1178411 1.0743082 16711746
-2.9603019 -33.0758591 11.4337187 16711746
1.3632480 -1.6762885 1.3261989 16711746
0.6800783 -1.0972073 1.0521023 16711746
2.0357444 -1.6746005 0.7584455 16711746
8.0157766 -20.6894512 8.0891848 16711746
-0.0145260 -2.3356786 1.2034394 16711746
-0.0112115 -2.3320012 1.1993741 16711746
4.0848503 -9.9128981 4.4443855 16711746
-0.6057845 -21.2363453 7.8008943 16711746
8.2402153 -19.9159279 8.9065094 16711746
-0.0551411 -0.7907488 0.6334076 16711746
1.4184175 -29.8543625 15.8237267 16711746
9.9076729 -32.4369965 7.5762339 16711746
4.1127925 -8.0233727 5.1996121 16711746
-6.5498500 -34.6016197 7.1000671 16711746
