# .PCD v.7 - Point Cloud Data file format
VERSION .7
FIELDS x y z rgb
SIZE 4 4 4 4
TYPE F F F F
COUNT 1 1 1 1
WIDTH 228
HEIGHT 1
VIEWPOINT 0 0 0 1 0 0 0
POINTS 228
DATA ascii

0.5131508 -0.8083050 0.2791444 16711746
0.6812222 -0.9205681 0.4702273 16711746
-1.3756006 -1.2203709 0.9162719 16711746
0.5404843 -0.9420795 0.2058601 16711746
0.3553855 -0.7888488 0.1043179 16711746
0.5395502 -0.8610839 0.0492218 16711746
0.4899173 -0.9362215 0.2623330 16711746
0.1802593 -0.9144632 0.2405939 16711746
-0.0597279 -0.9149054 0.4413947 16711746
-0.0265830 -1.0880560 0.0548163 16711746
0.5058008 -1.1748562 0.7405034 16711746
0.4080637 -0.9662021 0.5894227 16711746
0.2790774 -0.9888754 0.2961039 16711746
-1.4814836 -1.2373893 0.5150869 16711746
0.3856945 -0.8862261 0.6946577 16711746
0.3229143 -0.9766680 0.2953651 16711746
0.4651125 -0.7215288 0.3224434 16711746
-0.0869089 -1.1661172 0.3658935 16711746
-0.1121535 -1.0275009 0.2972551 16711746
-0.5560132 -1.2030575 0.1939794 16711746
0.6694480 -0.6745219 0.8606609 16711746
0.6082750 -0.6326494 0.7505045 16711746
-0.7526873 -1.1175466 0.5739222 16711746
-1.5286431 -1.2172941 0.5471173 16711746
-1.6540881 -1.1099899 0.6940100 16711746
-0.2796136 -1.0991231 0.9132282 16711746
-0.4780620 -1.1311780 0.9461524 16711746
-0.0719213 -0.9530057 0.5343779 16711746
-0.3449623 -1.5144106 0.9823249 16711746
-0.3860908 -1.5197634 0.9968577 16711746
-0.2604481 -1.1704711 0.7049515 16711746
-0.0231275 -1.0723994 0.5415061 16711746
0.4561953 -0.8865437 0.6510552 16711746
0.0172525 -0.9530407 0.0989689 16711746
0.0268308 -0.9201925 0.0707507 16711746
-0.8774009 -1.1414685 0.2930773 16711746
-1.0232961 -1.2425225 0.2670378 16711746
-0.7474555 -1.1433630 -0.0666575 16711746
-0.5746672 -1.1303270 0.5063497 16711746
0.5281381 -0.8563508 0.3936169 16711746
-0.4200076 -1.0382613 0.2785394 16711746
-0.3301480 -1.0368350 0.0882266 16711746
-1.4113822 -1.2526219 0.4233612 16711746
-1.3885801 -1.2621707 0.4429433 16711746
-0.9742996 -1.3191806 0.3541725 16711746
-0.7422752 -1.0705111 0.2580406 16711746
-0.2943408 -1.0440361 0.4797697 16711746
-0.2654149 -1.1981702 0.2943369 16711746
-0.3683722 -1.0894189 0.2843522 16711746
-0.5825945 -1.0203971 0.3364859 16711746
-0.3482183 -1.1912309 0.3251153 16711746
0.2702086 -0.9097446 0.5560691 16711746
0.3227406 -0.9535636 0.5616770 16711746
0.2983795 -1.0122668 0.6008705 16711746
0.3951261 -0.8942742 0.2143777 16711746
0.8258634 -0.6265333 0.2690684 16711746
0.8932967 -0.7289136 0.3091244 16711746
-1.0891002 -1.0598481 0.6045623 16711746
0.2537027 -1.0130224 0.2426173 16711746
-0.4145302 -1.1168215 0.1040153 16711746
0.3808711 -0.9862136 0.3101221 16711746
0.4550254 -0.9309329 0.3689386 16711746
0.4899230 -0.9392089 0.5706021 16711746
0.3952010 -0.8825318 0.1882830 16711746
0.3594187 -1.0235821 0.1051093 16711746
0.4170586 -1.0148828 0.5300753 16711746
0.7941978 -0.7015861 0.0535570 16711746
0.6639625 -0.6790063 0.5475781 16711746
0.7330085 -0.7929372 0.3640491 16711746
0.6343403 -0.7275074 0.3141903 16711746
-0.9787425 -1.2552545 0.2641342 16711746
0.8218430 -0.6572679 0.6161854 16711746
0.6122933 -0.7407027 0.5322791 16711746
0.7852507 -0.7313489 0.5889484 16711746
-0.3050242 0.7511362 -0.9576503 16711746
-0.4328035 0.8420926 -1.0675144 16711746
-0.5605891 0.7186991 -0.9482018 16711746
-0.2909383 0.7493339 -1.0509568 16711746
0.4707868 -0.8437719 0.8823436 16711746
-0.5767745 0.7884465 -0.9860726 16711746
0.2836209 -0.8961880 0.9591376 16711746
0.6001161 -0.8020940 0.1874887 16711746
0.4233434 -0.7351900 0.3007447 16711746
0.5002060 -0.8882551 0.3572325 16711746
0.7346455 -0.8381511 0.7380333 16711746
-0.0273626 -1.4542307 0.8716878 16711746
0.2530052 -1.0143342 0.1176601 16711746
0.6620580 -0.6892473 0.4937100 16711746
0.2550738 -0.9189101 0.0671511 16711746
-1.1352907 -0.9548063 0.9075613 16711746
-1.2895678 -1.1689087 1.0669147 16711746
0.3745361 -0.8041717 0.7176908 16711746
0.2460721 -0.8917840 0.6954051 16711746
0.2308287 -0.8910739 0.7049978 16711746
0.2369152 -0.9039872 0.6841484 16711746
0.2115988 -0.9111004 0.6885022 16711746
-0.2741561 -1.0398667 0.4855637 16711746
-0.2581179 -0.9827036 0.4411784 16711746
-0.4418713 -1.0943438 0.2260167 16711746
0.5767035 -1.3426681 0.6295640 16711746
0.3650433 -0.9277889 0.4514840 16711746
-0.0438850 -0.8824130 0.1294594 16711746
0.5558076 -0.8694465 0.3487364 16711746
-0.3769363 -1.1948575 0.3017414 16711746
0.5662204 -0.8620107 0.6085675 16711746
-0.0432955 -0.9678279 0.3530917 16711746
-0.5676873 -1.1688892 0.2978420 16711746
-0.6417480 -1.3522490 0.3115420 16711746
-0.6290155 -1.3731079 0.3597138 16711746
0.5726684 -1.0155680 0.7570508 16711746
0.5065690 -0.8811576 0.6255878 16711746
0.6487409 -0.7690881 0.2183643 16711746
0.6297469 -0.7802145 0.2126281 16711746
0.5337144 -0.9360571 0.2264657 16711746
0.6668993 -0.7968869 0.1011577 16711746
0.5919233 -0.7009203 0.0807688 16711746
0.3658559 -1.0030426 0.0918198 16711746
0.4532873 -0.8759466 0.1127722 16711746
0.2756976 -0.9055096 0.8315083 16711746
0.2998298 -1.0198779 0.9024466 16711746
0.5607818 -0.9845324 0.6219420 16711746
0.2831699 -0.7505103 0.5564290 16711746
0.3047548 -0.8399304 0.5772013 16711746
0.0226537 -0.9606235 0.5452710 16711746
0.2165851 -0.8723590 0.5878842 16711746
0.7736431 -0.7534799 0.7638543 16711746
0.8223709 -0.6619035 0.7819164 16711746
1.0177588 -0.6462547 0.5093988 16711746
0.4016917 -0.9567571 0.2841881 16711746
0.2371404 -0.9461724 0.6216228 16711746
0.0585272 -0.9354894 0.5764138 16711746
0.0133006 -1.0274832 0.6045243 16711746
0.5715888 -0.7067323 0.4345287 16711746
0.6799058 -0.8709933 0.5242475 16711746
-1.5473148 -1.1101116 0.4793631 16711746
0.6271678 -0.6824580 0.1046852 16711746
0.7077377 -0.7942988 0.3857923 16711746
-0.0691718 -0.8869800 0.1432861 16711746
-0.5388572 -1.0789323 0.1526968 16711746
-0.1860043 -1.3644960 0.0258579 16711746
0.6532830 -0.8651654 0.2793988 16711746
-0.0683696 -1.0501906 0.4761928 16711746
0.0064444 -0.9722289 0.5278748 16711746
0.0180625 -0.9249302 0.3540649 16711746
0.5324876 -0.8098733 0.4606394 16711746
0.6168075 -0.8282574 0.3713233 16711746
-0.8315755 -1.2974344 -0.1001291 16711746
-0.8810036 -1.1406027 0.3054313 16711746
-1.1052908 -1.3038969 0.3290733 16711746
-0.5500294 -1.1549751 0.4669057 16711746
0.3868647 -1.0073606 0.4466920 16711746
0.3560489 -0.8352718 0.5495771 16711746
0.3033786 -0.8500803 0.5643643 16711746
0.2390474 -0.7703259 0.5138630 16711746
0.3412560 -0.9713199 0.6224315 16711746
0.2890596 -0.9387446 0.6035097 16711746
0.5731454 -0.7788849 0.3115717 16711746
-0.2845232 -0.9730292 0.2820191 16711746
-1.0558261 -1.3076929 0.2731583 16711746
0.7142022 -0.8056214 0.5697678 16711746
0.6711358 -0.8335384 0.5700380 16711746
0.6855225 -0.8372095 0.5566267 16711746
0.6620285 -0.8580204 0.5499929 16711746
0.5995479 -0.7714306 0.2920782 16711746
-0.0174158 -1.3152885 0.9573934 16711746
0.9935887 -0.8677223 0.3254668 16711746
0.4196449 -0.8900674 0.5954874 16711746
0.5426707 -0.7113317 0.1851713 16711746
0.5460284 -0.8511468 0.4399179 16711746
0.5230868 -0.8402837 0.4236231 16711746
0.3897981 -0.7884162 0.1363170 16711746
0.2802273 -0.9033096 0.7371595 16711746
0.4831985 -0.9374458 0.8307332 16711746
0.5243906 -0.8252002 0.6745402 16711746
0.3837778 -0.8568823 0.8191732 16711746
0.5490096 -0.8496067 0.8351485 16711746
0.0324671 -0.9957539 0.8696773 16711746
0.0278912 -1.0283437 0.8429837 16711746
0.7611912 -0.9200605 0.0713741 16711746
0.2703565 -0.8255382 0.4156978 16711746
0.4185959 -0.7188247 0.3389259 16711746
0.5047374 -0.9613449 0.5371496 16711746
0.3430627 -0.9582319 0.3274554 16711746
0.4449260 -1.0049725 0.3418586 16711746
0.4913215 -0.8104354 0.3433189 16711746
0.1823596 -0.9881458 0.2758872 16711746
0.9418348 -0.7547129 0.4716228 16711746
0.6522153 -0.8132243 0.4072764 16711746
0.6178304 -0.8450398 0.5270525 16711746
0.7255769 -0.8482487 0.5183678 16711746
0.6787979 -0.7725449 0.4426754 16711746
-0.8107441 -1.2878286 0.6719171 16711746
-0.9638633 -0.9818665 0.9041134 16711746
1.7613178 1.3443704 -1.4326137 16711746
0.4506556 1.0444338 -1.1781336 16711746
0.1121375 0.8996167 -1.0313016 16711746
0.2398163 0.8630745 -1.1067597 16711746
0.7206359 1.0695286 -1.3384368 16711746
-0.1734428 -1.0340036 0.9319507 16711746
-0.5178198 -0.9568878 0.9297456 16711746
0.3587135 -0.8958300 0.1858405 16711746
0.4276278 -0.9944720 0.1526124 16711746
0.5799225 -0.8906733 0.2881465 16711746
0.9239947 -0.8960794 0.3394928 16711746
0.6863971 -0.8491127 0.3094267 16711746
0.7756223 -0.7898899 0.3623140 16711746
-0.1603478 -1.3608624 0.1882946 16711746
-0.2842976 -1.0969847 0.1565206 16711746
-0.3764349 -1.2111505 0.1229032 16711746
-0.5670126 -1.1863446 0.2228527 16711746
-0.3857930 -1.2041858 0.2298375 16711746
-0.4551243 -1.3640201 0.2394526 16711746
-0.0069680 -1.0424023 0.0228340 16711746
-0.1157409 -1.0453385 0.1221037 16711746
-0.1584373 -1.0946624 0.0659501 16711746
-0.5773642 -1.1686729 -0.0749200 16711746
0.3348428 -1.0205934 0.2621627 16711746
0.1293072 -0.9506337 0.2469056 16711746
0.3042878 -1.0143960 0.0807167 16711746
0.4227876 -0.8878981 0.0408710 16711746
0.4614277 -0.9981738 0.1062584 16711746
0.0838565 -1.0399529 0.0282931 16711746
0.0368131 -0.9515321 0.1286145 16711746
0.1485609 -0.9610282 0.0979581 16711746
1.0300061 -0.7552430 0.1238225 16711746
0.5595870 -0.9285638 0.2709368 16711746
0.5613261 -0.8191408 0.1855086 16711746
0.6834293 -0.7458531 0.2206366 16711746
