# .PCD v.7 - Point Cloud Data file format
VERSION .7
FIELDS x y z rgb
SIZE 4 4 4 4
TYPE F F F F
COUNT 1 1 1 1
WIDTH 52
HEIGHT 1
VIEWPOINT 0 0 0 1 0 0 0
POINTS 52
DATA ascii

 2.3573422 -0.3443484 6.1687655 16777215
 0.0313378 -0.0052468 0.0807698 16777215
-0.3673922 -0.8449466 0.8762813 16711746
0.7964055 1.8760126 -1.9595877 16711746
0.5803770 -0.8942277 1.0973676 16711746
0.6775815 -1.3026242 1.5326031 16711746
0.7863218 -1.1034503 1.3649044 16711746
0.6054481 -0.6938322 0.8590437 16711746
0.6611625 -1.2916433 1.7289106 16711746
0.7480890 -1.0071093 1.3740796 16711746
0.7969362 -0.7600316 0.6126617 16711746
2.2387726 -1.0872573 1.1662183 16711746
0.5608214 -0.6205486 0.4804730 16711746
-0.0110387 -1.1126196 0.7023866 16711746
0.9973623 -0.6635547 0.4644364 16711746
-0.1383254 0.1254916 -0.1679599 16711746
-0.3371888 -0.5259767 0.5051082 16711746
0.0292682 -0.6961856 0.5737962 16711746
0.0394005 -0.3532335 0.3654592 16711746
1.3012687 1.9499705 -2.3160219 16711746
0.9263189 1.5430933 -1.8974922 16711746
0.0297835 -0.6555935 0.5717047 16711746
0.3263287 -0.5309439 0.4953269 16711746
0.2542998 -0.8232189 0.5621595 16711746
0.2365344 -0.8075633 0.5393081 16711746
3.0010490 -1.8974928 0.7650904 16711746
0.0732633 -0.8896657 0.6425785 16711746
0.0537208 -0.8346217 0.6134521 16711746
0.3033233 -0.5548220 0.4516780 16711746
0.7754015 -0.7540845 0.5946598 16711746
0.6525168 -1.1406081 1.0742110 16711746
0.7675670 -0.9152831 0.8484579 16711746
0.6052852 -1.0041078 1.0852292 16711746
0.2595264 -0.5136867 0.4071526 16711746
0.3559758 -0.6449659 0.4798509 16711746
0.6056589 -1.2031898 0.9862984 16711746
0.7973011 -0.9577584 0.8337029 16711746
0.2038284 -0.2700272 0.2719037 16711746
1.2136971 -1.0198001 1.1246258 16711746
0.8017987 -0.9931566 0.8269740 16711746
1.4464633 -0.7484686 0.7496681 16711746
1.3571922 -1.2797461 1.0746272 16711746
1.4634526 -1.1967027 1.1176084 16711746
-0.6522667 1.0932449 -1.5372111 16711746
-0.1049607 0.6591054 -0.8195635 16711746
-0.3496464 0.8040407 -1.0930467 16711746
0.6670699 -1.1969774 1.0593069 16711746
0.5082468 0.7508603 -0.8996428 16711746
1.8625863 -1.1645367 0.9619024 16711746
0.3007327 -1.1603358 1.1718639 16711746
0.9668626 -1.0634155 0.9283955 16711746
0.3532718 -0.5888332 0.5059639 16711746
