# .PCD v.7 - Point Cloud Data file format
VERSION .7
FIELDS x y z rgb
SIZE 4 4 4 4
TYPE F F F F
COUNT 1 1 1 1
WIDTH 85
HEIGHT 1
VIEWPOINT 0 0 0 1 0 0 0
POINTS 85
DATA ascii

0.3340923 -0.9613690 0.2104344 16711746
0.2823762 -0.9491959 0.3216018 16711746
0.6035281 -0.7624546 0.6867489 16711746
0.3665196 -0.6153224 0.2855437 16711746
0.5150636 -0.9772676 0.3865267 16711746
1.0924726 -1.0062054 0.3722273 16711746
0.1822962 -0.9737687 0.1826635 16711746
0.4826584 -0.6596487 0.4530334 16711746
0.7961497 -0.9849224 0.6143405 16711746
-1.2510406 1.5814629 -1.6404990 16711746
-0.5327753 0.7472854 -0.8768255 16711746
-1.1669984 1.9543681 -2.2761493 16711746
-1.5881088 1.7122561 -2.2720358 16711746
-0.8521028 4.5839672 -4.7146974 16711746
-0.6415002 4.7020888 -4.7243128 16711746
1.4041902 -2.2237148 2.1645808 16711746
0.5735773 -2.6494112 2.3118038 16711746
-0.9349842 0.9501134 -1.0882541 16711746
-2.7941408 2.0814598 -2.8724744 16711746
0.7739372 -1.3027115 1.1553375 16711746
0.6560634 -0.9317893 0.5864313 16711746
0.3165860 -1.0391763 0.1980308 16711746
0.6515366 -1.2156433 0.8449945 16711746
1.0182832 -1.1288637 0.6684142 16711746
0.8026230 -0.9159803 0.4956857 16711746
0.3530912 -0.7441071 0.4190129 16711746
0.4366165 -0.9959061 0.5100366 16711746
0.4626567 -0.5288101 0.4734372 16711746
2.1415527 -2.5554829 1.8987435 16711746
0.2664448 -1.0981845 0.0973981 16711746
0.4177665 -0.5894558 0.4790537 16711746
0.5731838 -0.8757582 0.7072367 16711746
0.0959742 -0.7859985 0.6105347 16711746
0.2353866 -1.4630487 1.1731037 16711746
0.4607894 -0.7529499 0.4188536 16711746
1.0444592 -1.9723543 1.2530360 16711746
0.5221962 -1.0266502 0.6239346 16711746
1.4111214 -1.5079050 1.1334805 16711746
0.8291218 -0.9543099 0.8569282 16711746
1.3554448 -1.1868813 1.0522631 16711746
1.6220841 -1.2395880 1.0716604 16711746
0.6589801 -0.8891894 0.5291960 16711746
0.5296071 -0.7628033 0.4647146 16711746
0.4480237 -0.6062688 0.3625175 16711746
0.4501207 -0.6826029 0.4008745 16711746
0.4777113 -0.6351897 0.2080248 16711746
1.0334005 -0.6641372 0.0256446 16711746
0.5329413 -0.6558772 0.1989168 16711746
0.9278977 -1.0460736 0.7969995 16711746
0.5142749 -1.0820215 0.4056067 16711746
0.4788252 -1.1442317 0.4461823 16711746
0.6002424 -0.7119612 0.2392468 16711746
0.4931221 -0.7113916 0.0707984 16711746
0.2164802 -2.4010465 2.1286917 16711746
0.4733546 -0.9218660 0.1954350 16711746
0.1928502 -0.9205690 0.1947216 16711746
0.3925422 -0.8629994 0.3724572 16711746
0.7979702 -1.2073621 0.4726368 16711746
0.3817995 -1.0293835 0.3574006 16711746
0.3236604 -0.9849059 0.2571818 16711746
0.5965728 -0.6519220 0.2641971 16711746
-0.0797811 -1.1863269 0.2502027 16711746
-0.4720958 -1.2473598 0.6107969 16711746
0.3912077 -0.7343987 0.3842584 16711746
1.1033907 -0.9223043 0.4175463 16711746
1.0892570 -0.8453721 0.4313273 16711746
0.2886746 -1.0639070 0.0616352 16711746
0.1019455 -0.9333208 0.7515045 16711746
0.6402298 -1.3040949 0.5547655 16711746
0.5634627 -0.8528896 0.4660552 16711746
0.3022761 -0.6751037 0.3651262 16711746
0.3005717 -0.7226915 0.3663808 16711746
0.4206745 -0.6492580 0.3151030 16711746
0.4608952 -0.8785548 0.4745186 16711746
0.5959551 -0.9475067 0.4594982 16711746
0.8152220 -0.8538496 0.2382131 16711746
0.7658266 -0.8153971 0.2110947 16711746
1.2235106 -2.1826208 1.6633691 16711746
1.0898639 -1.8298035 1.3901839 16711746
0.6036338 -1.1417720 0.8679368 16711746
-0.2596063 -1.3406740 0.3652276 16711746
0.3852179 -0.8397417 0.5421913 16711746
0.3668066 -0.8883951 0.5827028 16711746
0.2223953 -0.7972825 0.4789720 16711746
1.4148568 -1.0665965 0.4198299 16711746
