# .PCD v.7 - Point Cloud Data file format
VERSION .7
FIELDS x y z rgb
SIZE 4 4 4 4
TYPE F F F F
COUNT 1 1 1 1
WIDTH 121
HEIGHT 1
VIEWPOINT 0 0 0 1 0 0 0
POINTS 121
DATA ascii

 1.6779410 -0.2715576 4.1109695 16777215
 0.0323998 -0.0073347 0.0795904 16777215
-0.1080259 -0.8393605 0.0524712 16711746
-0.2513036 -0.8192141 -0.0232141 16711746
-1.6387771 -1.6803863 0.2886606 16711746
-0.9048928 -1.1555264 0.2020600 16711746
-1.6826788 -1.8160129 0.2203969 16711746
-0.0703802 -1.2662872 0.5309311 16711746
-0.2670188 -1.0391822 0.4477702 16711746
0.1515309 -1.3954474 0.8112110 16711746
0.3980538 -0.5785259 0.5235375 16711746
0.7318994 -0.7029718 0.5618669 16711746
0.5707281 -0.8859597 0.7059501 16711746
-0.0626426 1.8199053 -1.8814428 16711746
0.0910241 -0.1556785 0.2301072 16711746
0.1296573 -1.6950446 1.5478013 16711746
-1.1730151 1.1172343 -1.6349589 16711746
0.0496726 -0.9384390 0.3749993 16711746
0.3217012 -0.9807237 0.3278914 16711746
-0.1552581 -0.9042832 0.3322524 16711746
-1.6491423 -1.5782053 0.2019704 16711746
0.5951648 -0.6188916 0.2228293 16711746
0.7614400 -0.8172315 0.2544777 16711746
0.3099028 -0.7297185 0.3354547 16711746
0.2857772 -1.0142037 0.2611028 16711746
0.1128448 -0.8553470 0.1549089 16711746
0.2153692 -1.3428245 0.1908271 16711746
0.1425161 -0.8871178 0.1350882 16711746
0.2180709 -1.2731489 0.8984249 16711746
0.7540937 -0.5706635 0.1363766 16711746
0.3201730 -0.6358244 0.3610308 16711746
0.5441732 -0.5659541 0.4034753 16711746
0.2216587 -1.1054322 0.6940280 16711746
0.4377414 -1.3748133 0.8327842 16711746
0.2298871 -1.2930580 0.0678350 16711746
0.3341841 -0.7921523 0.2218256 16711746
0.0428754 -0.9209843 0.1815244 16711746
0.1686960 -0.9959155 0.1780126 16711746
0.7803670 -1.1387877 0.2775668 16711746
0.3447410 -0.8436090 0.1319155 16711746
0.0507135 -0.8385139 0.5153558 16711746
0.3434811 -0.8514505 0.4322842 16711746
0.1423891 -1.5387655 1.1712787 16711746
-0.0478610 -0.6752208 0.4225236 16711746
0.8060820 -0.6729094 0.0431133 16711746
-0.1088605 -1.1204594 0.5756200 16711746
0.2599729 -1.0385015 0.1824881 16711746
0.6321451 -1.2791517 0.5919714 16711746
0.6145959 -1.3339312 0.6082014 16711746
0.4238354 -0.9044882 0.4295296 16711746
0.4130262 -0.6930624 0.1302639 16711746
0.3707899 -0.6778060 0.1299883 16711746
0.2521516 -1.6729290 1.0033287 16711746
0.6051090 -1.0802817 0.7405476 16711746
0.6745460 -0.6751851 0.3290545 16711746
0.5534875 -0.5312136 0.2634685 16711746
0.4188966 -1.5765218 0.9902237 16711746
0.5922928 -0.7565536 0.2642401 16711746
0.4844831 -0.5755491 0.1292518 16711746
0.4431501 -0.8727753 0.4916034 16711746
0.6792674 -0.4974842 0.2423507 16711746
0.5907131 -0.5034825 0.2802390 16711746
0.5326471 -0.5456527 0.2558979 16711746
-0.1670580 -1.1993476 -0.0032193 16711746
-0.1673300 -1.2046245 0.0720667 16711746
0.1932686 -1.2232862 0.9018120 16711746
0.5065061 -0.6291158 0.3845634 16711746
0.6885234 -0.8946357 0.4901789 16711746
0.4798652 -0.6450849 0.1919744 16711746
0.0289189 -1.0845867 0.3630314 16711746
0.8294604 -0.8349715 0.4226767 16711746
0.9466493 -0.9206650 0.4473801 16711746
0.4038683 -0.5754617 0.1175545 16711746
0.9948541 -1.4166433 1.6055806 16711746
-0.9440882 1.2831106 -1.5705644 16711746
-0.2763207 -1.7418108 1.2939101 16711746
-0.5947104 -1.9245230 0.9442202 16711746
0.2309952 -0.6360739 0.1865920 16711746
0.3003446 -0.8259529 0.1245737 16711746
0.2478762 -1.3073195 0.0814259 16711746
0.1575938 -0.7705464 0.1262759 16711746
0.0989383 -1.1935570 0.8637789 16711746
0.1125179 -2.0209191 1.4262228 16711746
0.1126087 -1.2232621 0.8623661 16711746
0.7322975 -1.3612623 1.0467516 16711746
0.4265780 -0.5688994 0.1379818 16711746
0.5043000 -1.4001576 0.5075426 16711746
0.4397653 -0.9932161 0.3687820 16711746
0.3875183 -0.7769499 0.2956276 16711746
0.7315793 -1.5634857 1.2731807 16711746
0.5672529 -1.4486909 1.3691400 16711746
0.4922966 -1.1526397 1.0257063 16711746
1.0709058 -1.6705437 1.5412545 16711746
0.1346132 -1.7740219 1.5274496 16711746
0.2701868 -0.7205909 0.4568558 16711746
0.6839769 -1.8003052 1.2842174 16711746
0.5112727 -0.9866938 0.7404832 16711746
0.2201004 -1.2925900 0.7484568 16711746
0.1760058 -1.0733545 0.6031189 16711746
0.5108694 -0.9514449 0.4261277 16711746
0.4967623 -0.5976279 0.2045735 16711746
0.3912924 -0.6705547 0.1517731 16711746
0.1341332 -0.9739566 0.6209605 16711746
0.5350140 -0.6003526 0.3930995 16711746
0.8058420 -1.3152543 1.1824571 16711746
1.1238010 -0.7121944 0.4006276 16711746
0.8852744 -1.5086849 1.1133975 16711746
0.4105431 -0.7413503 0.5697874 16711746
0.5988128 -1.0229074 0.7532794 16711746
0.3955601 -0.7053033 0.5256264 16711746
0.2187993 -0.6148684 0.4598603 16711746
0.4040474 -1.3943127 0.9323214 16711746
0.8513844 1.8054087 -1.8500190 16711746
-0.8920037 -1.3994899 -0.1004185 16711746
0.6235019 -0.6084555 0.2382244 16711746
0.3080377 -0.7744161 0.2618202 16711746
0.4342800 -1.0704412 0.3238629 16711746
0.4681964 -1.4046489 0.3805189 16711746
0.3263644 -1.0199183 0.2808549 16711746
0.3647887 -1.0030020 0.2722446 16711746
0.5292909 -0.5040078 0.4048975 16711746
