# .PCD v.7 - Point Cloud Data file format
VERSION .7
FIELDS x y z rgb
SIZE 4 4 4 4
TYPE F F F F
COUNT 1 1 1 1
WIDTH 111
HEIGHT 1
VIEWPOINT 0 0 0 1 0 0 0
POINTS 111
DATA ascii

 2.1570978 -0.3190451 5.6009293 16777215
 0.0298365 -0.0011896 0.0639711 16777215
-0.2980774 -0.7351131 0.2003841 16711746
-0.2934694 -0.7449448 0.1912277 16711746
-0.0107765 -1.1097219 0.3590084 16711746
-0.5037810 -1.0428625 0.6223177 16711746
0.4931304 -1.1516912 0.2954686 16711746
0.3684274 -1.0283087 0.2507914 16711746
0.2755927 -0.9980576 0.2574812 16711746
-0.1030401 -1.0376030 0.2804664 16711746
0.0218507 -0.9850896 0.3447894 16711746
0.8013027 -1.1042262 0.0344926 16711746
-0.1537148 -1.1271161 0.5022084 16711746
0.2039390 -0.8071990 0.3826217 16711746
0.2809317 -0.7353526 0.2674145 16711746
0.3455194 -1.0695531 0.3722003 16711746
-0.2457923 -0.6785233 0.1681085 16711746
-0.2954895 -0.7380683 0.1616620 16711746
-0.1475756 -0.7224702 0.1601755 16711746
0.5586063 -0.8724246 0.4855562 16711746
0.6806208 -0.8648592 0.0183434 16711746
0.3225447 -0.9290962 0.6874662 16711746
0.3240786 -0.9883403 0.0690076 16711746
0.1407276 -0.7696148 0.1063216 16711746
0.4928538 -0.9961582 0.4433018 16711746
0.4689770 -0.8081880 0.4239807 16711746
0.2028980 -1.1401012 0.5416587 16711746
0.1981075 -1.2570032 0.6718175 16711746
0.2803476 -1.0769184 0.5296621 16711746
-0.0763662 -0.8330886 0.4100809 16711746
-0.3259884 -0.6378972 0.2711587 16711746
-0.4890948 -1.2049828 0.6046171 16711746
-0.3268672 -1.2104607 0.4904719 16711746
-0.2783880 -0.7848073 0.2568532 16711746
0.5388091 -1.0496914 0.2353225 16711746
-0.3650655 -0.8049436 0.2123760 16711746
-0.0324582 -0.7468020 0.1572584 16711746
-0.0637913 -0.7437477 0.1699865 16711746
0.0620398 -1.0870923 0.2057687 16711746
-0.0028112 -0.9607214 0.1975781 16711746
0.1413320 -1.4581802 0.2045678 16711746
-0.1019898 -0.9005033 0.2213515 16711746
0.4775889 -1.0909967 0.3679540 16711746
0.4242929 -1.0527302 0.3593415 16711746
0.6155932 -1.0474072 0.3846234 16711746
0.5914636 -1.0687113 0.3749942 16711746
0.4651019 -1.0002543 0.2981151 16711746
0.5419502 -0.8075674 0.3343451 16711746
-0.2104844 -1.0876166 0.4239981 16711746
-0.1859562 -1.1346693 0.4215303 16711746
0.0079693 -0.7057869 0.3320332 16711746
0.3540633 -0.9842110 0.6035551 16711746
0.2236391 -0.7016226 0.0904386 16711746
0.2797208 -0.9138567 0.3658317 16711746
-0.2313861 -0.7130268 0.1745294 16711746
0.0821668 -1.0035087 0.0787606 16711746
-0.0494523 -0.7240414 0.0814508 16711746
0.0147291 -0.9339137 0.1064918 16711746
-0.2294798 -0.6904673 0.0499201 16711746
-0.2266716 -0.7050306 0.0965924 16711746
-0.1320345 -0.8606025 0.1157166 16711746
0.3089580 -0.9038309 0.6361937 16711746
0.3354683 -1.3193228 0.0984372 16711746
0.0998022 -1.1355615 0.1249434 16711746
0.0747833 -1.2153502 0.1089583 16711746
-0.4471574 -0.9093925 0.3438843 16711746
0.0190274 -1.0249075 0.2647972 16711746
-0.2820628 -0.7664364 0.1077019 16711746
-0.0660238 -0.9196374 0.2949448 16711746
-0.1201374 -1.0570008 0.3274233 16711746
-0.0442170 -0.7227485 0.2182852 16711746
-0.1429759 -0.9878500 0.3825114 16711746
-0.0057850 -0.8327969 0.3362678 16711746
0.5300605 -1.1188898 0.3373332 16711746
0.4164197 -0.9239879 0.2607191 16711746
0.2178960 -0.8644279 0.3200700 16711746
0.3340417 -1.3243743 0.4458462 16711746
-0.3876776 -0.6085647 0.1138837 16711746
-0.3072621 -0.6633532 0.1242976 16711746
-0.5217838 -0.9588991 0.2468671 16711746
-0.4584789 -0.9391847 0.7894192 16711746
0.3768186 -1.0121021 0.2767937 16711746
-0.0265727 -0.7915347 0.1482032 16711746
-0.0284105 -0.6828116 0.1302900 16711746
-0.0085599 -0.7713926 0.1368638 16711746
-0.5715353 -0.9351575 0.2627856 16711746
-0.4510076 -0.8309743 0.2953181 16711746
-0.1016940 -0.9606155 0.4240538 16711746
-0.3326583 -1.1633098 0.5210419 16711746
-0.3918531 -0.9778242 0.5127077 16711746
-0.2217701 -1.0393640 0.5265692 16711746
-0.3134813 -0.8891434 0.4262708 16711746
0.3159754 -1.1537039 0.2040299 16711746
0.2731951 -1.1249267 0.1978667 16711746
-0.0316183 -1.1361580 0.5079460 16711746
-0.0989881 -1.1928629 0.5300670 16711746
-0.2368571 -1.2458428 0.6818469 16711746
-0.2778881 -1.1774026 0.6463227 16711746
0.2335929 -0.8256468 0.2439105 16711746
0.5736638 -1.1572094 0.2866995 16711746
0.3786445 -0.7197097 0.1926668 16711746
0.3711128 -0.7875545 0.2008321 16711746
0.4780290 -1.4412085 0.5688041 16711746
0.3323694 -0.9288245 0.3612441 16711746
0.1743639 -0.7861173 0.0936254 16711746
0.4823653 -0.9759746 0.4570594 16711746
-0.6191441 -0.6879873 0.2633182 16711746
-0.6864412 -0.7904274 0.2781817 16711746
0.3437207 -0.9810693 0.4550700 16711746
0.3355633 -0.9399229 0.2141004 16711746
0.2725949 -0.7389272 0.1719596 16711746
