# .PCD v0.7 - Point Cloud Data file format
VERSION 0.7
FIELDS x y z rgb
SIZE 4 4 4 4
TYPE F F F F
COUNT 1 1 1 1
WIDTH 1197
HEIGHT 1
VIEWPOINT 0 0 0 1 0 0 0
POINTS 1197
DATA ascii
8.7656698 -15.698567 20.739128 16711746
5.4819961 -9.7047749 21.304436 16711746
2.2170956 -7.7991676 19.720573 16711746
0.45081016 -11.594827 19.077047 16711746
6.5820971 -12.003658 19.117327 16711746
5.7423472 -16.012562 21.550699 16711746
5.1667728 -15.655815 21.148983 16711746
10.810414 -10.144639 16.483418 16711746
5.3121409 -7.4199929 21.372969 16711746
5.3018594 -11.137123 21.212366 16711746
0.96554428 -15.682707 19.560589 16711746
0.087278724 -11.794372 19.058945 16711746
6.6317759 -13.899076 21.107977 16711746
3.6193397 -9.9588947 19.924314 16711746
-0.054641392 -9.4793854 22.313643 16711746
1.6059344 -19.184963 27.874897 16711746
4.4478827 -10.320017 19.489021 16711746
3.9732001 -8.2069063 18.684162 16711746
3.5929487 -8.8276787 19.383827 16711746
8.6810017 -10.651596 23.015444 16711746
7.753509 -11.095263 22.506969 16711746
4.9711823 -12.01892 20.720409 16711746
3.4706028 -11.123165 20.70937 16711746
4.3788333 -10.745749 20.761192 16711746
4.3157415 -8.5514441 19.707523 16711746
4.1583848 -10.112411 19.743353 16711746
12.281823 -12.019613 17.190416 16711746
4.4943085 -8.2114573 19.185608 16711746
3.8628862 -10.586453 19.266621 16711746
-0.45438698 -13.212855 23.287619 16711746
7.69313 -9.0965929 22.657118 16711746
4.6776814 -8.8256578 21.675816 16711746
3.1886516 -12.105436 21.919088 16711746
-1.3701892 -12.340544 19.953955 16711746
3.4515216 -8.8204069 21.309166 16711746
11.787314 -16.21739 27.649601 16711746
5.527143 -15.535721 21.150909 16711746
0.060460132 -24.072018 28.460747 16711746
1.1349258 -8.3927956 19.399942 16711746
9.8315134 -27.414965 22.309551 16711746
-0.14938222 -11.605778 19.934204 16711746
3.3666532 -7.2426152 18.044785 16711746
12.592895 -11.34028 16.251419 16711746
3.2535958 -7.1162953 18.990133 16711746
3.1862731 -6.3006625 18.300459 16711746
7.6817946 -8.346838 17.824974 16711746
0.90821105 -13.32096 22.605804 16711746
2.4217448 -6.4379587 20.192463 16711746
2.1114511 -8.4988289 20.692509 16711746
0.58028036 -16.073286 23.039402 16711746
5.8386364 -16.979219 21.248886 16711746
4.3161006 -14.803674 20.567299 16711746
-0.14928143 -9.3809357 19.858974 16711746
-0.2121519 -10.446204 19.698832 16711746
6.9256988 -12.706819 18.968288 16711746
1.2992015 -4.9254079 17.679251 16711746
1.1768444 -9.3774443 21.942904 16711746
3.5121195 -5.0632463 18.883255 16711746
10.639471 -18.384628 24.08849 16711746
3.5608573 -11.137093 22.003759 16711746
-10.61667 -16.815681 23.462214 16711746
29.233953 -28.703846 32.065327 16711746
9.5315428 -13.680594 17.673105 16711746
7.4590616 -11.869115 15.981593 16711746
10.460636 -27.974745 25.462254 16711746
13.47455 -19.19092 21.399668 16711746
7.8176012 -12.782502 17.836733 16711746
6.131999 -12.003219 16.600748 16711746
13.343053 -22.756826 22.460974 16711746
12.757842 -13.748952 20.487598 16711746
-2.2536259 -8.6017809 20.555351 16711746
7.1615896 -26.48307 21.763388 16711746
3.0545342 -10.978855 20.491461 16711746
2.573138 -8.6536436 18.542437 16711746
0.019700645 -12.876601 19.271379 16711746
-3.0902517 -13.427738 22.1751 16711746
-1.9197412 -19.136503 20.67701 16711746
0.93090093 -9.4125977 21.954124 16711746
-2.4375529 -12.061452 21.585619 16711746
2.7843816 -9.2908354 17.9363 16711746
1.754337 -8.3090706 18.086716 16711746
0.78814006 -11.95833 22.297913 16711746
1.1014305 -13.619657 24.672945 16711746
-1.871624 -14.112355 21.608568 16711746
2.2127616 -9.4272833 17.815758 16711746
0.55146933 -11.878746 19.529131 16711746
0.82147557 -11.009371 19.051201 16711746
2.2693636 -8.5486612 18.385103 16711746
-1.5450625 -13.675721 22.320057 16711746
4.4698992 -10.089699 18.900593 16711746
3.1748128 -7.5811701 17.898455 16711746
1.8075625 -8.2884912 18.405321 16711746
-1.9280844 -14.559195 21.770563 16711746
0.999632 -9.7575836 21.034876 16711746
0.63650733 -10.160285 18.983393 16711746
1.6938559 -11.542195 23.283194 16711746
-6.9785957 -14.744948 25.753637 16711746
-2.3057239 -12.581445 23.881575 16711746
-1.2171392 -10.656628 20.769815 16711746
-2.2483945 -19.051414 30.911757 16711746
11.173553 -11.268423 17.442303 16711746
-2.0769479 -11.00043 20.970867 16711746
2.978406 -8.6437721 18.646473 16711746
2.8780186 -7.8262668 17.85376 16711746
-4.6422772 -17.970583 21.87299 16711746
4.7530212 -15.627387 20.808945 16711746
7.5112505 -16.524944 20.090883 16711746
6.0674262 -12.680599 19.003536 16711746
0.21901418 -10.670222 23.474749 16711746
26.339006 -52.861176 33.30917 16711746
4.2803698 -23.848886 21.217876 16711746
0.44381395 -21.362495 25.480089 16711746
2.0061421 -8.4569941 18.798037 16711746
1.8533355 -9.9426785 19.330481 16711746
9.0556564 -11.172145 16.477192 16711746
1.8032211 -9.0913582 18.948212 16711746
3.9816887 -9.5419703 20.47765 16711746
3.5413334 -10.132714 20.096973 16711746
2.9531522 -9.8255072 20.148304 16711746
1.8965213 -7.4198165 18.500843 16711746
2.7334754 -10.23051 19.142485 16711746
2.2717149 -10.424575 19.034796 16711746
2.796556 -8.8190928 19.479988 16711746
3.7746806 -8.0002155 19.260714 16711746
4.7960954 -7.3605905 18.353483 16711746
2.2496324 -7.8917956 17.857386 16711746
1.8381852 -8.8985891 18.874138 16711746
3.8287518 -8.7306614 19.547153 16711746
-0.003290406 -9.8921776 20.371799 16711746
4.5389323 -8.8729515 18.912262 16711746
12.200121 -13.353934 16.129202 16711746
3.3003387 -7.9426126 17.94318 16711746
1.8945634 -7.6367798 18.251598 16711746
-0.20984113 -7.5030937 19.643019 16711746
2.7383921 -9.3800468 20.032547 16711746
1.9671501 -9.6374121 19.24876 16711746
-0.25218129 -7.7883034 19.461069 16711746
4.4524159 -8.7408857 18.87257 16711746
9.2693453 -9.717432 17.644569 16711746
4.4611759 -10.040427 20.605814 16711746
5.8839169 -8.1443558 17.318367 16711746
0.4898243 -9.1808138 18.884989 16711746
5.1983771 -10.541862 18.284483 16711746
1.0123167 -10.920918 21.893816 16711746
-0.1106041 -8.8660812 20.06739 16711746
2.6197901 -9.3518724 18.664627 16711746
2.1946161 -9.5401516 18.849077 16711746
4.0642757 -8.6636267 19.394699 16711746
-0.87124348 -11.423761 19.649923 16711746
1.9459549 -8.3936691 19.915134 16711746
10.617981 -13.944054 26.127172 16711746
5.2611117 -9.6665764 16.566055 16711746
2.4622831 -10.005198 18.806376 16711746
4.0439091 -8.804162 20.855646 16711746
1.98366 -8.2614841 18.27038 16711746
1.0508723 -12.123362 21.570459 16711746
-3.8309619 -13.431359 22.165556 16711746
8.4281912 -9.4091311 17.480307 16711746
2.9249718 -11.313895 20.657896 16711746
4.0405717 -9.5084162 18.86125 16711746
2.8445601 -7.1494617 17.90748 16711746
3.0376556 -7.7300606 20.175264 16711746
24.653128 -21.980337 22.1485 16711746
-4.7096438 -14.424878 24.352867 16711746
3.8043962 -7.809226 23.557211 16711746
1.5381953 -6.6478295 20.813822 16711746
5.0036922 -10.759142 20.614704 16711746
-4.1475782 -35.685291 32.440041 16711746
12.871179 -25.71887 26.462498 16711746
1.952312 -9.5307264 19.047174 16711746
13.286467 -63.652122 49.194115 16711746
22.54447 -65.488388 34.121559 16711746
1.2681215 -34.436447 20.68272 16711746
3.1820536 -7.9368153 20.673431 16711746
0.93251967 -8.7526407 20.961742 16711746
1.5751481 -6.173079 21.600744 16711746
3.1684041 -7.2350521 20.455351 16711746
19.590954 -99.342567 32.868587 16711746
2.6641889 -6.3956618 22.03713 16711746
2.9816561 -7.2174826 20.117826 16711746
11.497642 -14.356361 15.581135 16711746
7.6246881 -11.401528 20.425508 16711746
3.5512733 -7.5929785 20.136707 16711746
6.2943254 -9.5907602 21.240528 16711746
0.20947729 -4.850544 21.292973 16711746
3.1233153 -7.3323593 20.123228 16711746
3.9592531 -8.2704134 20.629028 16711746
9.9134331 -13.7183 20.412262 16711746
-0.40500998 -4.402235 20.621382 16711746
8.9074192 -12.222066 21.645069 16711746
7.5245252 -7.8570623 21.6416 16711746
12.914222 -15.877326 18.05002 16711746
0.15268245 -3.1249895 20.496559 16711746
0.13156952 -3.0803668 20.468081 16711746
1.3000237 -4.4227715 20.376377 16711746
6.3158593 -8.4796267 20.304634 16711746
0.38905579 -8.4095612 20.716917 16711746
1.8648624 -11.961241 21.686275 16711746
6.2849822 -8.8944798 20.888159 16711746
0.69897467 -8.8855543 20.251591 16711746
2.1833584 -12.743954 21.820354 16711746
2.1679978 -7.489212 20.051945 16711746
4.2508235 -12.633321 18.781569 16711746
4.7685575 -12.04531 20.900362 16711746
7.4197788 -16.543852 18.319984 16711746
6.4676328 -17.539061 18.855122 16711746
3.8822205 -13.798504 19.946545 16711746
18.027153 -26.088408 26.400095 16711746
7.8198948 -16.367718 21.495914 16711746
2.1313951 -13.243806 20.248722 16711746
2.8793781 -18.897322 19.114086 16711746
1.631294 -15.598261 20.236679 16711746
4.2269769 -17.783625 19.837053 16711746
3.6501834 -16.560144 19.865725 16711746
3.6058671 -17.298761 20.255043 16711746
2.6383708 -15.347733 19.565599 16711746
9.4075708 -10.01286 20.957529 16711746
0.55560535 -11.778362 21.305048 16711746
13.686893 -13.192601 20.222887 16711746
2.3279026 -14.467077 20.30459 16711746
3.1836023 -16.922558 19.556461 16711746
16.90225 -16.358471 28.76927 16711746
14.328156 -14.978515 17.155861 16711746
1.1922061 -18.115854 20.801008 16711746
2.6840041 -16.885 21.468493 16711746
16.054392 -34.870808 25.898136 16711746
-3.2958374 -12.993546 24.025547 16711746
1.1663954 -9.9744549 21.398241 16711746
6.2166638 -15.483481 19.401806 16711746
4.6052899 -14.875099 19.364561 16711746
0.62652546 -11.147777 20.240633 16711746
4.4315438 -14.455247 19.366186 16711746
4.2553649 -15.339594 19.126022 16711746
2.6124213 -15.469485 20.337337 16711746
4.935369 -11.57509 19.67231 16711746
4.1788955 -14.689384 19.94508 16711746
7.7565808 -15.662237 20.114256 16711746
4.0090775 -13.24854 19.391644 16711746
6.7407179 -15.052262 18.494461 16711746
9.9311399 -20.20463 22.852308 16711746
5.4648199 -19.186485 19.657547 16711746
4.4911079 -13.982718 19.001812 16711746
4.5263891 -13.475444 19.820803 16711746
6.3098483 -14.986135 19.663445 16711746
5.3051915 -14.572556 20.070637 16711746
14.258114 -22.056831 22.32445 16711746
8.059989 -14.570921 19.355368 16711746
6.8352623 -14.356604 18.544828 16711746
5.9260726 -13.292638 19.957935 16711746
8.3256683 -14.33856 25.713572 16711746
10.580805 -18.137383 28.736536 16711746
7.3805075 -13.845801 20.800367 16711746
-3.3521912 -10.590434 23.049873 16711746
4.80826 -11.712914 21.718174 16711746
-2.6387975 -22.097916 27.762554 16711746
-2.1506643 -8.6688757 22.626942 16711746
6.6897974 -12.510139 19.507 16711746
3.8832309 -13.732451 19.306833 16711746
9.3684158 -18.41795 21.11746 16711746
3.3631868 -12.498211 20.876175 16711746
-1.9878292 -8.395565 22.051085 16711746
-3.0953956 -8.7669334 22.104935 16711746
2.4930227 -22.918434 20.83786 16711746
6.2559328 -7.7902246 23.713907 16711746
2.7218564 -12.485638 19.862421 16711746
8.1098623 -13.165144 27.33444 16711746
-5.026628 -17.012749 22.142929 16711746
-2.8229752 -13.624926 23.678186 16711746
9.8034058 -8.7716122 20.408844 16711746
10.839083 -12.090377 21.668282 16711746
8.5647402 -12.606697 20.961948 16711746
2.6596031 -17.259739 20.920914 16711746
3.9333405 -10.772517 26.516365 16711746
0.74357146 -7.6473927 21.055796 16711746
6.6198225 -12.204853 21.699638 16711746
6.5335259 -6.4673486 20.954981 16711746
7.9013891 -6.7522616 22.132063 16711746
9.2073975 -8.1498804 22.798134 16711746
7.5392041 -13.968862 17.52323 16711746
26.039623 -56.419437 27.510229 16711746
0.21062163 -7.8907032 20.855326 16711746
8.7919197 -8.4435959 21.591759 16711746
11.121625 -13.221836 21.181688 16711746
14.535414 -14.811957 28.477354 16711746
2.2004714 -4.8031335 20.684687 16711746
12.696947 -10.299548 23.779812 16711746
4.6445661 -6.9767222 22.809059 16711746
2.1423395 -7.659996 21.414402 16711746
16.237669 -18.587029 27.767412 16711746
9.5548563 -12.320798 21.309021 16711746
8.2356634 -11.625181 21.153648 16711746
17.10273 -18.390598 36.913223 16711746
15.41705 -18.36339 38.258804 16711746
8.971261 -12.019456 25.02207 16711746
3.4465547 -5.4015326 22.628456 16711746
11.141259 -12.279652 30.853193 16711746
12.12933 -17.995205 33.040253 16711746
16.292459 -16.749226 35.640213 16711746
15.875092 -12.580103 31.893827 16711746
9.0426531 -8.4730015 23.452297 16711746
18.386461 -17.39032 31.235065 16711746
18.343918 -26.692198 39.264339 16711746
11.606593 -17.359674 31.585522 16711746
10.682303 -8.2099056 24.516346 16711746
16.293247 -19.252029 34.286652 16711746
7.6905599 -15.761873 33.304317 16711746
16.146105 -18.166142 35.038406 16711746
11.605597 -11.962749 26.263771 16711746
9.0539875 -8.5848999 23.500851 16711746
16.830517 -9.750433 26.831165 16711746
10.914445 -16.542334 30.949091 16711746
2.4541695 -9.5945892 25.879354 16711746
19.341009 -20.112425 16.972652 16711746
14.062701 -14.697877 19.181976 16711746
13.348041 -17.709257 19.725651 16711746
14.362018 -13.656346 26.886675 16711746
4.4671397 -15.67312 21.63496 16711746
8.518939 -15.678626 22.428371 16711746
4.8148389 -12.046834 26.93646 16711746
4.3265309 -11.135944 23.826435 16711746
13.486788 -14.202764 19.643452 16711746
4.3823624 -13.035096 22.1632 16711746
9.6066713 -7.685307 24.125 16711746
8.6093397 -8.2186966 24.365383 16711746
8.2704506 -15.279921 30.016556 16711746
14.573336 -14.381243 27.614218 16711746
3.0783072 -16.425594 21.985264 16711746
15.937666 -12.187561 20.999161 16711746
4.7482805 -13.810627 20.158361 16711746
11.425516 -12.165487 32.094421 16711746
12.815042 -16.06061 25.631569 16711746
11.17515 -9.215621 24.50746 16711746
5.5114226 -11.138636 22.476141 16711746
8.0121851 -13.301886 21.100082 16711746
3.8245261 -12.59249 27.913107 16711746
20.02762 -16.758818 20.115488 16711746
11.569159 -13.9695 17.604975 16711746
4.5193486 -18.347227 33.487518 16711746
9.6205587 -8.8240519 24.746361 16711746
16.017574 -16.546679 35.581223 16711746
10.023098 -13.074961 25.49509 16711746
2.0834169 -17.222343 25.247921 16711746
3.212326 -20.190544 29.905069 16711746
17.862619 -15.832371 18.707607 16711746
5.0619211 -23.273979 27.500547 16711746
6.2242646 -12.36005 20.374582 16711746
5.5645928 -13.684262 21.090946 16711746
4.9682684 -19.985874 34.832775 16711746
15.117808 -15.277959 28.856295 16711746
17.041348 -15.428151 33.15155 16711746
17.61693 -18.059444 37.117302 16711746
3.7082307 -11.892365 26.666952 16711746
6.671145 -11.979811 25.883709 16711746
2.0738013 -8.8690109 23.778545 16711746
5.4884081 -16.881405 22.15777 16711746
3.8684125 -13.44358 27.028128 16711746
5.3542719 -10.942986 20.433998 16711746
7.1630354 -10.56971 25.448458 16711746
10.598529 -14.799788 24.917492 16711746
9.6894913 -11.606127 19.131624 16711746
8.7542963 -16.624746 22.615843 16711746
4.3250804 -14.126166 23.807657 16711746
2.8510673 -18.770372 27.62541 16711746
30.046438 -24.753071 16.889252 16711746
6.7739105 -15.270844 20.401665 16711746
6.528791 -13.545619 19.735958 16711746
5.1297908 -12.337831 20.542225 16711746
2.2318909 -9.1762924 22.58058 16711746
13.642702 -15.638961 27.425322 16711746
10.207503 -13.372264 24.70434 16711746
2.6691079 -17.627516 26.6057 16711746
9.0808353 -12.054699 25.085651 16711746
20.157635 -18.039885 34.070236 16711746
2.6513898 -18.596437 26.987381 16711746
3.7755446 -21.954357 29.496771 16711746
13.754269 -11.741568 20.119965 16711746
13.624396 -15.500539 18.489809 16711746
-3.5934491 -24.062918 36.471798 16711746
17.037792 -18.832041 28.193151 16711746
13.808715 -13.570004 18.903954 16711746
17.905901 -16.944044 30.965546 16711746
10.194482 -14.465442 24.846674 16711746
13.040051 -13.078247 27.042643 16711746
7.7338657 -13.452422 29.089142 16711746
9.3988323 -13.294085 24.07918 16711746
13.452689 -13.365711 27.145569 16711746
10.630286 -13.307955 26.277248 16711746
-0.37683198 -8.3810434 23.947388 16711746
8.947608 -15.133008 30.45813 16711746
4.9028673 -25.181328 33.23555 16711746
5.9988966 -11.395121 27.483023 16711746
11.672691 -19.441538 33.736969 16711746
8.3237972 -12.987808 30.539419 16711746
11.271835 -9.522172 23.85125 16711746
6.0931544 -21.350901 35.208611 16711746
14.349872 -16.394712 34.940434 16711746
15.718046 -15.79369 36.475166 16711746
16.707273 -15.129009 32.996449 16711746
14.658138 -14.955914 35.468433 16711746
16.268169 -13.571305 28.24139 16711746
11.142034 -18.003826 32.169594 16711746
11.083297 -13.208173 25.453955 16711746
16.23064 -16.000549 30.099318 16711746
15.115314 -18.011864 33.138081 16711746
11.391332 -16.040464 35.495552 16711746
13.480965 -10.827798 26.177202 16711746
13.933954 -15.099253 17.365812 16711746
19.691315 -14.19559 27.064545 16711746
15.354124 -19.690495 32.438122 16711746
13.737745 -15.915421 33.140884 16711746
15.842018 -14.374283 24.180784 16711746
0.29739395 -4.7546768 22.738482 16711746
-37.87743 -82.293266 83.550781 16711746
17.120733 -18.978481 35.931866 16711746
17.676823 -19.608995 36.914185 16711746
16.421436 -19.585365 39.458515 16711746
19.343616 -18.650278 34.252296 16711746
-2.3975506 -18.028423 32.643055 16711746
-2.1884272 -17.113115 30.926645 16711746
18.144726 -17.25301 31.265411 16711746
-0.66617256 -15.69662 28.556513 16711746
0.31030974 -20.346653 29.487057 16711746
-0.74887896 -14.403471 27.201748 16711746
-0.91807854 -16.030773 31.000366 16711746
-0.89176273 -15.065303 27.673359 16711746
-1.5064552 -14.577825 26.258411 16711746
-0.53571916 -12.62256 25.816011 16711746
-0.88089705 -14.348396 29.99432 16711746
7.0203838 -23.17605 34.424152 16711746
3.0676589 -7.8850574 24.578594 16711746
2.7535915 -8.4717989 24.600191 16711746
7.4387164 -12.399468 23.31472 16711746
17.307756 -17.278246 34.265347 16711746
-2.1908252 -15.665281 28.218357 16711746
13.997245 -14.647004 29.021887 16711746
0.39988205 -4.6796641 23.594536 16711746
-2.7765212 -24.671894 39.306759 16711746
16.20812 -15.705492 28.407955 16711746
18.572481 -14.126439 33.800282 16711746
14.458511 -14.781266 35.373272 16711746
0.9091267 -39.948929 58.069996 16711746
-2.7686768 -19.080229 32.255203 16711746
18.326813 -16.728695 28.24688 16711746
0.38521597 -30.167477 49.268768 16711746
1.9833503 -22.912609 36.557285 16711746
0.97670478 -23.36167 37.684708 16711746
155.85796 -157.03697 78.263336 16711746
-0.8987909 -18.780771 28.137325 16711746
16.112335 -16.264606 29.983929 16711746
0.84589732 -11.94377 30.382854 16711746
-1.7284453 -13.498913 28.881458 16711746
-1.2888116 -11.127577 26.604929 16711746
-2.0257974 -12.435921 29.420664 16711746
-1.9596598 -12.685032 24.558197 16711746
-1.5637406 -15.206176 24.861271 16711746
-1.1734875 -10.001331 26.423115 16711746
-1.4268721 -10.776843 26.694118 16711746
-2.8570483 -18.534992 25.502722 16711746
0.078977115 -8.0985365 27.554937 16711746
-1.0333731 -10.073011 26.199753 16711746
-1.2058557 -10.833015 28.794077 16711746
1.2856466 -5.9418068 24.238865 16711746
1.0270418 -5.7388096 23.885923 16711746
-0.094155759 -14.640895 34.446751 16711746
-0.37997979 -18.245739 34.982784 16711746
1.397508 -16.131495 33.850281 16711746
-5.5500112 -17.367285 31.600584 16711746
0.7708596 -16.377405 33.055763 16711746
-3.5605829 -17.868599 27.375315 16711746
0.98245472 -6.4098067 24.338638 16711746
1.7123177 -18.451056 35.776611 16711746
17.298948 -20.907288 35.442471 16711746
14.859639 -17.734165 32.866531 16711746
15.488516 -19.831148 32.504608 16711746
15.663495 -14.790717 31.162407 16711746
-4.5684662 -13.418118 30.218309 16711746
12.558224 -15.811243 27.700403 16711746
14.631981 -16.918421 34.301556 16711746
-3.9865103 -24.165548 38.023293 16711746
-9.0738134 -22.771654 40.694401 16711746
-14.228917 -37.077168 42.218712 16711746
17.00383 -16.78797 32.871166 16711746
17.954359 -20.185333 35.355946 16711746
-3.7367237 -32.947659 49.129642 16711746
-1.0757538 -40.579327 54.638824 16711746
11.440321 -20.035841 29.899513 16711746
-1.5804064 -13.049685 31.040264 16711746
1.0468616 -17.524418 33.907364 16711746
-0.74185193 -12.119775 26.587677 16711746
-2.4797935 -14.533648 30.993019 16711746
-1.6287313 -12.75763 28.441872 16711746
-1.1567 -16.841579 31.61381 16711746
-2.8238492 -31.891972 45.42812 16711746
0.22856829 -19.572025 36.232262 16711746
-0.14182055 -15.660534 33.275265 16711746
9.4651947 -14.614339 24.922461 16711746
14.413244 -15.291918 28.763748 16711746
15.158286 -17.740501 28.165993 16711746
17.141394 -28.882902 22.897821 16711746
15.552342 -18.033215 27.905216 16711746
12.204988 -20.95422 30.233908 16711746
-6.1038532 -18.884211 32.390114 16711746
-5.1845517 -19.046986 32.370564 16711746
-18.81777 -42.206676 50.932526 16711746
-19.135399 -45.043438 50.826237 16711746
-3.1842208 -14.766279 33.306187 16711746
-1.2842207 -9.8736687 28.397085 16711746
13.87745 -14.056392 27.950352 16711746
13.442514 -38.833324 50.354839 16711746
15.757152 -22.418268 36.55962 16711746
16.228104 -23.29987 37.095978 16711746
15.44253 -15.760768 29.453558 16711746
10.687045 -14.930963 26.342382 16711746
0.19113854 -30.040651 47.656761 16711746
8.8949575 -30.119572 43.104252 16711746
15.804595 -20.315641 35.871998 16711746
18.536959 -17.703571 39.165028 16711746
15.422029 -19.337681 37.342884 16711746
15.002645 -17.537544 33.455704 16711746
13.768268 -15.892897 28.414528 16711746
17.605803 -25.898825 41.757324 16711746
16.490278 -18.340008 29.285133 16711746
15.47895 -27.444956 31.892912 16711746
17.198105 -25.258911 41.447849 16711746
19.053905 -25.769169 35.677128 16711746
14.468381 -18.050632 28.115025 16711746
13.628755 -17.978952 32.174511 16711746
13.306861 -22.85339 37.129559 16711746
-0.36826122 -4.6502199 24.553543 16711746
8.940197 -14.284023 20.312347 16711746
19.251049 -13.725287 27.036526 16711746
12.23239 -14.41326 25.823277 16711746
10.859704 -17.60359 30.649788 16711746
15.770663 -18.280563 34.058907 16711746
11.464637 -18.822849 34.916695 16711746
25.301783 -23.144833 42.833504 16711746
6.9233308 -12.245445 22.215948 16711746
12.78192 -35.452755 44.463539 16711746
6.7142458 -15.965767 23.126331 16711746
14.129834 -18.171682 27.080906 16711746
11.776808 -15.191383 26.530365 16711746
13.273293 -14.556624 25.72662 16711746
18.308735 -20.935991 38.647137 16711746
-0.33669075 -4.7170434 24.543152 16711746
13.594366 -18.031567 27.840454 16711746
-0.38674498 -5.4055614 25.236061 16711746
5.0443177 -9.802681 24.845066 16711746
27.733912 -28.02372 43.974281 16711746
35.600109 -21.730495 29.673267 16711746
25.117399 -26.181231 42.530296 16711746
5.7274032 -11.675758 29.663393 16711746
43.148861 -31.060261 45.045853 16711746
43.049248 -30.888861 45.074692 16711746
14.461241 -17.041265 26.361177 16711746
16.059822 -21.49575 26.773066 16711746
20.767885 -20.535431 26.665569 16711746
22.088936 -25.288065 38.738049 16711746
17.037624 -31.364801 35.280811 16711746
31.760759 -36.07761 51.907169 16711746
28.105951 -20.644814 27.725916 16711746
14.247808 -12.054366 27.824936 16711746
14.573303 -19.520346 31.435169 16711746
24.611893 -37.372932 52.419632 16711746
13.500462 -22.456196 34.835781 16711746
-4.0585451 -12.726315 28.62068 16711746
18.976784 -54.85778 22.613638 16711746
38.752277 -71.726822 43.05212 16711746
-0.62763906 -29.644587 40.60651 16711746
25.122561 -16.710056 28.922165 16711746
23.131144 -25.424864 38.22884 16711746
23.621193 -22.219948 19.12278 16711746
16.489372 -12.422908 27.413626 16711746
-0.16494311 -4.6416135 24.65132 16711746
18.177788 -17.297606 20.150816 16711746
20.97933 -22.892992 40.10733 16711746
2.9144762 -9.7762318 25.693283 16711746
31.94943 -27.049183 36.122253 16711746
0.36550793 -5.4448276 24.845535 16711746
28.33226 -24.589142 34.817127 16711746
2.179039 -6.6779127 23.882429 16711746
17.31426 -20.675756 27.03441 16711746
5.3042388 -6.8435578 25.605591 16711746
2.4489236 -11.846258 25.53791 16711746
19.621058 -17.750046 30.806732 16711746
1.7554382 -9.2151709 24.801981 16711746
3.704042 -7.2055902 24.765377 16711746
1.7944708 -6.6175165 24.854851 16711746
5.0580616 -7.661696 24.663416 16711746
4.2547774 -7.6677165 24.802547 16711746
1.8893224 -6.7096491 24.864799 16711746
4.050117 -6.5497284 25.101835 16711746
0.54530275 -5.5810618 24.602858 16711746
1.0701145 -5.5688257 24.679199 16711746
4.3926454 -7.8254938 24.828529 16711746
1.1677462 -6.0393624 24.613827 16711746
5.6545424 -7.6878324 25.253859 16711746
1.0148376 -5.9982061 24.614538 16711746
4.1909261 -17.238768 25.965494 16711746
128.71672 -183.27414 109.2398 16711746
26.142126 -19.181044 29.762093 16711746
2.6040361 -7.0538325 24.723078 16711746
2.3912389 -7.0621572 24.770985 16711746
1.1760246 -6.071331 24.620356 16711746
1.7134817 -6.0350628 24.688047 16711746
1.2805198 -6.4984102 25.05394 16711746
2.9676204 -6.3784218 26.001093 16711746
6.0052981 -7.9230762 24.246531 16711746
9.6382465 -9.34795 26.813114 16711746
7.415153 -16.042204 29.544243 16711746
13.475815 -12.000129 27.033009 16711746
1.7775309 -7.0554318 24.259119 16711746
17.336189 -30.818554 46.976582 16711746
-0.18763918 -4.0054626 24.758282 16711746
5.1804633 -18.827219 29.962202 16711746
5.7433491 -14.445215 30.288639 16711746
5.6586847 -16.907787 31.599699 16711746
7.3603616 -13.811084 29.450422 16711746
6.5945182 -13.789373 28.860693 16711746
10.656446 -14.144959 34.895329 16711746
8.306138 -16.26742 34.877415 16711746
6.6476378 -18.771263 29.183466 16711746
1.112821 -12.235746 30.526707 16711746
6.9693265 -16.059607 32.27319 16711746
6.806365 -20.593239 33.563488 16711746
4.7957449 -17.151911 27.478468 16711746
0.71587777 -15.576081 31.419151 16711746
1.2600497 -16.457148 31.114019 16711746
2.6255596 -15.053912 29.513809 16711746
8.708003 -16.932962 30.169907 16711746
9.9450216 -18.734449 35.340004 16711746
5.7307181 -18.771425 29.256483 16711746
10.951557 -22.340855 31.129395 16711746
1.9764092 -15.364767 29.774221 16711746
5.3390861 -31.927717 43.637722 16711746
1.3890245 -14.905768 31.129507 16711746
22.530117 -28.695179 40.906067 16711746
20.174917 -46.92223 37.862606 16711746
5.5516114 -18.126482 29.739595 16711746
7.0073218 -16.682867 34.200302 16711746
7.2292628 -24.605261 31.049496 16711746
1.8969774 -15.273673 26.293156 16711746
1.465225 -12.66281 27.635677 16711746
10.955824 -25.086483 38.829918 16711746
-1.491606 -6.7671542 27.148628 16711746
8.298378 -16.878664 33.401798 16711746
5.026072 -14.871439 31.265596 16711746
4.4797282 -22.141542 32.385006 16711746
3.2550387 -11.548099 28.233414 16711746
5.1087441 -13.291813 29.75783 16711746
7.78234 -15.790122 34.8899 16711746
10.87983 -15.118529 33.888607 16711746
9.3956833 -12.545749 32.699574 16711746
2.0872738 -11.600083 29.3962 16711746
4.5098252 -15.964715 29.702188 16711746
9.2668943 -19.042337 35.571522 16711746
-0.14269325 -16.035906 29.11845 16711746
2.1235104 -16.190449 30.124931 16711746
0.013148103 -12.651391 28.848114 16711746
1.3533303 -11.126925 29.019678 16711746
1.5663291 -13.319865 29.33473 16711746
1.7450742 -12.314818 30.789467 16711746
-1.8021456 -8.0215101 28.054686 16711746
10.546251 -17.911482 30.377634 16711746
2.5596926 -18.524538 31.565098 16711746
1.0036942 -10.02354 29.538612 16711746
5.3903289 -32.00098 43.780502 16711746
1.1250767 -8.7012596 27.777786 16711746
0.67601436 -11.417087 29.526182 16711746
7.9759569 -17.676201 33.694973 16711746
-1.8277019 -19.713337 27.326109 16711746
-0.12205845 -12.530368 27.24106 16711746
22.706028 -43.760181 32.223198 16711746
4.815001 -14.532246 28.428404 16711746
15.83318 -19.094385 21.215115 16711746
3.6957858 -14.204248 25.792973 16711746
2.532295 -18.200565 40.166153 16711746
11.127898 -15.489551 28.269005 16711746
6.5789504 -16.096743 30.524324 16711746
3.4236398 -10.526587 28.098312 16711746
11.616543 -15.303845 37.845695 16711746
10.485426 -14.866003 33.26453 16711746
9.0353298 -15.23046 33.481415 16711746
8.6357298 -14.822721 32.587429 16711746
9.2095785 -13.047216 33.129639 16711746
10.952226 -13.734334 34.550808 16711746
6.890749 -12.019128 29.778103 16711746
10.920017 -24.783258 38.714111 16711746
8.9925346 -15.936967 35.599205 16711746
3.646683 -13.305216 29.825686 16711746
6.2050514 -14.872775 31.606768 16711746
6.5450068 -17.328836 32.040958 16711746
8.7697763 -13.950188 31.480164 16711746
9.3149338 -17.195995 33.11499 16711746
7.8800645 -14.733106 32.765236 16711746
5.4310822 -13.925154 29.618109 16711746
6.430038 -13.454474 29.3832 16711746
9.0053415 -11.823158 32.851131 16711746
6.8954511 -13.843801 30.079531 16711746
11.472061 -15.873229 34.017395 16711746
2.4230824 -12.172134 29.436241 16711746
10.02184 -17.895761 34.301022 16711746
13.593593 -15.292797 37.748951 16711746
2.4416053 -14.489449 29.620523 16711746
10.692398 -17.80821 30.308729 16711746
12.704814 -16.400095 39.041912 16711746
6.5762115 -18.036341 29.583704 16711746
12.275953 -19.02354 32.106995 16711746
13.637851 -22.24478 33.844536 16711746
3.558125 -16.310728 26.267273 16711746
8.2607403 -18.079378 33.007355 16711746
6.5118752 -20.533138 35.254539 16711746
15.688473 -34.085743 44.585953 16711746
17.54217 -34.508091 41.294876 16711746
9.5734787 -22.352327 34.485565 16711746
12.108557 -31.528452 32.783867 16711746
3.2316692 -17.405346 32.826839 16711746
1.23956 -14.920959 31.175623 16711746
2.2074826 -16.387262 31.082085 16711746
4.3798876 -8.5010262 28.848162 16711746
20.153011 -21.47039 41.989132 16711746
2.7414365 -10.673491 28.462482 16711746
3.1460495 -11.515312 28.279625 16711746
1.9651897 -12.835044 28.6425 16711746
0.55913913 -12.018914 29.085569 16711746
24.593597 -21.994766 39.429108 16711746
12.959955 -14.561454 26.624592 16711746
12.995802 -24.379208 36.987049 16711746
4.1025176 -14.42929 24.902987 16711746
2.6064625 -10.143967 27.042284 16711746
2.0637729 -11.498313 26.839239 16711746
3.0840468 -15.332117 25.886148 16711746
0.88426244 -12.864179 26.343903 16711746
1.5061431 -17.761806 26.756733 16711746
0.64424479 -12.064882 25.638239 16711746
0.34301591 -11.019887 26.859858 16711746
2.8642893 -12.127711 26.045696 16711746
1.1604279 -11.855947 28.850845 16711746
3.7724805 -15.186918 28.482351 16711746
1.0633124 -10.855256 27.102716 16711746
4.9863758 -12.262413 23.778996 16711746
6.2179031 -13.67159 28.355707 16711746
2.5742652 -10.657045 26.546486 16711746
3.3678279 -11.451604 25.478014 16711746
4.5085921 -11.681178 25.107227 16711746
2.0404549 -13.500134 26.135773 16711746
1.6130143 -13.480333 26.074156 16711746
0.40747565 -11.085191 25.96685 16711746
5.0526633 -18.840937 25.364813 16711746
5.1302061 -10.542025 25.776764 16711746
0.23117775 -10.249741 26.667896 16711746
1.025412 -11.001864 28.405455 16711746
4.5836596 -12.133091 24.584743 16711746
4.0269012 -11.719298 24.40344 16711746
2.637712 -10.047222 24.817581 16711746
1.3196875 -11.340497 26.918858 16711746
2.5930488 -10.34511 26.799131 16711746
4.1185212 -11.583169 25.901533 16711746
3.1937513 -12.887047 26.081118 16711746
2.0796692 -11.883964 26.166872 16711746
3.092227 -13.172882 25.421547 16711746
4.502089 -12.226109 23.808558 16711746
3.7577186 -13.916356 25.194399 16711746
5.1309409 -10.253143 26.347469 16711746
1.9441948 -7.618187 24.406742 16711746
1.7586942 -20.97378 27.288847 16711746
0.067319959 -10.600378 25.755686 16711746
4.3681469 -10.440057 25.033903 16711746
3.8548732 -12.87307 25.316444 16711746
3.4600675 -11.670555 25.498489 16711746
-10.772508 -44.422867 40.269951 16711746
-5.285111 -21.232586 32.188622 16711746
0.82125801 -10.257741 27.00415 16711746
2.0180819 -10.781263 26.564919 16711746
6.7809696 -15.264279 27.294064 16711746
9.8273144 -18.797955 28.892035 16711746
1.1825733 -16.680271 25.829489 16711746
3.6200302 -8.0835047 26.130877 16711746
4.9724021 -10.430387 25.803217 16711746
9.1514969 -14.713725 25.719467 16711746
-3.9436765 -15.952277 28.46628 16711746
14.61436 -32.63715 27.994282 16711746
5.6256313 -15.631367 26.027807 16711746
-2.2787039 -10.398726 27.20458 16711746
0.21986596 -10.084528 25.856501 16711746
-1.0008538 -11.721187 27.21847 16711746
-0.074176095 -8.6923971 26.377592 16711746
8.6342049 -14.478484 27.128942 16711746
0.8229838 -10.446091 27.050528 16711746
6.7672796 -16.096855 26.337694 16711746
3.2838264 -9.7296362 24.899883 16711746
0.75159287 -12.625351 25.970074 16711746
2.6897795 -11.545483 25.199017 16711746
1.5371727 -11.128298 26.356533 16711746
4.8916621 -8.1046991 25.734184 16711746
13.776964 -15.040883 31.007971 16711746
-0.41820484 -9.5474548 26.903975 16711746
4.3418117 -9.8404207 25.091143 16711746
2.9164391 -13.525657 25.358309 16711746
2.8232052 -7.9206133 24.414591 16711746
1.3850421 -13.501614 28.375795 16711746
3.1697254 -44.666191 29.848049 16711746
-1.799626 -9.1254349 27.200508 16711746
-0.049475316 -9.8566399 26.206699 16711746
9.7777777 -29.406189 27.436369 16711746
1.6066521 -10.37385 28.898718 16711746
12.852572 -15.291745 29.094368 16711746
13.737737 -13.83853 26.992937 16711746
12.961935 -12.945613 26.059732 16711746
8.0488176 -13.742302 26.44899 16711746
-4.0217834 -19.816858 30.204674 16711746
5.3236423 -17.329967 25.105091 16711746
-6.9856434 -13.993784 31.977472 16711746
20.037651 -19.681973 33.432644 16711746
10.360694 -9.3076391 25.753048 16711746
12.913979 -11.233039 27.254894 16711746
14.775894 -16.152212 31.039188 16711746
10.042114 -18.361784 25.63365 16711746
9.836813 -14.199616 33.155914 16711746
13.827203 -14.459438 31.036335 16711746
12.768337 -19.511211 24.943926 16711746
10.661496 -13.677179 33.617641 16711746
11.92939 -12.843541 35.914574 16711746
8.879261 -14.608139 27.138023 16711746
11.415517 -18.280184 24.473763 16711746
18.223011 -18.137405 24.832567 16711746
9.2147589 -13.003315 31.357393 16711746
12.812462 -14.333466 24.419153 16711746
-4.0632987 -16.206047 28.973375 16711746
12.115928 -14.231517 36.497417 16711746
14.740385 -16.986567 29.482784 16711746
13.441502 -20.222225 33.419315 16711746
8.3880682 -14.131597 26.131855 16711746
-3.7148783 -19.558224 29.513865 16711746
13.027613 -14.55979 24.38653 16711746
7.3993807 -16.141722 24.621777 16711746
14.869382 -14.155832 32.664566 16711746
10.96894 -14.693116 32.40807 16711746
16.040642 -17.173367 40.053177 16711746
8.4837561 -12.23046 32.585526 16711746
19.027584 -20.148884 31.689638 16711746
4.0557113 -11.400201 30.799248 16711746
23.517487 -28.741819 27.85877 16711746
-0.43812424 -8.5727892 26.885193 16711746
7.7805896 -15.932872 28.616163 16711746
9.1703691 -11.729957 33.104847 16711746
9.6699991 -17.567577 24.01767 16711746
21.821878 -20.217258 35.397923 16711746
8.742878 -11.589187 32.42548 16711746
15.913368 -12.128745 28.828449 16711746
3.2093186 -6.7096391 26.016529 16711746
11.879531 -23.027687 23.497879 16711746
-1.341152 -10.910373 27.457903 16711746
-0.91162187 -11.911983 27.417027 16711746
-0.67656988 -9.3746605 29.189678 16711746
-2.5515323 -10.256733 27.737116 16711746
3.4778264 -8.4914131 25.059309 16711746
4.6609592 -10.371162 25.14884 16711746
-3.053863 -13.005424 28.535278 16711746
4.9160867 -9.5068369 24.659758 16711746
2.2034411 -14.370341 26.508148 16711746
1.1475872 -10.755254 29.722342 16711746
-1.5920795 -11.418205 28.044373 16711746
2.692914 -7.836267 24.427065 16711746
5.7134657 -11.678534 25.641466 16711746
4.2832913 -10.347962 25.330626 16711746
3.1595163 -14.704959 24.566719 16711746
-8.0000381 -17.509588 30.705809 16711746
3.595562 -12.728113 24.287756 16711746
1.2942013 -15.626856 33.34346 16711746
3.8860576 -6.2404423 25.665218 16711746
3.477314 -9.4795046 25.796446 16711746
0.80963773 -7.6467204 25.279139 16711746
-1.2031184 -17.456745 35.268246 16711746
4.6176295 -10.855098 25.370708 16711746
3.9175949 -19.17466 26.167938 16711746
12.127535 -14.813012 36.205498 16711746
0.11019603 -8.7787418 26.299707 16711746
0.10579693 -10.403802 26.849951 16711746
-0.094691664 -8.9888725 26.026075 16711746
-0.41341117 -8.4394655 26.567455 16711746
1.5224464 -12.838687 29.721153 16711746
3.7688286 -13.243525 27.364088 16711746
3.8991127 -13.053797 23.845251 16711746
-0.81452727 -11.254123 26.554756 16711746
2.4876587 -12.600724 26.149199 16711746
10.865398 -17.414394 35.094864 16711746
9.447526 -15.514726 32.699928 16711746
10.124044 -17.303566 25.973732 16711746
9.509243 -16.733637 31.209532 16711746
12.64151 -18.146133 32.130424 16711746
11.927473 -18.382418 32.467827 16711746
12.747766 -20.990265 33.241951 16711746
15.19508 -23.508049 36.295456 16711746
9.3449478 -14.919153 27.206932 16711746
10.688345 -14.456829 36.951939 16711746
0.65631616 -16.822647 25.595505 16711746
4.0153646 -8.3078899 24.918404 16711746
4.6746836 -20.502533 26.104877 16711746
10.13763 -15.933546 27.362764 16711746
4.6171241 -15.11855 27.430574 16711746
8.5608807 -13.145879 31.190071 16711746
16.788361 -22.064873 36.062374 16711746
8.0529604 -18.889492 23.835449 16711746
13.831616 -14.879049 28.374496 16711746
3.8087695 -9.7247353 27.466564 16711746
2.7414784 -12.40739 27.414106 16711746
5.8991647 -13.027878 28.849455 16711746
9.2298737 -15.494389 26.236673 16711746
16.565966 -14.583756 26.021467 16711746
11.730658 -13.175209 26.429682 16711746
14.650487 -17.522806 30.379162 16711746
-3.6354756 -12.483094 28.159199 16711746
12.797522 -16.894512 35.125237 16711746
11.515556 -13.216784 28.960056 16711746
39.917961 -26.491629 31.624405 16711746
2.4347885 -7.3105221 25.180956 16711746
15.32897 -32.482052 22.622742 16711746
4.5774903 -7.7236714 26.944529 16711746
2.5264761 -6.914422 25.605263 16711746
-4.208889 -14.244859 32.822735 16711746
4.7662678 -10.472197 25.093132 16711746
-1.2935168 -10.542171 27.340117 16711746
-0.13571173 -8.6338444 25.990936 16711746
-1.3801539 -9.5287657 27.340172 16711746
2.1313202 -13.411258 26.129786 16711746
-0.90338296 -11.123425 28.190842 16711746
3.9041302 -13.229569 28.705315 16711746
6.9021521 -9.4387465 24.251198 16711746
3.4931991 -13.600806 28.664314 16711746
3.267786 -11.925847 25.626432 16711746
-0.040409181 -11.468414 25.536697 16711746
0.37573805 -10.796921 25.919125 16711746
3.9804497 -13.522262 24.194801 16711746
4.630218 -9.189558 25.997648 16711746
3.7229807 -8.3583345 26.061459 16711746
3.1582847 -14.821494 25.128401 16711746
2.3291392 -15.626196 33.355244 16711746
0.63903075 -14.742421 32.782433 16711746
0.040688198 -10.098722 26.489378 16711746
-0.27600938 -26.716692 38.545727 16711746
8.6537037 -17.120392 30.679941 16711746
7.3126574 -15.930149 22.063286 16711746
8.1139507 -22.628956 23.215939 16711746
5.0160694 -12.160476 30.119755 16711746
0.15925959 -11.639279 29.311399 16711746
2.1915689 -11.803233 28.452913 16711746
0.013843795 -9.7625113 27.780722 16711746
9.3076506 -16.174398 25.136295 16711746
-4.3169227 -14.200176 32.324329 16711746
-3.4638081 -17.376892 36.859539 16711746
-1.5470488 -9.9621477 30.959686 16711746
-9.3618956 -27.713423 42.540298 16711746
-0.84723711 -10.502306 27.588825 16711746
3.4033232 -10.085572 24.347342 16711746
-0.65736705 -12.418403 28.180172 16711746
1.5895205 -10.230772 26.965994 16711746
7.1173978 -16.88871 24.988672 16711746
3.1073883 -11.566229 25.582743 16711746
2.9959631 -11.860552 24.953371 16711746
4.6261387 -9.5847502 25.077595 16711746
3.5772636 -10.836637 28.230917 16711746
3.7873752 -15.009571 26.841959 16711746
2.9187989 -9.7173376 25.082375 16711746
4.998734 -6.8812709 25.751274 16711746
5.908689 -15.158027 31.894947 16711746
6.1511173 -15.649794 32.147038 16711746
4.5878839 -9.346571 24.969248 16711746
5.1587873 -11.635247 25.408222 16711746
3.6739304 -12.167245 24.720013 16711746
9.0296974 -23.66194 36.287468 16711746
-0.90092713 -11.349013 27.918392 16711746
-0.70167875 -9.1904297 26.883265 16711746
8.4548416 -8.9430342 25.855246 16711746
4.4502411 -16.00354 26.395258 16711746
-5.5888066 -19.271099 31.341328 16711746
-2.0460608 -16.346951 34.849689 16711746
-3.3701537 -25.4083 43.966034 16711746
3.0856202 -12.365536 28.379438 16711746
5.5162725 -13.283236 27.813715 16711746
3.7054801 -10.885432 27.097437 16711746
4.8599405 -9.2828236 26.405399 16711746
11.398113 -13.463774 26.323792 16711746
6.2328229 -11.15312 26.167885 16711746
-1.0441723 -7.5636282 28.752344 16711746
2.500288 -11.357591 26.289146 16711746
-2.3994715 -10.076972 27.95594 16711746
1.1076671 -8.4193811 25.878796 16711746
3.8404322 -8.8490219 24.37538 16711746
-0.99004954 -10.406596 26.693497 16711746
3.2063057 -18.557713 26.466217 16711746
3.6751144 -16.38039 26.497297 16711746
-0.93382019 -9.0212049 27.019289 16711746
1.0963935 -6.061923 26.898163 16711746
3.5581567 -8.1876059 24.106464 16711746
1.1277673 -10.766513 26.817211 16711746
0.31004056 -8.9116554 25.974585 16711746
-1.1138718 -9.2642794 27.461128 16711746
-0.62659556 -7.203229 28.558603 16711746
0.4834967 -8.5855608 29.028568 16711746
11.044548 -25.689804 38.986046 16711746
13.374162 -15.058146 29.591019 16711746
14.367219 -15.863526 30.795315 16711746
-8.2399559 -23.485659 33.675537 16711746
27.368435 -27.633081 34.352482 16711746
19.427317 -27.345797 23.172735 16711746
9.8435688 -12.528486 28.940262 16711746
-1.3250072 -7.3320642 28.626604 16711746
-1.4283202 -7.8409061 29.10844 16711746
-1.1499556 -8.0986452 28.885429 16711746
14.848628 -12.594968 26.077253 16711746
4.8812733 -10.172113 26.030348 16711746
2.916455 -16.243685 30.9568 16711746
12.931569 -26.937048 31.52371 16711746
10.253253 -17.840792 31.856833 16711746
13.838308 -15.30817 28.375977 16711746
15.24462 -12.43862 28.105181 16711746
-2.7279553 -32.137691 47.054207 16711746
14.142941 -15.908896 30.77656 16711746
1.3248081 -6.392848 28.067833 16711746
15.496761 -13.750211 24.495712 16711746
13.935455 -18.435333 26.401587 16711746
4.0299582 -14.247109 35.33551 16711746
15.073266 -16.452089 30.950146 16711746
15.271131 -28.227322 35.024979 16711746
16.201181 -16.182014 29.057293 16711746
15.028545 -22.431816 33.66803 16711746
16.181383 -16.290075 28.809856 16711746
9.3973274 -18.222769 31.551352 16711746
15.453049 -14.34236 31.01082 16711746
-1.2183819 -6.3279886 27.68334 16711746
10.841367 -13.945134 28.656345 16711746
8.1846085 -12.793818 26.005264 16711746
12.282196 -19.106178 32.250195 16711746
6.5402651 -16.243933 27.356768 16711746
7.8815212 -13.215327 26.978197 16711746
2.6089156 -22.538153 34.065376 16711746
5.1545382 -14.324722 25.708214 16711746
6.4147601 -11.45364 23.485325 16711746
6.0657277 -11.924402 26.308647 16711746
1.3468847 -13.450249 31.903646 16711746
7.8257565 -13.920708 29.925653 16711746
5.6343884 -14.125309 27.185812 16711746
14.384045 -13.240522 27.529491 16711746
8.652215 -13.157354 27.295139 16711746
-1.2651433 -12.247668 31.861235 16711746
7.9658661 -13.309485 22.807497 16711746
13.785535 -20.783289 34.148933 16711746
2.3038483 -16.869549 30.5826 16711746
2.2196264 -21.488949 30.145674 16711746
9.5387392 -11.383841 24.928274 16711746
1.3462173 -10.46086 28.067961 16711746
8.0710945 -12.206168 23.161077 16711746
5.9821229 -11.184718 24.409449 16711746
2.6780832 -20.295715 28.224781 16711746
3.6910636 -11.737388 26.387987 16711746
-3.3017423 -15.768975 31.395611 16711746
3.9984186 -15.207705 27.455118 16711746
1.8812283 -11.653646 28.466204 16711746
4.1256084 -32.459267 33.057579 16711746
-4.9431715 -32.45932 46.80925 16711746
0.10474479 -21.044788 33.294617 16711746
-1.2431195 -17.155613 33.29335 16711746
7.6325917 -20.780939 34.709927 16711746
6.4276843 -20.559492 26.548546 16711746
0.067630932 -18.145145 32.995358 16711746
1.3237166 -22.110649 28.569782 16711746
5.2272196 -15.143673 31.107012 16711746
2.0114176 -13.905861 30.849768 16711746
8.5200863 -15.181968 31.919008 16711746
14.002792 -17.457676 37.535034 16711746
13.597211 -15.149237 29.869633 16711746
16.907797 -18.927652 38.826992 16711746
16.521793 -18.236113 35.658382 16711746
15.133227 -17.743073 29.781458 16711746
11.368394 -20.7078 38.667973 16711746
16.133289 -20.449327 38.338943 16711746
9.3626728 -14.093208 27.989597 16711746
5.6774678 -13.684179 29.402189 16711746
8.2694788 -16.451248 28.781271 16711746
15.626795 -16.743814 40.083447 16711746
10.904099 -20.809322 35.682636 16711746
10.305873 -13.210398 23.815163 16711746
13.894473 -15.230078 38.695053 16711746
1.4662538 -6.2736979 25.61903 16711746
11.696433 -18.809465 31.449898 16711746
12.130844 -16.928614 32.633389 16711746
17.552126 -18.74272 36.329708 16711746
11.356175 -14.97782 33.135002 16711746
10.074376 -13.901142 25.238886 16711746
-1.0351282 -16.97624 37.051628 16711746
21.611343 -20.210905 35.47081 16711746
13.613037 -16.04998 29.34314 16711746
15.782365 -12.105238 28.894615 16711746
5.8192163 -25.73105 30.978607 16711746
3.2065995 -20.386892 41.606255 16711746
-5.1278448 -12.818409 34.882519 16711746
2.986902 -14.060984 31.637209 16711746
20.732544 -22.921034 44.541458 16711746
14.477105 -19.060249 36.40963 16711746
25.677614 -25.837727 48.203011 16711746
15.494885 -16.650259 29.514023 16711746
17.388615 -17.333569 32.304153 16711746
15.600791 -21.787357 26.848133 16711746
12.051477 -22.966005 39.590984 16711746
23.459839 -21.514421 36.33181 16711746
16.76075 -18.319479 30.004961 16711746
-1.3455966 -10.463052 31.184547 16711746
6.6840506 -14.352422 29.093193 16711746
6.6498857 -12.599989 26.841278 16711746
4.5958676 -13.62427 31.213192 16711746
0.71840489 -16.386274 27.736551 16711746
-0.8343336 -13.883307 27.595196 16711746
3.8274589 -13.845342 36.136742 16711746
4.8421602 -13.21121 30.959799 16711746
3.2952597 -13.482754 28.952549 16711746
3.9055448 -20.13027 27.39728 16711746
-1.2693814 -14.288387 33.738651 16711746
-0.94111758 -13.673376 27.60807 16711746
14.903944 -33.702606 41.621162 16711746
-2.5562644 -12.163399 32.559746 16711746
-1.7542276 -15.975614 34.084888 16711746
-0.66017193 -15.617027 30.305241 16711746
7.6876264 -14.426178 29.223562 16711746
2.8914213 -11.850289 34.209431 16711746
2.4165728 -12.347174 34.02578 16711746
8.2633953 -21.042139 25.572817 16711746
-2.5677569 -12.201322 32.571236 16711746
4.4053397 -11.480645 31.88677 16711746
5.0028439 -13.92454 33.284748 16711746
5.5964384 -15.860651 31.432089 16711746
-9.0934563 -28.750477 44.654938 16711746
3.1886468 -13.3248 30.372864 16711746
8.4213457 -21.355558 26.559408 16711746
-1.7164686 -14.021609 34.882442 16711746
-10.104214 -22.450584 44.844048 16711746
-1.787675 -9.2755337 31.091103 16711746
9.1048765 -17.775284 37.449669 16711746
-3.1254258 -16.035458 33.872753 16711746
-2.6777389 -13.592255 28.511698 16711746
2.746443 -11.957987 26.213667 16711746
4.4521613 -22.539135 27.67865 16711746
-0.41538885 -19.921032 32.165176 16711746
-6.8363976 -17.76778 34.411327 16711746
-5.3687344 -20.979666 36.490353 16711746
7.5095115 -16.629225 28.726086 16711746
11.01607 -34.064529 39.888031 16711746
4.4366679 -13.24809 29.440025 16711746
-1.1116201 -8.5774822 30.123989 16711746
-2.5129716 -11.890745 31.656658 16711746
2.1392114 -18.171011 30.991135 16711746
8.3013105 -14.69862 26.543844 16711746
8.4695587 -27.194767 33.217968 16711746
3.26946 -12.850272 28.012451 16711746
-12.41241 -17.921989 43.384365 16711746
8.2475252 -16.696035 33.391685 16711746
8.9695988 -16.689335 32.420967 16711746
20.390615 -20.188009 31.354856 16711746
4.0355592 -11.550311 30.624304 16711746
7.8674049 -18.052252 29.132177 16711746
15.958751 -20.979691 40.112713 16711746
6.8289146 -15.125046 28.992483 16711746
6.3154359 -11.246843 23.732635 16711746
8.9673986 -13.693121 27.851919 16711746
6.7948785 -13.36004 25.451675 16711746
7.3194299 -15.264801 30.364124 16711746
8.3415585 -10.245693 29.627045 16711746
5.339601 -11.06588 26.656107 16711746
18.66153 -23.107964 38.140152 16711746
17.98138 -23.570217 37.847767 16711746
5.2220535 -12.243149 25.284414 16711746
17.75655 -17.03644 31.430334 16711746
3.3595068 -9.4374723 25.631359 16711746
22.185968 -22.396168 31.197435 16711746
-5.1942749 -16.152582 34.82254 16711746
0.8794688 -6.6581445 26.988791 16711746
-12.23842 -20.712032 32.670582 16711746
6.1192727 -11.089553 26.910963 16711746
6.6669784 -12.992736 26.396845 16711746
4.0448685 -14.4378 25.993748 16711746
11.330022 -11.229764 27.207869 16711746
11.75632 -13.577985 28.060476 16711746
18.221952 -13.952417 28.486832 16711746
6.1858635 -9.352397 25.637354 16711746
3.7142537 -12.163061 30.379107 16711746
17.158136 -20.141325 35.959171 16711746
16.831816 -21.616377 37.312702 16711746
17.284258 -20.86882 33.67654 16711746
12.015215 -20.385506 34.411369 16711746
-1.8877662 -16.580168 38.331779 16711746
23.597336 -29.257364 40.079174 16711746
10.58952 -13.599135 29.388208 16711746
8.771306 -15.521417 33.376133 16711746
13.17161 -18.019836 35.210094 16711746
15.468447 -14.997882 26.833849 16711746
0.55236655 -9.8353252 28.995581 16711746
14.460932 -19.936954 29.344471 16711746
15.716963 -26.776318 36.782558 16711746
