# .PCD v0.7 - Point Cloud Data file format
VERSION 0.7
FIELDS x y z rgb
SIZE 4 4 4 4
TYPE F F F F
COUNT 1 1 1 1
WIDTH 283
HEIGHT 1
VIEWPOINT 0 0 0 1 0 0 0
POINTS 283
DATA ascii
0 0 0 16777215
-0.04273105 -0.36822051 -0.027114803 16777215
-0.081943713 -0.43736669 -0.096037328 16777215
-0.095658824 -0.47699228 -0.083225466 16777215
-0.087535277 -0.50948936 -0.088696606 16777215
-0.11199193 -0.53821856 -0.073002934 16777215
-0.11422282 -0.54339719 -0.085992575 16777215
-0.13664645 -0.5327388 -0.12754796 16777215
-0.14639872 -0.51631963 -0.12784906 16777215
-0.13464208 -0.51911259 -0.11662003 16777215
-0.13727729 -0.50773728 -0.11989754 16777215
-0.15343262 -0.51217902 -0.11397623 16777215
-0.23128732 -0.52542675 -0.060718689 16777215
-0.26059002 -0.52084166 -0.049727678 16777215
-0.25889245 -0.48998478 -0.075035967 16777215
-0.31204104 -0.47841457 -0.052718449 16777215
-0.29788145 -0.45724112 -0.045311771 16777215
-0.36199236 -0.4547264 -0.058132231 16777215
-0.37458631 -0.45111048 -0.07245525 16777215
-0.38814372 -0.40850273 -0.17559244 16777215
-0.35795209 -0.44390169 -0.16082209 16777215
-0.24695805 -0.50121665 -0.27433953 16777215
-0.18152811 -0.53867447 -0.461247 16777215
-0.14756577 -0.57396728 -0.52351701 16777215
0.084395401 -0.59961683 -0.56468523 16777215
0.03717389 -0.5552054 -0.6672948 16777215
-0.10916748 -0.58805513 -0.52369481 16777215
-0.13104054 -0.57231849 -0.51383358 16777215
-0.36396518 -0.58524501 -0.3336589 16777215
-0.4413324 -0.50357658 -0.30377412 16777215
-0.30778572 -0.52037138 -0.19723037 16777215
-0.22598536 -0.44586873 -0.048529074 16777215
-0.55285412 -0.48468286 -0.0018007716 16777215
-0.59524679 -0.45761395 -0.039052084 16777215
-0.514516 -0.42173326 0.13017458 16777215
-0.39112589 -0.34515458 0.22225478 16777215
-0.31797957 -0.32575616 0.39549303 16777215
0.19687767 -0.16454406 0.75892484 16777215
0.30545443 -0.13436395 1.0617613 16777215
0.4098562 -0.050091848 1.41202 16777215
0.53416103 0.07339865 1.8859354 16777215
0.56273538 0.15274157 2.1585917 16777215
0.72678339 0.24199158 2.5365875 16777215
0.9332642 0.36334583 2.8841136 16777215
1.1218177 0.39019683 3.1147068 16777215
1.3001026 0.48345271 3.4199665 16777215
1.3728446 0.58433318 3.7817237 16777215
1.4666797 0.68686533 4.3733144 16777215
1.615037 0.81898403 4.8184261 16777215
1.7007284 0.90142387 5.0714288 16777215
1.816709 0.95182824 5.4500527 16777215
1.9894627 1.0616667 5.9618273 16777215
2.1021571 1.1960421 6.528141 16777215
2.2034965 1.2700286 7.027256 16777215
2.3178568 1.3792391 7.5807781 16777215
2.5393517 1.3993629 8.041954 16777215
2.7031388 1.4451221 8.4381514 16777215
2.8759441 1.5035353 8.9479055 16777215
3.0354068 1.5284737 9.4250317 16777215
3.1093504 1.5769283 9.6919365 16777215
3.2510982 1.6808797 10.097394 16777215
3.4044993 1.815906 10.582923 16777215
3.5684726 1.8713975 11.000119 16777215
3.6703079 1.8929951 11.203131 16777215
3.79773 1.9820473 11.620798 16777215
3.8775458 2.0741446 11.915021 16777215
3.9207499 2.1379318 12.31595 16777215
3.9931793 2.1533244 12.56657 16777215
4.114984 2.1805108 12.925505 16777215
4.2165041 2.2973602 13.167047 16777215
4.3426266 2.3766627 13.603791 16777215
4.5175714 2.3560143 13.971647 16777215
4.6680875 2.4172921 14.235291 16777215
4.7710872 2.5150211 14.321976 16777215
4.7322726 2.6317647 14.613594 16777215
4.5877032 2.6567833 14.967558 16777215
4.7259388 2.6788027 15.123337 16777215
4.7878475 2.7548134 15.345595 16777215
4.9366002 2.8332503 15.695569 16777215
5.0540342 2.9119105 15.908942 16777215
5.2231607 2.9684515 16.234283 16777215
5.3845477 2.9855731 16.539389 16777215
5.4881926 3.0430977 16.781204 16777215
5.6326442 3.0935853 17.029825 16777215
5.6508355 3.2052789 17.449087 16777215
5.7270989 3.2981331 17.86768 16777215
5.7522836 3.3160605 18.187126 16777215
5.8225198 3.4342148 18.550936 16777215
6.0071187 3.5306106 18.967962 16777215
6.155026 3.5461352 19.307215 16777215
6.2742839 3.6229458 19.64069 16777215
6.3059897 3.6927948 20.028278 16777215
6.3429427 3.7715211 20.393202 16777215
6.2077641 3.6613729 20.69116 16777215
6.2276244 3.7163851 20.881527 16777215
6.3362813 3.7976065 21.26429 16777215
6.4166656 3.8568513 21.554659 16777215
6.4880309 3.910989 21.79369 16777215
6.5411906 3.9344826 22.035532 16777215
6.65552 3.9446416 22.281492 16777215
6.7099414 4.0003138 22.405596 16777215
6.7664881 4.0468645 22.614262 16777215
6.8433051 4.0401888 22.791847 16777215
7.030046 4.1123171 23.078907 16777215
7.1596932 4.1431484 23.329674 16777215
7.2412376 4.1786361 23.607134 16777215
7.4376144 4.2666388 24.009966 16777215
7.4959497 4.236702 24.237411 16777215
7.6471682 4.2317529 24.51757 16777215
7.8476195 4.2395382 24.573547 16777215
7.9060464 4.3739595 25.060476 16777215
7.9406056 4.4013205 25.289543 16777215
7.9983568 4.4353895 25.541031 16777215
8.0983248 4.4703097 25.901934 16777215
8.3146811 4.5949068 26.224991 16777215
8.4842291 4.567132 26.41436 16777215
8.4679337 4.6249809 26.62455 16777215
8.5467834 4.6964464 26.815508 16777215
8.5676527 4.7004957 26.942492 16777215
8.6199675 4.7241554 27.117107 16777215
8.6256094 4.7008424 27.150925 16777215
8.649086 4.7130351 27.221279 16777215
8.6685362 4.7530823 27.385099 16777215
8.6771927 4.7675743 27.507561 16777215
8.7011166 4.7668543 27.626951 16777215
8.7411375 4.7873397 27.759356 16777215
8.826786 4.8134451 27.857071 16777215
8.8638449 4.8200488 27.974295 16777215
8.8721666 4.8472385 28.069435 16777215
8.9135408 4.8622379 28.178757 16777215
8.9268236 4.8871508 28.275829 16777215
8.9490833 4.9017978 28.332354 16777215
9.0230322 4.9377418 28.452175 16777215
9.0490465 4.9604321 28.553642 16777215
9.0568657 4.9744506 28.608356 16777215
9.0794764 5.0078425 28.73815 16777215
9.1113739 5.0348973 28.843826 16777215
9.1331348 5.0573177 28.921356 16777215
9.1904583 5.0673079 28.999256 16777215
9.2375774 5.0867639 29.080126 16777215
9.236146 5.1158142 29.180399 16777215
9.2593813 5.1405149 29.270754 16777215
9.2872305 5.1617541 29.353556 16777215
9.3337288 5.1798453 29.426157 16777215
9.3860636 5.1994638 29.509132 16777215
9.4056959 5.2083817 29.578794 16777215
9.4168482 5.2428837 29.671946 16777215
9.4496984 5.263495 29.762667 16777215
9.4761906 5.2811756 29.853138 16777215
9.5001831 5.3076339 29.940531 16777215
9.5193892 5.3113041 30.011282 16777215
9.5571222 5.3484206 30.13661 16777215
9.5756865 5.3761864 30.26531 16777215
9.5888472 5.3892336 30.339785 16777215
9.6009855 5.4048495 30.420982 16777215
9.6463575 5.4252028 30.496824 16777215
9.6663752 5.4401278 30.557749 16777215
9.6822214 5.4651265 30.626205 16777215
9.701293 5.4699869 30.714046 16777215
9.717474 5.4869113 30.800289 16777215
9.732729 5.5039868 30.879971 16777215
9.7701979 5.5297308 30.958252 16777215
9.8023853 5.5371518 31.03614 16777215
9.8266678 5.5486617 31.120235 16777215
9.8349113 5.5642433 31.187513 16777215
9.8659954 5.5853825 31.260162 16777215
9.8777342 5.600646 31.318329 16777215
9.9223318 5.6215873 31.397736 16777215
9.9594402 5.6294155 31.460056 16777215
9.9754858 5.6622825 31.543081 16777215
9.99368 5.6818357 31.626307 16777215
10.016671 5.6888614 31.692152 16777215
10.026326 5.7117062 31.760241 16777215
10.061014 5.7445874 31.841751 16777215
10.084175 5.7542567 31.929068 16777215
10.08494 5.7897272 32.015335 16777215
10.097594 5.7972088 32.092464 16777215
10.124064 5.8079214 32.177708 16777215
10.146943 5.8348899 32.24696 16777215
10.171764 5.8470621 32.30764 16777215
10.192533 5.8527603 32.375351 16777215
10.208883 5.8845744 32.433773 16777215
10.224798 5.9054956 32.518871 16777215
10.248498 5.9110613 32.603725 16777215
10.283843 5.9400516 32.671997 16777215
10.317698 5.9512863 32.72216 16777215
10.326902 5.9542284 32.775417 16777215
10.352882 5.9827538 32.848152 16777215
10.357241 5.9946909 32.90802 16777215
10.365826 6.00705 32.981884 16777215
10.388722 6.0247798 33.05957 16777215
10.417656 6.0423055 33.121983 16777215
10.433214 6.0497866 33.176556 16777215
10.451547 6.0653543 33.235592 16777215
10.450391 6.0843539 33.303688 16777215
10.453387 6.095798 33.385273 16777215
10.487734 6.1051378 33.4478 16777215
10.518662 6.1260242 33.520161 16777215
10.557072 6.134016 33.579803 16777215
10.583286 6.1432838 33.647388 16777215
10.605532 6.1593585 33.713428 16777215
10.611747 6.1675596 33.789688 16777215
10.621051 6.1949639 33.84687 16777215
10.616288 6.1986547 33.891331 16777215
10.637382 6.2171698 33.965591 16777215
10.661861 6.2273407 34.020954 16777215
10.679244 6.2538304 34.078487 16777215
10.685411 6.2667165 34.147671 16777215
10.706591 6.2911334 34.218403 16777215
10.718428 6.3031254 34.28376 16777215
10.737648 6.3212848 34.33445 16777215
10.751338 6.3195152 34.383488 16777215
10.778526 6.3354211 34.428902 16777215
10.801882 6.3481383 34.48875 16777215
10.835653 6.374207 34.546726 16777215
10.834107 6.3762426 34.593292 16777215
10.856485 6.3938346 34.645931 16777215
10.881721 6.4086566 34.703384 16777215
10.933035 6.4233866 34.749538 16777215
10.944923 6.428081 34.800373 16777215
10.964368 6.4508028 34.861721 16777215
10.964408 6.4605088 34.937794 16777215
10.97894 6.469358 35.000099 16777215
11.001455 6.4768248 35.058395 16777215
11.02459 6.4901814 35.102104 16777215
11.054589 6.4947925 35.165482 16777215
11.075253 6.5051842 35.221149 16777215
11.09583 6.5306759 35.280327 16777215
11.104505 6.5367465 35.338417 16777215
11.117628 6.5506225 35.385033 16777215
11.141245 6.5669608 35.433067 16777215
11.1881 6.5808568 35.482765 16777215
11.181842 6.590374 35.514675 16777215
11.205602 6.5897746 35.578106 16777215
11.202322 6.608479 35.641796 16777215
11.2177 6.6176605 35.695229 16777215
11.236009 6.628408 35.743221 16777215
11.254645 6.6442823 35.795795 16777215
11.28313 6.6594887 35.849777 16777215
11.294655 6.6700177 35.903893 16777215
11.285516 6.6943655 35.970295 16777215
11.307335 6.697422 36.029255 16777215
11.32123 6.7085881 36.0802 16777215
11.344072 6.7323279 36.11586 16777215
11.37098 6.7451859 36.177902 16777215
11.381751 6.7502551 36.224495 16777215
11.40254 6.7696624 36.276131 16777215
11.403337 6.7803068 36.34655 16777215
11.415565 6.7819409 36.403271 16777215
11.442346 6.7887397 36.45731 16777215
11.464277 6.8127379 36.491585 16777215
11.47404 6.8147593 36.532387 16777215
11.494534 6.8168411 36.58144 16777215
11.498236 6.8356404 36.629093 16777215
11.499788 6.8422093 36.667816 16777215
11.495612 6.8401189 36.72031 16777215
11.504723 6.8527217 36.764149 16777215
11.50825 6.8660669 36.801971 16777215
11.540798 6.8735971 36.854397 16777215
11.540891 6.8793201 36.895386 16777215
11.555763 6.8903227 36.943352 16777215
11.566927 6.9029627 36.996105 16777215
11.566723 6.9055891 37.042427 16777215
11.574972 6.9234133 37.080486 16777215
11.583988 6.9362507 37.120705 16777215
11.613408 6.9515004 37.159 16777215
11.577697 6.9573727 37.201988 16777215
11.637765 6.972702 37.255215 16777215
11.645911 6.9844875 37.30154 16777215
11.662835 6.9965916 37.335945 16777215
11.674232 7.0023661 37.37429 16777215
11.685339 7.0119209 37.404232 16777215
11.707808 7.0225649 37.433929 16777215
11.721188 7.0279155 37.461285 16777215
11.746576 7.0399961 37.485348 16777215
11.75244 7.0494533 37.517845 16777215
11.756163 7.040822 37.548637 16777215
11.754302 7.0574703 37.564342 16777215
11.75137 7.0604095 37.588322 16777215
11.764636 7.0606823 37.607838 16777215
11.781382 7.0685701 37.617855 16777215
11.799017 7.0772071 37.633846 16777215
11.797658 7.0695825 37.652412 16777215
