# .PCD v.7 - Point Cloud Data file format
VERSION .7
FIELDS x y z rgb
SIZE 4 4 4 4
TYPE F F F F
COUNT 1 1 1 1
WIDTH 1206
HEIGHT 1
VIEWPOINT 0 0 0 1 0 0 0
POINTS 1206
DATA ascii
0.0909228 0.1343598 0.6563933 16711746
0.3121969 0.1343565 0.6890932 16711746
-0.2040468 0.1191500 0.6136612 16711746
0.0535098 0.1127357 0.7998254 16711746
-0.2523882 0.0765128 1.0785780 16711746
0.0720273 0.1034367 0.7465511 16711746
-0.2224963 0.1005652 0.8215878 16711746
-0.1071056 0.1142777 0.6879457 16711746
-0.2832707 0.0929619 0.7497501 16711746
-0.1803837 0.1211039 0.6282791 16711746
-0.0057371 0.1122394 0.7569494 16711746
-0.3637198 -0.0554511 0.9785235 16711746
-0.3936720 0.0844784 0.8833183 16711746
-0.0998290 0.1143411 0.7687080 16711746
0.2656132 0.1223412 0.7453206 16711746
0.1981468 0.0996511 0.8511264 16711746
-0.0903502 0.0821588 0.9357406 16711746
-0.1153105 0.0631362 0.8034040 16711746
-0.0459935 0.1072439 0.6472740 16711746
0.0752027 0.1151856 0.6644418 16711746
0.1599149 0.0500906 0.8243085 16711746
-0.2369270 0.0944442 0.6028911 16711746
-0.2716471 0.0634079 0.6962622 16711746
-0.1764250 0.0995498 0.9528758 16711746
0.1557405 -0.0235488 0.6480159 16711746
0.0709791 -0.0350077 0.5809823 16711746
0.1292056 -0.0839061 0.7382632 16711746
0.0606236 0.1057998 0.6884914 16711746
-0.7925348 0.0214683 1.2308155 16711746
-0.3366429 0.0940538 0.8312306 16711746
0.0896408 0.1097057 0.8021516 16711746
0.6701798 0.1438760 0.7810943 16711746
-0.3558694 0.0718168 1.0291303 16711746
0.1797252 -0.0779996 0.9823372 16711746
0.1617351 0.1027644 0.8504495 16711746
-0.2102761 0.0671437 1.2364967 16711746
-0.0157839 0.1291632 0.6725486 16711746
0.1675794 0.0748577 0.9534932 16711746
-0.5747992 -0.0656714 1.4085298 16711746
0.1651399 0.0299156 0.9015625 16711746
-0.4012773 0.1163163 0.8106722 16711746
-0.0632234 0.1118906 0.7604933 16711746
-0.1246210 0.1105498 0.6826295 16711746
-0.0934940 0.0956881 0.6771338 16711746
-0.3996076 0.1013539 0.8270278 16711746
-1.0814859 0.0061873 1.4019125 16711746
0.2899828 0.0786396 0.7646403 16711746
0.2762434 0.0924470 0.8186488 16711746
0.1726900 0.1272706 1.0488611 16711746
0.4545324 0.0850820 0.6604112 16711746
-0.9672343 -0.0585459 1.4881182 16711746
0.2323822 0.0744517 0.9962261 16711746
-0.3317992 0.0496437 1.0225179 16711746
-0.2992340 -0.0257172 1.4685538 16711746
0.7041854 0.0138354 0.9564402 16711746
0.5656480 0.1428292 0.7065862 16711746
-0.1293519 0.0908570 0.8873143 16711746
-0.1342418 0.1257778 0.6943387 16711746
-0.2133231 0.0624366 1.0461285 16711746
-0.4235225 -0.0175737 1.3824018 16711746
0.1235830 0.1249893 0.7162724 16711746
-0.2403686 0.0138890 1.3508993 16711746
0.5659270 0.0903249 1.0202878 16711746
0.5989571 0.0880324 1.2008851 16711746
0.3774991 0.0717232 0.7641760 16711746
0.2871017 0.0673541 0.7851017 16711746
0.1162361 -0.0683858 0.7794304 16711746
-0.1907348 0.0413946 0.4738064 16711746
0.6244584 0.1283727 0.7780391 16711746
0.6441506 0.0217308 0.8765336 16711746
0.7830845 0.0788865 0.9720557 16711746
0.5050066 0.1660545 0.7074133 16711746
0.0983004 0.1117967 0.7722303 16711746
0.5514631 0.1454551 0.7367268 16711746
0.6896924 0.0651695 1.0776354 16711746
0.5899991 0.1396003 0.9288290 16711746
-0.5228258 0.0284780 0.6768226 16711746
0.5569255 -0.0574772 0.8003950 16711746
-1.2380224 -0.0571677 1.8279238 16711746
-0.2163005 0.0414946 0.4870957 16711746
0.5500486 0.0578645 1.0789398 16711746
0.2715684 -0.0866728 1.1379534 16711746
-0.6264110 0.0487327 1.2412897 16711746
-0.2808345 -0.0288824 1.6163760 16711746
0.7856354 0.1505396 0.9059665 16711746
-0.6406276 0.0570078 1.0439647 16711746
0.8493083 0.0226887 1.3222774 16711746
0.1226778 0.0726053 0.9425439 16711746
0.3251920 0.0791317 0.9452981 16711746
-0.3156650 0.0503920 1.0729740 16711746
0.7931764 0.0203970 1.4646927 16711746
-0.1870639 0.1093384 0.6947646 16711746
0.7056271 0.1526943 0.7795095 16711746
0.9049999 0.1268568 0.9726949 16711746
0.5677366 0.1006045 1.0106298 16711746
0.5031075 0.1268657 0.9235761 16711746
-0.1077987 0.1208528 0.6791715 16711746
0.1393072 -0.0834007 1.1822581 16711746
0.5479326 -0.9089124 1.9784724 16711746
-0.0591623 -0.0352323 1.8817948 16711746
0.9880505 -0.6354511 1.4811652 16711746
0.6998856 0.0249406 1.3796644 16711746
-0.0517734 -0.0336416 1.7898700 16711746
0.3222278 -0.3080119 0.9508427 16711746
0.8088816 -0.1597487 2.3056440 16711746
0.5518746 -0.8370689 2.0164857 16711746
0.3399008 -0.2931803 1.0151269 16711746
0.7422964 -0.0245298 1.6760713 16711746
0.8217425 -0.8360430 2.6452711 16711746
0.9398606 0.2834869 0.8087877 16711746
-0.1859388 0.1076008 0.6408221 16711746
0.1371508 0.0773674 1.0633583 16711746
0.0600405 0.1156774 0.8503792 16711746
-0.3784752 0.0984176 0.8241527 16711746
0.0547493 0.0696563 1.0424938 16711746
0.3038718 0.1272189 0.6757512 16711746
0.0714802 0.1025206 0.6964478 16711746
-0.5703333 0.0511720 0.8707563 16711746
-0.0423880 0.1267026 0.6411421 16711746
0.2105029 0.1095105 0.7261008 16711746
0.0697330 0.0919110 0.7746748 16711746
-0.5621580 0.0513573 0.8653546 16711746
0.0533696 0.0744485 1.0582538 16711746
0.0707589 0.1098098 0.7648688 16711746
0.2460075 0.1234309 0.6834179 16711746
-0.1997258 0.0834336 0.9485935 16711746
-0.5628594 0.0359189 0.8280312 16711746
0.3176555 0.0894935 0.7606422 16711746
-0.6300153 0.0604295 0.9205546 16711746
-0.6277763 0.0365642 0.9113897 16711746
-0.0163746 0.1348261 0.6375451 16711746
0.2433189 0.1118484 0.7876607 16711746
-0.1357071 0.0909449 0.8140010 16711746
-0.0353283 0.1220337 0.6762101 16711746
-0.2472564 0.1120598 0.8077220 16711746
0.1153813 0.0858977 1.0212845 16711746
0.2508739 0.0956279 0.8442769 16711746
-0.1692042 0.0498100 1.0198225 16711746
0.1331125 0.0937227 0.7940648 16711746
-0.0522334 0.1380783 0.6608250 16711746
0.0626174 0.0929513 1.0013828 16711746
0.4370322 0.0510581 1.0208361 16711746
0.4881183 0.1378539 0.9273511 16711746
0.0878674 0.0213931 1.4707245 16711746
0.4475181 0.1074312 0.9076813 16711746
-0.2105207 0.0402773 0.8184306 16711746
0.2843880 0.1131670 0.8250477 16711746
0.2441858 0.0850543 0.6564810 16711746
0.0260202 0.1539192 0.8990303 16711746
-0.1284849 0.0561740 0.7566268 16711746
0.0625076 0.0239670 0.9656832 16711746
0.1731469 -0.0055419 0.6349564 16711746
0.6369860 0.1473544 0.8790686 16711746
0.0650325 0.0934066 0.8285317 16711746
-0.0744680 0.1095769 0.7715261 16711746
0.2004368 0.1046476 0.8644352 16711746
0.3153381 0.0814151 1.1427100 16711746
0.2459301 0.0350484 1.2021785 16711746
-0.7985463 -0.0018686 1.3008348 16711746
0.1060696 0.0952089 0.8309477 16711746
0.3014196 0.1249071 0.8612805 16711746
0.2723450 0.0979303 0.8218071 16711746
0.1231878 0.1177513 0.8241737 16711746
-0.4830624 -0.0368840 1.7975442 16711746
-1.2334286 -0.0334617 1.5786768 16711746
-0.2139555 0.1195711 0.6670352 16711746
0.1925338 0.0743243 1.1485111 16711746
-0.2037103 0.1121924 0.6236637 16711746
0.1147700 0.0827892 0.9982955 16711746
-0.8448509 0.0278317 1.3139560 16711746
0.1244028 0.0922332 0.9396613 16711746
0.3367798 0.2254056 1.1392826 16711746
0.3437343 0.0868286 1.1020484 16711746
-0.4588243 0.0565674 1.4526680 16711746
0.1689543 0.0707481 0.8607323 16711746
0.2784927 0.0559906 1.3056443 16711746
-0.2983039 -0.1303869 1.4873790 16711746
-1.1725267 0.0072266 2.2410986 16711746
0.2317435 0.0252589 1.0848272 16711746
0.3511667 0.0263497 0.8527155 16711746
0.5199593 0.1209027 0.7835406 16711746
0.6050938 0.0512048 1.0801463 16711746
-1.0944836 -0.0574245 1.6789495 16711746
-0.2335549 0.1160522 0.6926987 16711746
-0.0514003 0.1236290 0.6727722 16711746
-0.2212455 0.0758692 0.8841788 16711746
-0.2127029 0.0512575 0.9237917 16711746
-0.9596666 0.0175998 1.0863496 16711746
0.6392136 0.1209895 0.8915141 16711746
0.2538421 0.0397243 1.0190316 16711746
0.5739962 0.0934859 0.9836409 16711746
0.9133389 -0.4526306 0.8627184 16711746
0.5937314 0.0831315 1.0977859 16711746
0.1109976 0.1148229 0.7803559 16711746
-0.3819794 0.0889498 0.7207203 16711746
-0.9377273 0.0215020 1.0881143 16711746
0.4965472 0.1190568 0.8350796 16711746
0.3632361 -0.2823837 1.0041211 16711746
-0.1189935 -0.0263712 1.6516359 16711746
-0.1422094 0.0935388 0.8248954 16711746
-0.2147336 -0.0859307 1.5784365 16711746
0.7037999 -0.4389706 1.2511605 16711746
0.7050604 -0.0847920 2.0166237 16711746
0.5962248 -0.3521084 1.1512015 16711746
0.5660294 -0.3330824 1.0843838 16711746
0.9183954 -0.6386676 1.7777066 16711746
0.8108737 -0.0589411 2.0840654 16711746
0.7350246 -0.1927050 2.6383357 16711746
-0.0498188 -0.0482727 1.9789740 16711746
0.5653908 -0.6175243 1.4043123 16711746
-0.0156814 0.0113680 1.4477351 16711746
-0.6939755 0.0299818 1.5904857 16711746
-0.0965447 -0.0954033 1.7713094 16711746
0.4583365 0.0935831 0.6151595 16711746
-0.4185291 0.1067111 0.8484750 16711746
0.0470768 0.0845559 0.8091975 16711746
-0.2684407 0.1339452 0.6437418 16711746
-0.1063991 0.0542016 0.8485444 16711746
-0.3088670 0.0899314 0.7489432 16711746
0.1521915 0.1131981 0.7296234 16711746
-0.1045642 0.0651039 0.8270602 16711746
0.1220837 0.1065204 0.7555633 16711746
0.3254853 0.0886409 0.9533066 16711746
-0.1435000 0.1003645 0.8122259 16711746
0.2693380 0.0763063 0.9815078 16711746
0.0391467 -0.0021181 1.4628341 16711746
0.2836625 0.1204770 0.7852528 16711746
-0.7052083 -0.0134971 1.6587470 16711746
0.2422680 0.1122153 0.7899219 16711746
0.5660395 0.1425098 0.7595477 16711746
0.5183245 0.1835360 0.7441489 16711746
-0.4989445 -0.0440845 1.7489285 16711746
0.2985600 0.1221549 0.8565022 16711746
0.4838858 0.1618007 0.7040796 16711746
0.2423377 -0.3739237 1.0603583 16711746
0.3407538 0.1165401 0.7351340 16711746
0.2917196 0.1207180 1.0456234 16711746
-0.0439924 0.1063551 0.6972368 16711746
0.3641306 0.0673237 1.0910621 16711746
-0.2665956 0.0998055 0.9117552 16711746
0.1690675 0.1024943 0.7320068 16711746
0.6090900 -0.0404391 0.7741537 16711746
-0.2477352 0.0906858 0.6581039 16711746
0.6344647 0.1429625 0.9917848 16711746
-0.5009872 -0.8496147 2.1203165 16711746
0.4444880 0.0660389 1.1123946 16711746
1.2621838 0.0784289 1.2298772 16711746
-0.1850559 0.1173448 0.6950504 16711746
-0.0600707 0.1296166 0.6427426 16711746
0.6930144 0.1346184 0.8501063 16711746
-0.3875579 0.0918211 0.8188680 16711746
0.8486787 0.1502665 1.0214845 16711746
0.6088501 0.1008341 0.9494992 16711746
-0.1804965 0.1225489 0.6877947 16711746
0.1422690 -0.0577840 0.8393405 16711746
0.0513634 0.1154914 0.8096105 16711746
0.0668946 0.0984852 0.9199423 16711746
-0.1682764 0.0917164 0.7309680 16711746
-0.2567873 0.0444310 0.8668473 16711746
-1.0556487 -0.0380805 1.3471396 16711746
0.7374659 0.1365896 0.9849671 16711746
0.2544321 0.1030352 0.7220538 16711746
0.6954942 0.1042999 1.0500653 16711746
0.3886015 -0.1053343 1.6065435 16711746
1.0202588 -0.5009411 1.1858922 16711746
0.8383553 0.0768346 1.2846837 16711746
0.6479322 0.0470151 1.5320616 16711746
0.1608607 0.0855832 0.8752732 16711746
0.2991293 -0.2018072 0.7843641 16711746
0.1218606 -0.0686633 2.2217941 16711746
0.1170145 -0.0643601 1.9939220 16711746
0.1292512 0.1182732 0.8048646 16711746
0.7316164 -0.0297136 1.7464535 16711746
0.9881151 -0.0765559 2.0108058 16711746
0.7931515 -0.5066921 2.3593955 16711746
0.8945066 -0.9505618 2.2417314 16711746
0.8254541 -0.0748356 2.2610650 16711746
-0.2010583 -0.0133690 1.5286838 16711746
-0.1407054 -0.0287229 1.7354611 16711746
-0.3627893 -0.1116547 1.6300653 16711746
0.9752112 -0.9859892 2.7089455 16711746
0.9423649 -0.9529241 2.6183152 16711746
0.5462044 0.1421892 0.9186012 16711746
-0.1957749 0.0708738 0.8735559 16711746
0.2175951 0.1022345 0.9802303 16711746
0.5024419 0.1551295 0.7299754 16711746
0.5609449 0.1279584 0.6943422 16711746
-0.1398290 -0.0050273 1.2483559 16711746
0.1777085 0.0769227 0.8810700 16711746
0.1746799 0.1008199 0.7748166 16711746
0.0512861 0.1109301 0.7808034 16711746
0.0626983 0.1266165 0.7657632 16711746
0.5997841 0.0960421 0.8636788 16711746
0.0522440 0.0946852 0.9084964 16711746
0.3538893 0.1230045 0.8579321 16711746
0.3318874 0.1329180 0.7433891 16711746
0.6469923 0.0220885 0.8321955 16711746
-0.2024883 0.0795348 0.8566043 16711746
0.2974598 0.1071998 0.8675073 16711746
0.5742624 0.0848045 0.8719637 16711746
0.0235010 0.0811907 0.9130276 16711746
-0.3405631 0.0610999 1.0121012 16711746
0.2138832 0.0940160 0.9472597 16711746
0.3033849 0.1149077 0.8900642 16711746
-0.0232075 0.1264056 0.7164287 16711746
0.0659795 0.1043323 0.8123428 16711746
0.1229567 0.0906190 0.8925179 16711746
0.4680253 0.1598599 0.7349642 16711746
0.5853279 0.1300508 0.8816255 16711746
0.1715548 0.0801563 0.9825017 16711746
0.2331169 0.1055470 0.8629212 16711746
0.6200113 0.1138637 0.8188642 16711746
0.4970249 0.0171488 0.8113425 16711746
0.4149050 -0.0620460 0.7191470 16711746
0.0292463 0.0717714 0.8796012 16711746
0.6487764 0.1327738 0.8016797 16711746
0.2143596 0.1015335 0.8272191 16711746
0.4293918 0.1233369 0.8762008 16711746
0.0631824 0.0987724 0.8473078 16711746
-0.2219105 0.0529135 0.8005750 16711746
0.0390005 0.0927634 1.0496076 16711746
0.6822988 0.1173060 0.7687286 16711746
-0.2338907 0.0544094 0.6235272 16711746
0.4579483 0.1450063 0.9363536 16711746
0.1637965 0.0745634 0.9516499 16711746
0.0624648 -0.0169702 0.7931826 16711746
0.0600675 0.0018322 1.1836985 16711746
0.2100250 0.0768360 1.0730169 16711746
0.6512144 0.0249860 0.8327601 16711746
-0.9297693 -0.0432782 1.9009039 16711746
0.8365273 -0.0065832 1.0468681 16711746
-0.3034019 0.0605811 0.8607653 16711746
0.2520051 -0.1393342 0.6345239 16711746
0.7274584 0.0599821 0.9162943 16711746
0.3511789 0.0699803 1.1916183 16711746
0.2684646 0.0846654 0.9178923 16711746
-0.2901220 0.0039446 1.3611881 16711746
0.2973266 0.1187363 0.8438264 16711746
0.0674109 0.1146198 0.7767633 16711746
0.0177059 -0.0383834 1.3683761 16711746
0.5768985 0.1269205 0.7418815 16711746
0.8358850 0.1006234 1.1240572 16711746
0.7323407 0.1049455 0.9351982 16711746
0.9006501 0.1061884 1.0574036 16711746
0.5539376 0.1258646 0.8814707 16711746
-0.2057082 0.1067672 0.7359964 16711746
0.4958422 0.1694551 0.6643305 16711746
0.6648535 -0.0104084 0.9887042 16711746
0.9112185 0.1080687 1.0675732 16711746
0.1210336 0.1139087 0.7517477 16711746
-0.0947440 -0.0777896 1.4948868 16711746
-0.2508093 0.0926006 0.8523805 16711746
0.7541671 0.0624579 0.9457347 16711746
0.0483601 0.0072818 1.2961318 16711746
1.2440290 0.0758617 1.1705909 16711746
0.4006816 0.0985461 0.8250651 16711746
0.2507587 0.1215812 0.7675483 16711746
0.6242183 0.1083641 1.1420656 16711746
0.9606098 0.1400184 0.9995815 16711746
0.2576956 0.1084322 0.8285377 16711746
0.3103097 -0.0416901 1.4395200 16711746
-0.4893918 -0.1577772 1.9738793 16711746
-0.0886809 -0.1582215 1.8823019 16711746
0.1048793 0.1122686 0.8129365 16711746
0.0545639 0.1046318 1.0512313 16711746
-0.4861369 0.1069159 0.8803630 16711746
0.0847346 0.0951041 0.8272799 16711746
0.3327958 0.0442336 1.0506767 16711746
-0.0656622 0.0382284 1.2227091 16711746
0.2766790 -0.1635905 1.2789609 16711746
0.3783149 0.0225481 0.7535770 16711746
-0.3008980 0.0577461 0.9929367 16711746
0.0339059 0.0467544 1.1916150 16711746
0.5734737 0.1030567 1.0678245 16711746
1.1816732 0.0709603 1.1273400 16711746
0.7741470 0.0601513 1.2277278 16711746
0.6630079 0.0949109 1.0061311 16711746
0.1224432 0.1062678 0.7905484 16711746
0.5859138 0.1507390 0.7762924 16711746
0.6924698 0.0682049 1.0511709 16711746
0.8548297 0.0891752 1.0436164 16711746
0.5532829 0.1393878 0.8522906 16711746
0.7840921 0.0483192 1.1647154 16711746
0.5962590 -0.0234599 0.9912754 16711746
0.3268894 0.0676318 0.8526532 16711746
0.6666629 -0.7739204 1.7682707 16711746
0.1667215 0.1062946 0.7914916 16711746
0.2144562 0.0789221 0.9760355 16711746
-0.0067622 0.1040154 0.8521084 16711746
-0.0113177 0.1047629 0.8577895 16711746
0.8906009 -0.1114387 1.6293687 16711746
-0.1914369 0.1122411 0.7016646 16711746
-0.4219569 0.0669934 0.7055262 16711746
0.9311867 0.0312835 1.8717068 16711746
-0.0206141 0.1101344 0.8786779 16711746
0.7102226 -0.0892441 1.8175677 16711746
0.1831151 0.0645519 1.2165805 16711746
0.9043960 -0.1409799 1.8381917 16711746
2.4117460 -0.1785432 2.8511631 16711746
0.3337473 0.0842118 1.0862042 16711746
0.8745341 -0.1247931 1.9081564 16711746
0.0913569 -0.0504477 1.8098766 16711746
-0.1251363 0.0531772 1.0896795 16711746
1.0798697 -0.6616154 2.0631158 16711746
2.2636180 -0.0795328 2.7364407 16711746
0.0537654 0.0741717 0.9585721 16711746
0.1860100 0.1056861 0.7721286 16711746
0.4479738 0.1167864 0.8263029 16711746
0.4155540 0.1359235 0.7302759 16711746
0.0536069 -0.1797786 0.9817622 16711746
0.7556091 0.1051444 1.0205227 16711746
0.3021562 0.1091407 0.8325455 16711746
0.0171812 0.1176320 0.8407311 16711746
0.1427376 0.1143381 0.7824518 16711746
-0.1269974 -0.2113976 1.1015854 16711746
0.0216241 0.1114199 0.8239994 16711746
0.8015943 0.0903578 0.9370990 16711746
0.7809501 0.1269557 0.9484560 16711746
0.4324789 0.1068988 0.8010195 16711746
0.3980578 0.1055631 0.8222915 16711746
-0.2912236 0.0965122 0.7578149 16711746
0.6337610 0.1175217 0.8575144 16711746
-0.6673350 0.0584027 1.0016118 16711746
0.4504793 0.0855552 0.9573428 16711746
-0.2063739 0.1333995 0.7484156 16711746
0.1623851 0.0917205 0.8314276 16711746
0.4185636 0.1190218 0.7881166 16711746
0.1282943 0.1081622 0.8368527 16711746
-0.0065025 0.1154578 0.7698853 16711746
-0.0157233 0.1021634 0.9050732 16711746
0.0656146 0.0576414 0.9873785 16711746
0.1866679 0.1041980 0.7675877 16711746
0.1971392 0.1038400 0.7771593 16711746
0.2634905 0.1008374 0.7931549 16711746
0.0918262 0.1049427 0.7995539 16711746
0.1943751 0.0381786 0.9309480 16711746
0.1317200 0.1071454 0.8348892 16711746
-0.3779022 0.0731899 0.9153155 16711746
0.3598037 0.0460418 1.0816622 16711746
-0.2298691 0.0631200 0.6864161 16711746
0.2996266 0.0618965 0.7947318 16711746
0.6956219 0.0291374 0.8759925 16711746
0.0672289 0.0944132 0.7567425 16711746
-0.1700327 -0.0070094 1.1471277 16711746
0.7550731 -0.0460825 0.9551741 16711746
0.4489415 0.1331179 0.9775456 16711746
-0.2552722 0.0603096 0.7081832 16711746
0.4841352 0.0885921 0.7647561 16711746
0.2077652 -0.0976842 0.5183912 16711746
0.2473773 0.1246771 0.8994565 16711746
0.5009943 0.1409445 0.6864871 16711746
-0.0286588 0.0149187 1.4051280 16711746
0.3614157 0.0787603 0.9878653 16711746
-0.2914833 0.0514493 1.0940135 16711746
0.6470041 0.1248485 0.8433180 16711746
0.6356165 0.1081435 0.8915687 16711746
-0.3841236 0.0950682 0.8934875 16711746
0.4925209 0.1528771 0.6824249 16711746
1.0032208 0.0813512 1.0386919 16711746
-0.0818561 0.0247666 1.3473629 16711746
0.2690801 0.1084832 0.7938757 16711746
0.2618387 0.0134418 1.1401739 16711746
0.9172733 -0.0272544 1.2997826 16711746
0.0138748 0.0903197 0.9496385 16711746
-0.4968328 -0.0486549 1.3578492 16711746
0.7314067 -0.0187098 1.1962873 16711746
0.1069181 0.1090837 0.8252869 16711746
0.4068966 0.1108821 0.8369579 16711746
0.2624824 0.1284027 0.7726240 16711746
0.2281034 -0.0394314 1.0212421 16711746
-0.1515687 -0.1676591 1.7510220 16711746
0.4526634 0.0790584 0.9621904 16711746
0.4643161 0.1242510 0.8256142 16711746
-0.1241130 -0.0531024 1.6695042 16711746
1.0146170 0.0444476 1.3055096 16711746
0.3901519 0.0637989 1.1544088 16711746
0.0646274 0.0888583 0.9827961 16711746
0.4652833 0.1430594 0.7855087 16711746
1.2207364 0.0733213 1.2154573 16711746
0.9944013 0.0430324 1.2832607 16711746
0.9393066 0.0345044 1.2299365 16711746
0.1866280 0.0662636 0.9423766 16711746
0.0626218 0.1010427 0.9215121 16711746
-0.1531700 0.0796040 0.6118435 16711746
0.7062685 0.0339397 0.8848606 16711746
0.4361042 0.0803248 0.7655537 16711746
0.4982850 0.0358801 0.9086403 16711746
-0.0755519 -0.4396799 1.3312192 16711746
-0.1126805 -0.1988578 2.0478065 16711746
-0.0394233 -0.2044893 1.2016116 16711746
0.0337777 0.0070199 1.2370241 16711746
0.9258919 -0.0315916 1.3168415 16711746
0.0245947 0.1083358 0.8114273 16711746
0.3155690 0.1134253 0.8694382 16711746
0.1616201 -0.1067907 0.6665513 16711746
0.2680158 0.0680659 1.0035399 16711746
-0.0878996 0.0434145 1.1479739 16711746
0.4636030 -0.5035455 1.2519683 16711746
0.5593188 0.0582158 1.0846617 16711746
-0.6664298 -0.0171718 1.5124128 16711746
0.3097371 0.0405032 1.2322701 16711746
0.0281926 -0.5094295 1.3385025 16711746
0.5544273 0.0943959 1.1647024 16711746
0.5716165 0.1318063 0.7312003 16711746
0.5515649 0.0927657 1.0718479 16711746
0.5419820 0.0225979 1.4374154 16711746
0.5937020 0.1366546 0.7294743 16711746
0.6724260 0.0643559 1.0248790 16711746
-0.6302739 -0.2094552 2.1122370 16711746
-0.5887419 -0.1144042 1.4777226 16711746
0.1772774 0.1096744 0.7922962 16711746
0.6885114 0.0057216 1.3871323 16711746
-0.1573624 0.0748515 0.9260334 16711746
0.3761822 -0.2773184 1.1151097 16711746
0.8351228 0.0506841 1.4422915 16711746
-0.5612754 -0.1239665 1.8658855 16711746
-0.4240797 -0.7841231 1.8489172 16711746
0.5734404 0.1081177 0.9868496 16711746
-0.5475132 -0.1995622 1.9627846 16711746
-0.4083870 -0.7516755 1.7964351 16711746
1.5465314 -0.6976622 1.7654084 16711746
0.6291620 0.1153047 1.0637101 16711746
0.6796680 0.0753062 1.1294917 16711746
-0.1270801 0.0415162 0.9813262 16711746
0.6496443 -0.7409763 1.8655230 16711746
1.0583404 -0.6887381 1.8016500 16711746
1.9191346 -0.5737310 1.7159436 16711746
1.3092152 -0.8699735 2.1374147 16711746
0.6691184 0.1172340 1.2524208 16711746
-0.3516054 0.0097641 1.4593751 16711746
0.7983685 -0.0201265 1.8788191 16711746
1.2439406 -1.0031902 2.3171511 16711746
-0.3492058 -0.0098007 1.3696693 16711746
0.5266441 -0.0804334 1.6890352 16711746
0.7611123 -0.7741401 1.9629689 16711746
0.3689860 -0.3267827 1.1459025 16711746
2.2688742 -0.8394852 2.5340099 16711746
0.6520166 -0.5941462 2.0065565 16711746
0.0713769 -0.0204364 1.5721565 16711746
0.2829436 0.0354178 1.2945156 16711746
0.9267459 -0.2369343 2.7740467 16711746
0.8440210 -0.7119181 2.5401964 16711746
0.4241298 -0.2056811 2.9409356 16711746
0.4071504 -0.4185386 1.2068955 16711746
1.1445216 -0.8299039 2.5557363 16711746
-0.1536597 -0.0022078 1.6522325 16711746
2.8301687 -0.1041238 2.8689022 16711746
2.5022416 0.0480701 2.4196610 16711746
0.5482414 0.1673080 0.6799252 16711746
0.6839389 -0.3672298 2.0883989 16711746
0.0200371 0.1003136 0.9303021 16711746
0.2390644 0.1130150 0.7936673 16711746
-0.0169732 0.1072129 0.8149711 16711746
0.1569760 -0.0469561 0.8747916 16711746
-0.1574262 0.0858668 1.1033044 16711746
-0.2220083 0.0671048 1.0149093 16711746
-0.1103450 0.0676617 0.8502029 16711746
-0.0126453 0.1194917 0.7763092 16711746
0.1567067 -0.0485703 0.8549521 16711746
0.1260235 -0.0598232 0.8869063 16711746
0.0018905 0.1108269 0.9364077 16711746
-0.2465209 -0.0711800 1.0081282 16711746
-0.0101910 0.1194738 0.7737614 16711746
0.0215175 0.1010867 0.9310800 16711746
0.1548935 -0.0640284 0.8490456 16711746
0.2804471 0.0815337 0.7857829 16711746
-0.3462963 0.0726779 0.7613372 16711746
0.2860336 0.0774367 0.7904673 16711746
-0.0209134 0.1112493 0.8243537 16711746
0.1030810 0.0853500 0.8506683 16711746
-0.1409557 0.0950117 0.8850027 16711746
0.0990087 0.1142530 0.7961128 16711746
0.0633676 0.1111058 0.8195989 16711746
-0.1429722 0.0692944 0.9037967 16711746
0.3342856 0.1051132 0.8110248 16711746
0.9513475 0.0453208 1.2635530 16711746
0.0363908 0.1224062 0.7787146 16711746
0.1345416 -0.0367139 0.8232619 16711746
0.0791657 -0.0871164 0.9219514 16711746
0.0582551 0.1144662 0.8398580 16711746
0.1354182 -0.0389090 0.7944261 16711746
0.1859278 0.0362986 0.8215039 16711746
0.5088993 0.0985570 0.7332881 16711746
0.1247475 -0.0316695 0.8482853 16711746
0.4293086 0.0284959 0.6926796 16711746
0.4229861 -0.0253879 0.6846732 16711746
0.1634557 -0.0909757 0.8010666 16711746
-0.2850413 0.0222411 1.4576156 16711746
0.7854220 0.0575759 1.1201919 16711746
0.6201303 0.0932921 0.8660926 16711746
0.3552712 0.0991073 0.9026651 16711746
0.0714915 0.0968222 0.9363242 16711746
-0.1874100 0.0816850 0.8965526 16711746
0.6416151 0.0918748 0.7475099 16711746
-0.0110575 0.0750684 0.9764544 16711746
-0.2385747 -0.0480559 1.5764064 16711746
0.5935634 0.0356923 1.2824156 16711746
-0.0303003 0.0356514 1.1909800 16711746
0.1603832 0.0954922 0.8901311 16711746
-0.1156811 0.0461065 1.1091149 16711746
0.1712376 0.0829854 1.0005033 16711746
0.7290082 -0.0163104 0.9318024 16711746
-0.0914314 -0.0136569 1.4236990 16711746
0.0341060 0.1077467 0.8261464 16711746
-0.1198982 0.0524868 1.1768720 16711746
0.2664698 -0.3486073 1.0514754 16711746
0.0145673 0.0966394 0.8936905 16711746
0.5216170 0.0657932 0.8064303 16711746
0.2458284 0.0422660 1.2422905 16711746
-0.2702277 -0.1887300 1.6159750 16711746
0.6030874 0.0851000 1.1094201 16711746
0.6386321 0.1342430 0.8366057 16711746
0.7706819 0.0990868 0.8357028 16711746
0.0430521 0.0889068 0.8289179 16711746
-0.1633977 -0.0095549 1.2163303 16711746
-0.4754108 -0.1873858 2.6452303 16711746
0.3727708 0.1225213 0.8162526 16711746
0.6121423 0.0942315 0.9090872 16711746
-0.4944919 -0.1290600 1.9840701 16711746
0.2566037 -0.0501807 1.0416981 16711746
0.8569466 -0.0441093 1.4280803 16711746
-0.2604027 0.0254576 1.2075278 16711746
0.2930893 0.0577466 1.1626107 16711746
0.5424727 0.0954700 0.9843543 16711746
0.5962462 0.0997134 1.0013137 16711746
1.2150872 0.0715322 1.1407806 16711746
0.4834475 0.0648900 1.1518793 16711746
-0.3633213 0.0682921 1.0056763 16711746
0.8124487 -0.0837693 1.3699819 16711746
0.1871164 -0.8063930 2.6827948 16711746
0.2637321 0.0455106 1.2042024 16711746
0.3853893 -1.0732971 2.6101079 16711746
-0.3394579 -0.0212698 1.6010067 16711746
0.1409101 -0.0421874 0.7578527 16711746
0.1664017 0.0828096 0.8740882 16711746
0.8356354 0.0702725 0.8704220 16711746
0.1110896 0.1078761 0.8760155 16711746
1.4801328 -0.8174479 2.0394161 16711746
0.7470068 -0.7486628 1.9428612 16711746
-0.1663342 0.0607599 0.9764763 16711746
0.6903734 -0.3620783 1.0592151 16711746
0.5022684 -0.0956201 1.9200732 16711746
0.1864060 0.0859180 0.9485694 16711746
0.5717881 -0.6700074 1.8354815 16711746
0.6920859 0.0009934 1.5884677 16711746
0.7264060 0.0953609 1.0188386 16711746
-0.1733637 0.0353853 1.1884950 16711746
0.3535198 0.0418653 1.0564842 16711746
0.0959829 -0.0355349 0.5239632 16711746
0.5945364 0.0904411 0.9514318 16711746
-0.6242032 -0.1187073 1.4278753 16711746
-0.7285925 -0.0073081 1.4536446 16711746
0.0590816 -0.1340053 2.6771424 16711746
0.5807406 0.1394949 0.9292285 16711746
-0.3553548 0.1319545 1.2784023 16711746
0.8350820 -1.0679612 2.9820554 16711746
-0.0978340 -0.0282803 1.7480024 16711746
0.7628196 -0.2786291 2.3919094 16711746
0.8962857 -0.1505410 2.1602972 16711746
2.0900590 -1.0063473 1.8067205 16711746
0.7832382 0.0189036 1.7458006 16711746
3.3543940 -1.1294137 4.0193219 16711746
-0.0796447 -0.0924510 1.7834631 16711746
1.4147724 -0.0085047 1.7911332 16711746
0.1884900 0.0824978 0.9415270 16711746
0.1975575 0.1150560 0.9179451 16711746
0.1655235 0.0866696 0.8153669 16711746
0.1541970 -0.0635271 0.8655390 16711746
0.0139723 0.1124988 0.8562503 16711746
0.1895353 0.1029242 1.0098892 16711746
0.1962387 0.1063373 0.8948106 16711746
0.0920549 0.0907114 0.8562794 16711746
-0.2817725 -0.0079970 1.2295661 16711746
-0.5578672 0.0318157 1.2091266 16711746
-0.2722049 0.0763301 0.9015607 16711746
0.0198043 0.0965418 0.8910658 16711746
0.1360012 -0.0620614 0.8089241 16711746
0.2977467 0.1054169 0.8424046 16711746
-0.0277451 0.1189847 0.7689644 16711746
0.0253540 0.1065270 0.8165287 16711746
0.1980388 0.0188759 0.9111879 16711746
-0.1075406 0.0428437 1.0614949 16711746
0.2097419 -0.0884222 1.0381744 16711746
0.1416084 -0.1062705 1.1157488 16711746
-0.3154876 0.0374856 1.3207719 16711746
-0.0721091 0.1010190 0.7720921 16711746
-0.0693951 0.0502977 1.2811873 16711746
0.2974399 0.1032645 0.8168486 16711746
0.0175113 0.1062776 0.7868867 16711746
0.0916126 0.0907277 0.8537988 16711746
0.0485996 0.1004275 0.9272053 16711746
0.1201410 0.1076538 0.8370498 16711746
0.1638892 0.1021799 0.8538260 16711746
-0.1875935 0.0585989 0.9153008 16711746
-0.8921669 -0.2433321 1.8837755 16711746
-0.0277824 0.0956077 0.8695601 16711746
-0.2311037 0.0350328 0.8921521 16711746
0.0058261 0.0591157 0.9207926 16711746
-0.0032570 0.0936703 0.7784901 16711746
0.0649147 0.0987485 0.9143087 16711746
0.3161654 0.0709250 0.8889508 16711746
-0.2083897 0.0303427 0.8936091 16711746
-0.2671857 -0.0245867 1.2392148 16711746
0.0036608 0.0603782 0.9269609 16711746
0.0781690 0.0672107 1.0645299 16711746
0.1563507 -0.1052469 0.8732452 16711746
-0.3043670 0.1359522 1.2325574 16711746
-0.1973028 -0.0289117 1.1088341 16711746
-0.2453291 0.0138016 1.5918095 16711746
-0.1644747 -0.0137419 1.6741734 16711746
0.3165874 0.0708376 1.3245547 16711746
-0.1537711 0.0996479 0.7754822 16711746
0.1896432 0.0592867 1.2223043 16711746
0.1757605 0.0989913 0.9858772 16711746
-0.2158228 -0.0062591 1.7827718 16711746
-0.1773243 0.0786512 1.1082710 16711746
0.3635029 0.1149551 0.8030812 16711746
0.2005797 0.1097939 0.8726075 16711746
0.0237123 0.0750738 1.0000794 16711746
-0.8521221 -0.1504712 1.8927872 16711746
0.2699350 0.1142696 0.8257880 16711746
-0.1667375 0.0729897 1.0856613 16711746
-0.1913514 -0.0101598 1.6937591 16711746
-0.0898701 -0.3242727 1.6955296 16711746
0.2799278 0.0280635 1.2767395 16711746
0.2246312 -0.0357039 1.3389879 16711746
-0.1374015 -0.1016318 1.6877174 16711746
0.3671696 0.1003919 0.8913345 16711746
-0.3573553 -0.0378156 1.5199410 16711746
-0.1235433 -0.0507077 1.0612886 16711746
0.2689244 -0.0524028 1.3503033 16711746
0.2826945 0.0619817 1.3247800 16711746
0.1543761 -0.0797100 1.0017877 16711746
0.0819454 0.1030193 0.8480813 16711746
0.1944025 0.0683858 1.0315359 16711746
-0.1654883 -0.0851294 1.8283422 16711746
-0.1483061 0.0859040 0.8075924 16711746
-0.1699758 -0.0547653 1.6356721 16711746
0.4439189 -0.5296477 1.4188584 16711746
-0.1967776 -0.1063346 2.3976479 16711746
0.0203972 0.1031083 0.8386892 16711746
0.5583161 0.0666547 1.1600072 16711746
0.3440750 -0.0392822 1.5569392 16711746
-0.1386769 0.1113447 0.7604660 16711746
0.2346134 0.0734291 0.9919057 16711746
0.7304588 0.0728671 1.1118482 16711746
0.0185818 0.0818078 1.0238831 16711746
0.7010527 -0.0228287 1.1528691 16711746
-0.1665898 0.1052760 0.7844450 16711746
-0.0333307 0.0565602 1.0598497 16711746
-0.1091463 0.0279951 1.2387213 16711746
-0.5258273 -0.0011297 1.1410919 16711746
0.4232863 0.0688822 1.1996937 16711746
0.5321274 0.1272365 0.9445753 16711746
0.4372063 -0.0024677 1.2073371 16711746
0.4466435 0.0512168 1.1788478 16711746
0.0803318 0.1030711 0.8507345 16711746
0.1696411 0.0803347 0.8232430 16711746
-0.6702053 0.0119696 1.3111935 16711746
0.5201849 -0.0607175 1.9331919 16711746
-0.1817780 0.0388964 1.2179403 16711746
0.7228017 -0.0523847 1.2007446 16711746
0.5537013 0.0696183 1.0270146 16711746
0.6595488 -0.8135713 2.1416669 16711746
1.3380942 -0.4018273 1.2586302 16711746
0.5263533 0.1043218 0.8855953 16711746
1.0539213 -0.0262990 1.9611119 16711746
0.6078428 -0.9029455 2.0640695 16711746
0.0705892 -0.1201072 2.3230331 16711746
0.9287789 -0.5510244 2.0703139 16711746
0.7738068 -0.4135191 1.7904261 16711746
0.7541933 -0.1408256 2.3725860 16711746
1.4061975 -1.0256768 2.3606441 16711746
0.9417092 0.2364514 1.0490476 16711746
0.0084680 0.1153392 0.7632371 16711746
0.1641717 0.0913524 0.8680080 16711746
-0.1798419 0.0374464 1.2130748 16711746
-0.1378133 0.0686022 0.8593196 16711746
-0.2361295 0.0887789 0.8346773 16711746
-0.2785507 0.0549709 0.9229932 16711746
0.1361623 0.0954253 0.8153345 16711746
0.0398168 0.1119413 0.8474837 16711746
-0.1461280 0.0708704 0.8690901 16711746
-0.2821087 0.0491897 0.8311571 16711746
0.1544738 0.0887508 0.8970561 16711746
0.4790342 0.1170977 0.9087114 16711746
0.2197348 -0.0476140 1.1303977 16711746
-0.1929647 0.0672550 0.8558637 16711746
0.4497002 0.0982235 0.8590489 16711746
0.0231629 0.1145481 0.9258329 16711746
-0.2621830 0.0482461 1.0565940 16711746
0.2025355 0.0772900 1.1438218 16711746
-0.4657999 0.0047414 1.1742173 16711746
0.3090830 0.0762108 1.0962843 16711746
0.1936176 0.0313879 1.2552106 16711746
-0.0659886 -0.0162030 1.3637527 16711746
-0.4780220 0.0203762 1.1314712 16711746
-0.2900982 0.0679182 0.8159032 16711746
-0.1312533 0.0596596 1.0233886 16711746
-0.1887639 0.0400673 1.2319951 16711746
0.1653157 0.0647421 1.1962627 16711746
0.2566603 0.0817606 1.0392667 16711746
0.0350530 0.0979868 0.7964257 16711746
-0.1955767 0.0853256 0.8481100 16711746
-0.2183078 0.0823584 0.8185444 16711746
-0.0642093 0.0934617 0.8079323 16711746
-0.5092541 0.0236895 1.2797852 16711746
0.1545449 0.0334861 0.8707985 16711746
0.2086573 0.0139785 1.1465888 16711746
0.2178800 -0.0737664 1.1359500 16711746
-0.1326287 0.0778414 0.7921125 16711746
-0.2183989 -0.0525403 1.4096802 16711746
-0.1957912 0.0910551 0.9764847 16711746
0.1180314 0.0899446 0.8368477 16711746
-0.1955737 -0.1311200 1.4530311 16711746
0.2306406 -0.1001010 1.1877512 16711746
-0.3747879 0.1000114 0.9612129 16711746
0.0217110 0.0834711 0.9287270 16711746
-0.1466816 0.0481518 0.8088906 16711746
0.2226044 -0.0936507 1.0439285 16711746
-0.3841448 0.0746246 1.0144198 16711746
0.0157980 0.0855745 0.9385788 16711746
-0.2133498 0.0703599 0.8832628 16711746
-0.0532245 0.0280759 1.0684366 16711746
0.2281530 0.0734742 1.1034681 16711746
-0.2458301 0.0394985 0.9146023 16711746
0.1814311 -0.1158297 1.0542750 16711746
-0.1048694 0.0743740 0.7952986 16711746
-0.2425150 0.0604244 0.8095120 16711746
-0.0694027 0.1171265 0.9358810 16711746
0.5472318 0.0646416 1.0228471 16711746
-0.1533243 0.0355592 1.2547964 16711746
0.1976155 0.1128450 1.0915666 16711746
0.2713545 -0.1428056 1.2912555 16711746
-1.1961740 -0.0580665 1.9412328 16711746
-1.1685990 -0.1306015 1.7748388 16711746
0.2735164 0.0493695 1.3621964 16711746
0.1661706 0.0993114 0.9241723 16711746
0.4370270 0.0628377 1.2507952 16711746
-0.8696567 -0.0171273 1.4985551 16711746
-0.0915564 0.0703467 0.9789929 16711746
0.0023694 0.0970337 0.8315939 16711746
0.1817687 0.0685147 1.2729616 16711746
0.2321004 -0.1025230 1.5121803 16711746
-0.0366216 0.0956142 0.8763484 16711746
0.0865639 0.0970069 0.8758939 16711746
-0.5430006 0.0225218 0.9745679 16711746
-1.2723285 -0.0373273 2.1240673 16711746
0.2181930 -0.1119424 1.1830490 16711746
-0.9022300 -0.0770197 1.5359513 16711746
-0.3889514 -0.1659242 2.3381450 16711746
0.3638433 0.0593082 1.2614284 16711746
0.4459763 0.0501404 1.5169542 16711746
-0.5195307 -0.4116316 2.0306361 16711746
0.4505605 0.0980442 0.8563932 16711746
0.0838783 0.0960396 0.8727427 16711746
-0.1087462 0.0716930 0.7294776 16711746
-0.5234625 -0.1573054 1.7642500 16711746
0.3104869 0.0971091 0.9582131 16711746
-0.6186135 0.0463356 1.0797720 16711746
-0.0040619 0.1115372 0.7733059 16711746
0.1037983 0.1037030 0.8543098 16711746
-0.1646019 0.0904928 0.7365787 16711746
0.4899787 0.0990008 1.0340302 16711746
0.3398758 0.1084099 0.8924264 16711746
-0.0236292 0.0819339 1.0092753 16711746
0.3977788 0.0738149 1.1633737 16711746
-0.0134443 0.0737854 0.9815760 16711746
-0.0083351 0.0701670 1.2475145 16711746
0.2768811 -0.1521395 1.3968532 16711746
0.1038530 -0.0770029 0.8359529 16711746
-0.0249464 0.1152573 0.7334494 16711746
0.2322325 0.0841849 1.1070042 16711746
-0.1165888 0.0199243 1.4721973 16711746
-0.0740831 -0.2999012 1.5672226 16711746
-0.0757099 0.0688531 1.0088445 16711746
-0.5906501 0.0524842 0.9127269 16711746
-0.5883219 0.0496229 0.9048989 16711746
0.7205139 0.0294033 1.2007771 16711746
-0.2067231 0.0972922 0.7813807 16711746
0.8173862 0.0497602 1.3490834 16711746
-0.0921866 -0.0258989 1.6724783 16711746
0.4102230 -0.1122227 1.7240617 16711746
0.6273873 0.1065985 0.8928457 16711746
0.7659634 0.0215312 1.3118422 16711746
0.5439496 0.1166237 0.9148017 16711746
0.3644053 0.0655726 1.1187036 16711746
0.8552810 -0.4367433 1.6640304 16711746
1.6729288 -0.8794413 2.3714628 16711746
0.7422851 -0.0365989 1.7978590 16711746
0.6395397 -0.0372146 1.8298631 16711746
0.8080401 -0.7932330 2.0693560 16711746
0.2046153 -0.0705268 0.8152361 16711746
0.8786179 -0.1853957 2.1547756 16711746
0.2454087 -1.1084625 2.5121090 16711746
0.8964229 -0.1960388 2.2621565 16711746
0.9846771 -0.6190504 2.7851579 16711746
0.5851560 -0.0438179 2.0143003 16711746
1.1998459 -1.0609301 3.1479681 16711746
-0.2637162 0.0720889 0.9433572 16711746
-0.2227122 0.0611101 0.8559279 16711746
-0.2865572 0.0667750 0.8929253 16711746
0.4845818 0.1456521 0.8907162 16711746
-0.1558588 0.0806595 0.8515508 16711746
0.1625301 0.1023991 0.8941857 16711746
-0.1197156 0.1025688 0.7410617 16711746
0.0814004 0.0864554 0.9022046 16711746
0.0160638 0.0998360 0.8312991 16711746
-0.2052323 0.0000073 1.0678120 16711746
-0.1251350 0.0626751 0.8459657 16711746
-0.1380941 0.0672862 0.9726316 16711746
-0.0954756 0.0504193 1.1497446 16711746
-0.6958787 0.0125942 1.4697189 16711746
0.1014308 0.0972562 0.8145745 16711746
-0.2347133 0.1245431 0.9729415 16711746
-0.2474672 0.0620128 0.8514095 16711746
0.5511502 0.0248739 0.7534786 16711746
-0.5744543 -0.0476569 0.9668295 16711746
0.0501650 0.0814350 0.9954249 16711746
0.0836089 -0.1764883 0.9621837 16711746
-0.3092834 0.0039279 0.9177807 16711746
0.1674014 0.0129209 0.8076139 16711746
-0.2074462 -0.0473211 1.4606788 16711746
0.2673601 0.0412012 1.3766240 16711746
-0.0552545 0.0870958 0.8531648 16711746
0.3063210 0.0612676 1.2566148 16711746
-0.4871884 -0.0097136 1.7529258 16711746
0.3026136 0.1129920 0.8627638 16711746
0.6232563 0.1328404 1.1135174 16711746
0.1922849 0.0733871 1.1593428 16711746
-0.1637266 -0.0587947 1.6437080 16711746
-0.1356779 0.0899229 0.7543068 16711746
-0.3198509 -0.0872051 1.7657491 16711746
0.1365662 -0.0442764 0.8043336 16711746
0.5819237 0.1428063 0.9895650 16711746
-0.2385736 0.0653184 0.8672170 16711746
0.3363318 0.1036593 0.9048816 16711746
0.1819767 0.0800142 0.9149486 16711746
0.7575396 0.1783406 1.1713152 16711746
0.2119865 -0.0451424 1.2004185 16711746
-1.1228157 -0.0753521 1.7755359 16711746
-0.1477025 0.0692676 0.9418955 16711746
-0.6282582 -0.0286678 1.5345017 16711746
-0.2818977 -0.0048071 1.7180383 16711746
-0.4913663 -0.0762342 1.9438629 16711746
0.6324906 0.1374388 1.1295652 16711746
-0.2101487 -0.0517185 1.5003376 16711746
0.4911541 0.0846507 1.1762332 16711746
0.1975493 -0.0347841 2.1721787 16711746
-0.2767746 0.0293807 1.2395033 16711746
-1.4464121 -0.0914714 2.3107347 16711746
-1.5268922 -0.2018922 2.4281065 16711746
0.5962369 0.0476005 1.0834992 16711746
-0.1513442 0.0854042 0.8823903 16711746
0.3188731 0.0684952 1.1749696 16711746
-0.1040555 0.0730964 1.0124955 16711746
1.1772305 -0.6859127 1.4930832 16711746
0.6296260 0.0922771 1.3577329 16711746
0.5435560 0.0933529 0.7447160 16711746
0.2726891 -0.0318723 1.4160388 16711746
-0.1314735 0.0394984 1.2746279 16711746
0.3350910 0.0993402 0.9874724 16711746
0.2555011 0.1047818 0.8709241 16711746
0.1719406 0.0837259 0.9946086 16711746
-0.1510715 0.0726244 0.9147974 16711746
0.2041986 0.0499882 1.0940645 16711746
-0.2152424 -0.0801627 1.4015722 16711746
0.1358577 -0.0468394 0.8029448 16711746
0.1236629 -0.0630988 0.7913715 16711746
0.6145824 0.0932804 1.1932664 16711746
0.7204837 0.0272736 1.4346842 16711746
-0.2231747 0.0652337 0.9184940 16711746
0.7741562 -0.0416354 1.2391602 16711746
1.0666317 -0.0607930 1.6124279 16711746
0.6310897 -0.6018453 1.5917369 16711746
0.3077578 0.0200737 1.3472941 16711746
-0.2684973 0.0906846 0.7656082 16711746
-0.1474348 0.0642198 0.9965115 16711746
0.7734693 -0.0291167 1.9529411 16711746
0.6823539 -0.1693066 2.5123937 16711746
0.6128918 -0.0701868 2.2884240 16711746
0.4710383 0.0745733 1.1263486 16711746
0.2315882 -0.2150533 2.3277280 16711746
0.9801084 -0.7020760 2.1810467 16711746
1.3317015 -0.8238603 2.2067614 16711746
0.3044814 -0.1550723 2.0206153 16711746
0.2843586 -0.1168979 1.1048622 16711746
1.2706988 -0.8340217 2.3577232 16711746
0.6670674 -0.1847965 3.2562149 16711746
0.5635495 0.1228908 0.9457331 16711746
1.0973254 -0.9163787 3.2495222 16711746
0.9703475 -0.5007017 2.0667861 16711746
0.4776966 -0.2333783 2.7862005 16711746
1.1286100 0.0784814 1.4585147 16711746
0.6303255 -0.1160681 1.7423370 16711746
-0.2546973 0.0418995 1.0488217 16711746
0.1752182 0.0952854 0.9415255 16711746
0.4667939 0.1226234 0.9494599 16711746
0.1173995 0.0962831 0.8495556 16711746
-0.3835134 -0.0799762 1.4016572 16711746
0.6063561 0.1332844 0.9741613 16711746
-0.2951586 -0.0446938 1.3862914 16711746
0.5976667 0.1513329 0.9453384 16711746
0.5565295 0.1231749 0.8421153 16711746
-0.7088284 -0.0761996 1.5098363 16711746
-0.1899931 0.0559759 0.9828458 16711746
0.1953235 0.0761588 1.0602325 16711746
0.5582758 0.0990828 1.1436772 16711746
0.6138313 0.0731685 1.1405265 16711746
-0.2581480 0.0105113 1.2073032 16711746
-0.1577632 -0.0648059 1.2954637 16711746
0.4898065 0.0867320 1.0816911 16711746
0.2481517 0.0868597 0.9477599 16711746
-0.1688279 0.0050030 1.3295428 16711746
0.0123787 0.0918233 0.8885125 16711746
-0.3338546 -0.0790533 1.3320708 16711746
-0.3377156 -0.0419033 1.4632175 16711746
0.5671077 0.1446222 0.8752397 16711746
-0.1020569 0.0691753 0.9045358 16711746
0.1211924 0.0896416 0.8346539 16711746
0.1789971 0.0764277 0.9137037 16711746
0.5955067 0.0750814 1.3013809 16711746
0.1398771 0.0282564 1.5065964 16711746
0.5308504 0.1504648 0.9079773 16711746
-0.1924621 0.0360619 1.1231356 16711746
0.2474147 0.0879321 0.9539025 16711746
0.8923252 0.0410576 1.2135029 16711746
0.1597891 0.0807469 1.0198179 16711746
-0.8103110 -0.1137746 1.4019191 16711746
0.3131656 -0.1714797 0.7968614 16711746
-0.3764328 -0.0817627 1.3902792 16711746
-0.2576569 0.0345416 1.1895198 16711746
0.3755650 0.0729937 0.8994185 16711746
0.2328704 0.0949749 1.1302912 16711746
-0.2963047 0.0677098 0.8993471 16711746
0.6645430 0.1326999 1.0441895 16711746
-0.2858295 0.0502854 0.9905798 16711746
-0.2591930 0.0194148 1.1115158 16711746
0.4114440 0.1033833 0.9840493 16711746
0.6379015 0.0380232 1.0164952 16711746
0.1435710 0.0547730 0.9652970 16711746
-0.0089015 0.0675184 1.0653942 16711746
-0.1121659 0.0399610 0.9073189 16711746
0.8840752 0.0488655 1.1950778 16711746
0.7817346 -0.0416120 1.1294893 16711746
-0.1498329 0.0409464 0.7918875 16711746
0.1624762 -0.0681347 0.7955369 16711746
-0.4187810 0.0291130 0.9691433 16711746
0.7137302 0.0719197 1.0815300 16711746
-0.2981914 0.0590714 0.9271054 16711746
0.7212265 0.0857799 1.1808380 16711746
0.5462549 0.1067280 0.8902642 16711746
-0.1806649 -0.0627837 1.3349730 16711746
-0.7203979 -0.0685853 1.2764584 16711746
-0.3069900 0.0608034 0.9338500 16711746
0.3474245 0.0994573 0.9859899 16711746
0.1932469 0.0256486 1.2222362 16711746
0.2310851 0.0425636 1.1581781 16711746
-1.1645330 -0.6750252 1.8406620 16711746
0.5212917 0.0453769 1.1496454 16711746
0.7922297 0.0665899 1.2651982 16711746
-0.0868030 0.0212325 1.1953785 16711746
-0.1471176 0.0748589 0.8707807 16711746
1.0409505 0.0056975 1.4872923 16711746
0.1755325 -0.0708424 0.7287058 16711746
0.4517756 0.0964907 1.0563123 16711746
0.3597287 0.0395527 1.4489843 16711746
0.5663529 0.1321295 0.9726490 16711746
0.6596630 0.0636278 1.1668935 16711746
0.7748504 0.0186090 1.3096977 16711746
-0.1996379 0.0191490 1.2338315 16711746
0.7213387 0.0814431 1.0933220 16711746
-0.2534892 0.0425353 0.8112924 16711746
-0.3089378 0.0566500 0.9630409 16711746
0.2323239 0.0208049 1.1056733 16711746
0.6288633 0.1026255 1.0015689 16711746
0.1926384 0.0349374 1.2912222 16711746
-0.1549162 0.0578570 0.7398091 16711746
-0.2085631 0.1020382 0.8269796 16711746
-1.4209808 -0.8013476 2.0898421 16711746
0.4450465 0.0499862 1.1932237 16711746
0.3921536 0.0439366 1.5177327 16711746
0.6239350 0.0895818 1.0990866 16711746
0.0024811 0.0970685 0.8342490 16711746
-0.2509841 0.0060560 1.4693128 16711746
0.7621983 0.0174026 1.2973059 16711746
0.4568983 0.0566742 1.2678329 16711746
0.4561165 0.0902980 1.3002406 16711746
-1.4447030 -0.7989429 2.1228828 16711746
-2.4284501 -1.0756154 2.5219557 16711746
0.3125955 -0.1017427 1.3794272 16711746
0.1952357 0.0567389 0.9891057 16711746
-0.2420970 0.0657491 0.9070915 16711746
-0.7006902 -0.1402311 1.8637134 16711746
-0.0769422 0.0936582 0.9067680 16711746
0.4289282 0.0697976 1.1498307 16711746
0.3951395 0.0036966 1.7311429 16711746
0.8491824 0.0785721 1.3265454 16711746
0.5877674 0.1173654 1.0598537 16711746
0.6607040 0.1045284 1.0851659 16711746
0.3545537 0.0978813 0.9015182 16711746
-0.1681917 0.0629128 0.9890754 16711746
0.6052341 0.1045898 1.0521301 16711746
0.2739301 -0.0918285 1.6505607 16711746
0.7474191 0.0431901 1.2785358 16711746
0.3584903 0.0915712 1.0072322 16711746
-0.0604328 0.0577043 1.0715011 16711746
0.5534046 0.0209641 1.6613572 16711746
0.3538079 0.0538783 1.2336043 16711746
0.1589776 0.0987206 0.9610016 16711746
0.5440812 0.0343927 1.4402463 16711746
0.2461642 0.0903061 0.9617004 16711746
0.4772700 -0.2549902 1.0800368 16711746
1.5641842 -0.7646917 1.8123773 16711746
0.8363386 -0.4229415 1.6207020 16711746
-0.5375130 0.0393057 0.9046695 16711746
0.3414527 -0.1065449 1.5458883 16711746
0.0209049 -0.0627340 2.0701382 16711746
0.9657622 -0.0016864 1.9055662 16711746
0.7678524 -0.4033527 1.7656453 16711746
0.7701977 -0.9072868 2.3178594 16711746
0.4955442 -0.2794964 3.3938942 16711746
0.9152516 -0.0711212 1.9865516 16711746
0.2037491 0.0761512 0.9856819 16711746
0.6114150 0.1040513 0.9785844 16711746
0.3576387 0.1006276 0.9116393 16711746
-0.5595216 -0.0155496 1.4293770 16711746
-0.3541423 0.0529656 1.0295475 16711746
-0.3084579 0.0046076 1.3006129 16711746
-0.2444701 0.0487508 1.1640826 16711746
-0.0142260 0.0802226 0.9835210 16711746
0.1922933 0.0913549 0.9997153 16711746
0.5837120 0.0921908 0.9483171 16711746
0.5403745 0.0238715 0.9969448 16711746
0.8065277 0.0143213 1.0296293 16711746
-0.1697692 0.0745915 1.0719751 16711746
-0.3257457 0.0652422 1.0171567 16711746
0.2126375 0.0891032 0.9273109 16711746
0.7052798 0.0067631 1.0163794 16711746
-0.7675790 -0.0703692 1.3266850 16711746
-0.2925016 0.0333100 1.1913285 16711746
0.1655644 0.0978895 0.9065205 16711746
0.2314964 0.0387309 1.1322798 16711746
0.5713876 0.0583453 1.3249395 16711746
0.1362692 0.0877647 0.9486907 16711746
0.0021596 0.1092335 0.9068241 16711746
-0.0541857 0.0818340 0.8888007 16711746
0.5852548 0.0401344 1.0637898 16711746
0.5869927 0.1072055 0.9692255 16711746
0.2018240 0.0698143 0.9634376 16711746
0.1380771 0.1005282 0.9271670 16711746
-0.6243597 -0.0643670 1.2532365 16711746
0.2569791 0.0868953 1.0510384 16711746
0.2041464 0.0279710 1.1428635 16711746
0.0324243 0.0682459 0.9851438 16711746
0.5580612 0.0823469 1.0159270 16711746
-0.6843715 -0.0654798 1.3077013 16711746
-0.5641015 -0.0214400 1.2917414 16711746
-0.3320333 0.0000391 1.3400388 16711746
0.1400943 0.0716699 1.1115514 16711746
0.2310552 -0.2035198 0.8431562 16711746
-0.0135124 0.1216915 0.9429849 16711746
-0.6042346 -0.0710747 1.2459888 16711746
-0.0593457 0.0973599 0.8649811 16711746
-0.5044991 0.1678243 1.3841008 16711746
0.6023706 0.1041457 0.9016259 16711746
0.6579551 0.1166832 1.0332866 16711746
-0.4496711 -0.0237339 1.2876966 16711746
-0.1155633 0.0851104 0.8931314 16711746
0.3541787 -0.5236449 1.4947546 16711746
0.2991435 0.0032464 1.1564776 16711746
-0.2434002 0.0608000 0.9622502 16711746
0.8011416 -0.0453207 1.2671303 16711746
-0.7735517 -0.0637007 1.3054992 16711746
0.2117763 -0.0934036 1.2007462 16711746
-0.8152559 -0.0246096 1.5520107 16711746
-0.4908178 0.0194835 1.1335313 16711746
0.2856433 0.0786175 0.9585035 16711746
0.1429668 0.0676321 1.0333389 16711746
0.2035277 0.0601609 1.0564750 16711746
0.5616306 -0.0025782 0.7810091 16711746
0.5633032 0.1231844 0.9929712 16711746
0.2195352 0.0840217 1.0153099 16711746
0.4782585 0.0782811 1.1382750 16711746
0.2320500 0.0445253 1.1683730 16711746
-1.0931283 -0.0530172 1.4785722 16711746
-0.2414959 0.0338876 1.1084447 16711746
-0.0675120 0.0408177 1.1778859 16711746
1.3393773 -0.7629485 1.5606753 16711746
0.4336399 0.1030905 0.9831750 16711746
0.6272952 0.0613122 1.1490376 16711746
0.1742841 0.1020045 0.9901792 16711746
-0.2594959 0.0507260 1.0365043 16711746
0.2723636 -0.1160091 1.2691841 16711746
0.1747317 0.0393898 1.0839847 16711746
-0.4718379 -0.1225386 1.5154876 16711746
0.9286709 0.0022328 1.5476162 16711746
0.3234392 -0.1759800 0.8020799 16711746
-1.3645200 -0.1105585 1.9073926 16711746
-0.2559054 0.0773242 0.9607304 16711746
0.5193610 0.0114934 1.7198783 16711746
0.4189606 -0.1343449 2.2976341 16711746
1.2731490 -0.6644635 1.8422022 16711746
1.0319424 -0.7343543 1.7785571 16711746
-0.9125526 0.0323181 1.5430279 16711746
0.1083834 0.0353533 1.3363208 16711746
