# .PCD v.7 - Point Cloud Data file format
VERSION .7
FIELDS x y z rgb
SIZE 4 4 4 4
TYPE F F F F
COUNT 1 1 1 1
WIDTH 164
HEIGHT 1
VIEWPOINT 0 0 0 1 0 0 0
POINTS 164
DATA ascii

 0.0324871 0.0190801 -0.0922884 16777215
 0.0330785 0.0173908 -0.0909338 16777215
 0.0232940 0.0517930 -0.1311388 16777215
 0.0387160 -0.0011872 -0.0873889 16777215
 0.0372211 0.0076561 -0.0876169 16777215
 0.0388358 0.0088346 -0.0843919 16777215
 0.0372155 0.0085618 -0.0863194 16777215
 0.0338067 0.0074081 -0.0819124 16777215
 0.0409461 0.0181296 -0.0804038 16777215
 0.0463515 0.0087197 -0.0637359 16777215
 0.0816536 -0.0017543 -0.0288406 16777215
 0.0850597 -0.0190981 -0.0036814 16777215
 0.0881092 -0.0272826 0.0322931 16777215
 0.0901595 -0.0420374 0.0822307 16777215
 0.2407618 -0.0235322 0.2527207 16777215
 0.2834695 -0.0340547 0.3386384 16777215
 0.3334787 -0.0317103 0.3874390 16777215
 0.3382757 -0.0923372 0.4781860 16777215
 0.4112425 -0.0770557 0.4837080 16777215
 0.4478349 -0.0299884 0.6510947 16777215
 0.4832367 -0.0283454 0.7190734 16777215
 0.5321545 -0.1244777 0.8213000 16777215
 0.5432352 -0.0675704 0.9566813 16777215
 0.5834961 -0.1694588 1.0806050 16777215
 0.5965535 -0.1545634 1.1681061 16777215
 0.6258919 -0.0505654 1.3090185 16777215
 0.6558697 -0.1322826 1.3530700 16777215
 0.6672522 -0.1230040 1.4078612 16777215
 0.6984389 -0.1135769 1.4920737 16777215
 0.7921159 -0.2206109 1.5916488 16777215
 0.8060921 -0.1711783 1.6460501 16777215
 0.8073109 -0.1895328 1.6683606 16777215
 0.8386742 -0.2363310 1.8047563 16777215
 0.8424083 -0.2668505 1.8206828 16777215
 0.8655432 -0.3229360 1.8447840 16777215
 0.8898123 -0.3327154 1.8986638 16777215
 0.9442267 -0.2227927 2.0790203 16777215
 0.9724342 -0.2970086 2.1221750 16777215
 1.0112852 -0.3157114 2.2038245 16777215
 1.0658275 -0.3435563 2.2695456 16777215
 1.0974313 -0.4130775 2.3312583 16777215
 1.1334314 -0.4556231 2.4212136 16777215
 1.1085824 -0.4208828 2.4950020 16777215
 1.1614183 -0.4316281 2.6582091 16777215
 1.2507882 -0.4615380 2.6896172 16777215
 1.2108334 -0.3905439 2.7705786 16777215
 1.2965683 -0.4126548 2.8412695 16777215
 1.3223292 -0.4108026 3.0079901 16777215
 1.3955492 -0.4092269 3.0425501 16777215
 1.4080546 -0.3831707 3.1244316 16777215
 1.4495261 -0.4654824 3.2168279 16777215
 1.4751058 -0.4967428 3.2701149 16777215
 1.4707079 -0.3783361 3.4864426 16777215
 1.5195367 -0.4417690 3.5582685 16777215
 1.6086855 -0.4423958 3.5953672 16777215
 1.6374935 -0.5199419 3.7038686 16777215
 1.6246780 -0.5572165 3.8343570 16777215
 1.7379224 -0.5542904 3.9394944 16777215
 1.7766911 -0.5801989 4.0680351 16777215
 1.7887000 -0.6486626 4.1096749 16777215
 1.8091757 -0.6708218 4.1787939 16777215
 1.8429016 -0.6209346 4.2994022 16777215
 1.8597749 -0.6279882 4.4269824 16777215
 1.9118601 -0.6502985 4.4773340 16777215
 1.9453073 -0.6843667 4.5371208 16777215
 2.0063238 -0.7369722 4.6403146 16777215
 2.0322196 -0.7909580 4.6629348 16777215
 2.0315173 -0.7463859 4.7947836 16777215
 2.1108074 -0.7323766 4.8819280 16777215
 2.1054251 -0.7165425 4.9714918 16777215
 2.1269579 -0.5821947 5.0732183 16777215
 2.1996078 -0.6482545 5.1485868 16777215
 2.2308865 -0.6634672 5.1946430 16777215
 2.2422109 -0.6342412 5.2796278 16777215
 2.3082964 -0.6137586 5.3375006 16777215
 2.2898355 -0.6372075 5.4378662 16777215
 2.2976146 -0.6324049 5.5619698 16777215
 2.3605499 -0.7027194 5.6322727 16777215
 2.3900356 -0.7728966 5.7102747 16777215
 2.3921316 -0.7418758 5.7915759 16777215
 2.4609792 -0.8205681 5.8488817 16777215
 2.4572270 -0.8130912 5.9128647 16777215
 2.4523804 -0.7791657 6.0691137 16777215
 2.4306262 -0.8561010 6.1431508 16777215
 2.4226453 -0.8843441 6.1732583 16777215
 2.5564966 -0.8647456 6.1635504 16777215
 2.5759864 -0.8381004 6.2596955 16777215
 2.6168711 -0.8936007 6.3231421 16777215
 2.6587601 -0.9038441 6.4008217 16777215
 2.6845877 -0.9228964 6.4927201 16777215
 2.7258816 -0.8225377 6.5781550 16777215
 2.7442608 -0.8203828 6.6269069 16777215
 2.7618411 -0.8575985 6.6791081 16777215
 2.7442398 -0.7822373 6.6951122 16777215
 2.7874076 -0.6971824 6.7685838 16777215
 2.8753495 -0.7568591 6.8705521 16777215
 2.9299350 -0.7728062 7.0223017 16777215
 2.9238305 -0.7396944 7.0854487 16777215
 2.9806671 -0.7702057 7.1011600 16777215
 3.0284495 -0.8051100 7.1562991 16777215
 2.9573646 -0.8673298 7.3335285 16777215
 3.0357180 -0.7964807 7.4436140 16777215
 3.0387306 -0.8544474 7.4369516 16777215
 3.0851076 -0.8858559 7.5118508 16777215
 3.0743628 -0.8582172 7.5164514 16777215
 3.0884907 -0.9667466 7.5348854 16777215
 3.1128407 -0.9533112 7.5669212 16777215
 2.7823739 -0.6291642 7.7634954 16777215
 2.8506117 -0.6563418 7.7942042 16777215
 2.9075212 -0.7510493 7.8566833 16777215
 2.8741074 -0.7239881 7.9477410 16777215
 2.9097235 -0.7191107 7.9940510 16777215
 2.9232888 -0.7105801 8.0434570 16777215
 2.9650054 -0.7048280 8.2052164 16777215
 2.9822369 -0.7179811 8.2246962 16777215
 3.0045114 -0.7094018 8.2547045 16777215
 3.0217030 -0.6884472 8.3650703 16777215
 3.0370691 -0.7081244 8.4081001 16777215
 3.0688787 -0.7130201 8.4549303 16777215
 3.1228008 -0.6811578 8.5138531 16777215
 3.1055117 -0.7426946 8.6159143 16777215
 3.0933249 -0.7574158 8.6787739 16777215
 3.1291132 -0.7022781 8.7080030 16777215
 3.1781046 -0.7188175 8.7927065 16777215
 3.2553418 -0.7496877 8.8488483 16777215
 3.2959750 -0.7656789 8.9160185 16777215
 3.2014461 -0.7418549 9.0207453 16777215
 3.2200184 -0.7445295 9.0495653 16777215
 3.2656691 -0.7657053 9.1370935 16777215
 3.2856312 -0.7691464 9.1662674 16777215
 3.3105969 -0.7410145 9.2500858 16777215
 3.3444116 -0.7806978 9.2580118 16777215
 3.3488946 -0.7890034 9.3612137 16777215
 3.3527265 -0.8190846 9.3931999 16777215
 3.4203627 -0.7092760 9.4928226 16777215
 3.4193172 -0.7606194 9.4999523 16777215
 3.4290779 -0.7664795 9.5434904 16777215
 3.4264784 -0.7548389 9.6178446 16777215
 3.4541528 -0.6987145 9.6766844 16777215
 3.5090671 -0.6583638 9.7058983 16777215
 3.5673316 -0.6864138 9.7047958 16777215
 3.5829144 -0.6975918 9.8173428 16777215
 3.5532181 -0.6586330 9.8751106 16777215
 3.5770681 -0.6835568 9.9064674 16777215
 3.4870465 -0.7048907 10.0226307 16777215
 3.4998274 -0.7398643 10.0369606 16777215
 3.4869134 -0.7490792 10.0958290 16777215
 3.5077312 -0.7344084 10.1296902 16777215
 3.5127251 -0.7827859 10.1811781 16777215
 3.5656724 -0.7384677 10.1945152 16777215
 3.6037736 -0.7649074 10.2247982 16777215
 3.6145885 -0.7700229 10.2766781 16777215
 3.5713580 -0.7871718 10.3269939 16777215
 3.5688970 -0.7803769 10.3358822 16777215
 3.5733514 -0.8065343 10.4266977 16777215
 3.6070104 -0.8016751 10.4807777 16777215
 3.6273224 -0.7894421 10.5232973 16777215
 3.6287172 -0.8119516 10.5308056 16777215
 3.6217949 -0.8049419 10.5632038 16777215
 3.6080551 -0.8176863 10.6046619 16777215
 3.6104729 -0.8394675 10.6087341 16777215
 3.5978270 -0.8507509 10.6143312 16777215
 3.6053271 -0.8395605 10.6158285 16777215
 3.6168940 -0.8301101 10.6245155 16777215
