# .PCD v.7 - Point Cloud Data file format
VERSION .7
FIELDS x y z rgb
SIZE 4 4 4 4
TYPE F F F F
COUNT 1 1 1 1
WIDTH 110
HEIGHT 1
VIEWPOINT 0 0 0 1 0 0 0
POINTS 110
DATA ascii

 0.0286414 0.0170031 -0.0905658 16777215
 -0.2570087 0.0644189 0.8344509 16777215
-14.6843119 5.5264788 14.6593504 16711746
-12.4529667 4.2001772 12.0638428 16711746
-3.4777622 5.4297509 13.1541262 16711746
-9.5987129 3.7963283 9.6305189 16711746
-3.3097079 8.9865160 14.8675098 16711746
-3.4730849 8.6428452 14.3279104 16711746
-3.2221236 8.5358191 14.2380552 16711746
-10.9483633 3.1684141 8.8942575 16711746
-6.8993788 7.3963928 11.8515310 16711746
-6.7649865 7.2249756 11.6224432 16711746
-12.6057673 3.9038761 11.3825617 16711746
-11.5121727 3.4135466 11.2450886 16711746
-4.9779396 8.9744329 20.4379272 16711746
-2.2873058 8.9538059 15.0656023 16711746
-2.7042153 7.6712389 14.7934961 16711746
5.6824117 2.6380780 14.0104904 16711746
-6.5540414 6.5544243 10.4946384 16711746
-6.4220877 6.4171014 10.2662249 16711746
-14.9144135 2.2665081 10.8281507 16711746
-4.8604736 7.8936100 12.9805374 16711746
-4.6787786 7.6648555 12.6222467 16711746
-4.9603515 5.0836010 12.2413683 16711746
-5.4494843 5.2764869 12.6659508 16711746
-10.6184187 6.9350052 10.8086214 16711746
-10.4377079 6.6075015 10.2364578 16711746
-10.2433968 4.5353723 11.1698647 16711746
-6.7075853 4.3455696 10.7558813 16711746
-4.5863228 8.8298254 14.5537777 16711746
-3.8252721 8.0582304 13.3302011 16711746
-4.4648299 8.5547771 14.1769171 16711746
-12.6123152 2.9594710 9.5816631 16711746
-5.8432336 8.8774958 14.4471483 16711746
-3.3172224 5.8255520 9.3154116 16711746
3.3803511 1.5822663 21.9560375 16711746
-4.5469642 5.5928073 13.3225317 16711746
-4.7207065 5.4833927 13.0805302 16711746
-8.3325338 6.1589928 9.4895420 16711746
-9.0264807 4.7597899 11.9181376 16711746
-8.7662430 4.1098294 10.6267147 16711746
-10.5765915 5.1841321 12.5361118 16711746
-9.2517471 7.0891862 13.3386889 16711746
-5.7287807 4.6663280 7.1834311 16711746
-10.0236835 7.0292335 13.1900311 16711746
-11.1018829 4.2982769 14.2882481 16711746
-10.9893446 4.0863619 13.7397451 16711746
-10.5915279 3.7299736 13.4953794 16711746
-7.1108980 5.2649455 14.3508148 16711746
-7.8373332 5.2849483 14.2491999 16711746
-8.7044792 3.4950793 9.9536772 16711746
-8.7232256 3.2964246 9.3518066 16711746
-12.6993237 4.8647575 14.3197813 16711746
-11.0567350 3.3865781 12.3563690 16711746
-10.9514275 3.2523046 12.0726824 16711746
-1.5359243 -2.6155796 21.5627537 16711746
-14.1239138 5.0420485 12.9193115 16711746
-9.7885075 4.0459776 10.1612988 16711746
-9.5944519 3.9483452 10.0216875 16711746
-11.6346903 3.9296010 13.1307049 16711746
-11.5252457 3.7418313 12.6442804 16711746
-9.0595198 3.4474182 9.2151012 16711746
-8.3803177 3.4408286 9.4940672 16711746
-10.9404993 7.7636824 12.2684622 16711746
7.2848001 4.2401605 14.8045998 16711746
2.2475078 3.4681034 18.5448685 16711746
4.2365975 4.6333985 19.2233849 16711746
5.1225672 6.7640896 16.0349102 16711746
6.7582479 5.6968288 13.7875261 16711746
5.0534768 7.5376844 11.6713753 16711746
-0.2732421 6.1455040 14.4846020 16711746
2.6283808 6.8636360 11.4742861 16711746
2.6919944 5.2357221 12.6762094 16711746
-0.2464875 9.3363314 15.2052469 16711746
0.4369986 8.8245783 14.8445501 16711746
1.9334356 6.3635759 10.3598223 16711746
4.0310020 4.2179799 13.5706625 16711746
4.7148333 5.5678015 14.5136976 16711746
-0.1270903 4.9582462 16.2682133 16711746
1.7312577 4.4167957 11.8354454 16711746
7.4126320 6.9758887 11.4713945 16711746
8.6127806 3.1098905 8.7629404 16711746
-7.7972283 3.8671288 12.1035099 16711746
-11.5326891 1.6564976 17.2542000 16711746
-14.7680750 2.2954712 13.6829205 16711746
-9.7137928 2.2839074 12.2915688 16711746
-13.4713078 2.1076705 10.7963295 16711746
-1.9825850 5.6994214 23.0121555 16711746
-3.5319843 4.9504218 21.3430500 16711746
-9.2932758 5.9745998 18.9649200 16711746
-10.9420948 1.9026651 19.6466675 16711746
-8.7032938 1.5221878 21.3673801 16711746
-6.3073144 2.8494792 17.1613598 16711746
-8.8767900 6.7072887 9.9834652 16711746
-8.5413694 7.0721755 9.5996132 16711746
-8.2332325 4.1692114 11.8334169 16711746
-8.5180178 3.8574858 10.3506336 16711746
-7.8324156 5.3894033 8.2651415 16711746
-10.2896376 5.8588510 8.8987732 16711746
-11.0006971 4.6019449 8.5443811 16711746
-2.7283976 6.6626072 10.6306524 16711746
-0.8160075 6.8626356 11.2430515 16711746
-2.1848309 8.5938168 14.3200426 16711746
-6.1557660 6.3397164 10.0990839 16711746
-4.1012416 6.1946030 9.4610395 16711746
-3.0238333 5.3148699 16.9234619 16711746
-5.4430871 6.6716256 17.6758976 16711746
-2.1497340 5.4297719 13.3500805 16711746
-0.8436350 7.6209531 19.6291962 16711746
-5.9607172 6.0716248 16.2654953 16711746
