# .PCD v.7 - Point Cloud Data file format
VERSION .7
FIELDS x y z rgb
SIZE 4 4 4 4
TYPE F F F F
COUNT 1 1 1 1
WIDTH 150
HEIGHT 1
VIEWPOINT 0 0 0 1 0 0 0
POINTS 150
DATA ascii

 0.0235512 -0.0057919 -0.0572452 16777215
 0.0252713 -0.0061092 -0.0573185 16777215
 0.0303986 -0.0049386 -0.0574007 16777215
 0.0294396 -0.0018083 -0.0612657 16777215
 0.0301362 -0.0012765 -0.0618672 16777215
 0.0320260 -0.0024155 -0.0669251 16777215
 0.0302332 -0.0003663 -0.0675646 16777215
 0.0308411 -0.0024096 -0.0657311 16777215
 0.0312184 -0.0026118 -0.0650151 16777215
 0.0310455 -0.0030347 -0.0641383 16777215
 0.0304234 -0.0034526 -0.0646424 16777215
 0.0284228 -0.0031769 -0.0630870 16777215
 0.0260736 -0.0034375 -0.0613145 16777215
 0.0247896 -0.0049565 -0.0590386 16777215
 0.0248014 -0.0048431 -0.0571612 16777215
 0.0225578 -0.0068178 -0.0544879 16777215
 0.0212385 -0.0077627 -0.0521917 16777215
 0.0249959 -0.0081104 -0.0494030 16777215
 0.0333970 -0.0122844 -0.0412183 16777215
 0.0419522 -0.0213807 -0.0333867 16777215
 0.0347623 -0.0283097 -0.0314186 16777215
 0.0494025 -0.0325571 -0.0071183 16777215
 0.0574314 -0.0297847 0.0079198 16777215
 0.0645792 -0.0325923 0.0314963 16777215
 0.0837567 -0.0285729 0.0623145 16777215
 0.0996795 -0.0128883 0.1076310 16777215
 0.1131694 -0.0054548 0.1536687 16777215
 0.1433762 -0.0098818 0.1979893 16777215
 0.1694763 0.0134447 0.2543666 16777215
 0.1934241 -0.0020779 0.2807431 16777215
 0.2210192 0.0206210 0.3378337 16777215
 0.2192283 0.0026860 0.3791535 16777215
 0.2538947 0.0170186 0.4325960 16777215
 0.2713709 0.0247263 0.4671204 16777215
 0.2908760 0.0094549 0.5142826 16777215
 0.3341495 0.0068173 0.5635765 16777215
 0.3538398 0.0379945 0.6191999 16777215
 0.3758810 0.0249591 0.6538268 16777215
 0.3816233 0.0242288 0.6706080 16777215
 0.3906527 0.0116357 0.6993707 16777215
 0.3797604 0.0295331 0.7219190 16777215
 0.4114192 -0.0122802 0.7548119 16777215
 0.4321367 -0.0214236 0.7943364 16777215
 0.4408457 -0.0325625 0.8088763 16777215
 0.4508727 -0.0531344 0.8474538 16777215
 0.4689113 -0.0565276 0.8791751 16777215
 0.5034190 -0.0607189 0.9112842 16777215
 0.5095474 -0.0511284 0.9547189 16777215
 0.5418260 -0.0650003 0.9910362 16777215
 0.5546224 -0.0699679 1.0226244 16777215
 0.5520588 -0.0982413 1.0567472 16777215
 0.5925437 -0.0860366 1.0919036 16777215
 0.6009771 -0.0872066 1.1327707 16777215
 0.6405451 -0.0511735 1.1844050 16777215
 0.6450517 -0.0721371 1.2012525 16777215
 0.6732154 -0.0795141 1.2201033 16777215
 0.6800984 -0.0969882 1.2449553 16777215
 0.6836218 -0.1025766 1.2565048 16777215
 0.7005706 -0.0950636 1.2795160 16777215
 0.7147997 -0.1009231 1.3008406 16777215
 0.7201898 -0.1136601 1.3180285 16777215
 0.7295961 -0.1067770 1.3267498 16777215
 0.7178643 -0.0737634 1.3548062 16777215
 0.7299204 -0.0727154 1.3802881 16777215
 0.7475218 -0.0714009 1.3953581 16777215
 0.7726339 -0.0745813 1.4387786 16777215
 0.7761741 -0.0923887 1.4507933 16777215
 0.7157643 -0.0307131 1.5003819 16777215
 0.7747746 -0.0728682 1.5238502 16777215
 0.7732134 -0.0858216 1.5406988 16777215
 0.7985605 -0.0779876 1.5534230 16777215
 0.7689629 -0.0785421 1.5749671 16777215
 0.7211888 -0.0449544 1.5984386 16777215
 0.7275981 -0.0586873 1.6144991 16777215
 0.7530622 -0.0745955 1.6359985 16777215
 0.7100222 -0.0827714 1.6694177 16777215
 0.7568710 -0.0790241 1.6945705 16777215
 0.7684889 -0.0806397 1.7270808 16777215
 0.7511854 -0.0950335 1.7486385 16777215
 0.7556664 -0.1061656 1.7570798 16777215
 0.7948034 -0.1019291 1.7770839 16777215
 0.8094987 -0.1123543 1.8026924 16777215
 0.8295022 -0.1107274 1.8191414 16777215
 0.8323895 -0.1164947 1.8410357 16777215
 0.8411523 -0.0650863 1.8549962 16777215
 0.8564099 -0.0718019 1.8805840 16777215
 0.8700651 -0.0686197 1.8964438 16777215
 0.8587295 -0.0612496 1.9102740 16777215
 0.8722267 -0.0646523 1.9265804 16777215
 0.8816191 -0.0496583 1.9336219 16777215
 0.8907559 -0.0439228 1.9464658 16777215
 0.8898956 -0.0242864 1.9562776 16777215
 0.9004333 -0.0374826 1.9759421 16777215
 0.8881246 -0.0450926 1.9952459 16777215
 0.8928143 -0.0336876 2.0081704 16777215
 0.9216428 -0.0371807 2.0229466 16777215
 0.9285656 -0.0443888 2.0322452 16777215
 0.9345897 -0.0524518 2.0515895 16777215
 0.9417461 -0.0488890 2.0542209 16777215
 0.9272113 -0.0290617 2.0653615 16777215
 0.9553527 -0.0301057 2.0759408 16777215
 0.9430506 -0.0069999 2.0969493 16777215
 0.9571049 -0.0230584 2.1198845 16777215
 0.9628410 -0.0236664 2.1387291 16777215
 0.9693972 -0.0105394 2.1470790 16777215
 0.9737163 -0.0113255 2.1627941 16777215
 0.9863416 -0.0184002 2.1843958 16777215
 0.9899150 -0.0144504 2.1967132 16777215
 1.0068089 -0.0246629 2.2179356 16777215
 1.0056769 -0.0223435 2.2279744 16777215
 1.0122442 -0.0264884 2.2489250 16777215
 1.0241072 -0.0247258 2.2593114 16777215
 1.0297341 -0.0290500 2.2727776 16777215
 1.0404553 -0.0224457 2.2847214 16777215
 1.0448617 -0.0152421 2.2984731 16777215
 1.0499518 -0.0195476 2.3121884 16777215
 1.0572011 -0.0169200 2.3250456 16777215
 1.0517877 0.0008655 2.3412776 16777215
 1.0667534 0.0095955 2.3533483 16777215
 1.0709897 0.0031706 2.3689551 16777215
 1.0718981 -0.0002120 2.3810034 16777215
 1.0720929 -0.0017723 2.3975408 16777215
 1.0781453 -0.0043243 2.4057441 16777215
 1.0758375 -0.0029670 2.4134412 16777215
 1.0782248 -0.0027958 2.4221940 16777215
 1.0900965 0.0100857 2.4367957 16777215
 1.0978192 0.0009376 2.4490130 16777215
 1.1001576 0.0013307 2.4518108 16777215
 1.1128430 0.0024537 2.4752731 16777215
 1.1049926 0.0038910 2.4746139 16777215
 1.1047636 0.0091407 2.4862690 16777215
 1.1181085 -0.0018238 2.5064695 16777215
 1.1187199 -0.0015762 2.5172160 16777215
 1.1236093 -0.0064454 2.5312834 16777215
 1.0654032 0.0548034 2.5356152 16777215
 1.0787278 0.0722409 2.5379896 16777215
 1.0922490 0.0674363 2.5398831 16777215
 1.0950351 0.0559229 2.5555611 16777215
 1.0996125 0.0383576 2.5620408 16777215
 1.0811983 0.0537899 2.5770249 16777215
 1.0914199 0.0417668 2.5881567 16777215
 1.1077163 0.0389471 2.5994534 16777215
 1.1099961 0.0196738 2.6134191 16777215
 1.1010201 0.0333689 2.6078334 16777215
 1.1056081 0.0314648 2.6118011 16777215
 1.1057894 0.0212382 2.6243777 16777215
 1.1080688 0.0360533 2.6189599 16777215
 1.1045996 0.0391829 2.6191978 16777215
 1.1064606 0.0450625 2.6230192 16777215
 1.1070904 0.0422598 2.6233890 16777215
