# .PCD v.7 - Point Cloud Data file format
VERSION .7
FIELDS x y z rgb
SIZE 4 4 4 4
TYPE F F F F
COUNT 1 1 1 1
WIDTH 1190
HEIGHT 1
VIEWPOINT 0 0 0 1 0 0 0
POINTS 1190
DATA ascii
0.6198473 -0.8587651 1.0743247 16711746
0.6864468 -0.9324210 1.3769474 16711746
0.8219880 -1.1907988 0.6591111 16711746
-0.0359177 -0.7657637 1.1021264 16711746
0.3398406 -0.4866516 0.6268662 16711746
-0.0235430 -0.8388392 1.1829556 16711746
-0.1547503 -1.6468002 2.3279047 16711746
-0.0991296 -1.5625806 2.0727918 16711746
0.7010394 -2.1512427 1.3327237 16711746
-0.8391502 -1.3264741 0.5438758 16711746
0.1211533 -2.4734735 1.2263545 16711746
-0.5013598 -1.1374627 0.6161261 16711746
-0.2664139 -2.0435841 2.0066187 16711746
-0.2255652 -1.9699872 2.2677560 16711746
0.3823189 -1.9227784 1.3030293 16711746
-1.6725881 -1.2642545 0.9077779 16711746
-0.6647128 -1.2614714 0.6846851 16711746
0.4325000 -2.3205428 1.6601760 16711746
0.0083978 -2.2266603 1.4534342 16711746
0.1054764 -2.3675992 1.1829158 16711746
-0.2248822 -1.9726328 2.1569538 16711746
-0.9617690 -1.3514389 0.9899260 16711746
0.5223157 -1.5814310 0.8934852 16711746
0.0868561 -2.1400867 2.9952512 16711746
0.5704731 -1.7228593 0.9605988 16711746
-2.2476549 -1.3405803 1.3674679 16711746
-1.8189734 -1.3721238 1.2165086 16711746
1.4080106 -2.4865167 1.2578250 16711746
0.8127701 -2.0582449 1.5778116 16711746
0.6079170 -2.0285673 2.1625636 16711746
0.9876286 -2.3242900 2.4641461 16711746
1.3030341 -2.1232872 0.9804871 16711746
0.8251026 -2.5272028 2.7224057 16711746
0.6570216 -2.1765378 1.7189682 16711746
1.6650401 -2.3852232 0.8408808 16711746
-0.9203755 -1.1204085 1.0150632 16711746
-0.9890920 -1.0313461 1.4528747 16711746
0.0846587 -1.0529131 1.6995761 16711746
-0.1286783 -1.2603840 1.7302408 16711746
0.7843436 -1.5088052 1.5670122 16711746
-0.5439608 -1.1488397 0.7844353 16711746
0.5811440 -1.5157642 0.6911663 16711746
-0.8869189 -0.9403414 0.6010708 16711746
0.2727404 -1.0757931 1.3614553 16711746
-0.8727783 -0.8365710 1.1310498 16711746
1.0126238 -1.4046168 0.7038816 16711746
0.2886168 -1.1162847 1.0144876 16711746
-0.4388289 -0.9833789 0.6334769 16711746
0.3295129 -0.9530356 1.0406412 16711746
0.5874003 -1.0081692 0.5562276 16711746
0.4087060 -0.9529723 0.8924614 16711746
0.6470976 -1.0421499 0.7962677 16711746
0.6596338 -0.9123485 1.1457422 16711746
0.6797629 -0.9238104 1.0862694 16711746
-0.2986073 -1.0070099 0.9271027 16711746
0.6369445 -0.9291291 1.1079801 16711746
0.6851513 -0.7482386 1.4107703 16711746
0.8954824 -1.3211030 1.7425822 16711746
0.6125560 -0.6701884 1.2497000 16711746
-0.3114439 -1.0799506 0.6698604 16711746
0.5945845 -2.1469011 1.5809337 16711746
0.1922539 -1.1034420 1.1263028 16711746
0.6504864 -2.3821733 1.7360827 16711746
0.9025918 -1.5875853 0.5981640 16711746
1.1520414 -1.6203642 0.7859517 16711746
0.9530551 -2.0042779 0.9477707 16711746
1.0503848 -1.7936298 0.8163419 16711746
1.0700154 -1.9476446 1.2304983 16711746
-2.1921160 -1.2956591 1.3400928 16711746
0.4393730 -1.5128028 0.8004288 16711746
-0.3485372 -1.8237288 1.7428746 16711746
0.2303837 -0.2571816 0.3479311 16711746
0.0731108 -1.0394194 0.9619423 16711746
0.2978648 -0.7077453 0.7002758 16711746
0.4605634 -1.3044676 0.8120360 16711746
1.1027205 -2.0187056 1.6245933 16711746
1.0997900 -2.1184933 1.0628961 16711746
-0.3258949 -2.3434284 2.1832368 16711746
-0.1261053 -1.4037809 1.5635165 16711746
-0.1584221 -1.4297609 1.3821350 16711746
-0.2419910 -2.0761871 1.8551215 16711746
0.6556572 -1.7998854 0.7879951 16711746
0.0971187 -2.0912082 1.7520956 16711746
-0.7587866 -1.2226341 0.5455552 16711746
1.0324410 -2.0482078 1.3842298 16711746
0.5439616 -2.0560994 1.5314242 16711746
1.1375978 -1.6041490 0.6629881 16711746
0.6803327 -1.0261419 1.1055962 16711746
0.8387618 -0.9793772 1.0899582 16711746
0.5865434 -0.8829377 1.0975548 16711746
-0.2063734 -2.0396574 2.1784368 16711746
0.6181701 -2.0720992 0.9252003 16711746
0.5753213 -2.2116246 1.6966017 16711746
1.5609891 -2.2979872 1.2367370 16711746
0.6562472 -0.8337166 1.3444146 16711746
0.7199550 -0.8382716 1.1074882 16711746
0.9699214 -0.7247795 1.0907953 16711746
0.9722350 -2.3284504 2.2702107 16711746
0.8097535 -2.5881913 3.0026824 16711746
0.6154501 -3.0821934 2.9807794 16711746
-1.2116864 -2.0559864 1.3914921 16711746
1.2279736 -2.2070353 1.6176651 16711746
0.0188841 -1.8409233 2.0129337 16711746
0.9784215 -1.0074569 1.2083168 16711746
0.9108163 -0.8663502 1.2468879 16711746
0.7027020 -1.1744676 1.1638919 16711746
0.5811458 -0.4245340 1.2030665 16711746
0.4985427 -1.5835310 1.0107204 16711746
1.0454898 -1.2963452 0.9078312 16711746
0.9972389 -1.9237384 1.3385228 16711746
-0.5829981 -2.2415607 2.4898362 16711746
1.0033191 -1.8497878 1.1555893 16711746
1.4062991 -1.8670266 1.3759422 16711746
1.0353385 -2.1199245 1.8580225 16711746
1.0220110 -1.2588402 1.3949133 16711746
-0.1679853 -2.4948902 2.4021187 16711746
-0.2692473 -2.0370970 2.0024965 16711746
2.1760373 -1.8763905 0.9674062 16711746
-0.0221867 -2.7545118 1.7617636 16711746
1.0676289 -1.6163195 3.1604283 16711746
0.4300528 -1.5394188 0.7998072 16711746
0.5598314 -1.5660632 0.9456260 16711746
0.9130516 -1.3692355 0.7299935 16711746
-1.2655691 -1.7420807 1.1794972 16711746
-0.4024425 -1.7013582 1.9279027 16711746
1.6914012 -2.2498424 1.7806296 16711746
2.9351618 -2.8440936 1.3807951 16711746
-2.6772037 -1.5617111 1.5887880 16711746
0.8738281 -1.3213474 2.5473716 16711746
1.6464986 -2.2279418 1.5987463 16711746
1.9263107 -2.0340359 1.6503222 16711746
-0.3362996 -1.0858865 1.0783690 16711746
0.2753003 -0.3694224 0.4984367 16711746
0.2720493 -0.4121084 0.5620977 16711746
0.9828456 -1.1631191 1.9062603 16711746
1.2980213 -3.0651779 2.6925633 16711746
1.2656593 -2.3401561 1.8609740 16711746
-2.0224502 -1.6814448 1.8965552 16711746
-0.0413690 -1.5969791 1.2015475 16711746
0.3685723 -3.3678901 3.3389606 16711746
1.3796966 -2.4222951 1.8083630 16711746
-0.4885444 -1.1591551 1.4724993 16711746
-1.1419985 -1.1066166 1.3021412 16711746
0.3780146 -0.7583874 1.1851497 16711746
0.1172439 -1.4610665 1.4565051 16711746
0.4110362 -0.8895921 1.2841231 16711746
0.8669904 -0.9208159 1.2125778 16711746
0.6315333 -0.9757884 1.3720958 16711746
0.7053601 -0.7715054 1.4613627 16711746
-1.2561719 -1.1929457 1.4590127 16711746
0.4444546 -1.1494334 0.6226798 16711746
2.0356288 -3.0313289 2.7318170 16711746
1.7472552 -1.9263604 2.4243569 16711746
0.8050660 -0.9031285 1.5659683 16711746
0.3923671 -0.4054846 0.7678940 16711746
0.7360035 -1.1687291 1.6761869 16711746
0.8578715 -1.4339131 1.1713971 16711746
1.1747354 -2.4824398 1.5048579 16711746
0.9940534 -1.8346323 0.8325505 16711746
1.7297101 -1.5249228 0.7448252 16711746
2.1429553 -2.3084433 1.8035197 16711746
1.6097562 -1.7923034 0.9715768 16711746
1.6301010 -2.9054251 3.2288897 16711746
0.6890125 -1.0351031 1.5132709 16711746
0.5878091 -2.3676040 1.7908738 16711746
1.3004525 -2.3114715 1.0779665 16711746
-0.0492490 -2.2306697 1.6868358 16711746
-0.4700026 -1.3704031 1.3005666 16711746
1.0291551 -0.8332264 1.6702963 16711746
0.4271303 -0.5616184 0.9094955 16711746
0.5338261 -2.0825529 1.6120162 16711746
3.3202050 -2.8140984 3.4349802 16711746
-0.4322758 -1.6132984 1.3985851 16711746
-0.4423471 -1.6119920 1.4024935 16711746
0.1605783 -1.5893337 1.1255093 16711746
0.4579722 -1.0956955 1.6322660 16711746
0.9208724 -1.2367023 1.2981061 16711746
0.7040726 -0.6201856 1.3981508 16711746
0.7027781 -2.1325908 1.8429801 16711746
1.5651658 -1.3975146 0.6899893 16711746
1.1131661 -2.1608231 1.0811619 16711746
2.1440563 -2.5946712 2.2525527 16711746
1.1463264 -2.1847558 2.3302574 16711746
1.6875738 -1.5024395 0.7328092 16711746
1.4832207 -3.3890419 3.7430892 16711746
1.2979023 -2.5956843 2.6199310 16711746
0.4776115 -2.5387232 3.0414858 16711746
3.5703387 -3.5975466 4.8417778 16711746
1.5941876 -2.3161976 2.2283726 16711746
0.5558137 -1.8278959 0.8462113 16711746
1.2956749 -2.7153432 2.3310328 16711746
0.9843961 -2.2755535 1.1765690 16711746
0.1436221 -2.2769423 2.0441599 16711746
-0.8802880 -3.0016348 3.2697301 16711746
1.8406290 -2.4284883 3.1951556 16711746
1.1816417 -2.0838299 1.4353690 16711746
1.8330865 -2.1169596 1.5288298 16711746
1.8877050 -2.1336713 2.1396217 16711746
1.5147415 -2.9693215 2.8420324 16711746
1.1865724 -1.5568985 0.7651809 16711746
1.1307827 -1.8531555 1.1466461 16711746
1.3448151 -1.8689510 1.5843955 16711746
0.9099116 -1.9187582 1.6234608 16711746
0.5003808 -2.0897934 1.6810532 16711746
0.5192347 -1.7789863 1.3763181 16711746
0.5631455 -1.5815946 1.0100343 16711746
0.9073829 -2.0306222 1.5266578 16711746
0.8885877 -1.7344667 1.2947104 16711746
0.4816133 -1.8316551 1.2354335 16711746
0.6204592 -1.5618529 1.1117861 16711746
0.4526452 -1.3818674 0.8510751 16711746
0.5483447 -1.8317802 1.3881668 16711746
0.4185087 -1.4416091 1.0243881 16711746
-0.2514002 -1.7157898 1.4123446 16711746
0.0091076 -2.0731051 1.1492901 16711746
0.8517866 -1.0849375 0.6664482 16711746
0.4834842 -1.7494351 1.1225535 16711746
1.3346826 -1.1804043 2.0453379 16711746
1.2963327 -2.1636167 2.5065398 16711746
1.8285224 -2.4601250 2.7298391 16711746
-0.2299035 -1.8955520 1.2897887 16711746
0.8577780 -2.2781730 1.3656050 16711746
0.8625908 -3.7079570 3.9887114 16711746
1.6511831 -2.7025247 2.9396763 16711746
0.1648857 -4.1839924 4.2145295 16711746
1.9926015 -2.5613129 2.9888606 16711746
2.0666637 -2.7927279 2.7321601 16711746
0.9727424 -0.8277672 1.9938899 16711746
-0.2053154 -1.3539004 0.6673182 16711746
0.4708821 -2.1915741 2.3831494 16711746
0.9885098 -2.0115795 0.9385009 16711746
0.5899618 -0.9305097 1.1206691 16711746
0.8537713 -0.6188741 1.6952085 16711746
0.6167023 -9.8024883 4.8770595 16711746
1.0352104 -1.1892189 1.3875573 16711746
0.8384819 -2.6532714 1.5890912 16711746
0.4349810 -1.0340225 1.4012405 16711746
0.3148123 -0.3978796 0.6163642 16711746
1.7352648 -2.6663647 2.4105701 16711746
-0.6416042 -2.6916065 2.1570225 16711746
2.2179236 -2.7667263 2.8248839 16711746
0.7847621 -1.2421401 1.5703107 16711746
1.1468579 -2.6145353 2.1169355 16711746
-0.4367746 -2.1538191 1.9887083 16711746
-0.6189781 -1.8627523 2.0476327 16711746
-0.7524096 -1.6836230 1.5976955 16711746
-0.6838539 -1.9641739 2.1448233 16711746
-0.5295188 -1.8251170 1.2958180 16711746
0.5995751 -2.2557585 1.7280943 16711746
-1.8210971 -1.5685655 1.7852576 16711746
-0.5921819 -1.7980464 1.8308206 16711746
1.5298104 -1.5008208 1.1331896 16711746
-0.2038993 -2.0932815 2.0278642 16711746
1.0355800 -2.3436878 2.1960030 16711746
1.3400474 -1.9980340 1.3132969 16711746
0.2444178 -0.3728689 0.7193862 16711746
-0.5571306 -1.1684333 1.3286539 16711746
1.1531591 -3.4741509 3.4924703 16711746
-0.1774563 -2.8767133 1.8113414 16711746
2.0349433 -3.0975144 3.5431023 16711746
-0.0936571 -3.2984710 2.9002001 16711746
2.0693448 -3.3634164 3.2351894 16711746
0.4396543 -0.5590127 0.8621274 16711746
0.3025531 -0.6480206 0.9465314 16711746
-0.2135897 -2.0058360 1.6516571 16711746
0.3994054 -1.3550203 1.1952602 16711746
0.8231087 -0.8242921 1.6854351 16711746
1.1635767 -0.9506422 2.0963104 16711746
0.0952803 -1.3818551 1.1955138 16711746
0.3520412 -0.4843637 0.7132885 16711746
1.9755214 -2.6765201 4.1493998 16711746
0.0951761 -1.8282021 2.7223718 16711746
0.6957178 -1.4250066 1.4676325 16711746
-0.2776762 -1.4835739 1.4349855 16711746
0.9545004 -1.5052011 1.4720274 16711746
0.3716151 -1.2986783 1.4420724 16711746
-0.6444197 -1.2584192 1.4662986 16711746
-0.2327362 -1.3158597 1.2416304 16711746
-0.9041034 -1.1003999 1.6707429 16711746
-0.6214938 -1.3139008 1.0461887 16711746
-0.3875231 -1.2334667 1.3198761 16711746
-0.5858366 -1.3906045 1.1933787 16711746
-0.5398895 -1.4557945 1.3634615 16711746
0.1516611 -1.1213312 1.1993786 16711746
0.9008800 -1.9598955 1.3155291 16711746
0.3045156 -2.1263106 1.7910935 16711746
0.7951646 -1.7084502 1.6939898 16711746
0.4672214 -2.0816600 1.6836013 16711746
0.4118993 -1.6107440 1.3749256 16711746
1.5018551 -2.2353048 2.6846263 16711746
1.8050058 -2.9336097 3.0878935 16711746
0.4933108 -2.0439024 1.4681603 16711746
-0.5216383 -1.5668960 1.5018414 16711746
0.4127776 -1.3605883 1.0085388 16711746
1.0110097 -1.6917511 1.1943990 16711746
0.7637616 -1.7171520 1.3485247 16711746
1.0322138 -1.7538697 1.0124710 16711746
-0.4009056 -1.2458030 1.3458245 16711746
0.4638404 -1.4915400 0.9847597 16711746
-0.8706446 -1.5561519 1.8708673 16711746
-0.5946992 -2.0878425 1.8321614 16711746
1.3493292 -2.5376592 2.4477863 16711746
1.4512622 -2.8158543 1.9925951 16711746
-0.5716239 -1.9872491 1.8181653 16711746
2.4548800 -3.9749701 4.9098263 16711746
1.4810233 -2.3720901 3.2649751 16711746
0.0974123 -3.4645557 4.7870336 16711746
0.4797598 -1.0654815 0.9795213 16711746
1.1876690 -2.7115371 2.4991124 16711746
0.8056694 -2.2633388 1.7536521 16711746
-0.4310939 -2.0997458 1.9854041 16711746
1.2208365 -1.7364867 2.3747215 16711746
-0.5847586 -2.3324864 4.0263615 16711746
-0.9540246 -3.0283177 2.9871886 16711746
-0.1578790 -0.7925363 0.9237368 16711746
0.5980445 -1.2422698 1.9881662 16711746
0.1920840 -1.1380349 1.6860729 16711746
0.4791146 -1.9597245 1.6182665 16711746
0.7458336 -1.7098885 1.2497559 16711746
0.9403477 -2.6719215 2.9090161 16711746
0.3012585 -0.8443382 1.2822306 16711746
-0.3672451 -1.0399865 0.9587497 16711746
1.8364925 -2.0194435 1.5471417 16711746
-0.3561090 -1.4590293 1.3910668 16711746
1.0842189 -1.7459903 1.1023523 16711746
1.1636997 -2.0468664 1.3122160 16711746
1.1712418 -1.7492805 1.1332457 16711746
-0.3619949 -1.1904725 1.0965837 16711746
0.1685660 -1.1817019 1.8363632 16711746
1.0553218 -2.0258517 2.0863233 16711746
0.0944358 -1.5925393 1.3101586 16711746
0.7152757 -2.2112870 2.0713878 16711746
0.7608618 -2.1036992 1.7435731 16711746
1.2444938 -2.4658723 2.2508447 16711746
1.2723637 -2.0985558 1.8550090 16711746
0.7138197 -2.3627820 2.1796675 16711746
0.8963759 -2.7769184 2.9105101 16711746
-2.5861073 -1.8458803 1.8254547 16711746
0.5583144 -0.9217002 1.1991889 16711746
1.4997182 -2.5230150 1.7757479 16711746
2.4944153 -2.6437933 3.2636616 16711746
0.6062058 -1.0129659 1.0748438 16711746
0.4985846 -0.9033859 0.9385824 16711746
1.4040809 -2.1822326 2.2164624 16711746
1.3317716 -0.9415305 2.6989920 16711746
-0.1527915 -1.0951251 1.0543308 16711746
1.8889694 -1.6460454 2.6287525 16711746
0.9579990 -2.0475857 1.9585984 16711746
-0.2830914 -2.2315347 3.0208030 16711746
-0.1648844 -1.5713370 2.0817332 16711746
-0.8755684 -2.0222523 1.9797671 16711746
1.2260350 -1.8898124 1.8608744 16711746
0.1770935 -1.6789372 1.6997250 16711746
-2.6077681 -1.8408517 1.8083595 16711746
1.4698759 -2.4922063 3.3034406 16711746
0.8918729 -2.4907401 2.5886202 16711746
1.4226162 -1.9492640 2.5413640 16711746
2.0941877 -2.7476108 2.8317716 16711746
-2.6162245 -2.1730363 2.7195997 16711746
1.1350533 -2.1079326 2.4899879 16711746
0.8190485 -2.2440119 2.5060446 16711746
1.1040444 -2.1895390 1.9411632 16711746
1.8541141 -3.6640210 4.2768922 16711746
-0.0661491 -1.4053119 1.8385912 16711746
1.7457310 -2.6943741 2.7819469 16711746
-0.4914381 -1.6655253 0.9510971 16711746
1.4287266 -1.1589681 1.1213528 16711746
0.2650912 -0.6293694 1.0543659 16711746
0.5168204 -1.0167897 1.1413229 16711746
-0.3454826 -2.7943404 3.6381419 16711746
0.3619881 -1.0306317 1.0428537 16711746
-0.0382695 -2.8560672 3.8353343 16711746
-0.8937257 -1.5762359 1.0822315 16711746
-11.8605270 -4.0755672 11.4544458 16711746
-0.3953018 -1.8628080 1.9049327 16711746
1.4730135 -1.0570017 2.9803452 16711746
1.8475789 -2.7399204 3.8662200 16711746
1.1942247 -1.5327594 2.3243678 16711746
1.0350093 -1.4759700 2.2391658 16711746
1.0629765 -2.1092813 1.5028596 16711746
1.0209047 -1.4943852 1.5485471 16711746
0.6825624 -1.5509529 1.0942926 16711746
0.5077009 -1.4907154 2.0505030 16711746
0.0946113 -1.5108296 1.5017111 16711746
0.0934460 -2.2631304 1.4331836 16711746
0.7810256 -2.0475330 2.0230749 16711746
1.1872536 -1.9953527 1.2037811 16711746
0.5201892 -2.6179197 2.1288848 16711746
1.1626563 -2.2939167 2.3372140 16711746
-0.2082675 -1.6091126 1.8130102 16711746
0.1399717 -1.8175584 1.7606310 16711746
0.9038662 -1.6464363 1.7693081 16711746
1.0403426 -2.2719941 2.1312664 16711746
0.8974942 -2.2032428 1.5048783 16711746
0.3443676 -0.3124999 0.6734031 16711746
0.4818920 -2.1192095 1.6630949 16711746
0.0255230 -1.9080539 1.7986406 16711746
0.4720758 -2.0734887 1.6298374 16711746
-0.1450647 -1.8580809 1.8666090 16711746
1.9419533 -2.8469129 3.1083751 16711746
-0.2095837 -1.5916426 1.7999128 16711746
2.2448988 -2.3271160 1.0584377 16711746
-1.0076848 -2.3127606 2.9091401 16711746
0.7943198 -1.4207500 1.7107607 16711746
0.0769994 -0.7337827 1.1444575 16711746
1.4717827 -2.1520309 1.4932826 16711746
1.8772427 -3.2435110 4.8199205 16711746
-0.4503970 -1.9137000 1.6607693 16711746
1.8588597 -4.1501746 4.9550195 16711746
1.7074804 -2.0451403 2.0929196 16711746
0.5942701 -1.2459607 1.4203163 16711746
0.9024115 -1.6670885 1.2077683 16711746
0.7820242 -1.7369488 1.2229134 16711746
0.3297572 -1.3913130 1.6358184 16711746
0.3486044 -1.2979623 1.6382316 16711746
0.7676093 -1.8720596 1.3257588 16711746
0.8484421 -2.0753889 1.2806646 16711746
1.0935130 -2.1306388 2.1805830 16711746
1.5484866 -1.8915024 1.9871049 16711746
1.3448730 -1.4894884 1.1249861 16711746
0.3213353 -1.7347287 2.0548429 16711746
-0.6358468 -2.3896663 1.9501626 16711746
0.6784549 -2.1426694 2.7469454 16711746
1.2958918 -1.5550650 2.7750835 16711746
0.3737404 -0.9473109 1.1920546 16711746
-0.0331036 -3.5307693 4.8321352 16711746
1.6168561 -3.6945803 4.3095746 16711746
2.1300056 -3.2697945 4.7222891 16711746
0.8534277 -1.8713279 2.1000829 16711746
0.8491454 -1.9797221 2.1303596 16711746
0.5747610 -1.9060317 1.6507640 16711746
0.8577210 -1.8234447 1.8618436 16711746
0.8870049 -1.8375784 1.6283495 16711746
0.3349847 -2.0496752 1.7988080 16711746
0.3828266 -2.2023191 2.1054571 16711746
1.5642236 -1.7763549 2.0646646 16711746
1.3688154 -1.4410943 1.2061912 16711746
0.4637574 -2.2088661 1.5784016 16711746
0.5162924 -1.7993168 1.8172264 16711746
0.2435856 -2.4013524 1.6020005 16711746
0.3590592 -1.8248696 1.8268124 16711746
0.2531005 -1.4088421 1.7100252 16711746
0.2449995 -2.0974135 1.4649277 16711746
0.2726833 -1.8679187 1.3562117 16711746
0.1211614 -1.7046280 1.4654237 16711746
1.0014907 -1.9318343 1.8134960 16711746
0.9985124 -1.9563020 1.7139313 16711746
0.2495115 -1.5103461 1.8002867 16711746
0.5596309 -1.9940789 1.5009011 16711746
0.7932748 -2.3668666 2.5675349 16711746
1.1929061 -1.3445176 1.5501721 16711746
0.8548503 -1.6144418 1.9987143 16711746
0.9604091 -2.1557121 2.1328890 16711746
0.5312085 -1.8619169 1.7532946 16711746
0.3018247 -2.1140239 1.7869365 16711746
1.2757713 -2.1954777 1.7800272 16711746
0.7318591 -1.6188595 1.6803098 16711746
1.3986285 -1.8590436 1.2144361 16711746
0.5279078 -1.6632391 2.6626906 16711746
0.3182755 -1.0018277 1.8974361 16711746
0.4695763 -0.8823946 1.9583113 16711746
1.0520461 -1.6511561 1.6830803 16711746
0.3349170 -1.0971823 1.6678510 16711746
2.5508690 -3.7601278 4.9869509 16711746
0.7951410 -1.6719304 2.2273047 16711746
2.1061225 -3.0660169 3.7834585 16711746
1.8889625 -2.6366463 3.3953483 16711746
1.5542973 -2.3254845 2.7098038 16711746
1.6225184 -2.3226640 2.7945874 16711746
2.0448110 -1.7310629 1.4990697 16711746
0.5420029 -0.6756018 1.0644115 16711746
0.4776624 -2.1425610 1.7949281 16711746
0.4293457 -0.2530912 0.8287663 16711746
0.5441453 -0.7431358 1.0370750 16711746
-0.1303013 -1.5185344 2.8044410 16711746
0.1551574 -1.5394936 2.8303373 16711746
-0.2606062 -1.7196748 1.7212934 16711746
0.7014368 -1.8633744 1.6606444 16711746
0.2999993 -1.8934630 2.4824865 16711746
0.2952794 -0.6981329 1.0548849 16711746
0.0775383 -2.7623546 2.6000993 16711746
1.2095277 -3.0018528 4.4426656 16711746
-0.0058100 -3.7661781 4.9400730 16711746
-0.0374039 -0.8768016 1.1814458 16711746
0.1585473 -2.3270235 2.1916552 16711746
0.6245182 -0.5282300 1.2286875 16711746
1.0923519 -2.1516833 2.5172231 16711746
4.8382912 -9.8460379 12.1765509 16711746
0.5654259 -1.6033775 1.5251967 16711746
0.5247161 -1.3914293 1.3466370 16711746
0.5098921 -1.2441406 1.2679842 16711746
0.8788331 -1.3627287 1.1797975 16711746
0.6378929 -1.5614511 1.5608058 16711746
0.7012906 -1.6427010 1.9987385 16711746
0.5206122 -1.7166275 1.6694263 16711746
0.4293855 -1.8694928 1.6704021 16711746
0.5951309 -0.4843668 1.1709088 16711746
1.4502814 -1.5674218 1.1977060 16711746
1.1662788 -1.5727488 1.4432814 16711746
0.4237277 -1.0014727 1.2455637 16711746
0.6801296 -1.3440105 1.1840428 16711746
0.9736285 -1.0662084 1.9624335 16711746
1.9382627 -2.7225163 2.7239304 16711746
0.9961089 -3.1022089 3.1062534 16711746
0.1934304 -1.4753231 1.4933554 16711746
1.4842464 -2.8155444 2.1779139 16711746
0.8589750 -1.9736432 2.0322933 16711746
0.6394841 -0.9492492 1.0884843 16711746
0.4772110 -1.6482440 2.2690349 16711746
-2.8501406 -1.9062350 2.1718204 16711746
-0.4548162 -1.3843944 0.9971149 16711746
0.7807751 -1.8315616 1.8646734 16711746
-0.4565291 -1.6635046 1.4648046 16711746
2.1855311 -6.4227962 4.4032779 16711746
-0.2999144 -1.4227954 1.1408387 16711746
0.0472941 -2.4893813 3.8740263 16711746
0.9415032 -1.8733839 2.0710421 16711746
1.1229732 -2.7008464 2.2142284 16711746
1.3374184 -2.3855045 2.9818063 16711746
2.4718947 -2.4821072 4.7649632 16711746
1.2028422 -2.0307415 2.6388073 16711746
0.5718363 -1.6813822 2.5068774 16711746
1.0262749 -1.9234116 2.5958748 16711746
0.5686260 -1.6802094 1.8360816 16711746
2.1022182 -2.5978568 2.5394726 16711746
0.9075518 -2.6135757 2.4411063 16711746
-0.9377018 -1.9881129 1.6452264 16711746
1.0759641 -2.5487995 2.4576163 16711746
0.3917676 -1.6725060 1.9244862 16711746
1.5160114 -1.6861210 2.1945639 16711746
0.5796611 -1.0169122 0.9939497 16711746
0.3487122 -0.8962271 1.4635237 16711746
0.2919039 -0.8164247 1.3129621 16711746
-0.6255063 -1.5053446 1.1124738 16711746
0.9964635 -1.7284317 1.6169895 16711746
1.4367768 -3.0713189 3.7314024 16711746
-0.0744484 -1.6611426 2.1904333 16711746
-1.7671324 -2.7033596 1.3261274 16711746
4.9451237 -6.7466893 10.3818798 16711746
-0.2444178 -1.7620146 1.5629652 16711746
0.2894091 -0.8031023 1.1723764 16711746
0.5580589 -1.6514716 1.8219162 16711746
0.5759342 -1.7487984 1.9635098 16711746
0.5917363 -0.4236639 1.0981241 16711746
0.4179108 -2.0071242 2.0944719 16711746
0.5218790 -1.8188803 1.8373992 16711746
1.1571232 -1.7534533 1.5235157 16711746
0.4441019 -0.9755890 1.7080554 16711746
0.2901798 -0.8942342 1.3862337 16711746
0.5284676 -2.7834971 1.9661851 16711746
0.9153489 -1.7513570 2.0047696 16711746
0.8269010 -2.0986848 2.0053501 16711746
0.0821997 -1.8350962 1.8440580 16711746
-0.2622156 -2.0094500 1.9765192 16711746
5.8959370 -10.4093399 12.3944664 16711746
-0.7226421 -2.0535464 3.0505533 16711746
0.7299232 -1.8715268 1.9339820 16711746
0.8940117 -1.8702805 1.5009203 16711746
1.1098896 -1.1086626 1.9540734 16711746
1.2289393 -1.6013049 1.9801947 16711746
0.9543070 -1.5915035 1.8653756 16711746
1.1137296 -2.0077891 2.7887340 16711746
-0.1943935 -1.5384034 1.9493989 16711746
0.4863216 -2.0923812 2.8425522 16711746
1.0921122 -1.8595144 1.3646115 16711746
-0.1288436 -2.2055402 2.5225575 16711746
1.2879699 -2.0992362 1.6736691 16711746
0.5698354 -1.3160615 2.3299763 16711746
0.9852287 -1.6186786 1.2795446 16711746
1.6223079 -1.1632845 1.8433596 16711746
0.7365300 -2.4822261 3.0111971 16711746
1.0061858 -1.4750262 1.8110254 16711746
-1.1798879 -2.7301087 3.8928130 16711746
1.8820909 -1.3048118 2.0320671 16711746
1.6580189 -1.7754605 2.1545334 16711746
-0.3256033 -2.6280885 3.2644351 16711746
1.0148162 -1.4106544 1.9003147 16711746
1.1574851 -1.9535582 1.6302116 16711746
0.6933227 -1.7300016 1.8802471 16711746
1.2184715 -1.9026847 1.9412783 16711746
1.2830069 -2.4045455 1.9895806 16711746
0.6899392 -1.4848505 2.1885347 16711746
1.4633181 -1.9363706 2.0636334 16711746
0.8853540 -1.6287080 1.9987901 16711746
0.6041236 -1.8140535 2.1373284 16711746
1.1569892 -1.9001735 2.8089783 16711746
0.3783057 -2.1454008 2.8278344 16711746
0.6323950 -2.1966932 2.4395702 16711746
1.0506420 -1.4424739 1.8184310 16711746
0.8040248 -4.2199845 5.8711057 16711746
1.2311089 -1.5921750 2.2143683 16711746
0.7211096 -2.4188328 2.1837966 16711746
0.7310085 -1.7764452 2.1291649 16711746
1.2092535 -1.7002351 2.7174380 16711746
0.6968434 -1.7783417 1.9116352 16711746
0.4002709 -0.3527108 0.9193771 16711746
0.0431592 -1.4375824 1.8867249 16711746
0.4529960 -1.5516268 1.6730150 16711746
1.2675408 -2.1226740 1.8873434 16711746
1.5412208 -1.4914186 3.1976347 16711746
0.6356680 -1.8578410 2.3917940 16711746
0.6184111 -1.7020791 1.6633067 16711746
-1.1583240 -2.2889118 4.0662198 16711746
0.7991089 -1.7105080 1.7641445 16711746
0.9782436 -1.9706017 2.1610711 16711746
1.2625068 -1.7631938 2.6462069 16711746
2.3108826 -2.9048357 4.6921387 16711746
-0.8886464 -2.0351920 2.1220558 16711746
0.6688676 -1.6305243 1.8043965 16711746
1.1260040 -1.5181166 1.3510147 16711746
0.5538642 -1.7100426 1.3912051 16711746
0.7041625 -1.5740142 1.8425505 16711746
0.9968904 -2.4561536 1.4512016 16711746
0.8818870 -1.8454010 1.5154487 16711746
1.1420821 -3.0359201 3.6375110 16711746
0.9090314 -1.8341836 2.0666521 16711746
0.4510243 -1.6267768 2.3666821 16711746
3.9838133 -5.8265862 8.8023024 16711746
0.7673173 -2.8316200 1.9123327 16711746
1.1087302 -2.1547053 1.6928577 16711746
0.5254555 -1.6642044 2.0067236 16711746
0.7153845 -1.6735873 1.7202840 16711746
0.4946025 -1.8101413 1.6134318 16711746
0.9540986 -1.6584973 1.6436816 16711746
0.3730578 -1.1492690 1.3727539 16711746
-0.1282884 -1.4805386 1.9980701 16711746
1.1046665 -1.8702652 1.7664673 16711746
0.4599550 -1.6443926 2.2726862 16711746
-0.0614328 -1.2746488 1.6487155 16711746
0.5113198 -2.1022298 1.7523601 16711746
-0.8759455 -2.2569249 3.6876559 16711746
-0.5638403 -1.6715741 1.6594416 16711746
0.5205597 -1.7077204 1.6799406 16711746
0.4356042 -2.0791016 2.0473523 16711746
0.2961033 -0.9811473 1.9368486 16711746
0.3550580 -1.0277441 2.0345504 16711746
0.0107811 -0.9087612 1.2218393 16711746
0.7101480 -1.2291887 1.6571860 16711746
0.3604557 -1.5741895 1.9471594 16711746
0.5617107 -1.1657424 1.2368869 16711746
0.5600879 -0.5211797 1.3591807 16711746
0.0688430 -0.7992102 1.4417388 16711746
0.5244222 -2.3119571 1.9372156 16711746
0.4269303 -1.6960955 1.7695110 16711746
0.4298932 -0.9938956 1.5968128 16711746
0.4200059 -1.7377564 1.7943134 16711746
0.4755314 -1.8894178 1.7076689 16711746
0.5188305 -0.3984369 1.0009096 16711746
0.5793816 -1.8081794 2.0029955 16711746
0.4955923 -1.6589097 1.7536567 16711746
0.6471033 -1.4521197 1.4707485 16711746
0.4452580 -1.4225391 1.4435583 16711746
0.4560376 -1.2669725 1.9132308 16711746
0.4286476 -1.4581628 1.7868042 16711746
0.3208149 -1.4400336 2.0138137 16711746
0.7255195 -1.3801274 1.5404270 16711746
0.6582398 -1.6463314 1.6790348 16711746
-0.2282337 -1.3810539 1.8075653 16711746
0.3689323 -1.6539676 2.0030293 16711746
0.7208490 -0.4690615 1.4144703 16711746
0.7628432 -1.5561749 1.8690865 16711746
0.5501500 -2.1027954 1.9988234 16711746
0.7920286 -1.7035697 1.9689310 16711746
0.3092767 -1.4495701 1.7822758 16711746
-2.1346118 -1.7740390 3.7712562 16711746
1.4076971 -2.0841126 2.7590039 16711746
-1.8661170 -1.6989664 3.3842702 16711746
0.4451705 -1.8261054 1.9589818 16711746
5.6689591 -8.3853598 11.4010344 16711746
-0.0968183 -0.4283311 0.9914611 16711746
1.2946239 -1.6720128 1.7009127 16711746
0.8197494 -0.6772439 1.9550966 16711746
0.8385268 -0.7138228 2.0350442 16711746
1.8442512 -2.0048308 2.0012176 16711746
0.3411070 -1.6354805 2.1248114 16711746
1.1320944 -1.9163251 1.7945083 16711746
-1.6636211 -2.0137928 3.2064905 16711746
-1.6865977 -1.9961063 2.4228959 16711746
0.4871689 -1.3321023 1.7615007 16711746
0.9211684 -1.5973740 1.6062043 16711746
0.3168688 -1.7285520 2.1871514 16711746
0.3495161 -1.1401851 1.6770413 16711746
0.2249341 -1.4592301 2.5790784 16711746
-1.2212487 -0.9740203 1.4134097 16711746
0.5220268 -0.6165467 1.2879044 16711746
-0.5245352 -1.5523183 3.6783903 16711746
0.5921767 -0.9413466 1.5655149 16711746
0.9454474 -2.1925826 1.8583587 16711746
1.6038656 -3.2124133 4.8139229 16711746
-0.6733433 -1.1986465 1.7055218 16711746
-0.5299639 -1.8229382 2.0619872 16711746
0.8272789 -1.4614476 1.3468871 16711746
1.0074627 -0.9826571 1.4141080 16711746
-0.2302557 -1.3709048 1.6077542 16711746
-1.3767971 -1.7451895 2.9340680 16711746
1.1647083 -1.6855140 1.8094114 16711746
0.3971628 -1.3499594 1.8316441 16711746
1.2392147 -1.4087536 1.5748115 16711746
0.4005382 -1.6160364 2.0452404 16711746
0.6210454 -1.8095406 1.8357929 16711746
0.5518932 -1.5635933 1.7906322 16711746
1.3765552 -1.5722295 2.0597737 16711746
0.1062077 -3.5190396 3.2503276 16711746
2.0768223 -2.3545361 3.3041575 16711746
-0.2547834 -1.3455546 1.7149900 16711746
0.3390502 -1.0572243 1.5479287 16711746
-0.5721762 -0.8972847 2.0894201 16711746
0.3600715 -1.1914601 1.6155761 16711746
-0.5951952 -0.9077243 2.1083560 16711746
2.1592243 -5.9390974 8.2903824 16711746
2.3639989 -2.1298048 1.7104763 16711746
0.9695138 -1.3104441 1.9209136 16711746
0.6802450 -1.4082857 1.6723113 16711746
1.4316666 -1.8675449 2.2788825 16711746
2.1086619 -1.8112894 2.6140389 16711746
0.5484310 -0.7184066 1.4311080 16711746
1.1982650 -1.8059183 1.6271111 16711746
2.0931659 -1.7727864 1.7411684 16711746
1.2623451 -1.4909909 1.4289236 16711746
0.0760088 -0.9253233 1.1700238 16711746
0.7433711 -1.3917371 1.2543520 16711746
1.3083082 -1.3490441 1.7631915 16711746
0.6783082 -1.4339014 1.2990456 16711746
0.8741589 -1.1116524 2.1421409 16711746
1.1016413 -1.6544381 1.7253001 16711746
0.6930786 -1.4491385 1.3107949 16711746
0.4410660 -0.7901089 1.4393505 16711746
0.4450738 -1.5378784 1.8501112 16711746
0.0363646 -1.2576300 1.4211814 16711746
0.9979311 -1.5073403 1.9297048 16711746
1.2148572 -1.5865641 1.9680310 16711746
0.4546350 -1.5972973 2.2924128 16711746
-1.2823919 -2.0363784 2.3749528 16711746
1.3043222 -1.8479961 1.7797840 16711746
-0.1140307 -1.5177090 2.1472907 16711746
1.3072463 -1.1115335 1.5611254 16711746
0.5814593 -1.2539049 2.3878233 16711746
0.5215079 -0.6883931 1.5007421 16711746
0.1885083 -1.7768234 2.3315403 16711746
0.3496966 -0.9662535 1.8055980 16711746
0.8291000 -0.7486190 1.6784303 16711746
1.7196089 -1.4086075 1.5358057 16711746
1.2343445 -1.5905814 2.2135348 16711746
0.9886487 -1.3337371 1.8687446 16711746
1.1470363 -1.8347278 1.8013442 16711746
1.9605607 -1.8272551 1.5171732 16711746
1.2530642 -1.3122523 1.7366443 16711746
1.3228114 -1.3841126 1.7889321 16711746
1.1263222 -1.3091072 2.0027037 16711746
0.1428190 -1.8604027 2.2757161 16711746
0.1760683 -1.7667413 2.1883922 16711746
2.1827600 -2.5193379 4.5042157 16711746
1.0573759 -1.3532988 1.8555083 16711746
2.0079231 -1.7642020 1.6609997 16711746
0.9733410 -1.4328591 1.5758027 16711746
0.5062406 -0.6891497 1.5950283 16711746
0.6047412 -1.1447763 1.6844760 16711746
1.2379736 -1.6491364 1.4951200 16711746
0.8518448 -1.6738949 1.5655006 16711746
0.5616062 -1.3589540 1.8829949 16711746
1.1208061 -1.6413089 1.4575622 16711746
1.0538243 -1.9332615 1.5922819 16711746
0.5358905 -1.0284984 1.8160286 16711746
0.2106287 -1.6513264 2.2101595 16711746
0.5652738 -1.6704723 2.5187380 16711746
1.0233581 -1.8852938 1.9096488 16711746
-0.0323092 -1.9016353 2.7162330 16711746
0.1481786 -1.6687695 2.4355152 16711746
1.3922164 -1.9810894 2.4321423 16711746
3.1740725 -3.5608342 4.8398762 16711746
1.3988307 -1.4372642 3.0190694 16711746
0.0377685 -1.4167805 2.0359118 16711746
-0.0556661 -1.7060128 2.3641703 16711746
1.7326888 -1.3556165 1.3123239 16711746
1.0926956 -1.6303216 1.7123196 16711746
0.3295209 -1.6184731 1.8703563 16711746
1.1631652 -1.5598979 1.7915659 16711746
1.1823857 -1.5894703 1.8117466 16711746
1.6489840 -1.2646303 1.2816805 16711746
0.2607756 -2.0262015 2.1841464 16711746
-0.0610543 -1.6839887 2.3426840 16711746
0.0327834 -1.7239442 1.9954717 16711746
1.1612936 -1.5762166 1.8062853 16711746
-0.0420228 -1.6564115 2.3165200 16711746
0.0504227 -1.9512842 2.1838121 16711746
0.7727873 -0.6198114 1.5409532 16711746
1.3046086 -1.9353029 1.6963488 16711746
1.8804284 -1.7331983 1.4877800 16711746
0.1344870 -1.8235736 2.0757294 16711746
1.0564952 -1.5585325 1.6206738 16711746
0.8900050 -1.5620977 2.4435651 16711746
1.3925735 -1.6157632 2.0376558 16711746
1.5111258 -1.8823773 2.6243577 16711746
0.6886783 -0.5847912 1.3918935 16711746
-0.1369716 -1.4388230 2.0469067 16711746
-0.1266572 -1.7401888 2.1343880 16711746
-0.1099432 -1.3120008 1.7571355 16711746
0.0149851 -0.7648984 1.9051163 16711746
1.4219007 -1.6579701 2.0730355 16711746
1.2584966 -1.6037763 1.9369479 16711746
2.4177191 -2.1667738 1.4751811 16711746
0.5828719 -1.9195155 2.2123110 16711746
-0.0551080 -1.9337121 2.3626490 16711746
1.6123741 -1.9833202 3.0200708 16711746
1.2506021 -2.1193721 3.1282511 16711746
1.3121898 -1.4279425 2.2376018 16711746
0.0713688 -2.1724308 2.6766036 16711746
0.6642945 -1.7215974 2.4405949 16711746
0.5888481 -1.5791368 2.0575721 16711746
0.6719770 -1.3566799 1.4365326 16711746
0.2381300 -1.4362522 2.0414240 16711746
1.2399348 -1.9227711 1.5503980 16711746
0.9154353 -1.8113561 3.0131309 16711746
1.8449994 -1.4812573 1.4589995 16711746
1.0581625 -1.6423157 1.9410361 16711746
0.0470014 -1.6558331 2.1014960 16711746
0.2278177 -2.0160811 2.1717634 16711746
0.8300069 -1.5893379 1.9106213 16711746
1.4061439 -1.5011605 1.9157959 16711746
1.1676466 -1.9069051 2.8967040 16711746
0.7442464 -1.9211471 2.1488116 16711746
2.6358244 -1.9145786 2.8196440 16711746
1.3540851 -1.6155190 2.9930587 16711746
2.3438821 -1.5040553 2.2222834 16711746
1.2346029 -1.5057690 2.0117650 16711746
1.0964080 -1.7028968 1.5065514 16711746
1.4814314 -2.0041566 3.1947434 16711746
1.1383224 -1.3430556 2.0308948 16711746
1.4371754 -1.5977862 1.7840166 16711746
1.0998703 -1.8164384 1.7498937 16711746
2.5474417 -2.1660073 3.7681820 16711746
0.9548558 -1.2572850 1.8801367 16711746
1.6718817 -1.7639956 2.4922562 16711746
1.1292882 -1.6706231 1.4677221 16711746
0.7493994 -1.7999456 2.1502297 16711746
1.0352066 -1.7164261 1.7388581 16711746
0.2814113 -1.6369276 1.9225463 16711746
1.2235335 -1.3900329 1.6972332 16711746
1.4153333 -2.0051444 2.0416684 16711746
1.0038648 -1.5388037 1.7934381 16711746
1.4813678 -1.3089414 1.8907404 16711746
0.7716483 -1.4683410 2.3415060 16711746
1.9123080 -2.1368892 3.0927262 16711746
-0.0453912 -1.1338364 1.8396250 16711746
0.0793656 -1.2213318 2.0654356 16711746
0.1989213 -1.3770139 1.7843041 16711746
-0.5926266 -3.0194144 3.7515686 16711746
1.0018858 -1.4861194 1.8372464 16711746
3.5096450 -2.8968434 4.8422055 16711746
1.1755141 -2.0619721 3.1636753 16711746
0.5966043 -1.4446056 2.1303463 16711746
-0.6307384 -2.6728630 2.5269282 16711746
3.6523285 -2.2339447 3.2621756 16711746
0.7863635 -1.2512083 1.8348747 16711746
0.8791620 -1.7379434 2.1813691 16711746
1.1176593 -1.3310723 1.8979864 16711746
0.8432240 -1.1797960 1.8768286 16711746
0.7073680 -1.4200044 2.4904985 16711746
0.2390844 -1.4291756 2.5433509 16711746
1.1087470 -1.6699632 2.4040432 16711746
1.8432823 -1.4284004 2.6294611 16711746
2.0605640 -1.9573863 2.1199741 16711746
2.0490468 -1.7380100 1.4394969 16711746
1.2995003 -1.3911130 1.5911456 16711746
1.3483517 -0.8107492 2.2911744 16711746
0.5590939 -1.2488906 2.0289390 16711746
0.9799510 -2.1391063 3.4291580 16711746
0.0144802 -1.8084272 2.0473449 16711746
2.1050384 -1.7889075 1.4586381 16711746
2.0337644 -1.7799262 1.4109987 16711746
1.2738398 -0.9068574 2.2759874 16711746
0.0518881 -1.4340026 2.2943053 16711746
0.5315326 -1.5146177 2.0485075 16711746
1.7354237 -1.7197660 1.4471751 16711746
1.2230246 -1.6625706 3.5198040 16711746
1.7345086 -1.4227132 3.0704410 16711746
1.4186510 -1.4430906 1.6197716 16711746
2.2200296 -2.0539818 3.3004041 16711746
0.2135122 -1.2808846 2.0045424 16711746
-0.8076012 -1.7362727 3.5540423 16711746
2.7207334 -1.7498809 2.4563985 16711746
0.9737080 -1.7417349 1.5891724 16711746
1.1130799 -1.8062203 2.7032933 16711746
1.1405379 -1.5047799 1.6513680 16711746
1.7668781 -2.1232483 3.3580654 16711746
1.1176127 -1.8029553 2.7540815 16711746
0.4536059 -1.5943041 2.4938171 16711746
2.3339105 -2.6294978 4.7186632 16711746
1.4181929 -2.1186705 3.4423296 16711746
-0.0134653 -1.4040761 1.6056474 16711746
1.1377745 -1.6656395 1.4588420 16711746
1.0255713 -1.3160952 1.9173925 16711746
-0.3187036 -1.7283449 2.2529845 16711746
1.1164733 -1.6840650 1.8164072 16711746
1.2394959 -1.5130876 2.0163348 16711746
-0.6608447 -2.2097571 2.5670278 16711746
1.2854403 -1.6350387 1.4648064 16711746
1.3431357 -1.6151574 1.4723247 16711746
1.4277453 -1.5850385 1.3611178 16711746
-0.1992019 -1.4816350 2.0246649 16711746
-0.2098717 -1.4512889 1.9621905 16711746
0.0676476 -1.3121697 1.9123148 16711746
-0.0455473 -1.3684597 2.0314879 16711746
1.2846820 -2.5338149 3.4203665 16711746
2.0878208 -2.6432493 4.0085816 16711746
1.0299544 -2.6252978 3.6823356 16711746
0.7502857 -1.5353928 1.6723902 16711746
0.5867683 -1.7935274 2.7954528 16711746
0.0269458 -1.2922537 1.7586672 16711746
0.5702031 -1.5040894 1.9734398 16711746
-0.2026013 -0.7692242 1.7227871 16711746
0.0961899 -1.2976538 1.9941953 16711746
-0.7543698 -1.5994788 2.3033054 16711746
0.8576161 -1.7140396 1.6312966 16711746
1.2830632 -1.5442990 1.7238919 16711746
1.3331859 -1.5153972 2.4357619 16711746
0.3034897 -0.6611015 1.1882943 16711746
1.1127788 -1.5685982 1.9103769 16711746
1.6712587 -1.7907505 2.9732928 16711746
1.5966986 -1.8567681 3.0287809 16711746
1.1048497 -1.6714258 1.5916111 16711746
1.0490366 -1.4177130 1.8061244 16711746
0.9127976 -1.9468623 2.5530028 16711746
0.9151449 -1.6292025 2.9598763 16711746
1.4062438 -1.8386965 1.9973234 16711746
1.4711537 -1.7838939 2.5732913 16711746
-0.0674684 -1.6729517 1.9427736 16711746
0.8752397 -1.8304044 2.4536095 16711746
0.6153578 -1.8696610 2.2586861 16711746
-0.2769650 -1.5431433 2.0966640 16711746
1.0790862 -2.6900120 2.8308060 16711746
0.7068606 -1.6465524 2.5334580 16711746
0.9723178 -2.0594671 3.3336489 16711746
1.0342263 -0.6831317 1.2261029 16711746
1.3956500 -1.4459126 1.7278895 16711746
1.6382664 -1.7157726 2.4505861 16711746
-0.1484732 -1.6082864 2.2309432 16711746
-3.5052817 -1.8570285 4.4049683 16711746
1.3989620 -1.4402928 1.7266614 16711746
1.0777601 -1.5105747 1.8134933 16711746
0.4000059 -1.8897425 2.6783881 16711746
2.1545703 -1.5093015 1.8476111 16711746
1.7690042 -2.0505416 2.2551398 16711746
1.2852044 -1.7346758 2.5356190 16711746
0.8037007 -1.7533333 2.2309952 16711746
-0.4938911 -1.7208251 2.9233346 16711746
1.0472721 -1.9437083 1.9218385 16711746
1.0515335 -1.6947358 1.8759364 16711746
0.1319900 -1.0816665 1.4716171 16711746
-0.2953595 -1.5669559 2.1687124 16711746
-0.2202790 -1.5237616 1.8705235 16711746
0.1613625 -1.0265304 1.4569523 16711746
1.1096610 -1.6709869 1.7335600 16711746
1.1157295 -1.4509752 3.1751313 16711746
1.1285101 -1.5207282 1.7651299 16711746
1.0816681 -1.4281172 3.0458682 16711746
0.8073711 -1.7913308 2.9396358 16711746
0.8697905 -1.6261590 1.5191771 16711746
0.8551676 -2.2668962 2.4570737 16711746
2.3452771 -2.0972090 4.8006897 16711746
1.0842674 -2.0147181 1.6188506 16711746
1.3794059 -1.4997402 1.7362746 16711746
1.3521389 -2.0782633 3.6088283 16711746
-0.8808501 -2.4711940 5.2713022 16711746
1.8906937 -1.4979514 1.3495362 16711746
1.3040657 -1.4214038 1.6926622 16711746
1.0888815 -1.0345024 1.5084393 16711746
0.1151481 -2.0022171 2.8551917 16711746
0.6020290 -1.4568365 2.0678828 16711746
2.3390384 -1.4563004 2.5254717 16711746
0.7126100 -1.6200831 2.0619857 16711746
-0.0161628 -1.2568799 1.9548256 16711746
1.2907039 -2.9866838 2.6025608 16711746
1.1798576 -1.5990270 1.8182242 16711746
0.5611663 -1.4776299 2.0416620 16711746
1.2257291 -1.5904739 1.8522335 16711746
-0.0862415 -1.4461040 1.8916482 16711746
0.6182998 -1.5148475 2.4102395 16711746
0.9769244 -1.0485737 2.0595481 16711746
1.2078491 -2.0723243 3.1491864 16711746
0.1170971 -1.3116748 1.5363463 16711746
-1.6290157 -2.0011351 3.6226892 16711746
0.5933740 -1.5928327 2.1817849 16711746
-0.0076777 -1.7964685 2.1406744 16711746
0.1080394 -1.1402228 1.8983434 16711746
1.4677156 -1.6059074 2.1300921 16711746
0.7082796 -1.5971593 2.6910915 16711746
1.2101239 -2.0289960 3.1610866 16711746
1.5271201 -1.7591537 3.0981762 16711746
1.0126710 -1.7658465 1.6257291 16711746
1.0675845 -1.7087448 1.9654455 16711746
0.9601125 -1.6893193 3.1270170 16711746
0.9386457 -1.8615043 2.8037388 16711746
1.3501441 -1.7292947 2.7894487 16711746
0.1814674 -1.8081388 2.1960270 16711746
0.5339741 -2.0294051 2.9219959 16711746
0.1978244 -1.8849900 3.9453599 16711746
0.5310888 -1.4564942 1.9241716 16711746
0.5682916 -1.5071428 2.0513184 16711746
0.0862702 -1.0576997 1.7905545 16711746
0.8054008 -0.6447458 1.6199955 16711746
0.0264523 -1.5196165 2.0622330 16711746
1.2277929 -1.7319494 1.7111640 16711746
-0.0808961 -1.5100774 1.8960686 16711746
1.0285387 -1.3962781 1.9211091 16711746
-0.6851537 -1.1899024 1.7450527 16711746
1.0859249 -1.4440771 2.1166079 16711746
1.0325880 -1.4201847 1.7593585 16711746
1.1258661 -1.8752139 2.4967546 16711746
1.0230637 -1.3175905 2.0056903 16711746
0.1419534 -1.2886302 1.5569959 16711746
-0.4952412 -2.1827435 2.4295454 16711746
2.2741647 -1.6746033 1.9444559 16711746
1.2576619 -0.7981492 1.9583700 16711746
0.6412568 -1.2390175 2.9753368 16711746
1.9486700 -2.0956738 3.8843758 16711746
-1.3577510 -1.4825119 3.0131097 16711746
1.0237238 -1.2842587 1.9855937 16711746
-2.5214190 -2.1520834 3.9793391 16711746
-2.0550916 -1.8683789 3.5254359 16711746
0.0022832 -1.1841820 1.4778820 16711746
0.7961161 -1.2860855 1.5933052 16711746
1.7414765 -2.0448143 3.1765718 16711746
2.0664008 -2.0203805 3.4219372 16711746
1.6736436 -2.0738046 3.6130052 16711746
1.3171500 -2.1397212 2.0752416 16711746
1.5145316 -2.2400613 4.5217519 16711746
0.6363027 -1.1217587 2.3021159 16711746
1.5282704 -1.5970858 3.0183716 16711746
0.8446454 -1.5586689 2.3428254 16711746
1.7932243 -1.9186411 3.5114114 16711746
-1.0353764 -2.4816129 5.5513449 16711746
1.7393348 -2.1888130 3.2504582 16711746
1.2990661 -1.5137848 1.8994210 16711746
1.4696681 -1.5695387 1.7925324 16711746
1.0669426 -1.5825789 1.7987599 16711746
0.8694077 -1.7687670 2.8692133 16711746
0.2299279 -1.6381717 3.4113228 16711746
1.0840043 -1.7188989 2.5980937 16711746
1.0008337 -1.3941754 1.7022631 16711746
0.6401734 -1.3474991 1.9499604 16711746
0.9892533 -1.3451566 1.9545057 16711746
0.2052667 -1.0783988 2.0377808 16711746
-0.2142246 -1.5474946 3.5030789 16711746
1.6975640 -1.8051784 4.6226683 16711746
1.7888156 -2.1386533 3.8134358 16711746
1.4049575 -1.9426347 3.5972154 16711746
1.1277479 -1.3687454 1.6412522 16711746
0.5331498 -0.2704611 1.1980479 16711746
1.1265211 -1.3428416 1.6294293 16711746
1.0356164 -1.6712259 2.0295455 16711746
0.9213334 -1.9416313 3.1433315 16711746
0.5388222 -1.1940401 2.2884660 16711746
-0.6993675 -2.2788415 4.4129500 16711746
1.6985112 -1.7751522 1.9261822 16711746
0.3280564 -2.8521450 2.3505239 16711746
-0.1997630 -1.9798132 1.8195390 16711746
-3.2103343 -8.8730049 15.4955206 16711746
0.0918804 -1.9800040 3.1938632 16711746
0.5223094 -1.5442280 2.2671795 16711746
1.1666868 -1.9417067 2.0364530 16711746
1.0575041 -3.0538192 2.3249207 16711746
-0.1113449 -2.3684187 2.1252735 16711746
1.1349864 -1.7524434 2.9207885 16711746
1.2778823 -1.8694220 2.9744608 16711746
1.0410436 -1.3657459 2.0280719 16711746
1.1668307 -2.0241680 3.7120955 16711746
1.1126846 -1.8866576 3.0099237 16711746
0.2370993 -2.0904019 2.6507726 16711746
0.2347352 -2.0177629 4.0418148 16711746
1.2204208 -1.2501718 2.5060165 16711746
-1.1200035 -1.4659369 1.8498539 16711746
0.2742649 -1.5947882 2.5940671 16711746
-0.5352359 -2.0496273 3.9744256 16711746
0.6546496 -1.8868765 1.8787450 16711746
1.5523881 -1.7597635 3.1347318 16711746
1.4268631 -1.7036002 2.2231953 16711746
0.6968545 -1.5580896 2.6054142 16711746
1.3713318 -1.9528393 4.0893741 16711746
1.0535549 -1.5976825 3.1466780 16711746
1.7776568 -2.0776529 2.6305974 16711746
2.0413663 -1.9200332 4.1769867 16711746
1.1495430 -1.6580139 2.1293275 16711746
1.8427563 -1.8224063 2.5687659 16711746
1.1254140 -1.3743618 2.0072856 16711746
1.8603225 -2.1920788 5.2980094 16711746
2.6925499 -2.3085380 3.7988462 16711746
1.5133414 -1.3239313 1.9728409 16711746
0.8700654 -1.8562932 3.1389158 16711746
1.8109740 -1.7667134 3.5465553 16711746
1.3125216 -1.8043221 3.4531295 16711746
1.2490875 -1.2421478 1.8006164 16711746
1.8157967 -2.0566337 3.5814788 16711746
0.9771629 -1.2252657 1.7023950 16711746
0.7106575 -1.6080288 2.4520867 16711746
1.1675284 -1.6520760 2.9703045 16711746
0.7355477 -1.4275163 2.3995500 16711746
0.8359105 -1.5403768 2.3529341 16711746
0.6889458 -1.4478029 2.3922524 16711746
0.6947855 -1.4405545 2.3156559 16711746
-0.9451023 -2.0791037 3.8681684 16711746
0.7111598 -2.1957533 3.3310223 16711746
1.3154687 -1.4946760 1.7616847 16711746
1.5663666 -1.9492275 2.2035537 16711746
1.4888963 -1.0969825 2.5882168 16711746
2.9689968 -1.6147174 4.0749364 16711746
0.5961653 -1.4461827 2.4042499 16711746
1.9362439 -1.3596413 2.8068693 16711746
1.0094213 -1.1620605 2.2171659 16711746
0.6717193 -1.4347025 2.0354509 16711746
0.7020598 -1.5583467 2.6210177 16711746
-0.3450159 -2.0311391 3.3474824 16711746
0.5080464 -0.8230250 1.7979102 16711746
0.5039420 -1.6703818 2.4141815 16711746
0.2128365 -1.6956080 3.4502923 16711746
0.4247183 -1.4607422 2.4403315 16711746
0.9796274 -2.2212255 4.8413739 16711746
-0.3459739 -1.6513783 3.4155045 16711746
1.2196823 -0.5433467 2.0994070 16711746
-0.1660503 -1.7531134 2.4382660 16711746
2.1874318 -1.6300248 3.0523717 16711746
0.7149169 -1.4300491 2.5231919 16711746
0.8242630 -1.1823342 1.6542497 16711746
0.7249722 -1.3851576 1.9934226 16711746
0.6478570 -1.2701768 1.8356671 16711746
0.5603161 -1.3579562 1.9721935 16711746
0.5539151 -1.4882576 2.0506208 16711746
1.3769945 -1.4714010 1.9266528 16711746
0.2269112 -1.5841101 2.6180153 16711746
1.6569766 -1.6254990 2.3349073 16711746
2.4309022 -2.8654323 6.9604621 16711746
0.8268608 -1.7195609 2.7184277 16711746
1.4843396 -1.8881668 3.2631996 16711746
3.5279517 -3.0348122 7.4421225 16711746
1.5551903 -1.8526660 3.3468556 16711746
-0.3782301 -1.6916466 3.0273097 16711746
0.9713286 -1.0553482 2.0234706 16711746
0.9541161 -2.6268151 5.1988444 16711746
1.6986654 -1.5514054 4.0145659 16711746
1.4163449 -0.9144824 2.9331746 16711746
-0.4113936 -2.3878176 2.8548040 16711746
-0.4520309 -2.4732649 2.9130447 16711746
1.8601209 -1.7224488 4.7835379 16711746
1.4322239 -1.5708624 4.0894346 16711746
1.1083639 -1.9346838 4.6693068 16711746
1.7724015 -1.1160051 3.6417527 16711746
0.9472392 -1.9551517 4.3990664 16711746
0.7048508 -1.3732355 1.9261763 16711746
1.1334186 -2.1004725 5.0066824 16711746
0.8160266 -0.8076243 2.5308449 16711746
1.1121391 -1.0886588 1.8061545 16711746
1.2390653 -1.2382016 1.7965801 16711746
0.1901254 -1.2023708 2.1465096 16711746
0.6103805 -1.4320464 2.1605020 16711746
0.6707512 -1.4118209 2.0153368 16711746
0.5939332 -1.6778387 2.8584023 16711746
1.4876807 -0.8463320 1.8022041 16711746
1.0176525 -0.5772769 1.8295144 16711746
1.4451150 -0.6657044 2.2127674 16711746
0.8970245 -0.4402922 1.7635849 16711746
-0.1618074 -2.3732705 2.1745927 16711746
0.0713071 -1.3152673 2.2233298 16711746
0.1507292 -1.0900880 2.1955774 16711746
-0.0494163 -1.3636670 2.0422950 16711746
2.4964423 -0.9551442 4.0066605 16711746
1.2629454 -0.9709028 3.1120548 16711746
0.8704590 -1.2895412 2.4843249 16711746
1.8454195 -1.3620045 3.6998634 16711746
-1.3505155 -3.6510718 3.9149237 16711746
-0.3558272 -2.4282198 3.0369833 16711746
1.5773603 -1.4735193 3.7940979 16711746
2.6310916 -1.0233862 4.2321639 16711746
1.6974597 -1.4132012 2.5630622 16711746
1.9507018 -1.5432158 2.7284906 16711746
-0.5170279 -1.9357309 3.2805741 16711746
1.7365597 -1.5222592 3.5841086 16711746
0.5680846 -1.5079803 3.3225732 16711746
-2.2189493 -1.7056502 2.9975345 16711746
1.1683961 -1.9420253 3.0377958 16711746
-0.1035055 -1.8634501 2.3418152 16711746
-0.0363623 -2.1239498 4.1448112 16711746
0.6359265 -0.4199444 1.6843560 16711746
0.6152273 -2.0761738 3.8861785 16711746
0.9339291 -1.8424796 2.5761654 16711746
-0.0913204 -1.8490175 4.0977974 16711746
2.5050390 -1.6029491 3.8790152 16711746
-0.7954946 -1.5725367 2.8969655 16711746
1.5348200 -1.6909113 2.2639084 16711746
1.4929130 -1.5734786 2.6646986 16711746
1.2401495 -1.5606797 3.4489083 16711746
