# .PCD v0.7 - Point Cloud Data file format
VERSION 0.7
FIELDS x y z rgb
SIZE 4 4 4 4
TYPE F F F F
COUNT 1 1 1 1
WIDTH 1196
HEIGHT 1
VIEWPOINT 0 0 0 1 0 0 0
POINTS 1196
DATA ascii
15.87614 -13.769157 41.459793 16711746
14.626524 -14.40312 40.628075 16711746
13.638947 -13.810967 40.436172 16711746
10.159124 -16.677361 47.66 16711746
11.357787 -15.206464 42.633591 16711746
10.351198 -15.974207 44.823017 16711746
19.794399 -14.528686 42.422958 16711746
16.068701 -13.547256 40.491318 16711746
16.752483 -14.95841 42.247478 16711746
15.155285 -14.600246 41.734249 16711746
15.218816 -14.337366 41.745758 16711746
14.80248 -15.003706 41.852161 16711746
11.599453 -16.19586 42.714581 16711746
2.5212402 -17.982548 45.897167 16711746
17.736769 -16.36661 42.88245 16711746
16.965502 -14.497112 39.857834 16711746
13.133193 -17.045174 45.4851 16711746
12.991675 -22.272352 43.666744 16711746
12.948977 -20.753674 49.808529 16711746
16.438734 -14.094957 44.630447 16711746
12.886519 -21.13891 50.162643 16711746
0.41502571 -19.060722 49.738232 16711746
9.9330587 -15.997352 44.339134 16711746
21.113968 -17.611473 49.020664 16711746
17.630478 -14.793175 41.375599 16711746
16.015242 -18.794369 44.335152 16711746
15.272709 -11.541947 41.986691 16711746
22.381578 -22.878113 51.603298 16711746
20.682259 -14.278316 41.798985 16711746
17.112692 -13.492731 40.413235 16711746
13.114844 -19.178268 45.229359 16711746
21.426714 -22.261679 55.447994 16711746
14.064147 -14.837398 41.449776 16711746
3.6770866 -17.487932 39.939438 16711746
13.833394 -19.750999 45.325825 16711746
20.760782 -15.825142 44.365639 16711746
30.889446 -19.510536 54.625179 16711746
16.263121 -13.725026 43.549366 16711746
16.061792 -12.663249 42.872734 16711746
16.834726 -11.843776 40.500675 16711746
9.9801693 -17.876045 43.30056 16711746
19.647291 -20.393524 48.302341 16711746
16.851572 -15.767049 41.568508 16711746
14.752891 -15.26817 40.893013 16711746
16.575228 -15.142707 41.428555 16711746
13.637383 -14.242578 40.627388 16711746
11.463151 -14.97675 42.538853 16711746
14.29568 -14.464496 41.570293 16711746
15.585766 -13.733659 40.348 16711746
14.953201 -12.386071 40.647697 16711746
14.683599 -14.624007 40.250259 16711746
11.467782 -16.263624 42.485332 16711746
15.251227 -14.395171 40.768555 16711746
16.552217 -13.595298 39.835243 16711746
14.873226 -13.841287 41.70472 16711746
16.486753 -15.008645 40.550114 16711746
16.292719 -13.361513 40.153152 16711746
13.406528 -15.446176 42.357117 16711746
13.756845 -13.32901 40.17197 16711746
15.816542 -12.403828 40.569042 16711746
14.190171 -15.232323 41.914848 16711746
11.006971 -15.092807 42.060547 16711746
16.81481 -12.973279 40.74509 16711746
13.312371 -15.484334 40.203117 16711746
16.554592 -13.172266 39.88636 16711746
14.62649 -12.822672 40.662315 16711746
20.333265 -15.6928 41.419548 16711746
16.245815 -15.793503 43.653465 16711746
17.259398 -18.350138 45.293915 16711746
24.559746 -16.938932 43.686714 16711746
14.944492 -14.299813 41.970303 16711746
17.552946 -14.047402 41.534485 16711746
14.266603 -20.167868 46.18523 16711746
16.966475 -15.06867 42.2845 16711746
16.712845 -15.846678 42.308491 16711746
20.429316 -14.604031 41.118126 16711746
22.246511 -15.696097 41.569588 16711746
11.36114 -17.586294 44.359947 16711746
11.026664 -14.692892 43.650337 16711746
7.295742 -17.144218 43.725281 16711746
18.644976 -18.556686 44.753574 16711746
16.674368 -14.283176 39.83762 16711746
13.504765 -9.6513691 40.019981 16711746
20.483723 -14.896516 43.026131 16711746
13.662408 -13.978851 40.054333 16711746
14.707324 -14.429981 41.702656 16711746
17.330481 -15.794018 41.278595 16711746
8.4997005 -16.838598 41.857227 16711746
11.818514 -16.408712 42.459473 16711746
21.307219 -15.713607 43.446865 16711746
10.355429 -15.662444 43.847595 16711746
28.215797 -24.429501 50.467941 16711746
13.737833 -10.440687 40.703835 16711746
14.568684 -19.341032 46.814781 16711746
20.720186 -20.722826 49.517071 16711746
14.561167 -15.287322 41.262283 16711746
9.7473564 -18.914133 42.19286 16711746
17.012358 -15.054909 44.453434 16711746
12.604774 -18.664394 47.260262 16711746
12.922843 -14.33365 43.829918 16711746
20.098824 -19.627329 50.787312 16711746
16.671455 -19.711332 39.120701 16711746
10.561179 -17.806311 41.900021 16711746
16.628485 -16.346704 42.363335 16711746
20.291162 -13.562951 41.506474 16711746
17.430105 -15.716786 42.617565 16711746
19.659027 -14.530212 41.470547 16711746
20.67487 -14.49936 43.511978 16711746
18.598728 -14.166148 43.387623 16711746
13.388261 -15.720817 43.529373 16711746
20.283081 -14.672154 41.652397 16711746
17.293661 -14.791546 40.588547 16711746
19.719048 -20.262157 43.457764 16711746
14.600204 -15.223017 40.526127 16711746
13.306793 -17.658283 42.267452 16711746
17.633484 -13.728992 41.713348 16711746
14.658268 -14.665232 43.963177 16711746
10.85937 -17.156651 41.890923 16711746
16.847506 -13.580161 41.953537 16711746
10.050944 -16.091347 44.00927 16711746
16.568535 -13.075552 42.106194 16711746
17.617735 -15.033355 40.374817 16711746
16.723022 -15.421327 42.445541 16711746
13.508843 -15.190724 41.473591 16711746
10.931578 -15.416385 41.669357 16711746
14.384658 -15.475645 41.902664 16711746
16.241219 -12.728271 41.473232 16711746
14.227629 -13.672812 41.402851 16711746
16.640553 -13.818276 40.153194 16711746
15.051467 -12.925342 40.769096 16711746
17.910732 -14.095966 43.106663 16711746
22.384842 -19.076832 49.066097 16711746
12.521749 -16.812468 45.529224 16711746
5.4263906 -17.001661 41.105007 16711746
20.06542 -15.538951 45.244183 16711746
17.007582 -13.660195 41.851643 16711746
20.870537 -15.171762 40.201542 16711746
22.226774 -18.868046 48.841339 16711746
20.518555 -14.944282 41.527859 16711746
12.830266 -15.60315 45.386238 16711746
10.59238 -15.471457 43.529751 16711746
13.79216 -14.334389 41.649052 16711746
17.438305 -15.77338 41.51984 16711746
10.965253 -17.87339 44.234665 16711746
12.777824 -18.863274 44.961937 16711746
17.578423 -14.916458 41.633804 16711746
13.194056 -18.977713 45.145523 16711746
25.088327 -27.850452 62.986286 16711746
17.871782 -15.904467 41.312443 16711746
12.854382 -17.826429 48.137249 16711746
29.339655 -19.410376 52.959751 16711746
23.715246 -25.233505 59.95256 16711746
10.581109 -15.458216 40.529732 16711746
24.413908 -25.067299 59.524326 16711746
6.7296343 -48.03046 67.100975 16711746
6.9245234 -47.866425 66.871971 16711746
16.861752 -14.79049 44.253895 16711746
18.957565 -16.97196 44.926971 16711746
13.707784 -18.483999 44.824551 16711746
13.299028 -16.750256 44.07597 16711746
14.122095 -14.633111 42.267944 16711746
13.189306 -15.97593 43.435013 16711746
18.61965 -17.185825 44.662041 16711746
13.086355 -17.892431 45.272804 16711746
18.518644 -16.299007 43.54081 16711746
13.473417 -13.902882 41.139477 16711746
14.125341 -14.660795 42.275211 16711746
18.440636 -16.767502 44.462383 16711746
17.946838 -16.270624 44.810669 16711746
16.130163 -16.213968 43.668583 16711746
20.87418 -17.044527 48.762039 16711746
20.130011 -14.553356 43.260914 16711746
22.564318 -16.79586 46.85693 16711746
16.503716 -16.439304 44.268353 16711746
21.196941 -16.081875 45.114971 16711746
16.997478 -13.753698 40.111248 16711746
15.199363 -14.119924 42.03529 16711746
17.958406 -16.349903 43.636341 16711746
13.548662 -13.683618 41.192257 16711746
14.479714 -15.139158 42.444221 16711746
14.83897 -13.276773 40.969051 16711746
14.86995 -14.573622 40.941319 16711746
14.490482 -14.548374 41.963108 16711746
11.544951 -14.474202 40.662968 16711746
13.122717 -15.813423 48.417942 16711746
24.42326 -16.160667 46.211773 16711746
16.330776 -17.571917 44.362091 16711746
16.025005 -16.859991 45.351341 16711746
10.840675 -18.714327 46.804974 16711746
15.90878 -14.776895 41.331043 16711746
16.644426 -14.696166 41.518749 16711746
17.095774 -15.072959 42.361858 16711746
13.238817 -14.036703 40.569538 16711746
10.667886 -14.547076 40.830452 16711746
13.004028 -19.125517 44.767818 16711746
12.831278 -16.531672 43.339958 16711746
19.271233 -14.825534 40.927517 16711746
16.398735 -18.573694 44.274067 16711746
14.490907 -15.13415 42.803513 16711746
12.859175 -15.821179 44.223656 16711746
10.185765 -14.959577 43.216618 16711746
17.025299 -17.766924 45.19585 16711746
16.113268 -16.19598 43.619869 16711746
11.988488 -14.660368 40.580738 16711746
13.498266 -14.618473 42.331585 16711746
11.217673 -14.200324 41.208023 16711746
13.638991 -14.049006 41.684402 16711746
14.139275 -15.535906 42.57642 16711746
11.247915 -16.192816 43.788712 16711746
16.823351 -15.013271 40.462311 16711746
18.684948 -14.157036 40.856876 16711746
13.17798 -18.885765 47.28624 16711746
10.639375 -17.935518 44.652328 16711746
17.573738 -14.432784 41.711098 16711746
21.270208 -16.646883 47.009163 16711746
21.981617 -16.293247 46.451649 16711746
17.753109 -18.001102 40.744141 16711746
12.883232 -15.899707 43.069462 16711746
21.17753 -14.200208 42.381172 16711746
15.208737 -15.969742 42.4897 16711746
15.17152 -14.22322 40.925026 16711746
13.304973 -15.649096 44.052631 16711746
18.910187 -15.663186 43.747379 16711746
15.924648 -16.572765 45.185196 16711746
11.797492 -18.006096 48.94865 16711746
14.588986 -14.889639 42.133141 16711746
14.212158 -16.097919 42.618107 16711746
14.481939 -14.903222 42.690804 16711746
11.836969 -14.893019 43.006001 16711746
17.979242 -14.762595 41.55159 16711746
19.989031 -13.602051 41.759258 16711746
15.129282 -13.973283 40.878517 16711746
21.666912 -17.401348 48.326862 16711746
15.641798 -14.801081 40.096886 16711746
23.324348 -15.787285 42.868633 16711746
16.911812 -14.410558 40.162609 16711746
22.880978 -17.945374 50.060867 16711746
13.508289 -15.493609 42.993378 16711746
12.838427 -20.042732 42.738029 16711746
20.619089 -16.664572 46.953892 16711746
15.964746 -13.526484 43.865578 16711746
14.89659 -15.531892 43.334362 16711746
9.4156904 -17.866575 42.272427 16711746
14.384488 -13.530789 41.116882 16711746
20.852228 -16.221163 45.086552 16711746
15.842951 -14.483687 40.184891 16711746
20.605192 -14.362125 41.493675 16711746
21.512848 -17.922491 48.038273 16711746
23.753901 -18.884094 50.859074 16711746
17.563856 -15.709805 44.105541 16711746
6.3877988 -14.524731 41.100296 16711746
24.45735 -17.989176 48.892361 16711746
16.084002 -13.265143 44.265736 16711746
18.021658 -15.973233 44.693825 16711746
13.789324 -11.445954 40.718952 16711746
13.469369 -11.636233 42.338932 16711746
19.94179 -18.449379 47.857922 16711746
21.366377 -20.701675 52.915585 16711746
13.99383 -17.440958 43.792053 16711746
11.62068 -12.82794 43.499588 16711746
16.316763 -15.478041 44.010925 16711746
11.617081 -13.153619 43.462044 16711746
21.729769 -22.208708 55.543251 16711746
11.814874 -27.886114 42.197304 16711746
12.985756 -16.949461 47.287148 16711746
21.028498 -21.046968 52.115856 16711746
14.200028 -12.31384 41.762371 16711746
6.5277424 -44.079967 63.659515 16711746
6.5093598 -44.859173 64.213936 16711746
12.418855 -21.658531 51.555969 16711746
17.82719 -20.451534 46.395691 16711746
12.175303 -18.81859 47.911816 16711746
12.612387 -17.489355 46.669949 16711746
10.661131 -19.125406 48.902554 16711746
22.282686 -16.640339 44.398281 16711746
13.133009 -16.065485 43.975574 16711746
10.832393 -21.553793 52.048584 16711746
15.184519 -13.709425 40.923859 16711746
17.280863 -15.982193 41.379417 16711746
10.769925 -15.037068 40.629448 16711746
21.445429 -15.838394 43.590664 16711746
10.745545 -14.458355 41.38615 16711746
10.48296 -17.768208 45.573963 16711746
17.238293 -16.597963 40.809551 16711746
10.122416 -17.739618 45.866505 16711746
13.543424 -16.174501 40.319355 16711746
13.602649 -14.087774 42.065121 16711746
14.493457 -14.202355 42.022171 16711746
10.041656 -13.611466 40.957848 16711746
14.123767 -13.918962 41.845711 16711746
16.54051 -15.786525 40.838055 16711746
10.896991 -13.175789 41.898888 16711746
13.492837 -15.711396 41.02293 16711746
13.278881 -14.827893 40.829914 16711746
11.602015 -14.585944 40.977222 16711746
13.814267 -10.910278 41.616047 16711746
15.290448 -15.175238 41.569347 16711746
9.0164499 -15.162479 40.208729 16711746
16.31007 -14.03244 44.720638 16711746
13.12883 -10.525843 41.608814 16711746
18.749918 -16.739496 46.752037 16711746
5.1739316 -16.391466 39.645092 16711746
22.008833 -18.379091 48.540859 16711746
21.009584 -14.709072 41.650581 16711746
1.7116531 -19.377234 46.730824 16711746
28.271793 -19.743664 44.519371 16711746
24.232122 -16.644474 45.49342 16711746
24.541288 -17.956127 48.971207 16711746
15.051343 -11.917736 41.079163 16711746
21.681437 -17.085287 42.406754 16711746
23.174145 -15.651998 43.035381 16711746
4.1150002 -26.152454 58.671608 16711746
6.0480785 -21.300953 54.571476 16711746
16.486172 -15.718413 41.434845 16711746
10.180318 -15.703294 44.040325 16711746
10.183205 -15.689735 44.034966 16711746
13.840309 -10.471423 41.346237 16711746
4.4278913 -60.387165 45.850037 16711746
24.956654 -18.352732 49.412384 16711746
19.186687 -18.413412 50.781662 16711746
12.891885 -15.635493 43.920963 16711746
29.352217 -18.898344 52.883156 16711746
22.760887 -18.520269 46.312817 16711746
12.90131 -17.128973 47.394135 16711746
15.903728 -13.681877 40.938862 16711746
29.837885 -39.740768 70.31002 16711746
28.289902 -16.16781 47.36182 16711746
22.332338 -19.270254 42.835667 16711746
9.4750996 -17.166693 41.151497 16711746
12.709539 -15.001678 43.824726 16711746
9.9750319 -19.078306 47.275143 16711746
18.131193 -15.423084 42.388058 16711746
14.60577 -8.9950504 40.699741 16711746
12.736324 -14.990442 44.75713 16711746
16.862177 -16.313629 40.639606 16711746
13.452155 -17.574804 44.679428 16711746
5.0772223 -15.704194 40.051319 16711746
10.256984 -16.12973 47.472645 16711746
23.069887 -18.032663 46.316437 16711746
19.201454 -15.908595 43.846172 16711746
9.5896177 -17.23912 40.223042 16711746
12.525635 -16.21077 41.200104 16711746
17.507484 -14.311017 42.07304 16711746
12.593259 -17.384041 43.699402 16711746
3.1862087 -17.280067 39.954205 16711746
13.279971 -15.928987 44.235725 16711746
11.930615 -17.541981 46.703659 16711746
9.5448265 -16.082285 43.949997 16711746
14.893114 -13.810978 44.950359 16711746
13.936292 -9.0934238 40.824593 16711746
17.801685 -14.824135 42.221691 16711746
12.153561 -16.604221 46.04916 16711746
17.085426 -15.088516 40.134937 16711746
15.166437 -9.6908312 41.625134 16711746
9.6544905 -17.095156 41.059898 16711746
13.850822 -15.585119 40.873775 16711746
11.666262 -17.065182 44.163494 16711746
11.919829 -16.143147 40.561932 16711746
20.762007 -16.244547 43.445095 16711746
12.695251 -14.383895 45.881737 16711746
21.889036 -13.762346 44.051826 16711746
13.087358 -18.326395 44.111332 16711746
11.715234 -18.260525 47.233162 16711746
11.669988 -16.540112 43.960255 16711746
12.262625 -17.477741 43.106487 16711746
7.087503 -16.353479 42.283871 16711746
5.9035616 -17.383986 41.941753 16711746
16.818094 -19.649036 45.041679 16711746
15.077232 -13.709558 41.116566 16711746
21.104614 -18.079025 49.471352 16711746
20.517845 -17.301786 48.022774 16711746
15.40086 -16.567949 43.663071 16711746
11.971574 -15.991725 44.217518 16711746
12.225477 -15.563855 43.779415 16711746
8.0672817 -18.221149 41.497654 16711746
10.42422 -15.789454 47.150017 16711746
12.555935 -17.86536 43.849648 16711746
8.2705841 -17.890617 41.456944 16711746
22.335373 -15.253779 44.198895 16711746
13.021502 -20.88867 44.747395 16711746
12.460489 -15.944964 45.265121 16711746
7.1623268 -17.496616 40.140125 16711746
10.372373 -15.854063 47.215393 16711746
22.75758 -17.678082 46.113209 16711746
16.8386 -14.820505 42.493912 16711746
10.057536 -17.215843 39.909843 16711746
9.7524185 -17.07 39.936741 16711746
23.112242 -17.776941 48.06403 16711746
10.874449 -16.676506 45.731194 16711746
13.729252 -9.1331415 40.995022 16711746
14.329823 -9.2419434 41.219032 16711746
13.760736 -15.643291 41.987541 16711746
13.898937 -13.926575 42.779778 16711746
9.4089603 -17.084188 43.375996 16711746
13.319446 -15.251793 41.387768 16711746
23.776548 -19.52635 42.841255 16711746
15.090911 -13.944823 41.786518 16711746
19.583689 -15.740882 40.524136 16711746
16.364378 -15.721341 40.579819 16711746
12.816801 -15.527264 44.083015 16711746
16.939854 -15.553309 46.132355 16711746
14.466975 -13.124764 43.651974 16711746
16.221983 -15.256258 42.348038 16711746
22.653641 -17.938065 48.83411 16711746
17.152443 -14.749779 41.85899 16711746
16.857439 -14.94213 41.205681 16711746
2.1969485 -18.02582 46.062996 16711746
13.956647 -13.116186 41.116379 16711746
16.848425 -14.929242 41.208973 16711746
12.493445 -16.24522 42.008076 16711746
26.594725 -19.756453 50.524235 16711746
27.158606 -16.515945 45.80756 16711746
13.909699 -15.342517 42.9412 16711746
5.8887053 -16.498987 41.098335 16711746
12.622319 -19.513466 49.647404 16711746
6.2534375 -18.685263 49.943584 16711746
19.597412 -18.505419 49.727997 16711746
9.8265276 -15.738765 40.500061 16711746
14.307906 -15.810123 42.921394 16711746
14.26716 -18.943979 41.891624 16711746
11.780878 -24.202326 52.85165 16711746
16.84585 -14.442986 45.724392 16711746
22.068691 -14.892169 44.360176 16711746
15.068328 -14.329459 41.741867 16711746
21.84337 -14.699703 44.280216 16711746
10.293891 -16.872108 41.970951 16711746
11.327129 -17.245382 44.204876 16711746
20.33482 -14.450082 40.25259 16711746
14.904164 -15.047624 44.092102 16711746
16.507729 -12.461722 40.523518 16711746
16.172447 -13.352922 43.373516 16711746
14.785737 -14.972901 43.167213 16711746
10.520117 -16.107691 44.941322 16711746
15.952195 -13.287799 43.490746 16711746
16.792379 -12.595231 40.419506 16711746
14.977699 -13.457593 41.820518 16711746
14.941048 -13.400472 41.801907 16711746
17.093325 -14.323926 43.090126 16711746
18.027763 -13.576689 42.894299 16711746
14.905151 -13.370543 41.275368 16711746
17.03759 -15.626627 43.16777 16711746
15.872766 -15.395699 43.343018 16711746
11.283587 -16.032106 43.800098 16711746
13.491924 -14.012679 41.575863 16711746
9.007514 -17.294483 40.052433 16711746
12.53755 -16.002682 44.324997 16711746
20.689661 -13.839555 44.152088 16711746
15.965615 -13.960093 43.581203 16711746
15.791027 -14.233632 43.585194 16711746
14.841056 -13.5869 41.568089 16711746
15.678847 -13.841395 41.239265 16711746
16.852579 -14.607492 43.306927 16711746
13.539859 -14.495722 40.954941 16711746
19.715977 -13.391273 40.525604 16711746
18.250336 -13.027058 40.472385 16711746
10.413876 -16.735479 44.601429 16711746
16.141088 -13.353977 43.375786 16711746
21.31768 -14.922533 43.891415 16711746
18.477568 -13.92415 42.769218 16711746
16.023697 -14.749504 42.23568 16711746
16.034519 -14.872198 41.992447 16711746
11.367403 -18.427231 44.719727 16711746
15.751184 -13.708591 40.480335 16711746
15.426168 -13.572069 40.305424 16711746
18.158525 -13.692913 40.466808 16711746
13.647458 -14.327357 41.570511 16711746
13.642842 -14.066189 41.221626 16711746
18.97574 -12.918866 41.319141 16711746
15.349656 -15.442778 43.206364 16711746
10.770522 -16.138868 43.687634 16711746
16.547726 -12.533593 40.522266 16711746
16.405542 -13.082069 40.407063 16711746
12.815199 -17.22134 42.922955 16711746
17.0112 -14.736739 43.096111 16711746
17.058512 -15.68955 43.19043 16711746
8.6620932 -17.459455 39.565636 16711746
16.087463 -13.128073 40.074749 16711746
11.053551 -16.542192 44.034641 16711746
9.501132 -17.422441 41.079487 16711746
10.12157 -16.933743 40.867355 16711746
19.870447 -14.862167 45.293659 16711746
18.392294 -13.386804 40.192245 16711746
15.883476 -15.003813 41.426594 16711746
16.217052 -12.722907 43.506416 16711746
7.476326 -18.203568 41.462978 16711746
16.550306 -15.759066 45.216488 16711746
0.59315914 -21.734215 58.41824 16711746
23.930017 -17.275955 48.336544 16711746
14.048702 -10.107458 40.74601 16711746
16.353586 -13.848737 43.647099 16711746
15.666101 -15.123977 43.310741 16711746
14.998945 -13.641768 41.318554 16711746
14.414078 -14.257195 41.676544 16711746
15.735531 -13.675156 40.480415 16711746
15.202357 -13.228642 41.918053 16711746
14.80577 -14.298965 42.207794 16711746
14.764681 -13.911613 41.910736 16711746
17.123869 -12.78715 44.073872 16711746
13.900153 -14.565489 44.305473 16711746
16.580812 -12.703373 40.431164 16711746
16.207058 -13.958783 41.909077 16711746
18.724148 -13.032762 41.183353 16711746
17.492516 -13.529868 41.625492 16711746
13.856979 -14.806738 41.417572 16711746
16.872028 -13.465159 41.261318 16711746
17.003323 -15.584508 43.150723 16711746
16.578918 -13.634776 40.921936 16711746
8.8648949 -16.865021 39.593899 16711746
14.194295 -15.127278 41.506855 16711746
15.528039 -13.683275 40.15435 16711746
9.1273623 -16.883747 40.752987 16711746
19.992729 -14.261592 43.878258 16711746
18.548838 -13.420086 43.240421 16711746
11.060268 -16.592245 44.042145 16711746
13.443782 -15.629857 44.005947 16711746
12.968679 -16.140013 42.622158 16711746
12.707805 -15.050783 42.492428 16711746
6.9509497 -17.194609 41.732594 16711746
14.552257 -14.570892 42.184765 16711746
16.146889 -13.381981 43.370186 16711746
19.471525 -13.447372 40.487064 16711746
17.916658 -12.980482 40.626232 16711746
15.511296 -15.561357 43.289124 16711746
16.619024 -13.354178 42.101902 16711746
10.343049 -17.239262 44.40099 16711746
14.878561 -14.094459 40.670078 16711746
7.3895149 -17.217541 40.760025 16711746
14.025132 -16.453899 43.235519 16711746
17.059076 -12.854995 41.541004 16711746
20.426899 -13.574454 43.61404 16711746
20.164469 -13.919932 43.354984 16711746
16.597229 -12.826262 40.498062 16711746
16.370916 -12.973007 40.405052 16711746
13.837229 -16.743605 45.608074 16711746
15.938335 -13.737068 43.634659 16711746
13.855011 -14.302485 40.397949 16711746
15.209247 -13.284968 41.935425 16711746
14.799253 -14.260798 41.994499 16711746
12.641481 -15.371527 42.591633 16711746
14.082543 -15.205694 42.465622 16711746
15.857695 -13.061428 40.941471 16711746
16.089062 -13.154702 40.775974 16711746
16.275213 -13.722223 41.93364 16711746
16.381405 -14.364213 42.014599 16711746
16.917042 -13.871662 42.125969 16711746
16.992491 -14.063629 41.713135 16711746
13.045053 -16.880974 42.683044 16711746
11.211613 -16.161491 43.856705 16711746
13.278915 -17.631823 43.71294 16711746
13.924942 -14.262019 42.361145 16711746
8.1548233 -15.757792 41.116051 16711746
13.50768 -15.017011 41.986969 16711746
12.211386 -15.23792 44.544315 16711746
8.495512 -16.34169 40.879158 16711746
15.132037 -13.764824 41.144558 16711746
13.372322 -16.627354 44.484821 16711746
12.954018 -14.758229 42.999603 16711746
6.5436578 -17.048653 42.435448 16711746
12.111114 -16.20775 41.764622 16711746
6.7683806 -18.013021 40.106701 16711746
16.255655 -14.502109 42.230789 16711746
14.642465 -15.531822 43.117889 16711746
18.481764 -13.516603 40.774021 16711746
14.837594 -13.523071 40.461575 16711746
19.585167 -12.308349 46.03138 16711746
14.38335 -13.793508 41.60939 16711746
13.56423 -14.423725 40.938763 16711746
16.240103 -14.027999 41.030201 16711746
19.81164 -13.076989 43.316612 16711746
14.914396 -14.243215 40.67461 16711746
15.159201 -13.078221 41.87508 16711746
12.012707 -18.17786 42.643902 16711746
13.73894 -17.096085 44.209888 16711746
16.197386 -13.264631 41.490032 16711746
12.711717 -16.16876 41.20409 16711746
13.341921 -17.270798 42.496704 16711746
8.8754272 -16.915623 41.357952 16711746
8.2715464 -17.358595 40.940243 16711746
14.089195 -15.057493 42.416691 16711746
15.082617 -13.518454 41.110603 16711746
14.889858 -13.641681 41.084976 16711746
11.8425 -17.473324 45.370277 16711746
14.335771 -14.508033 41.560905 16711746
16.817966 -13.564066 41.445755 16711746
7.4101868 -16.680664 41.160175 16711746
8.6134558 -16.25572 40.870777 16711746
9.0725136 -14.589648 40.744583 16711746
13.120226 -16.479385 42.571655 16711746
12.544436 -17.265396 42.79641 16711746
13.032052 -14.356919 42.841106 16711746
12.287818 -15.509658 41.650513 16711746
7.7504392 -17.986282 39.671665 16711746
16.237328 -14.797276 41.806202 16711746
17.429123 -12.961464 40.358864 16711746
18.62229 -12.892933 40.38398 16711746
15.793439 -13.847166 40.690601 16711746
16.044094 -13.685785 40.302105 16711746
14.308464 -13.973525 41.186153 16711746
19.530874 -13.356009 43.035957 16711746
18.219364 -12.565337 40.417877 16711746
11.177996 -14.912569 44.265385 16711746
17.172598 -13.768536 41.809639 16711746
16.789663 -16.10677 40.425976 16711746
16.185202 -14.303138 42.171764 16711746
14.606589 -13.522317 40.874073 16711746
17.363564 -16.721079 41.083702 16711746
12.403809 -15.555375 40.669807 16711746
14.41412 -9.0004692 40.980774 16711746
16.957167 -11.686454 42.308193 16711746
14.695884 -13.121972 41.009621 16711746
12.5338 -17.334236 45.002663 16711746
7.9653063 -17.873514 41.207214 16711746
12.749138 -15.470602 40.796921 16711746
12.572812 -16.36183 41.280537 16711746
9.1818323 -15.887174 40.256004 16711746
18.36945 -12.410476 41.215603 16711746
16.209494 -14.744869 41.802959 16711746
17.600571 -13.22049 40.620323 16711746
19.399298 -14.279771 40.441582 16711746
13.850121 -15.322611 44.744446 16711746
19.836319 -12.77693 42.472816 16711746
15.581195 -12.796111 43.458687 16711746
8.3816004 -16.035761 40.201927 16711746
14.716822 -13.517253 41.516426 16711746
6.7387295 -17.108446 41.837383 16711746
12.848878 -14.801454 41.207321 16711746
14.234463 -12.776512 41.978458 16711746
15.531961 -12.583483 40.581448 16711746
16.675024 -12.434539 40.431248 16711746
9.1963615 -15.428689 40.867374 16711746
9.0230341 -14.604286 42.934532 16711746
12.095837 -16.77969 40.674084 16711746
7.7413664 -16.667143 41.172874 16711746
18.487591 -13.638752 42.508057 16711746
14.07654 -14.465284 41.966091 16711746
16.79155 -13.053539 41.292053 16711746
14.407346 -13.975828 41.022079 16711746
13.415763 -15.594483 43.757507 16711746
19.236357 -14.069799 43.683857 16711746
18.643541 -13.877343 44.271042 16711746
19.088264 -14.762678 44.387886 16711746
15.941842 -14.316829 44.045265 16711746
20.026548 -16.748878 42.746964 16711746
16.407482 -14.251057 42.229252 16711746
8.6178389 -15.068522 40.738426 16711746
7.4707274 -17.033672 41.198334 16711746
18.012247 -13.626851 40.420387 16711746
14.369143 -13.818901 40.726303 16711746
11.096838 -16.221895 45.474167 16711746
26.509441 -16.668129 49.27039 16711746
14.326266 -9.3748827 40.783024 16711746
17.125698 -15.032043 46.186523 16711746
20.877871 -16.404186 47.059357 16711746
10.906596 -10.872107 41.325829 16711746
28.186321 -17.79207 52.02129 16711746
13.60938 -10.056226 41.014194 16711746
17.503561 -15.959623 46.042892 16711746
13.784549 -16.734234 42.362785 16711746
22.749981 -18.082363 50.092037 16711746
1.4150559 -19.44496 46.951542 16711746
4.2148609 -16.834421 39.981892 16711746
23.332243 -17.622545 42.387142 16711746
7.2241812 -55.999771 40.938541 16711746
5.5406804 -18.228392 42.620716 16711746
16.838123 -23.615458 53.637947 16711746
13.148392 -12.24192 41.255447 16711746
19.989786 -20.263865 49.25602 16711746
4.4157801 -17.510187 39.531475 16711746
13.237199 -17.756069 43.878223 16711746
8.4216995 -14.452072 41.077805 16711746
16.324594 -13.549825 44.287407 16711746
17.940866 -16.616026 43.063011 16711746
7.5077925 -14.722047 39.9594 16711746
8.6458578 -19.36298 41.066433 16711746
10.839398 -14.206671 44.479073 16711746
13.01028 -11.697524 41.319893 16711746
-29.126919 -58.67305 47.594627 16711746
23.760197 -24.900436 58.79594 16711746
17.691849 -16.152634 42.940952 16711746
19.57765 -17.951229 44.389191 16711746
45.773117 -33.419643 49.211113 16711746
51.37849 -93.409286 87.276855 16711746
20.728117 -19.596066 45.573799 16711746
17.071898 -15.052976 45.405159 16711746
21.183802 -39.468258 70.740089 16711746
11.308292 -17.598789 42.356026 16711746
18.03373 -13.461637 41.567326 16711746
13.516459 -18.617716 42.377007 16711746
18.237732 -26.991346 58.699497 16711746
25.97497 -29.186039 63.232338 16711746
6.5560784 -33.304256 40.825573 16711746
18.866568 -22.22126 49.53241 16711746
15.081771 -11.393514 40.715942 16711746
-9.6348047 -30.404419 38.866367 16711746
-10.433713 -28.01594 38.863667 16711746
25.704584 -21.073563 47.309921 16711746
9.4829426 -38.062599 42.097115 16711746
12.210446 -26.498701 11.348841 16711746
16.947794 -33.835125 11.513552 16711746
7.5032725 -6.7117519 4.1425419 16711746
-6.794065 -10.164615 0.67196637 16711746
12.768759 -9.857172 2.4708328 16711746
-9.4219351 -11.1777 1.1213496 16711746
-6.4495058 -9.1556282 1.7301006 16711746
10.475973 -10.111878 5.1902528 16711746
-6.7899323 -8.2337923 1.882863 16711746
-6.5407939 -6.5164638 1.655381 16711746
-6.8000312 -7.6234031 1.5144621 16711746
-7.2050691 -9.4865532 1.9563986 16711746
16.458542 -16.35066 4.1943278 16711746
-5.7404375 -10.218785 1.7831131 16711746
-8.1650105 -9.0086823 0.94005346 16711746
-5.8821168 -10.363519 1.2842685 16711746
-7.5688415 -11.491796 1.3132211 16711746
-7.2589197 -12.402234 1.0987417 16711746
17.601923 -18.224384 3.2336831 16711746
16.80611 -16.380669 1.6142011 16711746
-6.429039 -9.6638546 2.0509441 16711746
-5.8463044 -10.862473 1.4112166 16711746
11.995979 -13.096725 3.5017664 16711746
17.806124 -17.941315 0.48454258 16711746
9.3089972 -8.4780769 5.4854093 16711746
2.7824464 -6.4326167 2.4540756 16711746
-3.7212584 -8.2544813 1.649846 16711746
-5.5359392 -10.83342 1.9740604 16711746
-7.498354 -8.9715347 2.1321166 16711746
12.207481 -9.5844383 4.2410889 16711746
-4.7859898 -14.560688 0.28555018 16711746
12.422397 -15.591086 4.0138187 16711746
-5.2306132 -6.8802013 2.0252364 16711746
11.815424 -9.9563217 3.9417818 16711746
9.1347599 -10.860166 4.8375902 16711746
13.143757 -18.783567 3.097574 16711746
8.7102509 -9.609148 5.5239577 16711746
7.3869071 -8.6167536 4.4273095 16711746
-5.6614351 -9.1993551 2.0831761 16711746
-6.4572639 -10.454254 2.1166515 16711746
-8.6878643 -11.367086 0.9149825 16711746
-5.3753347 -6.5952616 0.7192474 16711746
-12.049049 -12.047305 1.8515226 16711746
-8.4318285 -10.439227 1.0403062 16711746
-4.8338866 -10.541786 2.4615588 16711746
-6.4252515 -11.377704 2.4458942 16711746
9.2000837 -9.1863203 5.0285754 16711746
3.171577 -14.216973 2.2386725 16711746
-6.1107683 -8.2825747 2.3198004 16711746
-7.5857673 -11.171425 2.8816557 16711746
-8.3951597 -9.0186405 0.50759923 16711746
-8.7588778 -16.621332 2.25647 16711746
5.707778 -18.771166 0.1806107 16711746
15.08599 -17.716709 -0.79754549 16711746
-6.1968222 -7.4809666 0.78819329 16711746
3.4470646 -8.0014172 3.4853396 16711746
0.71785879 -23.33728 0.67781293 16711746
-6.9401708 -10.636017 0.94303358 16711746
12.348703 -19.405872 2.5320399 16711746
18.80134 -18.293224 1.5727634 16711746
-6.2763391 -10.722807 2.6139431 16711746
-3.2715375 -7.8228512 1.400627 16711746
10.52422 -10.18475 5.2151623 16711746
-5.226469 -5.6234627 1.1190994 16711746
-6.8651295 -10.292194 1.8126789 16711746
-6.8972435 -8.6923895 0.75054091 16711746
13.974417 -13.559799 2.8749657 16711746
13.152308 -17.562859 3.4322278 16711746
10.563923 -12.588836 4.9085102 16711746
4.7408686 -14.698843 6.148551 16711746
5.7624898 -4.2880812 3.8425417 16711746
9.4665108 -8.5895252 6.9103518 16711746
10.300236 -12.238313 6.0302196 16711746
8.1769257 -7.5909138 5.5244956 16711746
11.296441 -9.6283331 5.7753048 16711746
10.10063 -12.284535 1.1041692 16711746
7.0675807 -7.1007166 3.7161973 16711746
-5.45017 -16.380444 0.67239314 16711746
2.8995965 -10.4508 1.1806433 16711746
6.8211451 -19.877348 1.097863 16711746
-3.198736 -12.42632 0.17716697 16711746
-10.283478 -8.9084644 0.91576719 16711746
-0.50965744 -16.436464 2.6417365 16711746
-5.670002 -8.215435 1.9788239 16711746
-5.6730609 -8.1011219 1.4821323 16711746
-3.172307 -8.5958424 1.8247981 16711746
10.233263 -16.103666 1.8851202 16711746
11.36202 -16.179945 3.8474672 16711746
2.678961 -11.146365 3.0001462 16711746
8.5636864 -15.710701 2.0051112 16711746
-1.3581518 -13.328848 1.5850894 16711746
-4.3928156 -8.0732737 2.862649 16711746
-5.834918 -7.4432025 2.2287424 16711746
-6.1717124 -11.006491 0.97269022 16711746
11.455002 -14.67781 3.5510793 16711746
17.090929 -14.487906 6.1514311 16711746
-0.64965844 -14.496159 2.7886546 16711746
-3.9162848 -7.0771194 3.1515796 16711746
7.0360794 -8.3892727 4.2408228 16711746
9.6142321 -20.233946 13.064076 16711746
-5.4689531 -3.915525 1.6511853 16711746
-6.2550659 -8.7844925 2.388375 16711746
6.5431623 -17.984791 3.9108288 16711746
14.56887 -15.831689 0.30891225 16711746
-3.663202 -14.165835 1.9445878 16711746
7.9714012 -8.458766 5.3297505 16711746
-1.2914089 -12.516737 4.4714231 16711746
8.8787069 -12.183194 4.8896399 16711746
10.148936 -11.983615 4.6094604 16711746
10.77321 -12.149444 3.7196631 16711746
7.8495898 -16.392929 1.2677108 16711746
11.263173 -19.897001 0.60979354 16711746
12.212337 -14.202305 1.3826345 16711746
6.5922832 -7.2985721 5.6668973 16711746
5.8152032 -6.8384089 4.6504745 16711746
-2.7553663 -5.1584153 3.0090761 16711746
1.1776812 -9.8765373 8.9730911 16711746
2.9989297 -16.336472 5.3152671 16711746
2.1925561 -6.1730075 4.689054 16711746
-5.3201442 -11.365996 4.8978786 16711746
-0.68284112 -14.026857 5.0755897 16711746
3.7542694 -22.905935 -0.83355469 16711746
-3.8891015 -13.993743 5.173337 16711746
-0.39882445 -6.7993436 4.819633 16711746
-0.84026045 -6.9578676 5.0186152 16711746
-4.9274344 -21.149216 6.6826715 16711746
3.1905649 -24.372595 3.6828542 16711746
1.4626509 -8.9459858 4.6886196 16711746
5.2763081 -14.261911 3.9110811 16711746
2.8336239 -7.321311 5.2607951 16711746
5.076642 -12.757711 9.4072161 16711746
-1.1127508 -14.579118 4.7222676 16711746
-2.2573895 -14.284487 3.2576256 16711746
-3.0275464 -3.6011741 3.8853052 16711746
1.5401925 -7.8763485 7.055881 16711746
-1.5002071 -4.7419963 3.8425691 16711746
1.1297274 -5.9025779 4.729588 16711746
-0.6891349 -7.7679477 4.7876358 16711746
7.519608 -26.972477 3.2089913 16711746
3.0091474 -15.943555 6.2404828 16711746
-2.436307 -6.5093527 4.0006371 16711746
7.2205596 -24.997355 1.0537655 16711746
6.7331619 -26.309946 0.45049059 16711746
-3.0433202 -6.7074308 3.2431159 16711746
-0.62706625 -8.4926987 6.2425971 16711746
8.7726507 -12.263394 5.8652077 16711746
1.2165819 -13.859843 7.3283587 16711746
-0.63347989 -16.09469 6.1917896 16711746
-6.2206364 -19.377253 5.2567143 16711746
-2.7731471 -7.198101 4.1352072 16711746
-2.308188 -5.9602079 3.1169355 16711746
1.3068811 -9.0130215 5.416512 16711746
2.1702867 -26.357241 -0.50643927 16711746
-6.6299438 -11.728636 4.2473483 16711746
-7.567142 -13.95984 7.4999518 16711746
3.142597 -17.10746 8.7189341 16711746
12.777026 -23.46331 2.0886405 16711746
11.255849 -26.612391 3.8591416 16711746
5.8436279 -28.001841 -0.89089745 16711746
-3.7747369 -17.505344 4.2211289 16711746
3.3230965 -13.330163 5.1334996 16711746
2.7605801 -7.1648369 5.1265678 16711746
-0.21536523 -25.972847 3.8095751 16711746
-0.82193357 -7.2558346 4.0934339 16711746
-2.3621447 -12.846448 6.7008128 16711746
10.71593 -29.345015 -1.5383849 16711746
-2.2213731 -20.49415 6.2923689 16711746
1.613598 -26.875986 3.2709258 16711746
3.3217416 -25.674541 2.6136782 16711746
7.9922824 -26.205297 2.243139 16711746
-1.9904646 -16.279678 6.1740603 16711746
-3.6155107 -18.519253 6.5393777 16711746
9.9011745 -27.793386 0.20108747 16711746
0.7106384 -27.239237 -0.081264868 16711746
-2.0768225 -17.9347 3.3973727 16711746
-6.5259075 -24.932867 2.441571 16711746
-5.2917061 -18.878746 1.7695175 16711746
-7.3830309 -23.495281 1.3912309 16711746
-2.3098099 -21.033144 0.061525088 16711746
3.5828333 -21.304567 5.357811 16711746
-5.6153831 -9.0879879 5.598002 16711746
-12.454453 -22.634594 2.6116726 16711746
-0.87257844 -7.1349611 5.1460528 16711746
4.9151063 -25.372282 3.1322672 16711746
6.4657593 -23.465969 2.2818215 16711746
-0.50006169 -12.898391 4.3259339 16711746
10.41789 -22.322794 5.7883029 16711746
3.3063085 -14.005808 9.7983732 16711746
1.2031924 -12.002016 8.3072062 16711746
-8.9052458 -22.67318 -0.51454467 16711746
8.3673944 -16.866817 10.484219 16711746
5.6896739 -27.460964 -0.88317907 16711746
-4.318799 -19.80983 4.9063406 16711746
-4.4066143 -19.362583 4.1778727 16711746
1.0498691 -29.573263 0.10221861 16711746
13.351939 -28.058855 2.6771135 16711746
4.7704573 -13.884562 2.722363 16711746
10.186216 -29.638102 -0.76089716 16711746
8.2651844 -23.115742 3.3830082 16711746
3.8129883 -28.878866 2.0913284 16711746
11.878901 -25.058371 0.90057862 16711746
10.937889 -26.366898 -0.020919282 16711746
-1.4444048 -11.696547 6.1910291 16711746
-4.9791708 -17.328825 2.2511129 16711746
-1.5008609 -23.917286 0.30723855 16711746
2.6188052 -6.9371381 5.0751777 16711746
2.6273053 -7.9485621 5.8313427 16711746
3.4844625 -26.671215 2.7625053 16711746
-2.5687056 -21.36463 4.1898456 16711746
4.1355672 -13.236067 3.4953284 16711746
3.7924521 -20.085768 5.3270049 16711746
4.3317204 -18.488949 3.6233544 16711746
-3.0202265 -25.776711 2.5196402 16711746
-2.1143818 -15.539298 6.0074024 16711746
-3.5446851 -28.752832 0.33673307 16711746
-5.1975698 -25.637972 0.23724627 16711746
-6.5199785 -24.409523 1.3699656 16711746
3.1462579 -17.700993 5.7571163 16711746
-1.611611 -4.9500685 4.3522358 16711746
-2.8054299 -5.5376129 3.5880673 16711746
-7.9978786 -16.701525 5.4617896 16711746
-6.4955187 -15.689879 5.6122189 16711746
-1.1574566 -10.722303 6.9081712 16711746
0.16759706 -26.321598 4.2537231 16711746
-0.61111635 -21.320021 3.6641991 16711746
3.4253714 -20.129808 3.1415639 16711746
9.2479515 -17.712757 13.307189 16711746
-6.7991762 -20.294285 -0.090414219 16711746
-1.3211125 -24.894802 2.1956873 16711746
7.8664312 -16.81493 5.9000716 16711746
1.580713 -12.681805 7.3746314 16711746
1.4193799 -9.9585323 6.4964232 16711746
-1.7321863 -10.871984 6.3884988 16711746
-2.5026972 -12.426617 7.0744863 16711746
-3.5508645 -13.762447 5.6065435 16711746
12.948216 -24.756817 0.15912987 16711746
-3.3652303 -20.872967 3.720212 16711746
-6.1964283 -17.882736 5.1049342 16711746
-5.0279737 -17.555695 3.3381684 16711746
10.6061 -27.697441 3.2474716 16711746
8.6400976 -25.657984 3.2278366 16711746
7.9283404 -20.876278 1.6316147 16711746
-3.2842741 -19.528311 6.5289207 16711746
-1.632184 -16.159788 4.8306208 16711746
-4.3874907 -18.846279 1.4424821 16711746
-6.694644 -20.922392 0.95110989 16711746
10.079153 -28.892584 1.9558378 16711746
8.4720726 -23.119865 0.40753832 16711746
6.6853042 -21.887024 -0.30564082 16711746
-0.12962906 -21.328733 2.9499109 16711746
-2.5923517 -23.433577 3.6463931 16711746
-2.208878 -20.309155 0.11042421 16711746
4.7361393 -20.563038 4.0880241 16711746
4.8921475 -20.198448 3.2281985 16711746
-4.6531019 -20.23221 2.3462725 16711746
-1.56455 -15.656035 6.554112 16711746
-13.707771 -22.488733 5.7262774 16711746
-3.5276418 -18.595617 7.4959226 16711746
-2.1153507 -21.058338 4.7569857 16711746
3.7512212 -22.7896 5.7618399 16711746
-1.895218 -4.6099539 4.2433233 16711746
-3.2559631 -4.4157982 3.950089 16711746
1.2305237 -14.672626 8.9756432 16711746
9.6394196 -22.698507 7.072854 16711746
-2.8954823 -16.652199 10.271317 16711746
14.083529 -24.593861 4.1469841 16711746
2.5123203 -21.308475 4.2285223 16711746
1.6733139 -22.180923 4.3217092 16711746
-4.872643 -17.214649 3.7058451 16711746
-0.06357237 -21.206387 1.9989514 16711746
-2.7607312 -25.001497 2.3755918 16711746
-1.247054 -26.585026 0.87349397 16711746
1.6503747 -14.852509 8.4753504 16711746
1.4497297 -22.739439 2.19367 16711746
7.3387675 -20.645351 3.905525 16711746
13.641634 -24.002411 -0.82002568 16711746
-12.290852 -23.164095 3.2545719 16711746
-6.7782173 -22.389585 1.2801175 16711746
-10.986664 -20.768629 3.4526207 16711746
-5.3387866 -19.367249 3.7908816 16711746
-5.4608951 -20.136293 3.3163548 16711746
15.351143 -19.359516 19.668091 16711746
3.5270844 -14.882112 4.1373906 16711746
4.1764379 -11.857082 2.1058183 16711746
7.1764283 -21.287598 2.5298572 16711746
7.1796808 -25.44762 3.0465813 16711746
-2.3073342 -19.941704 3.881372 16711746
-3.5188458 -21.66189 3.8670416 16711746
-6.1712976 -25.147299 0.56987613 16711746
12.381298 -23.455418 -0.47870067 16711746
11.198559 -24.112368 -0.026552059 16711746
14.739971 -29.197924 -1.088914 16711746
4.3934746 -21.266579 4.7461667 16711746
-8.5050011 -22.779066 5.3090076 16711746
-2.6256669 -19.080088 8.2899952 16711746
5.6305032 -25.513071 5.158082 16711746
-5.2301698 -19.556929 2.0955873 16711746
9.3221092 -17.926931 4.6249866 16711746
3.8479362 -18.162165 7.9069972 16711746
12.855407 -26.998398 2.5202856 16711746
-2.8933327 -4.0219312 3.4780574 16711746
-4.7135777 -13.022022 7.5115132 16711746
9.5964251 -23.464069 22.234413 16711746
2.6121612 -13.950768 6.9176869 16711746
2.1465721 -12.411504 7.6457996 16711746
-0.28185034 -6.6075907 6.9020414 16711746
-4.8707724 -23.23156 5.7047634 16711746
-4.3131628 -20.22551 11.684908 16711746
4.1748996 -17.784483 12.719181 16711746
-2.7216346 -22.316549 1.3060375 16711746
-2.4237616 -19.26104 7.6816511 16711746
1.678198 -21.939634 1.7576457 16711746
-9.9575405 -16.430635 5.7300186 16711746
-9.607152 -17.159676 5.1102986 16711746
-1.3578689 -21.966999 0.89888144 16711746
-5.6031966 -22.784979 0.47370389 16711746
-2.0717514 -16.512049 7.9484463 16711746
13.918106 -23.309071 1.5629241 16711746
-7.7905011 -25.323217 5.7823434 16711746
7.7137704 -20.542641 5.0707207 16711746
2.1044612 -17.649317 10.614298 16711746
4.2767472 -22.360081 4.2490067 16711746
8.6979914 -23.475727 1.9601712 16711746
-9.3579073 -15.333075 3.5521276 16711746
-7.4116712 -16.798119 4.3342595 16711746
4.839591 -25.002485 6.7786345 16711746
-2.5304821 -17.722115 8.004528 16711746
-3.5274138 -20.601665 8.9637156 16711746
-1.4459453 -19.228598 4.1134624 16711746
9.559823 -18.6364 4.0045257 16711746
2.8166285 -17.518522 5.0063143 16711746
1.199321 -20.297056 7.5453863 16711746
11.193281 -23.425636 2.1066666 16711746
-0.63468134 -20.35367 3.4186618 16711746
4.284606 -23.38327 2.8159063 16711746
-3.8440461 -5.3406639 3.1637514 16711746
5.9566841 -17.271027 15.309027 16711746
0.97459733 -16.656252 9.6471844 16711746
1.3011096 -13.90833 8.4053097 16711746
4.5306368 -19.873699 8.1482821 16711746
-2.8949506 -25.398447 2.4025729 16711746
5.7481065 -16.470766 13.459499 16711746
-0.16283597 -24.253298 3.4195249 16711746
-1.8862089 -23.168268 2.6437123 16711746
4.1312895 -11.38302 4.7618327 16711746
-5.6838093 -24.457924 1.2683641 16711746
2.9686718 -23.501686 1.8653773 16711746
-3.2090492 -20.804354 3.196301 16711746
-8.2555666 -22.75539 1.6325163 16711746
10.233597 -20.230844 4.3994513 16711746
13.884498 -19.335789 8.317832 16711746
-1.0711488 -19.32439 7.4976988 16711746
12.588617 -21.427544 1.4228941 16711746
7.5034084 -22.694748 2.3251245 16711746
3.068186 -22.001461 2.8097281 16711746
-0.86654311 -12.809249 11.499033 16711746
-7.2725143 -8.8293581 8.7742357 16711746
-6.1065354 -14.301972 9.0521917 16711746
-7.4061847 -15.530602 10.219782 16711746
-1.6860604 -14.473482 11.193858 16711746
1.55083 -17.138897 13.549659 16711746
7.0106173 -14.732792 11.430531 16711746
9.3290529 -18.047506 8.5977926 16711746
17.262831 -15.203569 10.421182 16711746
-3.797585 -20.060909 2.8555446 16711746
-5.8392248 -20.586554 2.1341615 16711746
3.8750868 -16.509729 5.3285804 16711746
12.475155 -18.879765 4.8449912 16711746
-1.2556213 -19.15822 6.4375887 16711746
10.967377 -18.519716 1.1045122 16711746
-0.81540245 -13.117935 11.683104 16711746
-6.8937225 -17.930601 10.686431 16711746
-4.4124532 -17.202585 9.1454496 16711746
1.395075 -14.210573 10.968431 16711746
8.9371777 -18.56255 14.594546 16711746
2.408093 -17.230524 16.520475 16711746
3.8507018 -21.908026 11.390555 16711746
2.9100375 -4.69911 5.0173893 16711746
4.2343831 -7.6561041 3.8100905 16711746
5.332099 -6.1558709 4.1084633 16711746
-0.44407228 -5.7001605 3.5675194 16711746
2.766736 -10.736897 3.762403 16711746
6.3616576 -7.6972117 4.2961926 16711746
3.1393349 -7.5896597 5.2309532 16711746
-2.6371484 -2.9116242 1.5910223 16711746
-3.2182667 -3.2162445 1.6425654 16711746
3.1249993 -8.6151381 1.7882814 16711746
6.6100965 -6.7366838 4.02527 16711746
3.2983241 -13.972552 3.3030725 16711746
0.87166363 -5.3947554 5.1422038 16711746
-2.7076678 -2.818718 1.3247912 16711746
-1.4543828 -5.8275452 4.2253742 16711746
1.1625372 -4.8397641 4.141902 16711746
-1.4560267 -6.6306243 3.7212286 16711746
1.0820556 -7.0829697 5.1474137 16711746
1.1989334 -8.7750864 4.7875919 16711746
-2.8132033 -4.7613659 2.9317381 16711746
-1.7142549 -4.9650464 4.5572233 16711746
3.8667181 -7.0230241 3.437876 16711746
-5.5094042 -7.9570518 1.4312932 16711746
7.3187299 -7.4479499 2.9682972 16711746
-5.5221601 -7.6532907 4.4457564 16711746
3.3520787 -5.1755543 5.2904763 16711746
-2.0672646 -10.699474 3.9582078 16711746
-2.1057394 -5.9490395 5.4566584 16711746
3.1887269 -5.4976392 5.4966478 16711746
-0.73010641 -7.1988144 3.4630949 16711746
-1.2271811 -6.438014 3.6047823 16711746
-2.9190648 -4.9042339 3.0375402 16711746
3.1871305 -4.9156656 4.9990134 16711746
-1.4843214 -5.8937154 4.2711477 16711746
1.1000378 -7.5957189 3.4656413 16711746
1.9824901 -7.0871606 4.857882 16711746
6.3013844 -7.8762698 4.0807772 16711746
3.3320127 -4.4344859 5.2450671 16711746
4.5589218 -5.665534 4.434051 16711746
9.3098116 -8.6728973 6.4145651 16711746
2.8290465 -9.3363876 3.4679456 16711746
-0.36585405 -11.238041 4.0734091 16711746
-3.661624 -4.5116763 1.8608222 16711746
2.4190342 -11.651702 5.0073643 16711746
1.0852369 -7.6625237 3.5465579 16711746
2.9180386 -7.1347117 4.8607411 16711746
3.3407781 -9.422884 3.2195332 16711746
-3.2502675 -5.4398084 1.8825967 16711746
-1.4883063 -6.8164783 3.769726 16711746
6.5146918 -5.8262019 4.7128429 16711746
4.2844353 -12.571973 1.9633031 16711746
-0.038202167 -5.7411957 5.0017891 16711746
3.3708982 -11.408609 0.80227053 16711746
0.6810233 -8.4423027 4.4210777 16711746
8.4033937 -8.8404922 4.8179402 16711746
6.675508 -8.0657616 3.9183538 16711746
-6.7900257 -9.0216532 1.4752722 16711746
5.7665868 -11.656929 3.2302332 16711746
-1.1084853 -5.0370045 4.2783079 16711746
2.3495464 -7.6963611 2.5449705 16711746
4.4223237 -6.698422 5.3219743 16711746
3.2653267 -5.0552249 5.1534157 16711746
5.6897759 -11.866969 5.271924 16711746
7.4601164 -9.2433004 4.6168795 16711746
5.5501657 -11.782441 3.6261332 16711746
-2.9263711 -4.5546107 2.9613206 16711746
-0.67205167 -9.5606375 3.7415502 16711746
12.978854 -11.633317 10.326203 16711746
4.7902913 -5.6717257 4.2023664 16711746
-0.5025413 -9.7141151 2.9785762 16711746
4.2435293 -9.0360432 3.4498177 16711746
-2.6207404 -11.385307 1.3021404 16711746
-3.0173759 -16.842009 8.9356785 16711746
4.0975919 -4.602427 4.7930765 16711746
4.9091544 -5.806447 4.3199444 16711746
4.3514771 -5.0976634 4.3072982 16711746
5.1559639 -6.3681583 5.1651149 16711746
2.8610876 -4.62044 4.9001865 16711746
-2.621959 -5.2654142 3.3381677 16711746
-1.616405 -7.8954835 3.239114 16711746
1.3059256 -6.8806252 3.8782368 16711746
3.9110293 -4.4928703 4.8683271 16711746
6.3135877 -6.0199537 4.1119094 16711746
3.6613786 -10.471208 4.1401281 16711746
1.9696393 -5.3337564 3.6708281 16711746
2.7146876 -7.6325722 2.8206906 16711746
2.8535576 -7.6481996 5.1594477 16711746
3.2384396 -10.548471 3.9846418 16711746
8.5089359 -10.374154 4.6064267 16711746
-4.9103289 -6.5536666 1.9172275 16711746
4.8409801 -9.7924147 5.964294 16711746
7.0623174 -6.3911967 4.9933434 16711746
5.4219728 -16.969343 2.9272709 16711746
4.4071898 -8.8612127 5.2970047 16711746
8.5258036 -9.3880482 4.2269249 16711746
6.3059988 -7.0090766 3.7295792 16711746
5.6808562 -6.7249599 4.0212064 16711746
-3.1062653 -11.247491 3.3903303 16711746
-3.9133584 -5.7817702 2.8061349 16711746
0.94742966 -6.0130792 4.5210886 16711746
7.1666079 -7.5256896 4.8223543 16711746
-1.9703113 -5.025794 2.7162125 16711746
3.3131773 -8.470376 3.2593253 16711746
3.2900925 -8.3769836 5.7506375 16711746
-0.40520203 -5.895822 4.3082552 16711746
3.9595015 -8.8575649 2.9442375 16711746
6.9218874 -6.8823366 3.9978328 16711746
-2.8651116 -5.3338461 3.1350095 16711746
-1.7601708 -6.5059505 3.5596724 16711746
-0.25423387 -6.9885826 5.7587085 16711746
1.2461289 -5.3627663 4.7003331 16711746
-1.7052097 -9.1264019 3.7306387 16711746
1.0794953 -4.401834 3.6604288 16711746
3.4026735 -8.9800215 7.0458121 16711746
11.904689 -9.2918253 4.096694 16711746
8.4692841 -8.915966 5.7560201 16711746
1.2584362 -6.92272 4.4523888 16711746
-2.2604377 -9.5543242 1.9830383 16711746
-1.6787571 -6.4689212 4.3645744 16711746
-0.79014266 -6.2600346 4.6598983 16711746
-0.10474679 -5.0932231 4.5733795 16711746
3.5286069 -7.8842225 5.1471853 16711746
