# .PCD v0.7 - Point Cloud Data file format
VERSION 0.7
FIELDS x y z rgb
SIZE 4 4 4 4
TYPE F F F F
COUNT 1 1 1 1
WIDTH 1205
HEIGHT 1
VIEWPOINT 0 0 0 1 0 0 0
POINTS 1205
DATA ascii
5.8995967 -14.56168 48.245293 16711746
6.5649462 -6.3334208 36.907772 16711746
6.7720637 -6.1106806 36.520641 16711746
15.848317 -14.899427 45.222908 16711746
11.574036 -6.3825049 40.456123 16711746
8.496768 -12.555491 42.991383 16711746
-1.2149811 -16.499453 61.075729 16711746
-17.128611 -14.727529 75.724113 16711746
10.626098 -15.718427 48.953526 16711746
10.829509 -10.108 46.069839 16711746
10.828418 -7.3970394 35.636993 16711746
13.610542 -14.827641 52.175091 16711746
24.528164 -17.961226 50.940243 16711746
8.8252163 -5.2047744 32.860825 16711746
8.9711637 -5.3441629 33.359703 16711746
9.1506472 -5.24403 33.135731 16711746
9.3022785 -5.271801 33.253239 16711746
7.4888783 -5.4552889 34.029339 16711746
5.837852 -5.7201433 34.628979 16711746
9.7589474 -5.3444514 33.870396 16711746
9.0687141 -5.446897 34.277832 16711746
10.159064 -5.1468401 33.540916 16711746
9.5718927 -5.2014394 33.147732 16711746
10.851155 -5.1778159 33.481907 16711746
9.5498953 -5.3796697 34.416611 16711746
9.5640364 -5.1886196 33.205173 16711746
8.6599197 -5.2104592 32.885014 16711746
10.125608 -5.1922097 33.407555 16711746
6.9441309 -5.5291882 34.354233 16711746
10.847795 -5.1788411 33.483402 16711746
8.4690351 -5.2320523 32.831409 16711746
8.1447191 -5.3615508 33.184971 16711746
10.607532 -5.1888905 33.731392 16711746
5.759017 -5.8019872 34.775188 16711746
8.6603947 -5.2149744 32.779549 16711746
8.9109373 -5.4911151 33.868961 16711746
9.394886 -5.1972699 33.216782 16711746
9.2922516 -5.2889361 33.396942 16711746
8.9276085 -5.507246 33.7607 16711746
9.6012754 -5.2078042 33.611954 16711746
7.4510202 -5.372715 33.946117 16711746
12.264779 -4.9174724 33.398674 16711746
7.7266755 -5.2957649 33.080967 16711746
8.7440863 -5.3404636 33.288033 16711746
8.323329 -5.8297729 35.125576 16711746
6.9685993 -5.6139975 34.989777 16711746
6.6788058 -6.0387816 36.180443 16711746
8.871232 -5.4630504 33.105473 16711746
10.28415 -5.279726 34.230358 16711746
9.5230131 -5.6780448 35.344463 16711746
11.266526 -5.4383545 34.978889 16711746
8.7789421 -5.3117647 33.236008 16711746
10.089305 -5.2922826 34.027336 16711746
10.267801 -5.3552256 34.406887 16711746
8.7323561 -5.3082514 33.104076 16711746
6.4103689 -5.3436007 33.501465 16711746
9.9023371 -5.0749974 33.362381 16711746
9.6678076 -5.2632856 33.829769 16711746
9.472785 -5.2990408 33.807812 16711746
9.6490908 -5.3503613 34.697201 16711746
9.4079905 -6.1850619 35.354752 16711746
7.9699893 -5.2825074 33.048763 16711746
9.6530313 -5.1907406 33.505657 16711746
12.939316 -4.9806304 33.929569 16711746
9.7815409 -5.3302317 33.960739 16711746
5.6274638 -7.6716027 42.267696 16711746
3.5672693 -6.2484884 37.172058 16711746
9.4400148 -6.4916997 34.704239 16711746
12.035347 -4.858398 32.81234 16711746
12.186002 -5.1765761 34.521049 16711746
6.6738691 -5.9044113 35.179607 16711746
9.4762363 -5.5515184 34.315228 16711746
11.361017 -5.2076578 34.002792 16711746
9.0540705 -5.2133594 33.058083 16711746
8.6559916 -5.265811 33.165501 16711746
8.6511049 -5.2038431 32.878567 16711746
9.3579969 -6.0580573 36.981369 16711746
3.3276703 -6.3332348 37.0979 16711746
11.536939 -5.2443466 34.179756 16711746
9.8253317 -5.5705547 35.559605 16711746
12.927851 -5.5734348 36.411243 16711746
9.6356936 -5.4437451 34.24128 16711746
9.0563068 -5.3318853 33.581261 16711746
10.569705 -5.3865185 34.315689 16711746
11.152315 -5.3479047 34.619957 16711746
12.475033 -5.7252207 36.990047 16711746
12.04309 -5.3877487 35.195194 16711746
9.2138224 -5.3923898 34.293922 16711746
21.165138 -9.7062502 40.857548 16711746
5.222836 -6.7609429 39.470634 16711746
10.802813 -5.6089883 35.470726 16711746
12.427822 -10.711465 40.078518 16711746
11.970821 -5.7246923 37.015266 16711746
10.069044 -5.2816672 33.998951 16711746
10.496257 -5.2801523 34.073887 16711746
14.051926 -13.330893 43.821987 16711746
20.590904 -13.475592 41.635284 16711746
20.488544 -13.550775 40.684059 16711746
10.325861 -7.9728456 38.154724 16711746
14.47517 -8.2258005 40.492748 16711746
10.765996 -7.4519763 40.152298 16711746
37.06744 -14.737152 55.450863 16711746
40.384033 -14.314914 59.271572 16711746
8.514081 -6.5657721 39.574532 16711746
30.729776 -7.6061544 52.7038 16711746
12.72648 -15.71002 50.168987 16711746
-34.559143 -12.236627 70.361649 16711746
-40.043648 -13.09972 76.089218 16711746
-5.2818913 -17.726561 68.153786 16711746
15.934308 -13.443962 50.705875 16711746
25.98859 -15.499402 43.264973 16711746
23.683678 -14.255279 43.917641 16711746
12.439488 -12.945556 54.22311 16711746
10.233708 -5.4551816 34.661003 16711746
9.6342611 -5.4614196 34.425026 16711746
9.2820797 -5.4634509 34.345055 16711746
9.1121969 -5.5601478 34.630245 16711746
9.6104755 -5.8831983 36.168175 16711746
6.3382106 -5.5309901 33.875645 16711746
9.8498316 -5.2305622 33.748116 16711746
10.04189 -5.5194364 34.722786 16711746
9.4825783 -5.4919758 34.550255 16711746
8.8444147 -5.6873631 35.113163 16711746
9.079792 -5.3279901 33.67651 16711746
9.7916641 -5.6205297 35.137859 16711746
8.1094208 -5.3439298 33.231403 16711746
8.8383884 -5.4224744 32.832874 16711746
10.132904 -5.255115 34.053619 16711746
9.0635872 -5.2665267 33.287254 16711746
3.4511631 -6.7173586 37.878746 16711746
8.1373024 -5.4802794 34.143242 16711746
6.5093923 -6.0140295 35.871735 16711746
7.5356855 -5.3136368 33.223961 16711746
10.660021 -5.3016167 34.233227 16711746
10.456561 -5.3905387 34.575539 16711746
10.367537 -5.0492411 33.35112 16711746
7.7617846 -5.3833957 33.393169 16711746
10.03331 -5.2007179 33.743252 16711746
9.8513689 -5.233707 33.737762 16711746
4.028264 -7.2346606 41.405766 16711746
6.8015666 -5.4145064 33.594666 16711746
8.1535587 -5.3711843 33.162918 16711746
8.8298426 -5.6516385 34.801964 16711746
9.1216116 -6.1648841 32.706642 16711746
8.7908716 -5.3987632 33.145737 16711746
8.8314171 -5.2300725 33.099174 16711746
9.025177 -5.3872252 33.530205 16711746
9.0085936 -5.3508515 33.664909 16711746
9.1294565 -6.1543884 32.671356 16711746
9.3583803 -5.2815299 33.736225 16711746
9.2693853 -5.369597 33.955048 16711746
7.9538441 -5.5134315 33.993309 16711746
9.0441732 -5.3455992 33.36832 16711746
12.562296 -4.7676373 33.864933 16711746
8.9909201 -5.4881539 33.732277 16711746
8.9965982 -5.3292947 33.392025 16711746
6.2067666 -6.1564651 36.783024 16711746
10.997768 -5.0159106 33.394676 16711746
10.626637 -5.4331841 35.260105 16711746
7.0987616 -5.5673008 34.534386 16711746
10.944858 -5.2988205 34.297462 16711746
10.49401 -5.6632075 36.034027 16711746
10.284123 -5.5897865 35.279068 16711746
9.2986374 -5.2053237 33.113968 16711746
9.7839136 -5.6307678 35.069557 16711746
3.8155994 -7.4567294 41.999466 16711746
10.875419 -5.1651492 33.509872 16711746
10.544074 -5.4968591 34.932941 16711746
9.6967125 -6.2416596 38.186626 16711746
1.2015445 -7.634553 40.116634 16711746
8.8583717 -6.4057012 38.997112 16711746
7.5470133 -5.3975163 33.81308 16711746
10.253872 -5.359354 34.403629 16711746
10.99618 -5.4548244 34.923923 16711746
9.8694115 -5.2896008 34.051441 16711746
10.288915 -5.2705932 34.008842 16711746
3.8874598 -7.5140033 41.832458 16711746
9.8366861 -5.3379006 33.888416 16711746
10.495707 -5.442862 34.516739 16711746
12.840197 -5.0820479 34.243027 16711746
11.652821 -5.41998 34.519768 16711746
12.890465 -5.3683629 35.298317 16711746
13.112209 -5.2550788 34.798153 16711746
9.9334297 -5.7177572 35.398701 16711746
7.6978798 -5.2368064 32.933964 16711746
10.771511 -5.737371 36.572742 16711746
9.71068 -6.1603804 36.846775 16711746
10.136106 -5.1813402 33.441566 16711746
3.2057176 -6.3371439 37.223618 16711746
12.966669 -12.194016 41.566257 16711746
9.8397245 -5.151969 33.441845 16711746
10.623284 -5.9869027 38.344688 16711746
16.794046 -12.168151 39.817932 16711746
15.86179 -12.628174 40.507584 16711746
9.5173712 -5.2061586 33.302208 16711746
6.5835252 -5.8588715 35.172302 16711746
6.6941185 -5.6494398 34.859196 16711746
8.8245678 -6.4093461 39.485039 16711746
11.516925 -5.4807172 35.368526 16711746
11.120776 -5.655376 35.93396 16711746
12.74747 -5.3673735 35.222881 16711746
9.3204002 -5.3691888 33.967514 16711746
9.6249456 -5.510901 34.634224 16711746
4.3483257 -5.9010782 33.871857 16711746
11.816143 -5.2029686 34.413326 16711746
9.6171598 -5.5070834 34.673801 16711746
-8.4662933 -17.713612 52.80854 16711746
7.3943987 -5.8307567 35.746929 16711746
7.896049 -5.4958792 34.089382 16711746
-0.62677491 -10.986857 53.721867 16711746
13.987198 -6.0616565 38.67458 16711746
19.562098 -10.956975 39.469997 16711746
25.959282 -11.247224 45.494339 16711746
12.152649 -5.1840806 34.494682 16711746
16.547264 -11.49114 41.458557 16711746
28.714626 -12.626267 47.629841 16711746
22.18062 -9.4310608 42.16925 16711746
27.222107 -12.291184 47.453556 16711746
24.047028 -14.287881 47.034191 16711746
14.563803 -5.8025765 38.72427 16711746
23.138954 -13.83266 46.134304 16711746
15.88985 -12.103971 42.701946 16711746
10.525627 -5.6509905 35.606056 16711746
21.359522 -12.208064 47.204872 16711746
10.186932 -16.068487 51.972374 16711746
8.048028 -7.2255054 42.180004 16711746
25.917358 -13.056188 49.5574 16711746
9.0610285 -5.8913827 32.927769 16711746
-12.594034 -17.587399 50.7794 16711746
9.0354214 -5.7343359 33.019955 16711746
12.881337 -5.516324 35.914589 16711746
8.9582558 -6.0996652 32.682335 16711746
9.313982 -8.5186987 46.102184 16711746
12.886389 -5.3370728 33.86858 16711746
21.507456 -14.552856 54.887482 16711746
13.336052 -10.099422 43.594334 16711746
2.4022651 -6.7113819 36.927807 16711746
4.6606278 -5.8805299 35.582268 16711746
12.133605 -4.9756913 34.188942 16711746
10.948609 -5.1568012 33.724197 16711746
5.9696355 -5.8544135 35.242947 16711746
9.0852699 -5.5064802 34.547485 16711746
9.4704151 -5.2365026 33.445057 16711746
12.875517 -5.0450931 34.214573 16711746
9.7178154 -5.3179669 33.974483 16711746
11.893505 -6.7658668 32.396992 16711746
8.0754738 -5.3976851 33.840332 16711746
10.075635 -5.1945806 33.550087 16711746
10.259088 -5.2977343 34.168064 16711746
9.0217218 -5.2837992 33.544136 16711746
9.1705227 -5.3476353 33.591034 16711746
10.058287 -5.3509974 34.271332 16711746
7.965426 -5.3838744 33.921017 16711746
7.4638329 -5.7132201 35.186146 16711746
7.9173017 -5.4835315 34.055393 16711746
8.4213619 -5.4604135 33.699665 16711746
10.193913 -5.1877666 33.627502 16711746
5.8749032 -5.9340963 35.649658 16711746
4.8428888 -6.2305989 36.750965 16711746
12.685895 -5.034965 33.749226 16711746
9.0572405 -5.4768968 34.717381 16711746
9.4270649 -5.4071264 34.199348 16711746
10.082903 -5.2947197 34.01577 16711746
7.4879417 -5.2928643 33.280334 16711746
10.803994 -5.1038966 33.469837 16711746
8.9338865 -5.8042383 35.16048 16711746
3.584944 -7.0550103 40.035362 16711746
11.675779 -5.1399169 34.157284 16711746
10.494649 -5.1214805 33.623192 16711746
8.8823824 -5.4343305 34.011124 16711746
4.9112959 -6.0696406 35.811478 16711746
8.9243126 -5.7920823 35.155151 16711746
9.1566353 -6.3816123 32.509159 16711746
8.0219498 -5.2907019 33.358135 16711746
11.082539 -5.3817339 33.792889 16711746
10.55506 -5.3881617 34.259811 16711746
7.3426023 -5.4611964 34.076515 16711746
8.9701624 -5.5228672 32.879898 16711746
9.2032404 -5.359983 33.204937 16711746
8.151289 -5.33109 33.052147 16711746
8.1752825 -5.3395596 33.039631 16711746
8.7837124 -5.3380723 33.180981 16711746
10.283762 -5.2678466 34.029293 16711746
6.4067059 -5.526505 34.495319 16711746
13.628031 -5.4781036 34.84864 16711746
7.4982948 -5.3779778 33.832699 16711746
8.8876047 -5.4312329 34.012558 16711746
6.0732923 -6.262424 33.586269 16711746
9.1864939 -5.4493032 33.962944 16711746
9.0078897 -6.2383361 32.746624 16711746
3.922298 -7.5918174 41.346684 16711746
7.7265844 -5.3768115 33.424435 16711746
3.3361597 -7.1229 40.322994 16711746
9.1344995 -5.8585949 32.778858 16711746
9.3179407 -6.2181301 35.982655 16711746
9.3656483 -6.6887112 36.667645 16711746
9.2622833 -5.7043476 35.862812 16711746
10.729028 -6.0024648 37.379444 16711746
10.728858 -6.6909757 33.041679 16711746
7.5541987 -5.2185149 33.216167 16711746
7.1647844 -5.7998481 35.799911 16711746
6.924334 -5.7671504 35.381905 16711746
11.017658 -6.4935637 40.107689 16711746
11.316293 -5.8620591 38.077545 16711746
9.8455238 -5.2414894 33.672115 16711746
7.9180527 -5.3410492 33.267746 16711746
8.5468159 -5.2271657 32.74078 16711746
9.148077 -5.3052459 33.745785 16711746
10.298459 -5.6554537 35.645729 16711746
6.9822035 -5.5347047 34.332645 16711746
9.4158564 -6.228147 36.063164 16711746
10.907804 -5.3794384 34.702087 16711746
8.5533857 -5.2551036 32.884102 16711746
9.7893276 -5.6236377 35.089508 16711746
9.4652548 -5.2685695 33.559349 16711746
9.0845928 -5.4354315 34.200249 16711746
11.677529 -5.0980582 33.916401 16711746
3.5605762 -7.5930758 42.106552 16711746
9.7337875 -6.2113767 36.453709 16711746
9.5635052 -5.7474933 36.023705 16711746
9.7722425 -5.3355107 33.920742 16711746
10.302086 -5.1116943 33.510979 16711746
9.0395088 -5.9050989 36.795097 16711746
6.3928537 -5.8340402 35.033371 16711746
9.2504663 -5.7056518 35.154263 16711746
10.699157 -5.5481558 35.365585 16711746
13.16379 -5.6772866 36.93103 16711746
10.24895 -5.1799989 33.662319 16711746
11.44488 -5.3024983 34.506561 16711746
9.4581032 -5.2693934 33.569153 16711746
17.801813 -10.779124 37.699463 16711746
12.633389 -5.2310863 34.752384 16711746
11.171651 -5.4733129 35.084167 16711746
18.217333 -9.4049101 38.11454 16711746
7.4836984 -5.2598372 33.142067 16711746
9.177515 -5.3212342 33.569847 16711746
12.555961 -5.223392 33.177624 16711746
9.5199451 -5.6298223 34.903351 16711746
5.43859 -5.9345546 35.50153 16711746
9.9349461 -5.7055106 35.441833 16711746
7.6711283 -5.2536888 32.687283 16711746
20.695072 -9.9101191 40.401512 16711746
9.3786364 -15.298151 46.914913 16711746
6.3715243 -5.664175 34.929199 16711746
5.2616792 -14.055105 49.993443 16711746
19.102135 -13.925417 42.893921 16711746
22.079163 -15.935768 45.145672 16711746
26.886425 -10.705654 46.521603 16711746
6.2767611 -5.6488709 34.633499 16711746
-5.813127 -15.157545 49.294918 16711746
11.150576 -5.3484592 34.341942 16711746
23.872967 -13.623545 45.592712 16711746
16.156588 -11.753057 41.404343 16711746
18.418087 -12.980662 41.223694 16711746
27.199127 -11.618888 46.447464 16711746
28.463167 -11.055585 47.825989 16711746
25.821487 -15.204441 45.737484 16711746
6.9975963 -5.9082904 36.040192 16711746
18.478916 -10.498585 45.873085 16711746
11.675925 -5.3570552 34.705849 16711746
25.85774 -12.828633 46.406227 16711746
14.809314 -6.9632773 42.044312 16711746
23.758814 -12.337801 49.348499 16711746
20.879953 -15.582771 48.825012 16711746
5.7407265 -15.801555 51.579441 16711746
7.3913016 -7.2440372 42.026573 16711746
19.214857 -16.107662 48.70174 16711746
18.984873 -14.990788 50.289684 16711746
12.85634 -11.994975 47.343227 16711746
10.730347 -5.176693 33.597336 16711746
8.8218241 -5.3692365 33.259907 16711746
10.903654 -5.1394157 33.554714 16711746
9.3857946 -5.3112769 33.578773 16711746
10.740402 -5.2521849 34.054142 16711746
10.945467 -5.2976947 34.305603 16711746
10.88675 -5.3330708 34.338306 16711746
11.974284 -5.3171749 34.823322 16711746
12.854145 -5.3833079 35.226952 16711746
9.0217342 -5.2672467 33.697964 16711746
12.023985 -4.9756227 33.551884 16711746
12.369207 -5.0583076 33.832134 16711746
11.826571 -4.8660169 33.590515 16711746
5.4149399 -5.7703538 35.099102 16711746
2.7077045 -6.4000087 36.457039 16711746
8.1019697 -5.2180595 33.283169 16711746
9.6762362 -5.2505364 33.822338 16711746
9.319519 -5.3697362 34.078815 16711746
8.977561 -6.1264019 32.719559 16711746
10.723644 -5.2690082 34.01239 16711746
9.9986429 -5.2497296 33.613422 16711746
9.2514591 -5.5776072 34.898643 16711746
9.1191864 -5.4158192 34.062157 16711746
7.8126631 -5.2953587 33.418385 16711746
7.8331828 -5.2433701 33.32782 16711746
6.8781304 -5.8663054 35.745083 16711746
11.285802 -5.4340191 35.008705 16711746
8.808362 -5.5283203 34.509365 16711746
10.948661 -5.2922559 34.322231 16711746
12.588062 -5.291532 34.951706 16711746
11.932869 -5.0658426 33.956734 16711746
4.6057096 -6.0682449 36.138729 16711746
9.1185131 -5.5715065 34.576744 16711746
5.4553123 -5.9344263 35.480175 16711746
12.65347 -5.2203546 34.272079 16711746
9.1869583 -5.2949586 33.842911 16711746
9.0871134 -5.4585261 34.191463 16711746
9.9587259 -5.3147445 34.03735 16711746
8.1421843 -5.344038 33.638592 16711746
10.276435 -5.3502703 34.391266 16711746
3.2981913 -7.3266792 41.42754 16711746
13.506469 -5.2276721 34.700172 16711746
7.447278 -5.2800779 33.318935 16711746
5.5431986 -6.0280709 35.989033 16711746
8.9697475 -6.0903111 32.758232 16711746
8.9651089 -6.1259656 32.740555 16711746
6.2725544 -5.5225806 33.932827 16711746
10.714788 -5.2041388 33.547134 16711746
12.206521 -5.2116861 34.002632 16711746
7.0394859 -5.6240821 34.94548 16711746
5.3523498 -5.7841964 35.139206 16711746
9.270503 -5.3634806 34.014732 16711746
11.437212 -5.0729957 33.677685 16711746
9.3146257 -5.5185056 34.230614 16711746
5.8371935 -6.2476888 35.573795 16711746
8.9219456 -5.3090825 33.485313 16711746
9.075161 -5.436718 34.208721 16711746
9.0821877 -5.4614849 34.179192 16711746
8.835104 -5.6162624 33.807281 16711746
5.3856487 -5.5682273 35.248623 16711746
7.2124038 -5.5048194 33.674011 16711746
14.040706 -8.6456585 35.35162 16711746
8.9950428 -5.286747 33.821686 16711746
7.9626555 -5.4555655 33.920105 16711746
18.925079 -11.098611 38.54863 16711746
-0.036021736 -7.1149044 41.204109 16711746
9.3706808 -6.2203755 36.080994 16711746
11.077232 -5.3852835 34.452446 16711746
9.5607023 -5.7620864 36.063183 16711746
9.590764 -6.0582962 35.146706 16711746
9.4813681 -6.7202406 34.916683 16711746
2.5580783 -6.9000483 38.375984 16711746
16.218838 -9.9937153 36.663624 16711746
17.980753 -11.234517 38.804852 16711746
9.8885593 -5.3312383 34.321953 16711746
10.708424 -6.4735866 39.817635 16711746
14.406906 -5.6990986 37.503395 16711746
8.1523304 -7.8010974 44.771404 16711746
9.2767086 -5.455215 34.371769 16711746
10.327438 -5.488965 34.757153 16711746
11.545639 -9.7293425 38.869534 16711746
12.415094 -5.1292191 33.454418 16711746
9.0391989 -5.7427197 32.981018 16711746
12.470508 -5.1109691 33.498806 16711746
9.5438547 -5.8557196 35.668102 16711746
13.742467 -5.5046301 36.118347 16711746
9.9157219 -5.3836775 34.372463 16711746
10.877479 -5.5794716 35.73505 16711746
15.48504 -5.1607008 36.633495 16711746
13.720918 -5.1709456 34.72834 16711746
10.595277 -5.223372 33.812492 16711746
10.267261 -5.3616014 34.358582 16711746
7.7156811 -5.3765979 33.820526 16711746
11.214503 -5.3248425 34.070667 16711746
10.82264 -5.5876279 35.547066 16711746
9.2574825 -5.5656166 34.969036 16711746
5.0283823 -6.230185 36.510983 16711746
12.044829 -4.9716325 33.80407 16711746
9.8383236 -5.7231436 35.963451 16711746
10.195855 -5.3593493 34.379993 16711746
9.5178003 -5.3271632 33.90736 16711746
9.9043198 -5.2413459 33.846745 16711746
13.7181 -5.1978307 35.008957 16711746
9.5811815 -6.1765418 34.576252 16711746
9.2266321 -5.5107269 34.54668 16711746
-1.3489091 -11.833127 40.469883 16711746
9.0959291 -5.3602357 33.996948 16711746
9.5493498 -5.8922744 35.414932 16711746
8.765976 -5.5744963 34.712784 16711746
9.1082468 -6.2197304 32.473492 16711746
5.6613297 -5.9599013 34.661987 16711746
8.5356684 -6.5851645 39.327904 16711746
9.0121193 -5.4302454 34.161037 16711746
14.172198 -5.4467201 37.173557 16711746
10.511107 -5.7563982 36.561424 16711746
7.4943695 -5.5878291 34.65501 16711746
10.238297 -5.2762771 33.97197 16711746
6.4568944 -5.8363214 34.957939 16711746
17.954891 -10.963827 37.781384 16711746
13.679708 -6.2137651 36.955967 16711746
11.79553 -5.7607012 36.569542 16711746
11.794067 -5.7659845 36.560017 16711746
12.894662 -5.5902939 36.343178 16711746
-1.4930141 -8.2796965 42.325951 16711746
10.370992 -5.5407567 35.659256 16711746
20.314617 -9.1772461 39.939041 16711746
22.42622 -12.404861 40.397686 16711746
9.4673328 -5.4701376 34.680439 16711746
9.9356689 -5.3969612 34.225029 16711746
13.411099 -9.2140656 38.040268 16711746
10.731764 -5.5167065 35.563721 16711746
7.309473 -6.6183443 38.926235 16711746
16.72773 -8.9388905 40.59161 16711746
16.411177 -11.400301 41.388847 16711746
11.568076 -5.0533166 33.792046 16711746
10.878518 -5.2618203 34.09436 16711746
12.986644 -5.2115593 34.549816 16711746
22.20401 -15.862701 46.472393 16711746
11.602624 -6.0370722 38.739094 16711746
14.477669 -6.4833832 40.880585 16711746
13.919238 -12.688828 42.567348 16711746
10.053549 -5.4704218 34.567593 16711746
6.2515149 -5.6185184 34.473137 16711746
18.623991 -13.035678 44.700436 16711746
6.2103338 -5.5339684 34.201668 16711746
12.491542 -9.5999298 40.059837 16711746
20.337795 -15.099856 49.741585 16711746
20.704447 -12.865207 41.177608 16711746
28.000744 -10.980474 46.510746 16711746
13.924509 -6.4131103 38.070431 16711746
8.1838646 -13.983926 45.425896 16711746
14.550551 -12.037417 43.93367 16711746
7.3585591 -7.0766673 40.858162 16711746
12.707105 -11.259773 39.854511 16711746
-9.5738668 -11.736601 55.699657 16711746
20.279999 -14.225219 46.985626 16711746
6.1067848 -15.178018 49.305683 16711746
33.627029 -12.598787 49.093746 16711746
16.1702 -13.733461 48.461704 16711746
29.603001 -15.989027 63.424549 16711746
-24.337858 -23.534203 60.120605 16711746
7.3777366 -5.4056654 34.160332 16711746
12.375919 -5.2155738 33.768955 16711746
6.1755466 -5.6455507 34.853661 16711746
11.552641 -4.9646249 33.687412 16711746
7.5780296 -5.3964925 34.176331 16711746
9.1450033 -5.2717013 33.664516 16711746
6.9307652 -5.4796858 33.546745 16711746
5.7971196 -5.7096376 34.656574 16711746
8.8673162 -5.4173484 34.078899 16711746
10.785559 -5.2069426 33.745693 16711746
6.8269262 -5.5861878 34.625198 16711746
6.3620343 -5.6637058 34.937286 16711746
9.1494789 -5.4056578 34.11306 16711746
10.085282 -5.3036389 34.002949 16711746
7.716877 -5.3910241 34.383106 16711746
8.6831017 -5.619741 34.802361 16711746
7.0783834 -5.4219556 34.059967 16711746
11.639573 -5.1562285 34.108932 16711746
9.0636835 -5.3125663 34.130081 16711746
10.275402 -5.1864548 33.8769 16711746
11.706401 -5.080317 33.956116 16711746
7.8831997 -5.5198851 34.125603 16711746
10.88446 -5.2538729 34.089855 16711746
17.216526 -5.7012873 38.2183 16711746
13.970531 -5.526402 35.649128 16711746
9.0743418 -5.8604412 34.487869 16711746
12.981138 -5.4955735 36.051746 16711746
13.979076 -5.2987866 35.194393 16711746
9.8719234 -5.4121561 34.417019 16711746
11.215422 -5.0827565 33.614555 16711746
10.456625 -5.3582706 34.489017 16711746
6.5609136 -5.4437895 34.629333 16711746
12.528435 -5.342804 35.342079 16711746
6.1767163 -5.6277838 34.723019 16711746
5.9945254 -6.107563 35.657604 16711746
10.16173 -5.5367532 34.837955 16711746
9.7654428 -5.3210583 33.932308 16711746
8.7620077 -5.7170916 35.66835 16711746
7.9561977 -5.5005636 33.989506 16711746
5.687737 -6.1198058 36.042595 16711746
9.1183338 -5.3348842 33.853767 16711746
11.150647 -5.3539777 34.332058 16711746
10.275907 -5.5642118 34.955696 16711746
10.036621 -5.6898875 35.393639 16711746
5.498786 -6.2330918 35.958252 16711746
11.255088 -5.4486461 34.947659 16711746
13.941733 -6.1020865 36.928898 16711746
9.9692545 -5.8776059 36.468239 16711746
16.400276 -5.6315632 37.139603 16711746
13.939035 -6.085629 36.869995 16711746
10.58053 -5.2359047 33.790852 16711746
9.0896969 -5.3859577 34.195683 16711746
10.433538 -5.3241158 34.136986 16711746
9.900692 -5.2220616 33.928097 16711746
9.6681881 -5.8626823 35.196064 16711746
13.377967 -5.6671267 36.443333 16711746
11.939256 -5.2873492 34.714432 16711746
10.318748 -5.2379212 34.391758 16711746
13.046274 -5.2715206 35.079082 16711746
13.639311 -5.8352785 37.635384 16711746
10.194467 -5.7307267 35.627323 16711746
9.4723358 -5.2886686 33.841122 16711746
9.8998833 -5.9299183 36.738766 16711746
8.2092619 -5.2974739 33.118149 16711746
12.327209 -5.0573406 33.789246 16711746
11.731551 -5.1414795 33.057922 16711746
10.588215 -5.6215897 35.80098 16711746
11.541165 -5.0598497 33.765335 16711746
9.4631662 -6.8586721 35.652958 16711746
10.845507 -5.4189534 34.502113 16711746
15.28957 -10.864033 38.702038 16711746
9.2730494 -5.6920547 35.134399 16711746
10.420224 -5.7836733 36.159904 16711746
8.9547796 -5.7478352 35.201675 16711746
9.524724 -5.8077569 36.189426 16711746
10.797907 -5.4604521 34.88279 16711746
11.180877 -5.8077683 36.564724 16711746
11.156287 -5.3433847 34.635475 16711746
10.486057 -5.2364197 33.90818 16711746
5.8824077 -6.0190701 35.713833 16711746
20.802086 -10.496319 41.856236 16711746
7.0847344 -5.6959271 35.028553 16711746
12.320321 -5.0261302 33.454418 16711746
9.7182121 -5.4078269 34.330025 16711746
11.476006 -5.9578414 37.796597 16711746
12.926269 -5.4256473 35.638027 16711746
9.9077339 -5.4205031 33.98288 16711746
24.052757 -13.655319 45.589706 16711746
27.536552 -12.062483 48.175709 16711746
7.3869505 -6.6012697 38.626244 16711746
11.859674 -7.902905 37.37986 16711746
5.7927165 -14.693715 49.652424 16711746
11.169237 -6.8558722 42.418816 16711746
10.884402 -6.6009035 40.538601 16711746
7.9951868 -5.3971672 33.869343 16711746
22.331038 -11.786584 44.968666 16711746
13.953177 -11.838843 41.357151 16711746
10.813274 -7.3274527 38.777943 16711746
8.5657864 -7.9531026 46.261818 16711746
8.2036915 -4.224997 46.835739 16711746
26.72699 -15.023102 54.945183 16711746
30.9505 -11.696893 46.769173 16711746
24.599169 -13.237568 56.846302 16711746
24.551956 -13.041826 56.474503 16711746
13.705507 -9.2409678 42.207516 16711746
11.125977 -7.9948869 36.07151 16711746
12.703342 -5.293663 34.314991 16711746
7.63903 -5.4157338 34.114235 16711746
10.60111 -5.3369536 34.331985 16711746
10.832834 -5.3021193 34.231888 16711746
9.5494547 -5.357738 33.959747 16711746
11.52129 -5.2406454 34.131908 16711746
11.705637 -5.2171803 34.31871 16711746
12.509243 -5.2084312 33.998539 16711746
12.850073 -5.2531247 34.444 16711746
12.901047 -5.3157916 33.70953 16711746
12.055585 -5.3866572 34.623123 16711746
9.0430632 -5.2725315 33.782101 16711746
8.9307337 -5.4963069 33.90868 16711746
12.455739 -5.195415 34.393673 16711746
9.2094603 -5.3837066 34.287907 16711746
9.2214565 -5.4515576 34.15826 16711746
11.076678 -5.2326579 33.875835 16711746
7.4739075 -5.3213215 33.766487 16711746
8.0181713 -5.3645773 33.933472 16711746
8.8801432 -5.4342837 34.091499 16711746
10.341736 -5.2429523 33.895336 16711746
8.8763742 -5.4989858 34.265007 16711746
8.8339024 -5.6414151 34.823734 16711746
9.1477842 -5.3040977 33.747955 16711746
5.9402537 -6.1024523 35.726906 16711746
12.397461 -5.3857684 35.153961 16711746
11.435337 -5.41821 34.676918 16711746
13.322833 -5.2716308 34.542 16711746
13.202172 -5.2881365 34.837589 16711746
13.312856 -5.3476663 34.924419 16711746
12.836804 -5.1948051 34.128109 16711746
14.181545 -6.1318803 37.264679 16711746
9.723238 -5.2815886 34.083195 16711746
12.110167 -5.2941151 34.794815 16711746
10.123663 -5.2557402 34.026775 16711746
8.689189 -5.6349697 34.746395 16711746
5.8389387 -5.827004 35.211819 16711746
10.406672 -5.2841101 33.942894 16711746
9.8033638 -5.4031825 34.296215 16711746
7.4957705 -5.2640896 33.702507 16711746
13.89242 -5.451334 35.118374 16711746
9.641963 -5.4182491 34.331398 16711746
9.4192839 -5.914351 34.100487 16711746
9.1103573 -6.1280613 32.433475 16711746
10.381234 -5.3286371 33.854107 16711746
11.736537 -5.4226699 34.642155 16711746
8.9323368 -5.3598552 34.335228 16711746
11.36392 -5.6111326 35.82933 16711746
10.705921 -5.3635559 34.45319 16711746
12.435171 -5.6401582 36.444817 16711746
11.912951 -5.2943869 34.67588 16711746
10.813589 -5.1826491 33.808681 16711746
8.9361258 -5.7168074 35.132984 16711746
10.840218 -5.4327273 34.750763 16711746
11.154978 -5.3429909 34.621601 16711746
9.1116886 -5.3161664 33.914799 16711746
10.10415 -5.2230778 33.767555 16711746
10.282753 -5.5557971 34.995628 16711746
10.301736 -5.5145001 34.61264 16711746
8.0158806 -5.3632388 32.968071 16711746
13.38346 -5.2597904 34.60606 16711746
11.449315 -5.403388 34.687046 16711746
11.460155 -4.9512181 33.748955 16711746
9.5197229 -5.6794019 35.36615 16711746
9.9440918 -5.268219 34.075592 16711746
8.832881 -5.6464152 34.811386 16711746
9.7954092 -5.5676017 34.71349 16711746
10.444784 -5.2830477 33.808182 16711746
13.027145 -6.08459 38.72226 16711746
11.762315 -5.0072913 33.653671 16711746
11.71338 -5.1937819 34.149227 16711746
9.6298294 -5.4595442 34.438744 16711746
12.055532 -5.3267508 34.693634 16711746
6.0301151 -5.8118033 35.195904 16711746
3.1248348 -6.6553416 36.327614 16711746
9.2752895 -5.4395795 34.437897 16711746
13.030313 -5.1345406 35.386883 16711746
12.709343 -5.2457733 35.137173 16711746
9.799201 -5.3779984 34.364353 16711746
10.431532 -5.5281863 34.171211 16711746
12.993299 -5.2049198 34.583755 16711746
12.591329 -5.0926719 36.425354 16711746
9.327775 -5.7972188 34.947151 16711746
13.117065 -6.330461 36.798756 16711746
9.1900463 -5.6066685 35.042244 16711746
9.590827 -6.1837459 34.432621 16711746
8.8193808 -5.8715515 35.957012 16711746
10.29048 -5.605413 35.178909 16711746
12.307487 -5.1720657 34.515778 16711746
12.06343 -5.3109312 34.774719 16711746
9.509943 -5.6327705 34.936226 16711746
10.365991 -5.2045593 33.870304 16711746
10.835711 -5.4234281 34.795921 16711746
9.2951698 -5.7464924 35.442368 16711746
10.346824 -5.2559485 34.01408 16711746
7.1269183 -5.4314432 33.898396 16711746
7.4934564 -5.390007 33.285625 16711746
9.4840679 -6.4735169 34.368973 16711746
8.8479338 -5.9131455 35.962513 16711746
9.5486774 -5.8512945 35.811749 16711746
9.4819994 -5.3095345 34.026733 16711746
9.3165731 -5.3365779 34.068005 16711746
9.1823921 -6.3701248 32.419125 16711746
5.8894124 -5.7273445 34.569305 16711746
9.8573332 -5.4914012 34.517376 16711746
9.4814034 -5.5642123 34.65163 16711746
11.223509 -5.4507194 34.882236 16711746
9.5825796 -6.0142069 35.737297 16711746
14.450863 -5.4530616 36.134487 16711746
13.185902 -5.9858479 38.621632 16711746
11.477538 -5.2111797 34.155056 16711746
10.657714 -5.7877221 36.267353 16711746
14.081139 -8.0705261 39.969791 16711746
12.151711 -5.0715699 34.055141 16711746
10.06468 -5.468071 34.579395 16711746
10.589885 -5.3601465 34.291031 16711746
4.0592165 -6.3472533 35.449436 16711746
14.840754 -8.4305267 40.558243 16711746
6.8966637 -5.5451536 34.62162 16711746
9.8124475 -5.4072037 34.301159 16711746
11.019914 -7.9622822 35.837872 16711746
19.521421 -9.7526102 41.492798 16711746
11.099291 -5.3778057 34.491261 16711746
7.8459663 -5.801321 35.79961 16711746
13.754884 -5.5268054 35.984241 16711746
16.394838 -12.539771 42.769413 16711746
13.919313 -13.053349 43.660294 16711746
14.612596 -12.311521 43.428818 16711746
31.934626 -14.806133 49.814644 16711746
13.622811 -6.1096568 36.583885 16711746
25.63283 -12.435266 46.498367 16711746
7.0039101 -5.5476117 34.668549 16711746
29.322735 -10.649961 48.919823 16711746
26.124416 -11.818479 42.791355 16711746
23.885973 -11.728295 43.212032 16711746
-5.0245967 -19.57419 70.743584 16711746
21.693239 -15.379174 52.800663 16711746
0.42531225 -14.458624 55.262691 16711746
14.747622 -6.4605088 42.661247 16711746
24.163565 -9.9062557 41.080612 16711746
17.655518 -9.6187897 46.722031 16711746
31.458969 -12.577723 47.605518 16711746
15.636247 -13.510535 51.344379 16711746
18.768728 -14.373147 47.738201 16711746
12.231305 -5.331192 34.831879 16711746
9.8350477 -5.4794359 34.63118 16711746
9.7289743 -5.3468356 34.038963 16711746
9.7949095 -5.6174893 34.9389 16711746
7.8516588 -5.8995738 36.18383 16711746
9.527565 -5.7670326 35.167313 16711746
11.798665 -5.0928845 33.737553 16711746
10.157052 -5.5321751 34.86224 16711746
9.7281389 -5.3394237 34.05896 16711746
9.5032291 -5.5409884 34.6017 16711746
10.394176 -5.3656116 34.019699 16711746
8.3269939 -5.7786455 35.56366 16711746
9.2318258 -5.5403819 34.477158 16711746
10.909549 -5.2504835 34.024254 16711746
10.78261 -5.1527915 33.668095 16711746
10.433783 -5.3870678 34.396809 16711746
8.6337357 -5.8323674 35.946671 16711746
9.5141716 -5.3126073 33.934185 16711746
13.300963 -5.0577078 34.276173 16711746
11.835259 -5.2912312 34.54158 16711746
9.1897793 -5.3800383 34.040768 16711746
10.858378 -5.3530383 34.257225 16711746
12.47205 -5.331356 34.832253 16711746
9.6641645 -5.4278073 34.341599 16711746
7.852829 -5.8999953 36.183533 16711746
8.3873587 -5.6651249 35.150482 16711746
12.05587 -5.407258 34.725624 16711746
11.703121 -5.634882 34.345264 16711746
12.1949 -5.161109 34.17268 16711746
9.4015875 -6.3215456 34.911026 16711746
11.903612 -5.0349488 33.57032 16711746
9.8611307 -5.301753 34.167675 16711746
10.104337 -5.6305447 35.239548 16711746
8.4300346 -5.910099 36.098713 16711746
9.1393366 -6.2171245 32.593369 16711746
8.8947916 -5.9278979 35.867935 16711746
12.714276 -5.353889 33.902065 16711746
9.8410492 -5.364234 34.251724 16711746
8.8744907 -5.427855 34.026428 16711746
9.5315905 -6.1640887 34.862213 16711746
9.0876837 -5.5424538 34.701096 16711746
9.1412611 -5.3914685 33.900837 16711746
9.1113586 -5.9251676 36.307594 16711746
11.783295 -5.7689295 36.598316 16711746
12.121381 -5.1849151 34.471725 16711746
10.335834 -5.4597206 34.61652 16711746
13.414474 -5.5467839 35.901894 16711746
12.400976 -5.1611028 34.165932 16711746
9.5488243 -5.628541 34.773521 16711746
9.1132641 -5.9216938 36.29105 16711746
11.659252 -5.5441298 35.778484 16711746
7.7829909 -6.3386774 38.19978 16711746
10.708297 -5.4780865 35.068218 16711746
11.521234 -5.0498261 33.782494 16711746
10.391363 -5.3911996 34.630585 16711746
12.303987 -5.1971011 34.074463 16711746
2.7230704 -7.0275369 38.428459 16711746
9.9155712 -5.5905399 34.828716 16711746
11.853241 -5.5650358 35.670486 16711746
14.187507 -5.420537 35.562103 16711746
11.19162 -5.511045 35.218342 16711746
9.1132126 -5.4001627 34.104885 16711746
9.9002085 -5.3609309 34.243294 16711746
11.72082 -5.5945535 35.448921 16711746
11.562096 -5.2201591 34.204933 16711746
10.839849 -5.4306951 34.409306 16711746
9.9089041 -5.3253894 34.489861 16711746
8.8175888 -5.6624894 35.248272 16711746
9.6537399 -5.4171786 34.354778 16711746
9.8398838 -5.8446736 35.88361 16711746
9.6850977 -5.5330076 34.56004 16711746
9.7778502 -5.9094 35.332371 16711746
9.5645838 -5.5451903 34.68792 16711746
9.5214224 -5.6502042 34.740227 16711746
11.748294 -5.1641908 34.170414 16711746
10.213026 -5.2580509 34.050701 16711746
8.8505526 -5.5665431 34.376541 16711746
12.626806 -5.2299018 34.265224 16711746
9.0911589 -5.3829346 34.178314 16711746
5.6462293 -7.0852513 40.717762 16711746
11.466682 -5.4362545 35.137745 16711746
10.179223 -5.393177 34.344845 16711746
14.566368 -6.144814 39.359394 16711746
11.893808 -5.0501199 33.66671 16711746
15.664237 -5.4499383 36.465008 16711746
9.0503464 -5.3986812 34.057373 16711746
11.734708 -5.6543279 35.951679 16711746
11.030535 -5.4705076 35.042694 16711746
9.9263716 -6.0955777 37.054661 16711746
13.482961 -5.2585812 35.020973 16711746
9.5073509 -5.5030584 34.538292 16711746
9.0340796 -5.346303 33.689671 16711746
10.515719 -5.2452035 33.962006 16711746
13.459616 -6.5596509 40.019875 16711746
13.038502 -5.1487055 34.120846 16711746
11.680541 -5.2355261 34.281548 16711746
9.5784101 -5.5856218 34.818867 16711746
9.6873798 -5.8956108 36.326111 16711746
11.034519 -6.0839567 36.587357 16711746
10.246626 -5.3008242 34.147114 16711746
12.501825 -5.0486383 33.844803 16711746
7.9064798 -7.3763165 41.778851 16711746
13.853668 -6.448997 40.653889 16711746
11.164409 -5.963069 37.21196 16711746
30.986176 -12.222245 47.397617 16711746
19.594004 -11.880746 39.009636 16711746
10.237882 -6.2163053 38.53727 16711746
29.082548 -7.8678212 47.308048 16711746
27.22156 -7.7621517 48.295998 16711746
27.55372 -11.310243 46.41795 16711746
12.944068 -10.679921 40.471901 16711746
13.466388 -6.2174292 39.665241 16711746
12.907732 -10.470051 40.103924 16711746
15.718328 -12.713852 43.097225 16711746
22.930807 -10.318189 40.726856 16711746
6.9185762 -6.7934346 39.053375 16711746
11.883614 -6.2113495 38.836067 16711746
26.331789 -11.301781 43.196949 16711746
22.887104 -10.982257 45.237408 16711746
4.4078827 -15.52655 53.537762 16711746
10.191195 -15.471917 50.496902 16711746
13.277354 -11.445268 43.253742 16711746
4.1965404 -15.416978 52.220627 16711746
15.012058 -7.0220423 43.052082 16711746
14.584888 -6.6924543 39.958275 16711746
15.023798 -6.9940047 43.089264 16711746
9.012949 -6.135294 32.596718 16711746
30.80719 -15.450171 58.737968 16711746
31.469227 -12.851968 49.167904 16711746
13.284118 -14.88634 51.288563 16711746
32.378887 -12.216292 51.589462 16711746
36.130985 -19.695749 69.578224 16711746
12.512325 -5.2046695 34.645111 16711746
12.033615 -5.3177066 34.736893 16711746
10.27613 -5.2869215 34.196552 16711746
9.0460081 -5.4947076 34.425751 16711746
9.5771379 -6.184 34.617882 16711746
10.516411 -5.3273439 34.143646 16711746
10.872314 -5.4077644 34.477974 16711746
11.707654 -5.2112069 34.317692 16711746
9.5907278 -5.3686037 34.097382 16711746
9.7810287 -5.6264687 35.096909 16711746
8.3867502 -5.9089575 36.166122 16711746
11.049665 -5.4075785 34.42099 16711746
9.5040684 -6.4777565 34.371273 16711746
11.424429 -5.2044697 34.08329 16711746
9.5726042 -6.1892567 34.581245 16711746
10.261334 -5.4165969 34.476112 16711746
8.1791 -5.8678942 35.709057 16711746
10.303571 -5.4685721 34.746632 16711746
12.67079 -5.4426661 35.019886 16711746
8.8531094 -5.8787961 36.226997 16711746
7.5429525 -6.2928314 37.636578 16711746
9.0943871 -5.6014342 34.636646 16711746
11.160082 -5.4970584 34.764965 16711746
9.2066717 -6.0148411 35.258751 16711746
11.369482 -5.3005409 34.882397 16711746
9.3098736 -5.7619457 35.062553 16711746
8.0785532 -5.7525373 35.560013 16711746
8.72225 -5.5425878 34.200855 16711746
8.185998 -5.7938533 35.638687 16711746
8.9520254 -5.3290124 34.644669 16711746
8.2465696 -5.7941723 35.500988 16711746
13.384791 -5.4889584 35.722656 16711746
10.458657 -5.7964559 36.064083 16711746
10.079274 -5.8562756 35.914391 16711746
9.7554779 -5.8447976 36.096836 16711746
7.9976573 -6.4132233 38.202129 16711746
8.8661795 -5.8780284 36.184471 16711746
10.435334 -5.4026575 34.521233 16711746
12.133604 -5.6362605 36.251457 16711746
10.329717 -5.3357711 34.149075 16711746
8.6469574 -5.9952731 36.564285 16711746
11.326354 -5.5721951 35.512764 16711746
13.246803 -5.3851867 35.130066 16711746
9.9014206 -5.6917357 35.350464 16711746
12.235869 -5.2651157 33.642757 16711746
11.752063 -5.4344482 35.009022 16711746
9.9615088 -5.8815136 36.41507 16711746
9.9852848 -5.4604182 34.438446 16711746
10.039129 -5.6899042 35.371365 16711746
8.8335562 -5.6431909 34.824818 16711746
8.2181454 -5.8030639 35.292164 16711746
8.8410082 -5.4816804 34.259686 16711746
7.551043 -7.0601206 40.444298 16711746
15.968494 -5.2910848 36.354488 16711746
10.859801 -5.5636854 35.424213 16711746
10.803344 -5.3218703 34.370453 16711746
8.1869955 -5.8130784 35.634991 16711746
9.7619944 -6.3493953 36.073238 16711746
9.683053 -5.8233266 35.675194 16711746
12.923761 -5.2845817 35.914669 16711746
9.7239943 -6.2163687 36.05476 16711746
9.0003967 -6.1773562 32.575314 16711746
12.647562 -5.4144506 35.643269 16711746
9.0732546 -5.4716196 34.256943 16711746
14.234711 -6.0114822 38.442017 16711746
13.043526 -5.8712687 37.842319 16711746
10.957745 -5.67169 35.848263 16711746
8.9136419 -5.3957171 34.030125 16711746
10.305984 -5.6731973 35.555958 16711746
12.050474 -5.1460729 34.115623 16711746
9.8890638 -5.379004 34.251614 16711746
3.1151631 -6.9925132 39.918083 16711746
11.923759 -5.8834143 37.089432 16711746
11.155577 -5.8289628 36.497047 16711746
9.9233294 -6.111856 37.087505 16711746
19.065897 -6.5406771 41.158867 16711746
10.726753 -5.6779709 35.820412 16711746
5.9013209 -7.9123974 43.258698 16711746
16.921263 -6.2486458 39.721802 16711746
19.713152 -10.865163 40.829582 16711746
7.8024826 -6.5376554 37.889973 16711746
7.2761703 -7.1544847 41.016949 16711746
13.416892 -6.540206 37.944855 16711746
6.865696 -6.1199765 36.409595 16711746
12.347115 -6.14223 38.48299 16711746
11.175325 -5.518322 35.168518 16711746
11.24371 -5.3580203 34.62262 16711746
10.372545 -5.4774122 34.750507 16711746
24.416004 -11.187881 43.53912 16711746
3.5213263 -7.0940881 40.098427 16711746
0.0086112879 -13.3198 43.203983 16711746
18.650393 -6.2857194 39.726524 16711746
26.366888 -11.320424 45.776531 16711746
10.701098 -5.7554665 36.132721 16711746
11.411513 -5.3183136 34.445965 16711746
10.423758 -5.3406739 34.093021 16711746
24.796415 -10.163345 43.489319 16711746
14.040677 -6.5911393 41.896038 16711746
10.619725 -5.7261338 35.944191 16711746
13.95568 -5.4596977 36.314751 16711746
10.971098 -5.4713907 34.871731 16711746
12.888198 -5.5325823 36.123928 16711746
16.784931 -13.340643 43.544872 16711746
11.052521 -6.0745649 38.272915 16711746
18.518139 -13.995782 45.497696 16711746
10.767297 -6.355351 39.536575 16711746
27.08074 -13.351712 51.2827 16711746
6.5024462 -6.4366603 37.301678 16711746
21.898737 -14.049811 44.300014 16711746
27.925488 -12.781306 51.167992 16711746
29.593382 -14.578192 53.759727 16711746
7.2858024 -10.002566 41.022892 16711746
13.795124 -10.360143 44.4072 16711746
22.190226 -14.945956 49.584358 16711746
20.207577 -10.465507 50.766869 16711746
7.2356558 -6.1463499 37.071793 16711746
-11.696587 -12.782289 65.783905 16711746
31.609324 -14.465379 61.608143 16711746
10.102855 -14.433403 46.836819 16711746
8.7217255 -6.3446164 39.982586 16711746
10.256014 -5.7295704 35.625607 16711746
9.5062828 -5.5443969 34.601723 16711746
9.5228415 -5.8364115 34.951965 16711746
8.6293964 -5.7216935 35.182854 16711746
8.3375845 -5.7877412 35.542244 16711746
6.2128515 -6.152235 36.315578 16711746
10.565888 -5.6123114 35.532101 16711746
9.9161882 -5.5720201 34.872684 16711746
10.921945 -5.3708968 34.60849 16711746
8.2256451 -5.6386471 34.546192 16711746
9.6685524 -5.7507019 35.801414 16711746
13.3423 -5.8348498 35.219265 16711746
9.1829414 -5.9829426 35.668186 16711746
9.7444458 -5.5330329 34.631878 16711746
8.2309103 -5.6326456 34.561485 16711746
8.4102449 -5.9103332 36.082485 16711746
7.8522434 -5.8981395 36.183697 16711746
9.7052841 -5.8873682 36.315228 16711746
9.3178253 -5.6047382 34.696716 16711746
12.161462 -5.803463 36.345215 16711746
9.309804 -5.6160488 34.802353 16711746
7.3361707 -5.9183135 36.175163 16711746
8.0917377 -5.6685843 34.960098 16711746
8.2209005 -5.6311011 34.553101 16711746
6.2000656 -6.625433 38.030739 16711746
6.0960512 -6.2628613 36.83197 16711746
10.096838 -5.3785763 34.867306 16711746
11.845161 -5.3158951 34.822018 16711746
7.2948403 -5.8358045 35.614052 16711746
7.9397111 -5.6581898 34.821701 16711746
9.4599237 -5.4868941 34.589554 16711746
9.5260277 -5.5676332 34.718464 16711746
13.080002 -5.2532296 35.511948 16711746
9.187252 -5.6211228 34.790848 16711746
10.050168 -5.4967914 34.844482 16711746
8.4648533 -5.6995373 34.9674 16711746
9.4593334 -5.5247216 34.785957 16711746
9.5299206 -5.7929268 36.353527 16711746
9.8371677 -5.6004238 34.803429 16711746
6.5738778 -6.4631791 37.204483 16711746
7.7864661 -6.1411042 37.452618 16711746
13.902007 -5.4849358 36.126331 16711746
10.2266 -5.4522285 34.65876 16711746
9.9522638 -6.2148838 37.748207 16711746
11.620984 -5.5691652 35.157898 16711746
10.750896 -5.479228 35.20826 16711746
18.651512 -9.270834 37.694717 16711746
8.869853 -5.6806092 35.293644 16711746
13.770257 -5.3728075 35.640797 16711746
8.8400621 -5.6783681 35.119259 16711746
10.967862 -5.7167354 36.083717 16711746
10.073585 -5.8225923 36.173611 16711746
10.584187 -5.5270467 35.0797 16711746
9.9601879 -5.6092219 34.927696 16711746
9.6760445 -5.7725425 35.660145 16711746
8.5849876 -5.9639888 36.618279 16711746
7.844399 -5.9080687 36.190407 16711746
6.1965599 -7.5548925 40.961868 16711746
9.5201321 -5.6910934 35.271507 16711746
-0.24151003 -7.9323335 43.702908 16711746
10.50582 -6.0160952 37.443645 16711746
9.7823582 -5.4857101 34.724545 16711746
10.423909 -7.2565427 34.043755 16711746
9.6219692 -5.9018621 36.154221 16711746
6.1597953 -7.00772 39.9328 16711746
10.470568 -5.9338083 36.707596 16711746
10.040514 -5.5246549 34.702557 16711746
9.9664402 -5.6041183 34.960011 16711746
10.141957 -6.4338121 39.290535 16711746
11.914932 -5.7190185 36.40295 16711746
6.2556667 -12.158415 42.07534 16711746
14.074769 -5.8978162 38.115589 16711746
10.973493 -5.4739685 34.866077 16711746
6.8857832 -5.762249 35.407612 16711746
10.730182 -6.0518994 37.380524 16711746
9.7762995 -6.3676023 36.085835 16711746
10.944918 -8.9319506 37.622555 16711746
6.7757215 -6.9551721 39.732742 16711746
7.6853456 -11.255802 42.053581 16711746
10.334808 -5.6105671 35.393059 16711746
8.058876 -6.4057984 38.361187 16711746
11.44146 -6.0626493 38.07021 16711746
9.7892065 -5.6429377 35.014763 16711746
10.207514 -5.4448562 34.620869 16711746
11.591468 -5.7840352 36.860062 16711746
11.263472 -5.4119825 34.786823 16711746
13.838907 -6.2079401 38.21442 16711746
13.440548 -5.4538713 34.710598 16711746
12.099834 -5.3837552 35.250347 16711746
6.7948136 -5.8554111 35.55909 16711746
11.378141 -5.9991398 37.335255 16711746
9.2714729 -5.6863365 35.043854 16711746
10.975453 -5.7993217 36.490955 16711746
10.703722 -5.4872098 35.046955 16711746
10.633324 -5.7238636 35.973564 16711746
10.153751 -5.7512498 35.723454 16711746
23.307205 -11.06444 44.117214 16711746
11.22497 -9.8564692 39.930531 16711746
4.4585814 -7.7392592 43.422905 16711746
11.407907 -5.7331281 36.312782 16711746
13.533464 -5.7302012 37.177608 16711746
26.090122 -13.090294 49.720913 16711746
29.934669 -15.814282 46.528744 16711746
29.668665 -14.714293 53.904602 16711746
21.901293 -15.480299 53.055431 16711746
-8.3576746 -14.872914 72.190048 16711746
7.816576 -15.371616 47.955006 16711746
21.48624 -14.489813 55.133675 16711746
6.4982491 -6.5827322 37.526657 16711746
12.40016 -8.8054104 40.295303 16711746
9.5976877 -6.1834245 34.473621 16711746
9.9018936 -5.6926093 35.346008 16711746
8.3515587 -5.6050711 34.179878 16711746
7.8989687 -5.7106438 34.848206 16711746
10.707153 -5.549962 35.348793 16711746
11.822721 -5.7541518 36.600227 16711746
10.121219 -5.6424475 35.254414 16711746
9.4753532 -5.4906864 34.452957 16711746
10.870952 -5.6580234 35.824406 16711746
8.8083487 -5.7529969 35.464954 16711746
10.153772 -5.8421836 35.758991 16711746
8.847312 -5.8823886 36.181171 16711746
9.5316725 -5.7470894 35.379375 16711746
9.4615736 -5.7635632 35.246784 16711746
6.0616655 -6.0354419 35.746738 16711746
7.9050012 -5.8911033 35.533577 16711746
7.9291639 -5.8802037 35.572392 16711746
7.6470184 -5.6288376 34.476948 16711746
8.8937521 -5.6207848 34.753654 16711746
6.1733904 -6.2352705 36.791531 16711746
3.9469786 -6.656188 38.522209 16711746
8.579071 -5.6848054 34.927994 16711746
6.5883317 -6.0205913 35.795036 16711746
6.1443906 -6.1497288 36.374504 16711746
9.7695093 -6.2531509 38.19397 16711746
9.4032993 -5.5807948 34.63644 16711746
6.9840436 -5.7840009 34.174915 16711746
10.446391 -5.663846 35.773811 16711746
13.099656 -5.4469066 35.935558 16711746
9.5548067 -6.1657028 34.754864 16711746
8.8908949 -5.9173055 36.020718 16711746
11.93433 -5.810576 36.669529 16711746
9.5818987 -5.8783884 34.67337 16711746
6.2991781 -6.6100698 37.901249 16711746
9.9592104 -5.5159345 34.7547 16711746
9.4928236 -5.6085081 34.841858 16711746
9.6802855 -5.8390775 36.763664 16711746
8.3998384 -5.4831548 34.057354 16711746
10.000795 -6.420145 38.11121 16711746
10.277383 -5.6888638 35.508713 16711746
7.5597644 -5.8508077 35.613136 16711746
5.4011068 -6.6785045 36.053062 16711746
11.062307 -5.549818 34.83033 16711746
8.1126318 -5.5785294 34.188351 16711746
9.0664024 -5.6070614 34.496323 16711746
6.3724213 -6.2257442 36.37698 16711746
5.0309582 -7.7058554 41.855034 16711746
9.453598 -5.7391424 35.613956 16711746
9.8717146 -5.6093807 34.997753 16711746
10.776438 -5.6373119 35.375107 16711746
9.9155321 -6.0015192 36.39719 16711746
6.4542518 -7.0203748 40.519447 16711746
8.240756 -5.8697681 37.640697 16711746
10.27893 -5.6721616 35.600475 16711746
9.7544374 -5.5791721 35.248821 16711746
7.16676 -5.7803812 35.740925 16711746
6.2380242 -7.0211072 37.311424 16711746
13.417368 -5.8661447 37.312294 16711746
10.963614 -6.0976801 37.799622 16711746
10.895597 -5.525712 35.286411 16711746
8.3975439 -5.673799 35.147629 16711746
11.3284 -5.4060955 35.085243 16711746
10.660578 -5.7946606 36.221771 16711746
