# .PCD v.7 - Point Cloud Data file format
VERSION .7
FIELDS x y z rgb
SIZE 4 4 4 4
TYPE F F F F
COUNT 1 1 1 1
WIDTH 235
HEIGHT 1
VIEWPOINT 0 0 0 1 0 0 0
POINTS 235
DATA ascii

 0.0877992 -0.0091866 -0.0895105 16777215
 0.0849254 -0.0073425 -0.0915917 16777215
 0.0832073 -0.0059313 -0.0924206 16777215
 0.0823399 -0.0053543 -0.0930726 16777215
 0.0809835 -0.0033485 -0.0944316 16777215
 0.0806136 -0.0029761 -0.0947046 16777215
 0.0801506 -0.0024768 -0.0949179 16777215
 0.0793562 -0.0023913 -0.0965547 16777215
 0.0798822 -0.0014869 -0.0978086 16777215
 0.0802861 -0.0005125 -0.0989715 16777215
 0.0813639 -0.0003368 -0.0997145 16777215
 0.0844993 0.0016524 -0.1011999 16777215
 0.0840756 0.0018349 -0.1026358 16777215
 0.0825726 0.0025625 -0.1038095 16777215
 0.0820378 0.0010326 -0.1021018 16777215
 0.0815559 -0.0008501 -0.0995626 16777215
 0.0811088 -0.0066716 -0.0945277 16777215
 0.0815553 -0.0111305 -0.0872863 16777215
 0.0809461 -0.0139148 -0.0816105 16777215
 0.0846729 -0.0181771 -0.0738194 16777215
 0.0909490 -0.0241575 -0.0642804 16777215
 0.0929331 -0.0262287 -0.0534718 16777215
 0.0944787 -0.0313214 -0.0409781 16777215
 0.0962444 -0.0317593 -0.0295722 16777215
 0.0955340 -0.0282547 -0.0219651 16777215
 0.1018468 -0.0294020 0.0026937 16777215
 0.1064917 -0.0384376 0.0230927 16777215
 0.1055037 -0.0519437 0.0302615 16777215
 0.1026602 -0.0538271 0.0365533 16777215
 0.0994777 -0.0577569 0.0431418 16777215
 0.1019872 -0.0634722 0.0567870 16777215
 0.1104844 -0.0669458 0.0597003 16777215
 0.1124498 -0.0561280 0.0866252 16777215
 0.1212389 -0.0617997 0.0830424 16777215
 0.1083156 -0.0548695 0.1108069 16777215
 0.1033907 -0.0497248 0.1161651 16777215
 0.1105618 -0.0725685 0.1246864 16777215
 0.1242002 -0.0761013 0.1323767 16777215
 0.1221046 -0.0770192 0.1405777 16777215
 0.1279218 -0.0766864 0.1457984 16777215
 0.1301867 -0.0721902 0.1536311 16777215
 0.1389112 -0.0819047 0.1610195 16777215
 0.1369210 -0.0883057 0.1651035 16777215
 0.1398361 -0.0859582 0.1761849 16777215
 0.1419831 -0.0907011 0.1804797 16777215
 0.1547049 -0.0885528 0.1935625 16777215
 0.1482241 -0.0908283 0.1955108 16777215
 0.1484438 -0.0922493 0.2074676 16777215
 0.1502535 -0.1009113 0.2165844 16777215
 0.1463770 -0.1056531 0.2219438 16777215
 0.1525416 -0.1084229 0.2297858 16777215
 0.1563949 -0.1073118 0.2390188 16777215
 0.1567919 -0.1119453 0.2496252 16777215
 0.1548103 -0.1146698 0.2541401 16777215
 0.1605658 -0.1209843 0.2650193 16777215
 0.1638584 -0.1189835 0.2757858 16777215
 0.1619298 -0.1199029 0.2864671 16777215
 0.1627499 -0.1263674 0.2952324 16777215
 0.1661609 -0.1271530 0.3006888 16777215
 0.1671380 -0.1301682 0.3057484 16777215
 0.1690284 -0.1287226 0.3153787 16777215
 0.1648567 -0.1321230 0.3221749 16777215
 0.1654241 -0.1364880 0.3297372 16777215
 0.1718242 -0.1364802 0.3397606 16777215
 0.1760512 -0.1374230 0.3483879 16777215
 0.1760562 -0.1406713 0.3546586 16777215
 0.1741255 -0.1445304 0.3599354 16777215
 0.1731605 -0.1477979 0.3662513 16777215
 0.1783691 -0.1462953 0.3729736 16777215
 0.1791872 -0.1483627 0.3828134 16777215
 0.1765557 -0.1475539 0.3882679 16777215
 0.1776368 -0.1448294 0.3917033 16777215
 0.1780799 -0.1416085 0.3990047 16777215
 0.1812074 -0.1335112 0.4057283 16777215
 0.1763297 -0.1309458 0.4131026 16777215
 0.1697980 -0.1145576 0.4198696 16777215
 0.1665981 -0.1038758 0.4271169 16777215
 0.1673249 -0.1018601 0.4319935 16777215
 0.1514579 -0.0942712 0.4387849 16777215
 0.1582495 -0.0991149 0.4423394 16777215
 0.1618421 -0.1004313 0.4495178 16777215
 0.1587756 -0.1031971 0.4546576 16777215
 0.1598824 -0.1008385 0.4599220 16777215
 0.1652983 -0.0997122 0.4667400 16777215
 0.1651385 -0.1004473 0.4732137 16777215
 0.1669125 -0.1047260 0.4767042 16777215
 0.1661956 -0.1059090 0.4812739 16777215
 0.1667815 -0.1077171 0.4896267 16777215
 0.1659536 -0.1088334 0.4948783 16777215
 0.1695117 -0.1119739 0.5008071 16777215
 0.1687424 -0.1143060 0.5061642 16777215
 0.1705939 -0.1159625 0.5112206 16777215
 0.1671874 -0.1154627 0.5171753 16777215
 0.1718711 -0.1136360 0.5233840 16777215
 0.1709269 -0.1151603 0.5289046 16777215
 0.1683595 -0.1169584 0.5331320 16777215
 0.1686793 -0.1168535 0.5374940 16777215
 0.1714745 -0.1184831 0.5453886 16777215
 0.1740834 -0.1208169 0.5492616 16777215
 0.1728334 -0.1207428 0.5563554 16777215
 0.1728852 -0.1217069 0.5608865 16777215
 0.1723333 -0.1224729 0.5668306 16777215
 0.1750484 -0.1245621 0.5730882 16777215
 0.1726668 -0.1236944 0.5807371 16777215
 0.1733771 -0.1261467 0.5883949 16777215
 0.1729680 -0.1291621 0.5904971 16777215
 0.1721319 -0.1298491 0.5962451 16777215
 0.1733043 -0.1332695 0.5988330 16777215
 0.1715112 -0.1339249 0.6039011 16777215
 0.1710862 -0.1344331 0.6078885 16777215
 0.1725310 -0.1349724 0.6141689 16777215
 0.1728266 -0.1375682 0.6173593 16777215
 0.1723158 -0.1366314 0.6228580 16777215
 0.1724169 -0.1375995 0.6291565 16777215
 0.1710141 -0.1329771 0.6363878 16777215
 0.1706720 -0.1338235 0.6423084 16777215
 0.1717124 -0.1352959 0.6456377 16777215
 0.1629685 -0.1299729 0.6517715 16777215
 0.1635236 -0.1261849 0.6557173 16777215
 0.1642794 -0.1245213 0.6589715 16777215
 0.1633404 -0.1262754 0.6604711 16777215
 0.1628935 -0.1217668 0.6639997 16777215
 0.1599908 -0.1147934 0.6653241 16777215
 0.1615373 -0.1140100 0.6669584 16777215
 0.1615361 -0.1131567 0.6692367 16777215
 0.1538803 -0.1128248 0.6708121 16777215
 0.1481978 -0.1090578 0.6766596 16777215
 0.1489462 -0.1029216 0.6791983 16777215
 0.1474551 -0.1046856 0.6806047 16777215
 0.1468650 -0.1041076 0.6826410 16777215
 0.1318891 -0.0986927 0.6837673 16777215
 0.1344983 -0.0966697 0.6865329 16777215
 0.1360552 -0.0986300 0.6915820 16777215
 0.1374609 -0.0987639 0.6952639 16777215
 0.1374136 -0.0994749 0.6966277 16777215
 0.1371478 -0.0980594 0.6973904 16777215
 0.1380636 -0.0982507 0.7014012 16777215
 0.1400837 -0.0986498 0.7039747 16777215
 0.1397109 -0.0982221 0.7075703 16777215
 0.1401798 -0.0977933 0.7090167 16777215
 0.1391675 -0.0984959 0.7101028 16777215
 0.1410763 -0.1007685 0.7123945 16777215
 0.1381713 -0.1015396 0.7143967 16777215
 0.1385827 -0.1032035 0.7169813 16777215
 0.1371210 -0.0999720 0.7178019 16777215
 0.1388599 -0.1018841 0.7191373 16777215
 0.1403268 -0.1030630 0.7212783 16777215
 0.1389042 -0.1017987 0.7230110 16777215
 0.1405273 -0.1039248 0.7238547 16777215
 0.1400061 -0.1021451 0.7246524 16777215
 0.1390308 -0.1020445 0.7258185 16777215
 0.1392355 -0.1028914 0.7261080 16777215
 0.1398915 -0.1033424 0.7276447 16777215
 0.1394965 -0.1035352 0.7288168 16777215
 0.1405882 -0.1039410 0.7298242 16777215
 0.1409982 -0.1040134 0.7316926 16777215
 0.1422905 -0.1025501 0.7335768 16777215
 0.1409468 -0.1044907 0.7345527 16777215
 0.1396590 -0.1010948 0.7360620 16777215
 0.1418990 -0.1035480 0.7378639 16777215
 0.1417487 -0.1030922 0.7387406 16777215
 0.1420473 -0.1037142 0.7403590 16777215
 0.1413589 -0.1026959 0.7417425 16777215
 0.1394169 -0.1020375 0.7425210 16777215
 0.1433225 -0.1037281 0.7439042 16777215
 0.1439890 -0.1043772 0.7466156 16777215
 0.1446120 -0.1047308 0.7473448 16777215
 0.1417264 -0.1032412 0.7483331 16777215
 0.1436745 -0.1030984 0.7506314 16777215
 0.1444421 -0.1050434 0.7514329 16777215
 0.1439840 -0.1065512 0.7518772 16777215
 0.1433291 -0.1042896 0.7538046 16777215
 0.1439098 -0.1041849 0.7542437 16777215
 0.1444117 -0.1063439 0.7580470 16777215
 0.1456488 -0.1057660 0.7598594 16777215
 0.1447802 -0.1055246 0.7603362 16777215
 0.1446363 -0.1075354 0.7599876 16777215
 0.1457045 -0.1072385 0.7611146 16777215
 0.1464387 -0.1074228 0.7641479 16777215
 0.1458380 -0.1082898 0.7649082 16777215
 0.1458449 -0.1088051 0.7653632 16777215
 0.1459249 -0.1093553 0.7661207 16777215
 0.1463026 -0.1087153 0.7667851 16777215
 0.1460425 -0.1089132 0.7674190 16777215
 0.1451088 -0.1072649 0.7687235 16777215
 0.1449952 -0.1055155 0.7696044 16777215
 0.1454458 -0.1057186 0.7700460 16777215
 0.1466044 -0.1033629 0.7736559 16777215
 0.1467402 -0.1035272 0.7757038 16777215
 0.1459623 -0.1030859 0.7756651 16777215
 0.1455454 -0.1030993 0.7770520 16777215
 0.1457821 -0.1021322 0.7784918 16777215
 0.1459088 -0.1026391 0.7791053 16777215
 0.1446989 -0.1027618 0.7802588 16777215
 0.1443420 -0.1018707 0.7821979 16777215
 0.1447773 -0.1020381 0.7834268 16777215
 0.1440757 -0.1020822 0.7839986 16777215
 0.1438563 -0.1023954 0.7851675 16777215
 0.1424233 -0.1010658 0.7864670 16777215
 0.1438039 -0.1013477 0.7876316 16777215
 0.1431994 -0.1011970 0.7878969 16777215
 0.1418668 -0.0996857 0.7896094 16777215
 0.1401433 -0.0980122 0.7897611 16777215
 0.1396055 -0.0987471 0.7911693 16777215
 0.1402355 -0.0987818 0.7923570 16777215
 0.1394628 -0.0972425 0.7934608 16777215
 0.1379948 -0.0974272 0.7939789 16777215
 0.1406613 -0.0983105 0.7949805 16777215
 0.1401628 -0.0985660 0.7958077 16777215
 0.1405959 -0.0995227 0.7973933 16777215
 0.1389813 -0.0977828 0.7977948 16777215
 0.1399510 -0.0983987 0.7986177 16777215
 0.1409763 -0.1001053 0.7999611 16777215
 0.1402403 -0.0991541 0.8004265 16777215
 0.1390236 -0.0976865 0.8006269 16777215
 0.1400140 -0.0983476 0.8012482 16777215
 0.1404310 -0.0987525 0.8018147 16777215
 0.1393145 -0.0977583 0.8024003 16777215
 0.1377475 -0.0957593 0.8025717 16777215
 0.1393214 -0.0972984 0.8040778 16777215
 0.1400482 -0.0981567 0.8048310 16777215
 0.1386543 -0.0973784 0.8046387 16777215
 0.1391394 -0.0975000 0.8052850 16777215
 0.1407821 -0.0978336 0.8066405 16777215
 0.1405945 -0.0980248 0.8074273 16777215
 0.1398175 -0.0976139 0.8075799 16777215
 0.1401107 -0.0984589 0.8084565 16777215
 0.1405836 -0.0985559 0.8094559 16777215
 0.1402317 -0.0989490 0.8096681 16777215
 0.1398549 -0.0991535 0.8102287 16777215
 0.1392476 -0.0991196 0.8102491 16777215
 0.1401646 -0.0998693 0.8111226 16777215
 0.1400751 -0.1001359 0.8113887 16777215
 0.1310755 -0.1028076 0.8051801 16777215
 0.1260444 -0.1048870 0.8024495 16777215
