# .PCD v.7 - Point Cloud Data file format
VERSION .7
FIELDS x y z rgb
SIZE 4 4 4 4
TYPE F F F F
COUNT 1 1 1 1
WIDTH 422
HEIGHT 1
VIEWPOINT 0 0 0 1 0 0 0
POINTS 422
DATA ascii

-1.3223981 -1.0066185 -0.2091725 16711746
-2.1106789 -2.8912523 0.6773264 16711746
-0.8836384 -1.6271343 1.0307198 16711746
-1.0241144 -1.6818509 1.0127382 16711746
-1.7786891 -2.7718446 0.8029159 16711746
-1.7745191 -3.3353150 0.5347466 16711746
-1.2665498 -1.9617056 0.9367830 16711746
-1.0402076 -1.7655814 0.9914106 16711746
-2.7431684 -3.8255749 0.1564391 16711746
-1.6463586 -2.8174925 0.6686476 16711746
-2.0020761 -3.2423663 0.7666463 16711746
-1.8579289 -2.9511602 0.6300250 16711746
-1.8278106 -2.5425389 0.7814162 16711746
-1.2810234 -1.8928739 0.9447903 16711746
-0.8931453 -1.7344052 1.0157917 16711746
-0.7869578 -1.7991859 1.0160155 16711746
-0.7837739 -1.5757644 1.0530324 16711746
-1.6451721 -2.4951129 0.8828360 16711746
-0.5462468 -0.9852186 1.0107918 16711746
-0.6097018 -1.0678065 0.9983762 16711746
0.0422007 -1.5553054 0.6478396 16711746
-2.8433094 -4.0000539 0.6355397 16711746
-1.0410435 -1.7400494 0.9918717 16711746
-1.9345107 -3.2410131 0.3237641 16711746
-2.1812997 -3.7205327 0.6224346 16711746
-0.9503732 -2.3454998 0.8245553 16711746
-1.1352763 -1.6876806 0.9806811 16711746
-1.2770281 -2.1491263 0.8952783 16711746
-0.9039860 -1.7461926 1.0194156 16711746
-1.1181091 -1.9723405 1.0417992 16711746
-1.2572056 -1.5934743 0.9791492 16711746
-0.8869855 -1.6283245 1.0281398 16711746
-0.9371168 -2.1779630 0.8942677 16711746
-0.9168490 -2.2759123 0.8539150 16711746
-0.9114055 -1.9139733 0.9766070 16711746
-1.8237232 -2.7022014 0.9828325 16711746
-1.1209458 -2.1616721 0.8979601 16711746
-1.4515955 -2.0631089 0.8999647 16711746
-2.0150006 -2.4280677 0.9321196 16711746
-1.1401259 -2.0537944 1.0250089 16711746
-1.2644192 -1.9621059 0.9340421 16711746
-0.4622146 -1.0363177 1.1010535 16711746
-0.4815738 -0.8347918 0.9913092 16711746
-0.6731732 -0.9095269 0.9229371 16711746
-0.5368543 -1.3067372 1.0599072 16711746
-0.7019929 -1.3991131 1.0797114 16711746
-0.6195520 -1.5194831 1.0877123 16711746
-0.5063002 -1.1549135 1.0213002 16711746
-0.8868560 -1.2795044 1.0258708 16711746
-2.1204181 -2.7530215 0.7204632 16711746
-2.0108006 -3.5516632 0.4933389 16711746
-2.4912398 -3.9770544 0.4053452 16711746
-2.6539621 -4.1044259 0.3566345 16711746
-1.8108332 -2.6364074 0.9046604 16711746
-0.5108002 -1.4811884 0.9586199 16711746
-2.1372502 -3.4879854 0.5920474 16711746
-2.0392652 -3.5248258 0.5451580 16711746
-0.9404107 -2.1799414 0.8923004 16711746
-0.8888909 -1.9473195 0.8711963 16711746
-3.0118229 -4.2420034 0.3813995 16711746
-2.0614157 -3.2516949 0.8866638 16711746
-1.3672595 -2.3083043 1.2479228 16711746
-0.9524881 -1.9137478 0.9809756 16711746
-1.0542707 -1.8593085 0.9708911 16711746
-0.6459533 -1.6677666 0.9744701 16711746
-0.8096777 -1.8406708 1.0339832 16711746
-0.5755397 -1.7323382 1.0515939 16711746
-1.1513861 -1.6944489 0.9737272 16711746
-0.8690884 -1.4388459 0.9483737 16711746
-0.8899161 -1.6330198 1.0247188 16711746
-0.7347132 -1.9689976 0.8695346 16711746
-0.5961595 -1.8674711 1.0100399 16711746
-0.5028545 -1.1256038 1.1946759 16711746
-0.4696409 -1.1289922 1.0949022 16711746
-0.6584160 -1.3201309 1.0105814 16711746
-0.5433403 -1.4397974 1.0368655 16711746
-0.4967937 -1.2576592 1.0658165 16711746
-0.8828529 -1.4474583 1.0480272 16711746
-2.4913726 -3.3113327 0.7403658 16711746
-3.0662405 -4.4450560 0.2641850 16711746
-1.9661133 -2.7036374 0.7276865 16711746
-2.4311788 -3.2486134 0.7565414 16711746
-1.4160610 -2.6246414 0.7321849 16711746
-1.9050678 -3.4209936 0.5343359 16711746
-0.6263969 -1.8705947 0.8922011 16711746
-1.3842324 -2.5103564 0.9484384 16711746
-1.1507449 -2.0728345 0.7726796 16711746
-1.9739417 -3.5493026 0.5571007 16711746
-2.2363005 -3.8585451 0.5928458 16711746
-2.2257135 -3.9311800 0.5431714 16711746
-0.1274242 -1.6640204 0.6241934 16711746
-2.6196074 -2.8618326 0.9149662 16711746
-0.7948197 -1.7755704 1.0247139 16711746
-0.8115370 -1.8547641 0.9955149 16711746
-0.5534947 -1.7413043 0.9445131 16711746
-1.4379284 -2.1179833 1.0394704 16711746
-1.3856804 -1.7312731 1.0664736 16711746
-0.9248406 -1.5318838 1.0204595 16711746
-1.0792842 -1.5634034 0.9859996 16711746
-0.8854474 -1.6242416 1.0231436 16711746
-1.1516242 -1.6841707 0.9692637 16711746
-0.7702924 -2.0845993 0.9266291 16711746
-0.6224852 -1.8193343 0.9118906 16711746
-1.7571228 -2.6033788 0.9392711 16711746
-1.0848070 -1.9531306 0.9468389 16711746
-1.4286047 -2.3784907 0.9882967 16711746
-0.7417136 -1.0413210 1.0272202 16711746
-0.5807782 -1.4250597 1.0159973 16711746
-0.4531532 -1.4212350 1.0426629 16711746
-0.5833442 -1.1855692 1.0284104 16711746
-0.5886534 -1.2144535 1.0273435 16711746
-0.7482074 -1.1523094 0.9726754 16711746
-2.0884221 -2.8877494 0.4841405 16711746
-2.9222693 -3.2162962 0.8532730 16711746
-2.4918308 -3.3207679 0.7744249 16711746
-3.3188558 -4.0608196 -0.0034984 16711746
-1.9095606 -3.2457426 0.7118244 16711746
-1.6275551 -2.5214612 0.7755273 16711746
-1.0763178 -2.3573823 0.8240354 16711746
-1.3379971 -2.6657519 0.8873926 16711746
-1.0784537 -2.2790394 0.7144991 16711746
-2.4591584 -3.7008386 0.5512922 16711746
-2.0724730 -3.3155880 0.4660523 16711746
-0.1564114 -1.6503040 1.1448883 16711746
-0.8651946 -1.3203571 1.0249350 16711746
-0.8615580 -1.1926094 0.9208286 16711746
-1.9475009 -2.7857101 0.9345378 16711746
-0.8310982 -2.0790591 0.7747260 16711746
-0.5727551 -1.7024609 1.0560970 16711746
-0.1329435 -1.9744331 0.7869273 16711746
-0.3550153 -1.1850489 1.0801674 16711746
-0.6830139 -0.9359827 0.9403703 16711746
-0.7984892 -1.3113483 0.9494013 16711746
-1.0201887 -1.4697170 1.0206223 16711746
-1.2163141 -2.4303856 0.8066711 16711746
-0.8190731 -1.0481137 0.9110736 16711746
-0.7266161 -2.1302040 0.7464898 16711746
-0.6185145 -2.1358092 0.7356118 16711746
-0.9306853 -2.4059784 0.7917808 16711746
-1.1026802 -2.8949101 0.7719445 16711746
-0.6006077 -2.5042677 0.8080239 16711746
-0.9733754 -1.4319810 0.9018521 16711746
-2.7949564 -3.8364491 0.6592678 16711746
-0.3582389 -1.2475759 1.0733212 16711746
-0.5744725 -1.4889213 1.1951365 16711746
-1.2308178 -2.8521919 0.8231317 16711746
-1.3122541 -2.6434371 0.7137999 16711746
-0.5299411 -1.6073596 0.9680784 16711746
-0.5445305 -1.4683990 0.9980180 16711746
-0.6253213 -1.5860852 0.9593614 16711746
-0.8455175 -1.8828224 1.1380590 16711746
-1.3707277 -3.1709876 0.6731456 16711746
0.5091252 -1.6820800 0.8316112 16711746
-0.2391143 -1.4242628 1.1720130 16711746
-2.9485037 -2.8388608 0.7457385 16711746
-2.0301223 -2.9811847 0.8816498 16711746
-1.7729628 -2.7518346 0.6953410 16711746
-0.2666165 -1.9200543 0.4671647 16711746
-2.6317670 -3.6372743 0.3967879 16711746
-0.4287595 -1.4700969 1.0190169 16711746
-0.7967817 -1.7873579 1.0219359 16711746
-0.7477040 -1.7274333 0.9068292 16711746
0.3562579 -1.4857364 0.7163789 16711746
-0.8698213 -2.4784031 0.5428563 16711746
-1.9200193 -3.7708683 0.4480166 16711746
-2.2561107 -3.9001820 0.4791367 16711746
-1.6641608 -2.7064438 0.4363313 16711746
-0.9433997 -1.9990094 0.9444720 16711746
-0.8516242 -1.8681177 0.8547583 16711746
-1.6302812 -2.1884863 1.0486315 16711746
-1.0709720 -1.9148711 0.9509727 16711746
-0.8045889 -2.2726998 1.0298436 16711746
-0.9174681 -2.1397936 0.9072938 16711746
0.5906572 -1.8620735 1.0745692 16711746
-0.4410357 -1.0004439 1.0500269 16711746
-1.3307623 -1.9436083 0.9468437 16711746
-1.6327016 -2.0899553 0.6800796 16711746
0.4835936 -1.6119412 0.4448727 16711746
-1.6515046 -1.9894012 0.9129642 16711746
0.9394667 -4.0662141 2.2209146 16711746
-2.9773598 -3.3238153 0.2483478 16711746
0.0316630 -1.3378623 0.7984452 16711746
-0.6268527 -1.2929745 1.1032909 16711746
-0.6322846 -1.2748218 0.9766342 16711746
-1.4438763 -2.7431991 0.9484763 16711746
-1.0432945 -2.2339244 0.6714398 16711746
-0.2356730 -1.9221287 0.8033409 16711746
-0.6687008 -0.9178376 0.9233861 16711746
-0.8418444 -1.3893464 0.9136514 16711746
-0.7982045 -2.3158779 0.8223396 16711746
-0.5779095 -2.0794513 0.7340700 16711746
-1.0634243 -2.7263072 0.9037784 16711746
-0.9989452 -2.3113110 0.6649649 16711746
-1.3122541 -2.6434371 0.7137999 16711746
-1.2310816 -3.0120978 0.7878382 16711746
-0.8065997 -1.0250617 0.8898650 16711746
0.3926712 -1.5614158 0.3751287 16711746
-1.7578449 -2.8875518 0.6504707 16711746
-0.7240532 -1.6085436 0.9135256 16711746
-0.6553590 -1.8988640 0.9988419 16711746
-0.9613071 -2.0910389 1.1211083 16711746
0.4322314 -2.0149124 0.9784949 16711746
-2.4200051 -4.2329822 0.3922031 16711746
-1.5348301 -2.5040283 1.0280870 16711746
-2.3382878 -3.3792541 0.4856844 16711746
-0.1214529 -1.6968973 1.0952971 16711746
-1.4493961 -2.2931328 0.7000536 16711746
-1.4417514 -2.6524401 0.7258447 16711746
-2.1183407 -3.2631011 0.8407080 16711746
1.1443576 -2.4633408 0.8542773 16711746
-0.8751463 -1.3358053 1.0461158 16711746
-1.0840825 -1.4577670 1.1442000 16711746
-0.8810152 -1.6160610 1.0150007 16711746
-1.0445709 -1.9402478 1.1438936 16711746
0.9604757 -4.3771210 1.8627412 16711746
-0.7679787 -2.5056057 0.4571723 16711746
-1.3023857 -2.4416091 1.0357471 16711746
-1.2790045 -2.8019538 0.6144737 16711746
-1.3082337 -3.3105574 0.6219965 16711746
-3.0118930 -4.4446349 0.4671996 16711746
-2.2665381 -3.2853894 0.1929197 16711746
-1.0459405 -2.0431657 1.1277966 16711746
-1.2542930 -2.0012615 1.1216640 16711746
-2.6440852 -3.5449767 0.8161674 16711746
-2.6485131 -3.2693903 0.5900759 16711746
-0.1904563 -1.6933653 0.9371250 16711746
-2.3182404 -3.7838383 0.6391357 16711746
-1.9688295 -3.6333747 0.6265451 16711746
-0.6200895 -1.8163699 0.8968653 16711746
0.4651088 -1.6846386 0.3885356 16711746
-1.0931046 -1.3788308 0.8399799 16711746
-1.1778884 -1.6828279 0.9495883 16711746
-1.7702243 -2.5943546 1.0151997 16711746
-1.1140590 -3.2145963 0.6202835 16711746
-2.1374319 -2.7283232 1.0009426 16711746
-2.4864702 -2.7977138 1.0018076 16711746
-3.0040979 -3.1902480 0.9589075 16711746
0.3785516 -1.3900380 0.4692736 16711746
0.5323758 -1.4009016 0.4795115 16711746
-1.5512792 -1.5678471 0.7887816 16711746
0.5533109 -1.7542306 0.8922256 16711746
0.5097179 -1.5632918 0.4642992 16711746
-0.0515184 -1.7097287 1.0917011 16711746
-2.8105152 -3.3396652 0.9052667 16711746
-0.3576437 -1.4192789 1.0225503 16711746
-1.3993585 -1.4087169 0.9339536 16711746
-1.1032746 -1.5965363 1.0055267 16711746
-1.9452779 -2.4853384 0.8138263 16711746
-1.7048910 -3.7449834 0.5496250 16711746
-1.5884075 -2.5329089 0.7891999 16711746
-0.5105190 -2.5389612 0.5453315 16711746
-0.6169512 -2.9826224 0.6229218 16711746
-0.9294782 -3.9802997 0.5883325 16711746
-0.1925513 -1.8660153 0.8014512 16711746
-0.2393477 -2.7281351 0.4155068 16711746
-0.0528300 -1.1832601 0.9934800 16711746
-0.7662596 -1.9459693 0.9801804 16711746
-0.7843503 -1.8690376 0.8971789 16711746
0.6323839 -3.0282350 1.4501852 16711746
0.3577882 -1.8891209 0.8698201 16711746
0.3605466 -1.7334425 0.7544764 16711746
-0.1234501 -1.5360812 1.0194471 16711746
0.0008983 -1.7322263 1.0405689 16711746
-0.0657648 -1.6165433 0.9497362 16711746
-0.7736418 -0.9529678 0.8612766 16711746
-0.8073008 -0.9288294 0.8376554 16711746
0.4674051 -1.6792188 0.5231979 16711746
-2.4870925 -2.6303275 1.0737593 16711746
-1.0979795 -1.5363545 0.8092363 16711746
-1.4855334 -1.8450410 0.9410642 16711746
-1.1592734 -1.0308880 0.9468623 16711746
-0.7680960 -1.0465616 1.0335820 16711746
-0.0081920 -0.8088804 0.2697551 16711746
-0.7496880 -2.4397717 0.7406273 16711746
-0.8519450 -2.8516912 0.7787793 16711746
-0.7644146 -1.2563250 0.9101666 16711746
-0.4200028 -1.3608313 0.9976901 16711746
-0.4052764 -1.5450598 1.1176729 16711746
-1.1793877 -2.5205603 0.7603500 16711746
-1.0561510 -2.6242447 0.6819934 16711746
0.0257041 -1.7930968 0.8284075 16711746
-0.6287301 -2.1784914 0.8776356 16711746
-0.9177232 -2.2836416 0.8502222 16711746
-1.1802032 -1.3284764 0.9715324 16711746
-0.3060332 -1.4689889 1.3422730 16711746
-0.5931356 -2.5528820 0.6244896 16711746
-0.5722398 -1.4818263 0.9215444 16711746
-1.5204879 -2.2421455 0.8778800 16711746
-1.8064086 -2.9173064 0.6423876 16711746
-2.4561064 -2.2179244 0.8368601 16711746
-0.4735733 -2.0982294 0.9060423 16711746
-2.7912500 -3.6929266 0.8580589 16711746
-0.4823735 -2.2893925 0.6886599 16711746
-0.9456352 -1.8236763 1.0012441 16711746
-1.0459319 -2.1498201 1.1462044 16711746
-2.0053709 -2.4087241 1.0932475 16711746
-1.9337060 -2.4523263 1.4470563 16711746
-1.9443818 -3.1777942 0.5227228 16711746
-2.0574596 -3.7804518 0.6491543 16711746
-2.7468419 -3.6518924 0.4138681 16711746
-0.6944296 -2.6312141 0.5280996 16711746
-0.7452977 -2.4173424 0.4365293 16711746
-2.8435507 -4.4412832 0.5149004 16711746
-0.4515887 -2.0035336 0.5056293 16711746
1.2401415 -1.1751156 0.3210205 16711746
-0.2399279 -1.8239406 0.8321664 16711746
0.3660418 -1.3463057 0.3705899 16711746
0.6186817 -1.7904979 0.8382327 16711746
-0.2596980 -1.5434461 0.8130865 16711746
-3.1521275 -3.7107248 0.4602569 16711746
-1.4956027 -3.1460087 0.4247867 16711746
-1.9445097 -3.3437433 0.4139506 16711746
-2.3889768 -4.9956751 0.6617629 16711746
-0.8605769 -1.0505115 0.8471523 16711746
0.0213588 -1.6741959 0.9135919 16711746
-2.0545149 -2.7892327 1.0355479 16711746
-1.7202770 -2.4579329 0.8188761 16711746
-0.9047803 -1.6502947 1.0326635 16711746
-0.9441614 -1.5398961 0.8481369 16711746
0.4501982 -1.3341359 0.7292975 16711746
0.4506732 -1.7823385 1.0158883 16711746
0.6042358 -1.8326464 0.9852754 16711746
0.8101100 -3.5129259 1.9164333 16711746
-1.0640929 -1.9866921 0.9238666 16711746
0.4488734 -1.1806912 0.4040865 16711746
-1.5674922 -3.3344240 0.7611496 16711746
-1.1586684 -2.8794980 0.5274860 16711746
0.4004505 -1.6005641 0.3824591 16711746
-0.9501551 -1.5618819 1.0326920 16711746
-0.4789684 -1.2627664 0.9972574 16711746
-0.7550352 -1.4710788 1.0721735 16711746
-0.7442309 -0.9916406 0.8848656 16711746
-0.3750267 -1.7459705 1.0577211 16711746
-1.2877724 -1.5430173 0.5545295 16711746
-2.7316949 -3.0240583 1.0995867 16711746
-0.9066581 -3.0381391 0.8309051 16711746
-0.8226950 -2.5665689 0.6693913 16711746
-0.8488039 -4.0173697 0.7793510 16711746
0.7586008 -3.6294384 1.7393427 16711746
0.2882078 -1.2890474 0.5542248 16711746
-2.2648194 -4.4695835 0.3914059 16711746
-0.7692365 -1.7327077 1.0361657 16711746
-0.8057305 -1.7834016 1.0220289 16711746
-0.2740414 -1.8065041 1.3029637 16711746
-0.1156293 -1.5430245 0.9512515 16711746
-0.9993547 -2.1657643 0.9031439 16711746
-0.1293173 -1.4662597 0.9575723 16711746
0.9841337 -2.8808665 1.6708716 16711746
0.5272596 -1.6737615 0.9102193 16711746
-0.9293389 -1.8181219 1.0037941 16711746
-0.8084210 -1.7838569 0.9892650 16711746
-1.1685808 -2.2603374 0.8356861 16711746
0.3741851 -2.0012913 0.3497394 16711746
0.4355018 -1.6022111 0.4263829 16711746
-1.2618825 -3.8190916 0.0337262 16711746
-1.2026381 -4.0967307 0.0511139 16711746
-1.5832832 -2.1592999 1.1746032 16711746
-2.0580840 -3.2498648 0.9944298 16711746
-1.5764083 -2.4947097 0.7623516 16711746
-1.6410142 -3.0845733 0.5124351 16711746
0.1555421 -1.7516268 0.1261333 16711746
-1.1433338 -2.8838434 0.5192435 16711746
-1.3585720 -3.0222807 0.4782053 16711746
-1.0974348 -3.1652563 0.3614604 16711746
-0.8803947 -1.3311969 1.0445542 16711746
-0.7665359 -1.2615848 0.9158832 16711746
-0.9308195 -1.0722356 0.9703512 16711746
-0.8118318 -0.9133348 0.8006186 16711746
0.7664572 -2.3649950 1.2524594 16711746
0.5797620 -2.3698292 1.1882226 16711746
-0.4667786 -1.5204260 1.1142161 16711746
-2.2966118 -3.3467190 0.4959108 16711746
-0.9713117 -1.3111168 1.0206214 16711746
-1.1776656 -1.0429330 0.9535804 16711746
-1.6438818 -2.6778405 1.0977260 16711746
-1.5227572 -2.2480903 0.8763643 16711746
-2.8654754 -4.0956092 0.1448186 16711746
-0.7469760 -1.4716305 1.0736383 16711746
-1.4844360 -1.3125575 0.8947104 16711746
-0.9249642 -2.3965080 0.7942178 16711746
-1.1232581 -3.2295177 0.2916702 16711746
-0.8549132 -2.4312534 0.1067410 16711746
-0.5592011 -2.5090477 0.6399767 16711746
-0.5340983 -2.3408666 0.7639066 16711746
-0.4974218 -2.3850734 0.7226719 16711746
-1.0286438 -1.4673191 1.0188482 16711746
-1.1049559 -1.6012236 1.0051343 16711746
-0.9537825 -1.7938653 1.0060194 16711746
-1.2722467 -2.7928782 0.6188869 16711746
-1.3446400 -2.9351728 0.5394077 16711746
-0.8205430 -2.8606250 0.4124496 16711746
-1.1355571 -1.1288977 0.9385564 16711746
-1.2478313 -1.1415318 0.9089718 16711746
0.4007012 -1.8950696 0.9132656 16711746
-3.3158283 -4.1998281 0.2123882 16711746
-0.5796509 -1.7177528 1.0573567 16711746
-0.7024123 -2.6773834 0.5413833 16711746
-0.7837803 -2.6780922 0.5704369 16711746
-0.8670713 -2.7843454 0.5071516 16711746
-0.1490350 -1.6413190 0.8988081 16711746
-0.2611418 -1.9067751 0.9927628 16711746
-1.3702798 -1.1959460 0.8914216 16711746
0.3895448 -1.5135177 0.3587542 16711746
0.5708580 -3.1138461 1.3815727 16711746
-0.4139271 -2.1789470 0.8508104 16711746
0.7496230 -0.9611602 0.6518500 16711746
-0.7448049 -2.5961099 0.6258101 16711746
-1.2769489 -2.2475102 0.8326312 16711746
0.7867847 -2.6024373 0.8687571 16711746
-1.2973347 -2.1602530 1.1859856 16711746
-2.0625653 -2.1843159 0.8633280 16711746
-3.2596552 -2.9498546 1.1357794 16711746
0.5174221 -1.7251483 0.6217567 16711746
-1.3243319 -1.6766406 0.9686241 16711746
-0.9098793 -1.5098314 0.8233597 16711746
-2.2070775 -3.4824820 0.3901336 16711746
-2.0866735 -4.9357538 -0.1647469 16711746
-0.7456668 -1.0587287 0.8688626 16711746
-1.8587601 -1.6098961 0.8777522 16711746
0.0670914 -1.3427601 1.0619887 16711746
-0.0413645 -1.1099190 1.1163447 16711746
-0.4083963 -1.0585752 0.8777396 16711746
