# .PCD v.7 - Point Cloud Data file format
VERSION .7
FIELDS x y z rgb
SIZE 4 4 4 4
TYPE F F F F
COUNT 1 1 1 1
WIDTH 264
HEIGHT 1
VIEWPOINT 0 0 0 1 0 0 0
POINTS 264
DATA ascii

 10.4526138 22.2979202 27.9097099 16777215
 0.1653869 0.3533579 0.4466987 16777215
0.9888803 -0.2088443 1.5468397 16711746
-0.7689236 -0.2548564 1.6005585 16711746
0.5189889 0.0919767 1.2092482 16711746
-0.1563838 -0.1490292 1.2817439 16711746
-0.4397644 -0.2464264 1.5723959 16711746
-0.2938278 -0.1311078 1.3029507 16711746
-0.4183940 -0.2088155 1.4573716 16711746
-0.8830775 -0.1583707 1.2091985 16711746
0.0939451 -0.0004310 1.1721393 16711746
-0.3417883 0.2304912 1.1156645 16711746
0.2227174 0.0174858 1.1207759 16711746
0.3152231 0.0319016 1.2382529 16711746
0.3128386 -0.2861099 1.4026284 16711746
0.4924181 0.1668711 1.1866970 16711746
0.4724860 0.1497309 1.1932977 16711746
-0.1198895 0.1134892 1.2399666 16711746
0.2874592 0.1807075 1.1282982 16711746
0.0050220 -0.7258092 1.6326718 16711746
0.1685214 0.0350042 1.1453190 16711746
0.1502993 -0.0145284 1.2387559 16711746
-0.2755204 -0.6267124 1.7590321 16711746
-0.4457297 0.0253762 1.1836574 16711746
0.5369270 -0.1230780 1.3668925 16711746
0.5515621 -0.4801875 1.6523201 16711746
0.2625261 0.1780607 1.1404132 16711746
0.2513466 0.1691992 1.1935308 16711746
0.5223028 0.2164683 1.1935524 16711746
0.6155072 0.2197574 1.2005734 16711746
0.4795987 0.2416738 1.0226872 16711746
-0.2552732 -0.0706698 1.4289227 16711746
0.3763862 -0.7445717 1.7326475 16711746
-0.2227953 -0.1013354 1.2145869 16711746
-0.2333036 -0.1738799 1.3310218 16711746
-0.2969497 -0.2408006 1.4247833 16711746
-0.7331557 -0.2989399 1.5340030 16711746
-1.1108323 -0.0992957 1.2102134 16711746
-0.2956376 -0.4320877 1.5571187 16711746
1.3750345 -0.4611847 1.8758922 16711746
1.2049574 -0.3422261 1.6158868 16711746
0.8791977 -0.6219808 1.9136953 16711746
0.6447678 -0.3474893 1.5329705 16711746
0.8428918 -0.5528606 1.7613767 16711746
1.1560249 -0.2268736 1.5842713 16711746
-0.3414003 -0.4500637 1.3722034 16711746
-0.0751253 0.2497420 1.0904365 16711746
0.6519596 -0.4145398 1.6255696 16711746
0.7145534 -0.5579592 1.8602459 16711746
0.6389479 -0.4106099 1.5792233 16711746
-1.2139204 0.1060366 1.2143534 16711746
0.0989553 -0.4757996 1.5672580 16711746
0.0475368 -0.6799682 1.7888827 16711746
-0.7049831 -0.0597908 1.3566982 16711746
0.1331598 -0.0973133 1.3035116 16711746
0.1704916 -0.0758295 1.2423103 16711746
1.0065498 -0.2673463 1.4240853 16711746
-0.6955362 -0.3809399 1.6673244 16711746
-0.2045984 0.3572038 0.9410343 16711746
-0.0236005 -0.0397543 1.1483588 16711746
-0.1242704 -0.1654795 1.3085296 16711746
0.2453170 0.1565618 1.0805444 16711746
-0.3764572 -0.6815007 1.7954236 16711746
0.1847367 0.1637383 1.0890324 16711746
0.2254269 0.1264819 1.1451607 16711746
-0.0060315 0.2186148 1.0728464 16711746
-1.2846911 -0.2479228 1.3063169 16711746
-1.4189302 -0.3526525 1.4416878 16711746
-0.3927437 -0.5091311 1.6222289 16711746
-0.3704230 -0.4685359 1.5484279 16711746
-0.3820688 -0.4291020 1.4797546 16711746
-0.6750424 -0.3155386 1.5586191 16711746
0.5077242 0.1472378 1.2007887 16711746
-0.3864852 -0.2719410 1.3539881 16711746
-0.3676299 -0.3152927 1.4040220 16711746
-0.4167162 -0.3116865 1.3856940 16711746
0.4519985 0.3027894 1.0598922 16711746
0.5264512 0.2790914 1.1797003 16711746
0.1444333 -0.0886819 1.1665312 16711746
0.0811806 -0.3259809 1.4173483 16711746
0.0697730 -0.3939120 1.4791856 16711746
0.5278715 -0.0283887 1.1922188 16711746
0.4897775 -0.0410320 1.1865013 16711746
-0.2234360 -0.4630017 1.5115421 16711746
0.5110829 -0.6814554 1.7419783 16711746
1.2563236 -0.4820081 1.6449714 16711746
-0.9239357 -0.3058335 1.5254217 16711746
-0.7420098 -0.0461963 1.1411108 16711746
-0.8963556 -0.3169528 1.3865259 16711746
-1.0204035 -0.3426257 1.3762509 16711746
-0.3672914 -0.0057832 1.1786677 16711746
-0.2608661 0.0397832 1.3191439 16711746
-0.8347188 -0.3110455 1.4284580 16711746
-0.9635738 -0.3962490 1.5085529 16711746
-1.0626752 -0.3173268 1.2237686 16711746
-1.4380113 -0.4922720 1.3607407 16711746
0.8004428 -0.2288199 1.5651931 16711746
-0.5353153 -0.5598806 1.5307128 16711746
-0.2394623 -0.0166303 1.2705638 16711746
-0.1762213 -0.2604200 1.3832325 16711746
-0.3094366 -0.4305491 1.6000104 16711746
-0.1867531 -0.2956775 1.3783123 16711746
-0.9413687 -0.3862611 1.2705623 16711746
0.2178571 0.2459921 0.9983317 16711746
0.3371061 -0.0414016 1.1260116 16711746
-0.6547931 -0.3924786 1.6070157 16711746
-0.4564109 -0.2654302 1.3859036 16711746
-1.4475173 -0.3947523 1.3094094 16711746
-0.0104193 -0.6703905 1.8238703 16711746
0.0117270 -0.2489712 1.2401108 16711746
-0.0138499 -0.3811041 1.3909270 16711746
0.1441011 0.0066640 1.1643431 16711746
0.1392631 -0.0559215 1.2508972 16711746
-0.3774612 -0.1009816 1.3604627 16711746
-0.4247782 -0.1065632 1.3447603 16711746
-0.4087058 -0.1137876 1.3211161 16711746
-1.4085751 -0.2647140 1.3815935 16711746
-0.1993602 0.0925698 1.2444758 16711746
0.3093549 0.2121458 1.1090010 16711746
0.1787407 -0.2960663 1.3878170 16711746
0.1235497 -0.6140666 1.7922184 16711746
0.2997203 -0.0894373 1.1815869 16711746
0.1889312 -0.1798327 1.3892438 16711746
0.1582464 -0.1763172 1.3825030 16711746
0.1824400 -0.0625380 1.1605272 16711746
0.5253864 -0.6649272 1.8266194 16711746
-0.4240165 -0.2824324 1.4243233 16711746
0.4078326 -0.1639033 1.4296086 16711746
0.3423519 -0.0759391 1.2412826 16711746
0.3214016 -0.0955689 1.2690663 16711746
0.3508347 -0.1798900 1.3356125 16711746
0.3922694 -0.2236663 1.3746121 16711746
-0.1822548 0.0019030 1.3246210 16711746
0.3764176 -0.4786704 1.6482278 16711746
-0.5747049 -0.1783695 1.4125289 16711746
-0.6936197 -0.2604636 1.5095282 16711746
0.5495829 -0.1497021 1.2844621 16711746
0.6312536 -0.2686516 1.4231228 16711746
0.5472845 -0.0526738 1.2820231 16711746
0.5730643 -0.1438101 1.4238315 16711746
0.3119585 0.1234142 1.1471508 16711746
0.2911756 0.1153229 1.1581421 16711746
0.2813174 0.1349219 1.0643585 16711746
0.5816424 -0.2280957 1.4429299 16711746
-1.2108104 -0.5117164 1.4155190 16711746
-0.1066034 0.1935721 1.1228703 16711746
0.4006804 -0.3484203 1.4265585 16711746
-0.2393093 -0.2490100 1.4078428 16711746
-0.2045342 -0.2831288 1.4416677 16711746
0.2422301 -0.1231951 1.2332495 16711746
0.2864055 0.1537892 1.0930536 16711746
0.4213777 0.1090291 1.1916840 16711746
0.3802691 0.1037963 1.1658232 16711746
0.1956345 0.2143737 1.0499883 16711746
0.8704262 0.2342704 1.3376852 16711746
0.8870783 0.2274023 1.2907838 16711746
-0.6083792 0.3977365 -0.5187830 16711746
-0.5300741 0.3948887 -0.4808397 16711746
0.6907779 0.2854754 1.1125975 16711746
-0.7287504 0.3933273 -0.5217949 16711746
0.4027284 0.3037267 1.0508189 16711746
0.9397153 0.1644116 1.3975602 16711746
0.4605426 0.1470507 1.1518551 16711746
0.0864441 0.2987565 -0.2171957 16711746
-0.0610482 0.2764047 -0.3187538 16711746
0.0766036 0.2885919 -0.1622764 16711746
0.1119888 0.3716900 -0.0003599 16711746
-0.0339411 0.3474329 -0.1869340 16711746
0.1861083 0.3334599 0.8563355 16711746
-0.1697079 0.2490390 -0.4229435 16711746
-0.1619518 0.2869645 -0.3827577 16711746
-0.3216183 0.2625076 -0.4326006 16711746
-0.1137354 0.3200771 -0.3096178 16711746
-0.3710110 0.2817716 -0.4037642 16711746
-0.2494274 0.3474495 -0.3431022 16711746
-0.5869626 0.2563208 1.0888544 16711746
-0.5650093 0.2458067 1.1515495 16711746
-0.8950518 0.2955711 1.1896328 16711746
-0.9726930 0.1228989 1.2872162 16711746
-1.1713214 0.1688442 1.1304419 16711746
-1.2136295 0.0674085 1.2873603 16711746
-1.2150968 0.2611713 1.2402422 16711746
-0.1432144 0.2539888 1.0877534 16711746
-0.1004579 0.0606517 1.2604052 16711746
-0.0695272 0.0739693 1.2767930 16711746
-0.0505065 0.1851354 1.1049521 16711746
-0.3673933 0.2152678 1.1426537 16711746
-0.1710401 0.1909931 1.1356903 16711746
0.9924937 0.1919079 -0.3360460 16711746
-0.3175361 0.3879279 0.8833251 16711746
-0.2729819 0.3386697 0.9758884 16711746
1.0330877 0.2553838 -0.3885550 16711746
0.7848594 0.2725289 -0.2708475 16711746
-0.1755942 0.3783145 0.8485637 16711746
0.3534298 0.3260900 -0.1033133 16711746
0.1211571 0.3519880 0.5659354 16711746
-0.1634865 0.3412444 0.9951111 16711746
0.5326836 0.3152151 -0.1453080 16711746
0.3077743 -0.7917779 1.7401818 16711746
0.5557394 -0.1590148 1.5366213 16711746
0.3893724 -0.0126711 1.1673808 16711746
0.3251304 0.0610387 1.2270525 16711746
0.4386577 0.0595397 1.2648516 16711746
0.3147058 0.1206680 1.0727105 16711746
0.0152769 -0.1251130 1.4289811 16711746
0.2067659 0.0001232 1.2500623 16711746
0.2058914 0.0905207 1.1003015 16711746
0.0502270 -0.4037355 1.5635633 16711746
0.0545209 -0.0638573 1.1835858 16711746
1.4516021 -0.2362035 1.6167473 16711746
0.9499425 0.0240956 1.2968378 16711746
1.3719256 -0.0897010 1.5098081 16711746
0.7409063 -0.0409995 1.3932132 16711746
1.5056034 -0.3790742 1.6483477 16711746
0.7075031 -0.3054068 1.4404253 16711746
1.1704444 -0.4515315 1.6412860 16711746
0.6947232 -0.1989643 1.4397296 16711746
0.7985497 -0.2402113 1.4397188 16711746
-0.8180734 -0.3480821 1.2930242 16711746
-0.1878232 -0.5731426 1.7443826 16711746
-0.4848868 -0.4128347 1.4336953 16711746
-0.9532455 -0.0525293 1.2448831 16711746
-1.5878783 -0.3071712 1.5908334 16711746
-1.0367432 -0.2155817 1.4653465 16711746
-0.7388080 0.0247149 1.2828120 16711746
-1.2056776 -0.0325805 1.2093323 16711746
-1.4756812 -0.0615677 1.5111018 16711746
-1.0517271 -0.2903623 1.3348186 16711746
-1.1521319 -0.4913691 1.5123705 16711746
-1.2622533 -0.2013813 1.2461269 16711746
-0.4077794 -0.2338746 1.6571939 16711746
-0.0347572 -0.0222544 1.2472466 16711746
-0.0700582 -0.0326849 1.2536711 16711746
-0.1971021 -0.0903844 1.5110339 16711746
0.0062813 0.0531570 1.1338681 16711746
-0.5751163 -0.1780927 1.5054442 16711746
-0.1020543 -0.3937711 1.5269711 16711746
-0.0154642 -0.0900927 1.2685692 16711746
-0.8462741 -0.5853488 1.7591475 16711746
-0.8111331 -0.4524209 1.5404623 16711746
-0.3672131 -0.2172734 1.3652613 16711746
600.8502197 -169.7190094 1093.0505371 16711746
297.8251953 -51.0274696 1015.7600708 16711746
246.0323029 -584.7036133 1849.8690186 16711746
-237.7911377 67.4530411 1305.4351807 16711746
-193.4707489 -257.7887268 1469.7542725 16711746
256.8464966 -170.7444458 1292.0782471 16711746
259.0081787 26.7818031 1145.2374268 16711746
171.7553558 4.7005076 1000.8843384 16711746
30.3792820 -78.0196075 230.3120575 16711746
170.8820038 44.1343651 942.3742676 16711746
157.4593964 44.9164505 1042.4848633 16711746
189.2011566 -446.7825623 1414.8480225 16711746
644.5618896 -648.8579712 1274.4779053 16711746
189.7204285 -1068.2044678 1931.3681641 16711746
127.3500214 -301.8776550 957.1474609 16711746
861.9016724 -603.1350098 945.4985352 16711746
784.2899780 -816.2037354 1604.9553223 16711746
147.3011627 17.9579830 917.4577637 16711746
48.7164001 -256.7658386 518.5835571 16711746
52.9045525 -212.7130280 411.9100647 16711746
413.6746521 -328.2322693 3017.0727539 16711746
36.6683197 -92.5744629 272.2840271 16711746
183.1283569 61.0253525 979.7743530 16711746
