# .PCD v.7 - Point Cloud Data file format
VERSION .7
FIELDS x y z rgb
SIZE 4 4 4 4
TYPE F F F F
COUNT 1 1 1 1
WIDTH 1198
HEIGHT 1
VIEWPOINT 0 0 0 1 0 0 0
POINTS 1198
DATA ascii
0.6774405 -0.1631314 0.5212048 16711746
0.0210806 0.1480359 0.4777422 16711746
0.3183672 0.1411604 0.3685086 16711746
0.4373811 -0.1292551 0.4731418 16711746
0.1756933 -0.0722254 0.2784614 16711746
-0.1626951 -0.2530574 0.8379868 16711746
0.3315891 -0.1847280 0.4538178 16711746
0.8330451 -0.0872320 0.6394456 16711746
0.0727216 -0.0131384 0.1407856 16711746
0.1417014 -0.0344682 0.2525399 16711746
0.1968353 0.1829269 0.5057539 16711746
0.0306929 0.1953999 0.5626751 16711746
-0.2448538 -0.1103236 0.2386714 16711746
1.3011974 0.2275399 0.8935831 16711746
0.5940584 -0.2942409 0.4960415 16711746
0.9887163 -0.1148872 0.7218068 16711746
0.2213126 -0.2229460 0.6449792 16711746
0.7319316 -0.1165697 0.7110912 16711746
0.7097962 -0.1336770 0.5428894 16711746
0.0796490 0.1711959 0.3838073 16711746
0.6196008 -0.1042727 0.6064442 16711746
0.7672852 -0.1008204 0.6313269 16711746
0.8051758 -0.1017422 0.6118711 16711746
1.0077797 -0.1128404 0.8299276 16711746
0.6032372 -0.1999273 0.6950614 16711746
0.2145097 -0.2277926 0.6830451 16711746
0.7312478 -0.1371846 0.5924022 16711746
0.6713223 -0.3022130 0.6320145 16711746
1.0696553 -0.1510255 0.8706450 16711746
0.2130550 0.2216811 0.7621833 16711746
0.0808820 -0.0282133 0.2161441 16711746
0.1031957 0.1758112 0.3995088 16711746
0.7506846 -0.1642159 0.6942226 16711746
0.1678174 -0.1593760 0.9312695 16711746
0.2349875 0.2120340 0.5380689 16711746
0.6890745 -0.3234936 0.6528803 16711746
0.7904706 -0.1179358 0.5968365 16711746
0.1713835 -0.0610473 0.4372147 16711746
1.1562085 -0.1531876 1.2821180 16711746
1.2271527 -0.0721136 1.2435700 16711746
-0.2230604 -0.2150665 1.0253338 16711746
0.5290264 0.2517857 0.9040076 16711746
0.4999971 -0.2874460 0.6755420 16711746
0.8139132 -0.3399364 0.7370529 16711746
1.0782307 -0.1823978 1.0431262 16711746
0.0928403 -0.1505198 0.7304297 16711746
1.2367404 -0.2798773 1.3780345 16711746
0.0646555 -0.0795991 0.6216549 16711746
0.4070131 -0.1689125 0.6917191 16711746
0.0648508 -0.0910549 0.6775646 16711746
1.1614583 -0.1595721 1.3884559 16711746
0.1144666 -0.0198008 0.2074502 16711746
0.0032820 0.1837091 0.6006334 16711746
0.6142950 -0.2191668 0.5369252 16711746
-0.0280249 -0.2344528 0.7126437 16711746
0.3004169 0.1148181 0.5538530 16711746
-0.0537246 -0.1645242 0.5949982 16711746
0.2583905 -0.1575788 0.3941677 16711746
0.2432241 -0.1355431 0.3712809 16711746
0.5565310 -0.2666892 0.5485774 16711746
-0.0609866 -0.2164542 0.5636000 16711746
0.0978068 0.1528396 0.3651107 16711746
0.1165883 0.1447908 0.5837959 16711746
0.0409580 -0.1349623 0.4764252 16711746
0.0012220 -0.0100777 0.1053981 16711746
-0.0149989 0.1942600 0.8498961 16711746
-0.0117144 -0.1092047 0.5418682 16711746
0.0002010 -0.1124237 0.5112804 16711746
0.0604581 -0.0329791 0.4161056 16711746
0.0049549 0.1405488 0.3488776 16711746
0.0859174 -0.0024508 0.1996681 16711746
-0.0182851 0.1130704 0.3150942 16711746
0.0894059 0.1479329 0.3456312 16711746
0.2527362 0.1284575 0.2148050 16711746
0.0530581 0.1604148 0.3483792 16711746
0.3893590 0.1380830 0.4235058 16711746
0.0711918 0.1588183 0.4123313 16711746
-0.0328794 -0.1346003 0.4519874 16711746
0.1891273 0.1840697 0.4563317 16711746
0.9590765 -0.2897744 0.6890701 16711746
0.9327263 -0.2292462 0.6682079 16711746
0.3708465 0.2091249 0.9355540 16711746
0.1903514 0.1831676 0.4486715 16711746
0.3143065 0.1741328 0.7977368 16711746
0.2198715 0.0786112 0.6857430 16711746
0.9145622 -0.1381239 0.6968661 16711746
0.3828502 0.2164569 0.9575524 16711746
0.3649451 0.2307348 0.8515234 16711746
0.6361775 -0.1763549 0.4690819 16711746
0.6978691 -0.2086772 0.5123552 16711746
0.8585454 -0.2161341 0.6147219 16711746
0.5969679 -0.0163072 0.4942276 16711746
0.8888939 -0.0769391 0.8142091 16711746
0.2826656 -0.2033827 0.5172909 16711746
0.2580641 -0.2199044 0.6189544 16711746
0.3147746 -0.1465473 0.5038014 16711746
0.2174962 -0.1115486 0.7017905 16711746
0.1329251 -0.1476748 0.7982732 16711746
0.2707916 -0.2152718 0.7648398 16711746
0.1944752 -0.1408281 0.4496001 16711746
0.6293531 -0.1701318 0.7631938 16711746
0.1377018 -0.0905719 0.7092370 16711746
0.5140681 -0.2584555 0.7351405 16711746
-0.2510372 -0.1425604 1.0543379 16711746
0.9557924 -0.0888070 0.7526212 16711746
0.6572553 -0.3406816 0.6250468 16711746
-0.1167881 -0.2123863 0.6378149 16711746
0.4027913 -0.2372159 0.7166692 16711746
0.2509947 -0.1209990 0.4377152 16711746
0.4523292 -0.2199322 0.6112719 16711746
0.4495682 -0.1116651 0.3743760 16711746
0.5991313 -0.1486044 0.4482869 16711746
0.9956382 -0.0578151 0.8195430 16711746
0.2774347 -0.3094600 0.8215734 16711746
0.4436775 -0.2982098 0.7779748 16711746
-0.1825273 0.1555126 0.5440802 16711746
-0.0319407 0.1642013 0.6782210 16711746
0.0785851 0.1504570 0.3712601 16711746
-0.0267048 -0.1923452 0.5139498 16711746
0.1479723 0.1750070 0.4630060 16711746
-0.0226691 0.1215548 0.3363103 16711746
-0.0805328 -0.1489043 0.6250039 16711746
-0.1122037 -0.2069106 0.6968759 16711746
0.6031368 -0.1157160 0.4629446 16711746
0.3304998 0.1484545 0.4521444 16711746
0.1923095 0.1803329 0.5006597 16711746
0.7529904 -0.0335169 0.5736417 16711746
0.2794966 -0.1383603 0.4066857 16711746
-0.0249690 -0.1542582 0.7226506 16711746
0.6311080 -0.0801857 0.7036478 16711746
0.5762393 -0.1343428 0.5602321 16711746
0.3560396 0.2326061 0.8485909 16711746
0.0108667 -0.1630667 0.6780642 16711746
0.5766772 -0.2435532 0.5439959 16711746
0.1550379 -0.0030904 0.3592362 16711746
0.3163375 0.1536584 0.9810612 16711746
0.4642442 -0.0170817 0.5954919 16711746
0.0722255 -0.1030769 0.4681253 16711746
0.2568435 0.1400919 0.6539207 16711746
0.2086134 -0.0905052 0.7013304 16711746
0.2162340 -0.1521200 0.8292962 16711746
0.1037451 -0.2289163 0.8766998 16711746
0.8207369 -0.1724014 0.6402178 16711746
0.4009238 -0.3509152 1.0182979 16711746
0.8926626 -0.3516259 0.8670523 16711746
0.8923218 -0.1496274 0.8636649 16711746
0.2793399 0.1029195 0.8908876 16711746
0.2829555 -0.1923282 0.6042551 16711746
0.2208394 -0.1249091 0.4594656 16711746
0.2582592 -0.1516940 0.5061119 16711746
0.2509828 -0.1594297 0.6930639 16711746
0.4371059 -0.3044343 0.7816402 16711746
0.2023678 0.1815562 0.7629152 16711746
-0.0032150 -0.1380401 0.6105161 16711746
-0.0015176 -0.1339867 0.5915720 16711746
-0.0094905 -0.1732529 0.6879955 16711746
1.7495540 -0.1933809 1.2117642 16711746
0.2129393 -0.1245012 0.5659580 16711746
0.3174545 -0.2010485 0.8615886 16711746
0.0987400 -0.0848781 0.5225406 16711746
0.4804872 -0.1845668 0.7882335 16711746
0.4099163 -0.0859946 0.3399662 16711746
-0.1310575 -0.2120259 0.6952026 16711746
0.0922008 0.1140606 0.3742671 16711746
-0.1444358 -0.2278088 0.7372181 16711746
-0.0412710 -0.1606960 0.5154248 16711746
0.0928864 0.1128917 0.3742776 16711746
-0.1052328 -0.1868471 0.7137538 16711746
-0.0460016 -0.1519640 0.5629255 16711746
-0.1387926 -0.2231677 0.7034124 16711746
-0.0964204 -0.1695285 0.5564314 16711746
0.2238400 0.1410834 0.2966749 16711746
0.1345014 0.1378775 0.4428255 16711746
-0.1987117 0.1388879 0.8184181 16711746
0.3226721 0.1452232 0.4417882 16711746
-0.1262552 -0.2168337 0.8807995 16711746
0.6301585 -0.0698522 0.4581729 16711746
-0.0761504 0.1362971 0.5293466 16711746
-0.0592269 -0.1786951 0.6646764 16711746
0.0069334 -0.2960376 0.7452269 16711746
0.2316531 0.1343985 0.4076529 16711746
0.2357235 0.1363862 0.3816499 16711746
-0.0844993 0.1133248 0.4007177 16711746
0.3504518 0.1489382 0.3892021 16711746
0.3411716 0.1479661 0.4102581 16711746
0.0898735 0.1096679 0.2967298 16711746
0.2415004 0.1433959 0.4386956 16711746
0.2752822 0.1285999 0.3251184 16711746
0.3393610 0.1474408 0.4101903 16711746
0.1429616 0.1212647 0.3393264 16711746
0.3082336 0.1425187 0.3704570 16711746
0.2519827 0.1321643 0.3150815 16711746
0.3150508 0.1453163 0.3796417 16711746
0.1363482 0.1062274 0.3065464 16711746
-0.0862139 0.0885479 0.2871350 16711746
0.0053412 0.1101003 0.4332060 16711746
0.0788772 0.1017482 0.3282502 16711746
0.1036997 0.1048212 0.2859347 16711746
0.1071231 0.1023324 0.2896364 16711746
0.1326046 0.1074040 0.3321637 16711746
-0.1282280 0.1102829 0.4235342 16711746
-0.0882374 0.0900799 0.2904838 16711746
-0.2016333 0.1112050 0.4317462 16711746
-0.0646944 0.1234389 0.4875021 16711746
-0.0475597 0.0898357 0.2787544 16711746
-0.0888759 0.0897273 0.2895433 16711746
-0.0684622 0.0850225 0.2533827 16711746
-0.0856208 0.0875073 0.2850988 16711746
-0.0822312 0.0845091 0.2776817 16711746
-0.1171630 0.1018865 0.3862680 16711746
-0.1128514 0.0914059 0.3530938 16711746
0.0513735 0.0854429 0.3465103 16711746
0.2351325 0.1010381 0.2919133 16711746
-0.6271994 -0.1310828 1.3081234 16711746
0.7137359 -0.1500864 0.5547301 16711746
0.0055335 -0.1724442 0.8699198 16711746
-0.0048873 -0.3051946 0.9633875 16711746
-0.0704626 -0.2096968 0.6866158 16711746
0.4209042 -0.0536587 0.4797488 16711746
0.2745426 0.0452977 0.7492570 16711746
0.2495080 0.0345444 0.7890530 16711746
0.2726746 0.1169219 0.8509039 16711746
0.3095390 0.1820411 0.6533064 16711746
0.0054078 -0.2894377 0.9529734 16711746
0.2188597 0.0122948 0.6647140 16711746
0.2331281 -0.0068879 0.5058072 16711746
0.2277534 0.0826496 0.7240417 16711746
0.2624910 -0.1706963 0.5204362 16711746
0.3494973 -0.1494471 0.5457746 16711746
0.3838882 -0.1932237 0.5820289 16711746
0.3255102 -0.2652251 0.8261312 16711746
0.3577795 0.0820399 0.7975580 16711746
0.0586284 0.1550666 0.8523245 16711746
0.2617257 -0.0084347 0.6096002 16711746
0.3437663 0.1933782 0.8627456 16711746
0.2533838 -0.2088033 0.5484509 16711746
0.2358500 0.1035318 0.7185866 16711746
0.5089794 -0.1201130 0.6094913 16711746
0.1864241 -0.0289194 0.5918965 16711746
0.0931118 -0.0458158 0.2025408 16711746
0.2107909 0.1718732 0.5487386 16711746
0.1571630 0.1469195 0.3679659 16711746
0.5851321 -0.0472810 0.7010406 16711746
0.9150096 -0.0733898 0.8300637 16711746
-0.3732489 -0.1559844 1.1223699 16711746
1.0147278 -0.1717477 0.9813053 16711746
0.6306522 -0.1427037 0.7246438 16711746
0.0715966 -0.1577353 1.1347440 16711746
0.4854090 -0.2270745 0.5997633 16711746
0.5843560 -0.2726062 0.5626796 16711746
0.2636882 -0.1143336 0.5426525 16711746
0.6306330 -0.1488356 0.7441130 16711746
0.2950717 -0.2137394 0.8754546 16711746
0.4101602 0.1148459 0.7070712 16711746
0.2566475 -0.0076778 0.5535004 16711746
0.1799180 -0.0441692 0.5021938 16711746
0.1891739 0.0109116 0.5670561 16711746
0.1288339 -0.0946753 0.6228986 16711746
0.4615435 -0.2391021 0.6435520 16711746
0.3430125 0.1858239 0.5564079 16711746
-0.0454230 0.0956281 0.3333098 16711746
0.2260563 0.1032162 0.2541816 16711746
-0.1044950 0.0875483 0.2901912 16711746
-0.0816079 0.0903246 0.2880595 16711746
0.0861844 0.0999154 0.3384978 16711746
-0.0847105 0.0814342 0.2249355 16711746
-0.0999134 0.0914791 0.2428147 16711746
-0.0904922 0.0859830 0.2331012 16711746
-0.0051493 -0.0622707 0.2987479 16711746
-0.0057559 -0.0665043 0.2988068 16711746
0.1023329 0.0809026 0.2871931 16711746
0.1163640 0.1081848 0.3698600 16711746
-0.0331720 0.0908632 0.2830162 16711746
0.2235901 0.1239005 0.3420339 16711746
0.1104883 0.1113004 0.3821943 16711746
0.2795523 0.1091442 0.2700453 16711746
0.1758395 0.1178224 0.4155501 16711746
0.2387386 0.1163260 0.2584469 16711746
-0.2102319 0.1035518 0.4115693 16711746
-0.0094392 0.0931040 0.2772441 16711746
-0.2081942 0.1048164 0.3463067 16711746
-0.0091800 0.0968475 0.3389925 16711746
-0.0679901 0.0861465 0.2543060 16711746
-0.0775170 0.0828380 0.2360657 16711746
-0.0318950 0.0866648 0.2378271 16711746
-0.0845132 0.0844920 0.2608435 16711746
0.1291446 0.1035023 0.2881333 16711746
0.0940607 0.1028074 0.3293470 16711746
0.0842162 0.0942712 0.3262538 16711746
0.0559459 0.0936861 0.2794168 16711746
-0.0469279 0.0888491 0.2767478 16711746
0.1367245 0.0674173 0.5019988 16711746
-0.0559663 0.1096598 0.4488108 16711746
0.3542440 0.1229051 0.3889673 16711746
0.1365215 0.1284220 0.3920981 16711746
-0.1240281 0.0953828 0.5434151 16711746
-0.0228277 -0.1461542 0.5405669 16711746
-0.0200075 -0.1344732 0.5069119 16711746
0.0681357 0.1194278 0.4641429 16711746
0.3614444 0.1276643 0.5649381 16711746
0.1522438 0.0805251 0.5733557 16711746
0.2536997 -0.1335584 0.3464604 16711746
0.1373245 -0.1603120 0.4284848 16711746
0.1486349 -0.1776264 0.4666783 16711746
0.2159370 0.1285553 0.3140091 16711746
-0.2218104 -0.2099834 0.9895108 16711746
-0.0810448 -0.2497467 0.8409393 16711746
-0.0611234 -0.2440137 0.7638891 16711746
0.3519838 0.1508891 0.3955953 16711746
-0.1502085 -0.2762070 0.9185101 16711746
-0.2076702 -0.1975100 0.9481965 16711746
0.3528858 0.1556669 0.6883869 16711746
0.3908590 -0.0937229 0.3413149 16711746
0.5102642 -0.1058836 0.4242365 16711746
0.6395012 0.0496709 0.5287833 16711746
0.3406632 0.1444092 0.3844473 16711746
0.2927890 -0.0093755 0.6315376 16711746
0.1789127 -0.2092775 0.5534499 16711746
0.2069104 -0.0633769 0.7184147 16711746
0.9366935 0.0411980 1.1019503 16711746
0.2312633 -0.1276754 0.8744031 16711746
0.3209438 -0.1287244 0.5215262 16711746
0.2934785 -0.2047005 0.6368122 16711746
0.3995989 0.0254063 0.7193589 16711746
0.3802706 0.1074394 0.6573461 16711746
0.5297410 -0.2449556 0.5043464 16711746
0.4198663 0.1116752 0.7899927 16711746
0.0016195 -0.2135521 0.6951600 16711746
0.3826785 0.0503725 0.8167137 16711746
0.1654827 0.1544320 0.3895006 16711746
0.5210673 -0.0964492 0.6128379 16711746
0.0251470 0.1750131 0.7561787 16711746
-0.3069550 -0.1201919 1.2126735 16711746
0.2959858 -0.0113989 0.6888669 16711746
0.0681637 -0.0085608 0.1173044 16711746
0.6737661 -0.1758635 0.7763108 16711746
0.1210770 -0.1715422 1.1124564 16711746
0.2355102 0.1827580 0.6476970 16711746
0.2574210 -0.1399762 0.8598188 16711746
0.0549114 -0.1381380 0.9284527 16711746
0.6218299 -0.3155442 0.6184682 16711746
0.1189493 -0.1883336 1.1197119 16711746
0.7094922 -0.0994283 0.5831072 16711746
0.4173723 0.1988155 0.7107232 16711746
0.2834933 0.1743471 0.9148874 16711746
0.4570602 -0.2164935 0.6837710 16711746
-0.3942322 -0.2934293 0.8968634 16711746
0.3268635 0.2149374 0.7843555 16711746
1.0232395 -0.2520503 1.0120007 16711746
0.0348859 -0.0193023 0.1748475 16711746
0.2104563 -0.0443125 0.2501243 16711746
-0.0104447 0.0943572 0.2796726 16711746
-0.1570508 0.0973722 0.3200787 16711746
-0.1397450 0.1013390 0.4416857 16711746
-0.1786053 -0.1527490 0.5040154 16711746
-0.2247112 -0.1382131 0.5731582 16711746
-0.2540849 -0.1822080 0.5318204 16711746
-0.2021688 -0.1198412 0.5607840 16711746
-0.1711103 -0.1557039 0.5343826 16711746
-0.1878062 -0.1524738 0.5372000 16711746
-0.1492772 -0.1255228 0.4551457 16711746
-0.0802101 -0.1982207 0.6791181 16711746
0.2165693 0.1213629 0.3521573 16711746
-0.0476186 0.0877538 0.2867823 16711746
-0.0332582 0.0852096 0.3023385 16711746
-0.1155255 -0.0846445 0.2803791 16711746
-0.0669848 0.0932944 0.3150698 16711746
-0.1004014 0.0856496 0.2547303 16711746
0.0906200 0.1146306 0.3699169 16711746
-0.0602923 0.1193731 0.4739204 16711746
0.2290151 0.1180820 0.2846200 16711746
-0.0156034 0.0884358 0.2603201 16711746
-0.0576548 0.0881763 0.2808385 16711746
-0.2474921 -0.1355652 1.1421819 16711746
-0.1915461 -0.0835723 0.8571715 16711746
0.1384605 -0.1442123 0.4193404 16711746
-0.3790703 0.1318374 0.5717588 16711746
-0.2560996 -0.1417182 1.1589972 16711746
0.3565204 -0.1424757 0.4264525 16711746
-0.3968287 -0.2266348 0.5694394 16711746
0.5288093 -0.1900691 0.5054886 16711746
0.0461707 -0.1625869 1.0523704 16711746
-0.1722324 -0.2734979 0.7876461 16711746
0.3792681 -0.2664405 0.8787929 16711746
0.0214710 0.1585504 0.6913912 16711746
0.4139543 0.1095139 0.7713452 16711746
0.1717141 -0.1503951 0.4854289 16711746
0.3044403 -0.2882799 0.6719203 16711746
0.2054840 0.1513970 0.4630021 16711746
0.5545200 -0.2333859 0.6916600 16711746
0.7821964 -0.1104165 0.7667915 16711746
0.2463926 -0.1363198 0.4641600 16711746
0.6098647 -0.1117855 0.7053679 16711746
0.6618731 -0.1723927 0.6455775 16711746
0.3034235 -0.2840850 0.6684638 16711746
0.6572705 -0.2073754 0.7756186 16711746
0.5077633 0.1515798 1.0874066 16711746
0.2534716 -0.1658314 0.4585768 16711746
1.0560675 0.0517009 1.2090607 16711746
0.0153101 -0.2142187 0.8388125 16711746
0.6671585 -0.1516382 0.7630430 16711746
-0.1783754 0.1439211 0.5166810 16711746
0.0166384 -0.2098970 0.8279532 16711746
0.0390648 -0.0613402 0.2537918 16711746
-0.1788397 -0.1425219 0.5039782 16711746
0.3584795 -0.1047908 0.3936154 16711746
0.4750196 -0.1036077 0.4582292 16711746
-0.0685399 -0.1391404 0.5934218 16711746
-0.1896403 -0.1801499 0.5984752 16711746
-0.0480847 0.1007810 0.3639070 16711746
-0.0553024 0.0840815 0.2490862 16711746
0.3111515 -0.1688907 0.3985178 16711746
0.0734233 0.0973108 0.3524022 16711746
0.0969687 0.1030571 0.3314530 16711746
-0.0944213 0.0860614 0.2936898 16711746
-0.0632275 0.0876692 0.3015819 16711746
-0.1754912 0.0896044 0.3138251 16711746
-0.0659440 0.0920280 0.3119116 16711746
-0.0494980 0.0801332 0.3234081 16711746
0.1739720 0.0640218 0.2289573 16711746
0.4058820 -0.1692745 0.4420183 16711746
0.4761021 -0.1719142 0.4628526 16711746
-0.1023426 0.0835948 0.4279226 16711746
-0.0183691 -0.1064623 0.4019950 16711746
0.2151382 0.0783229 0.2587525 16711746
0.3953658 0.1050649 0.3766850 16711746
-0.2964655 -0.1768339 0.5084813 16711746
-0.1429567 0.0910822 0.3479066 16711746
0.4722580 -0.1469719 0.4745046 16711746
-0.1581427 -0.0814123 0.8376536 16711746
-0.1037375 0.0917869 0.3048964 16711746
0.2438852 -0.1577375 0.4163730 16711746
0.3616768 0.0963879 0.4456775 16711746
-0.2101177 -0.0891916 0.9162040 16711746
0.4684416 -0.2453212 0.4263182 16711746
0.5153342 -0.2118407 0.5918010 16711746
0.3955644 -0.1403510 0.3959681 16711746
0.4335287 -0.1882187 0.4868712 16711746
0.5338793 -0.1758873 0.6234785 16711746
0.7512507 -0.0165638 0.6088834 16711746
0.2491153 -0.1493644 0.4695956 16711746
0.2809149 -0.2070252 0.5520813 16711746
0.2920825 -0.2135519 0.5676626 16711746
0.3580540 -0.1078044 0.3764475 16711746
0.2786108 -0.1544169 1.0632484 16711746
0.2734186 -0.1209303 0.4548076 16711746
-0.2573792 -0.1552108 1.0755632 16711746
0.4433236 -0.2307007 0.7044304 16711746
0.2152229 -0.0219229 0.6544881 16711746
0.2831058 -0.1063314 0.9712101 16711746
0.4705527 -0.2145179 0.6029419 16711746
0.3381298 0.1762912 0.9204921 16711746
0.3457218 -0.2434812 0.7885823 16711746
0.2162262 -0.0512951 0.7321309 16711746
0.2239370 -0.0154227 0.5196364 16711746
0.4713412 -0.1881781 0.5479734 16711746
0.2697575 -0.1583869 0.4521394 16711746
0.7037779 -0.0145770 0.5180252 16711746
0.4479693 -0.1540460 0.5738150 16711746
0.0097489 -0.1491383 0.7569267 16711746
0.4723078 -0.1598220 0.6039194 16711746
0.7158403 -0.1250355 0.5907653 16711746
0.1326925 -0.0223131 0.2460346 16711746
0.7068669 0.1477731 0.9189995 16711746
0.0719396 -0.0802356 1.0501230 16711746
0.8512730 -0.0683121 0.7786013 16711746
0.5583143 -0.1706583 0.6724327 16711746
0.5568820 -0.1450273 0.6913404 16711746
0.6499054 -0.0213529 0.8370616 16711746
0.2144004 -0.1078997 0.5307825 16711746
0.5551264 -0.1425215 0.6831297 16711746
0.6148983 -0.0890360 0.6057894 16711746
0.0899485 -0.0258865 0.1935878 16711746
1.1594701 -0.0808420 0.9747576 16711746
0.3842882 0.1804103 0.5909206 16711746
0.0575177 -0.0614656 0.2742849 16711746
-0.2086060 -0.1290352 0.3966638 16711746
-0.0492492 0.0730576 0.3133606 16711746
0.1914510 0.0316188 0.2353394 16711746
-0.2751246 -0.1455206 0.5562026 16711746
0.2030746 -0.0658575 0.2706065 16711746
0.2725072 0.0641578 0.2895797 16711746
0.5147706 -0.2201370 0.5481625 16711746
-0.2234587 -0.1513144 0.9567912 16711746
0.0252740 -0.1834494 0.5832696 16711746
0.4485596 -0.1521607 0.5270954 16711746
-0.0771680 0.1060883 0.3846453 16711746
0.1314656 -0.1270855 0.3995874 16711746
-0.1938307 -0.1403848 0.5550817 16711746
0.0294061 -0.1270951 0.6397725 16711746
0.3459221 -0.1156777 0.4543063 16711746
-0.0259762 0.0907369 0.2735479 16711746
-0.0102328 0.0895213 0.2610343 16711746
-0.0432624 0.1031898 0.3238743 16711746
-0.0780042 0.1001964 0.3271307 16711746
-0.0553834 0.0859593 0.2764666 16711746
-0.0436195 0.0837882 0.2799586 16711746
-0.0446921 0.0871430 0.2727428 16711746
-0.0758885 0.1007036 0.3744476 16711746
0.0263062 0.1302265 0.4323581 16711746
-0.2562118 -0.0555063 0.4743305 16711746
0.0409230 0.1186505 0.4047088 16711746
0.2367349 0.0433040 0.2749426 16711746
0.0171682 -0.1512682 0.5680688 16711746
-0.3602913 -0.1287594 0.9604713 16711746
0.1685269 -0.0489418 0.3004783 16711746
-0.1403085 0.1341085 0.6076672 16711746
0.0909434 -0.1090877 0.4819992 16711746
0.0423544 -0.1919899 0.5932202 16711746
-0.2253734 -0.1055711 0.7659975 16711746
0.1207876 0.1156883 0.3858006 16711746
0.0374523 -0.1433914 0.5833375 16711746
0.1084336 0.0951346 0.3127876 16711746
0.1172969 -0.0659979 0.3221795 16711746
-0.2031794 -0.0940382 0.7110474 16711746
-0.2776751 -0.0931501 0.6817487 16711746
-0.0579099 -0.1488201 0.5231527 16711746
0.1067205 0.1162660 0.3943574 16711746
0.1068855 0.1152395 0.3895578 16711746
0.6797701 -0.0275226 0.6341575 16711746
-0.3790166 -0.2486512 0.8599373 16711746
0.1737703 -0.0636270 0.2898327 16711746
-0.1525103 -0.1620932 0.7052770 16711746
0.2380271 -0.1719068 0.5965673 16711746
0.4012696 -0.1969718 0.5737926 16711746
0.2171430 -0.0709658 0.4383645 16711746
0.1376459 0.1629876 0.5053933 16711746
0.2599738 -0.0062271 0.8067007 16711746
0.1559013 -0.1281492 0.9664789 16711746
0.1442784 -0.1226536 0.9085160 16711746
0.8678206 0.1500394 0.5917519 16711746
-0.1806294 -0.2635414 0.7621260 16711746
0.2409732 -0.1511298 0.6676584 16711746
1.1101924 -0.0361652 1.3797817 16711746
0.5624869 -0.1463342 0.6945444 16711746
0.0363276 0.1573771 0.8197522 16711746
-0.3955928 -0.2167099 0.6060571 16711746
0.5997951 -0.1671224 0.5714640 16711746
0.5903986 -0.0706007 0.7227814 16711746
0.2373932 -0.1564200 0.6462575 16711746
0.7307444 -0.1891349 0.7725877 16711746
0.3845087 -0.2253213 0.6742825 16711746
0.2121743 -0.1735653 0.5178691 16711746
0.0223436 -0.1235725 0.6643171 16711746
0.0428310 -0.1839966 0.6190037 16711746
-0.2229509 -0.0897826 0.7571350 16711746
-0.1003841 0.1141812 0.4246992 16711746
0.0260496 0.1408915 0.4563846 16711746
-0.2335585 -0.1326166 0.6166885 16711746
0.0712239 0.1111653 0.3388203 16711746
-0.2571349 -0.1426918 0.6578478 16711746
-0.0388162 0.0733094 0.2345842 16711746
0.0168899 -0.1059399 0.4684023 16711746
-0.0539850 0.0839257 0.2751997 16711746
-0.0568409 0.0874781 0.2787381 16711746
-0.1050714 0.0736687 0.2475893 16711746
0.0419042 0.0980833 0.3095409 16711746
0.1165443 -0.1303829 0.4444086 16711746
0.0160749 -0.1369541 0.6702276 16711746
0.0275787 -0.1172377 0.5565755 16711746
0.0613234 -0.1321935 0.5431513 16711746
0.0986327 0.0124221 0.1969835 16711746
0.1166843 -0.0519672 0.3186405 16711746
-0.3932040 0.1351448 0.5822856 16711746
0.0493636 -0.1320031 0.5337797 16711746
0.0306194 -0.1188973 0.4663711 16711746
-0.4342461 -0.0674891 0.5945331 16711746
0.0280865 -0.1121176 0.4789570 16711746
0.3142065 -0.1574534 0.5393255 16711746
0.2313353 -0.1932913 0.5649478 16711746
0.2762174 -0.2254551 0.5905067 16711746
-0.7532905 -0.1101949 0.9152980 16711746
-0.5240940 -0.1032573 0.6752612 16711746
0.5661648 -0.1228345 0.5939646 16711746
0.0273447 -0.1672691 0.6950137 16711746
0.1990988 -0.0587739 0.4045488 16711746
0.0045729 -0.1006582 0.5816840 16711746
0.4904912 -0.1991388 0.5626047 16711746
0.3540411 -0.1477814 0.5594685 16711746
0.5465183 -0.2378708 0.5274152 16711746
0.0170833 -0.1585554 0.8880861 16711746
0.3291557 -0.2100619 0.5969555 16711746
0.0271607 -0.1029277 0.5873225 16711746
0.0041747 -0.1376075 0.5576458 16711746
0.3452260 -0.1904340 0.5616999 16711746
0.2489284 -0.0884050 0.4615488 16711746
0.3072549 -0.2035034 0.9001523 16711746
0.2806109 -0.1175272 0.8359872 16711746
0.1050354 -0.0937577 0.8772116 16711746
0.5586969 0.0102494 0.4469031 16711746
0.1020563 0.1792140 0.7042856 16711746
0.1577917 -0.1285922 0.8646638 16711746
0.1731014 -0.1473020 0.9762093 16711746
0.1095153 -0.1299067 0.8751749 16711746
0.2211576 -0.1380333 0.7843112 16711746
0.1818162 -0.1305761 0.6130872 16711746
0.2169662 -0.1970886 0.7786397 16711746
-0.3112016 -0.1122439 0.9622061 16711746
0.6565729 -0.0583210 0.6112322 16711746
0.3177312 -0.1078165 0.5084646 16711746
0.8473014 -0.1128783 0.8475242 16711746
0.1864974 -0.0563539 0.6457431 16711746
0.2126988 -0.1317777 0.6367852 16711746
0.2925655 -0.0033719 0.9142499 16711746
0.2729461 0.1112013 1.3161057 16711746
0.3265187 -0.1836169 0.7624446 16711746
0.0755845 -0.0910431 0.7576516 16711746
0.0127991 -0.1430909 0.5597348 16711746
0.0322867 0.1012809 0.3631639 16711746
0.0672494 -0.0074937 0.1562921 16711746
0.0321709 0.0940745 0.3219920 16711746
0.0338554 0.0878848 0.3336322 16711746
0.0250636 -0.0736328 0.4229610 16711746
-0.0110203 -0.1428110 0.6195363 16711746
0.0045445 -0.1071290 0.6026842 16711746
0.0140864 0.0946108 0.3522378 16711746
0.0267702 0.1019145 0.3682429 16711746
0.1873331 0.1311261 0.4106504 16711746
0.1391814 0.1139859 0.3423775 16711746
0.2126036 0.1150903 0.3364337 16711746
0.1783725 0.1225027 0.3917335 16711746
0.0321451 0.0971453 0.3261870 16711746
0.1155331 0.1057164 0.3982783 16711746
-0.0031092 -0.1290573 0.5984275 16711746
0.0320568 0.0952379 0.3214696 16711746
0.0325508 0.1033309 0.3686676 16711746
0.1057155 0.0911879 0.2983561 16711746
0.0939423 0.0972968 0.3185912 16711746
0.0302341 0.0990384 0.3291613 16711746
0.0277119 0.0995283 0.3144599 16711746
-0.0277172 -0.1376317 0.6474633 16711746
0.0262401 0.1101669 0.4261704 16711746
0.1341441 0.1146990 0.4633249 16711746
0.0381849 -0.1622883 0.6537926 16711746
0.2088368 0.1124986 0.3336082 16711746
0.1240451 0.1059330 0.3339616 16711746
0.2281663 -0.0939894 0.4895948 16711746
0.1547976 0.1369327 0.3883943 16711746
0.1100868 -0.0837060 0.5032443 16711746
0.2231691 -0.1647591 0.5164711 16711746
0.1691285 -0.1016754 0.6380898 16711746
0.3291984 -0.1640914 0.4761650 16711746
-0.2907461 -0.1475718 0.4665686 16711746
0.2342263 -0.1315070 0.7378990 16711746
0.1919072 -0.0309974 0.5340173 16711746
0.1825133 -0.1056903 0.7364361 16711746
-0.0548547 -0.1304855 0.7159845 16711746
0.5307156 -0.0675546 0.5009181 16711746
-0.0960479 0.0829318 0.5537019 16711746
-0.4843116 -0.0876996 0.6308572 16711746
0.2000233 -0.0469902 0.3730812 16711746
0.4391339 -0.1754898 0.5157337 16711746
-0.0018952 0.1035143 0.3501087 16711746
0.4789113 -0.1920254 0.4960016 16711746
0.3366181 -0.1832076 0.5540013 16711746
0.2004296 0.0923779 0.3368338 16711746
-0.0530802 -0.1245831 0.6955177 16711746
0.2869544 0.1130373 0.8803831 16711746
0.3921998 0.1627670 0.9744001 16711746
0.3577738 0.1265632 0.7635723 16711746
0.2457905 -0.1497954 0.5464529 16711746
-0.0946242 -0.1145497 0.5678942 16711746
0.6194904 -0.2250362 0.5761606 16711746
0.1372780 -0.0530143 0.3371825 16711746
0.2347358 -0.0603289 0.4646115 16711746
-0.1345878 -0.1240125 0.6898292 16711746
0.2278628 -0.2033768 0.7606057 16711746
-0.7482056 -0.1172155 1.0845690 16711746
0.2073857 -0.0546518 0.4296277 16711746
-0.0254575 -0.1585426 0.7399002 16711746
0.1769471 0.1421470 0.5342937 16711746
0.2245633 -0.0892925 0.6541259 16711746
0.2998943 0.0854815 0.4777916 16711746
0.1067029 -0.1581875 0.6512007 16711746
-0.0120730 -0.1187034 0.5680698 16711746
-0.1363505 -0.1441156 0.6971780 16711746
0.3117086 -0.1068569 0.6306877 16711746
0.4849925 -0.1627790 0.5912508 16711746
0.3817095 -0.0392140 0.3125442 16711746
0.3422931 -0.1208132 0.6274644 16711746
0.6266114 -0.1953074 0.7728378 16711746
0.4399391 0.1680726 0.8453196 16711746
0.1888356 -0.0609233 0.4024707 16711746
1.1004899 -0.0872537 1.2932116 16711746
0.2705123 -0.1391084 0.6249263 16711746
0.6849415 -0.0113307 0.7508241 16711746
0.7962042 -0.2189096 0.7678328 16711746
0.2089427 -0.0983547 0.5875860 16711746
0.6893411 -0.0772583 0.6429847 16711746
0.4912771 -0.1364360 0.6004798 16711746
-0.4569162 -0.0587676 0.9337283 16711746
-0.0208352 -0.1941829 0.6391463 16711746
0.2407047 -0.0822090 0.4069160 16711746
0.0987973 0.0887686 0.3626118 16711746
-0.0324659 0.0811967 0.3042887 16711746
0.4129518 -0.1620856 0.4387288 16711746
0.1937766 -0.1675247 0.6405520 16711746
-0.2640709 -0.1591291 0.7060537 16711746
0.3585604 -0.1485897 0.3685358 16711746
0.4119932 -0.1283835 0.4299650 16711746
0.1225611 0.0998456 0.3511948 16711746
0.0087972 0.0839289 0.3093618 16711746
0.3788346 -0.1296322 0.3763127 16711746
0.2269884 -0.0761488 0.3855035 16711746
-0.0302248 -0.1425266 0.5390702 16711746
0.0171733 0.0841368 0.3271046 16711746
-0.3254031 -0.0814602 0.7725634 16711746
0.4224965 -0.1337710 0.4380449 16711746
-0.0033908 -0.1170684 0.6582984 16711746
-0.5009537 -0.0595366 0.9910644 16711746
0.1712449 -0.1140960 0.4882976 16711746
0.0990938 0.0928045 0.3408730 16711746
0.0849618 0.0923663 0.3231663 16711746
-0.0186920 0.0811199 0.3574300 16711746
0.1040735 0.0895750 0.3117697 16711746
0.0915858 0.0813416 0.3397956 16711746
0.0179496 -0.0762209 0.3840697 16711746
0.0746241 0.0833393 0.3329184 16711746
0.0842769 0.0877409 0.3142405 16711746
-0.1527350 -0.1611591 0.7454771 16711746
0.2043050 -0.0902373 0.6998779 16711746
0.1729920 0.1157011 0.5713611 16711746
0.3180693 -0.1071941 0.4765350 16711746
0.1527873 -0.1632420 0.4947769 16711746
0.3128405 -0.1054784 0.4719820 16711746
0.1545958 -0.1648567 0.5002180 16711746
0.4301572 -0.1764454 0.4286606 16711746
0.1514594 -0.1666486 0.5538870 16711746
0.2018533 -0.0400075 0.3642593 16711746
-0.5164427 -0.0627727 1.0307090 16711746
0.2147778 -0.0789912 0.6602513 16711746
0.2337112 -0.1210446 0.5478962 16711746
0.3152474 -0.1299370 0.4987954 16711746
0.2019335 -0.1074413 0.5247124 16711746
0.2143555 0.1383179 0.5667778 16711746
0.2429611 -0.0431832 0.4479171 16711746
0.8249230 -0.2267986 0.7892013 16711746
0.4272508 -0.1782971 0.5411620 16711746
0.6997709 -0.1977673 0.6868892 16711746
-0.3281086 -0.1084313 0.7758239 16711746
0.2334887 -0.0634743 0.4354519 16711746
0.5459916 -0.1527112 0.6341153 16711746
0.0036419 -0.1527419 0.5915834 16711746
1.0098244 0.0981148 0.8056220 16711746
0.5757039 -0.2429986 0.5836794 16711746
-0.0572094 -0.1404538 0.6423260 16711746
0.2162293 -0.0536326 0.6035384 16711746
0.1926167 -0.1314659 0.4762566 16711746
0.4462610 -0.0879788 0.5503673 16711746
0.2084361 -0.1434072 0.5676454 16711746
-0.8126984 -0.1133657 0.9749107 16711746
0.3789320 -0.1035919 0.4560601 16711746
-0.0042421 0.0870544 0.3001728 16711746
0.5132556 -0.0757109 0.4951228 16711746
0.3248153 -0.1023714 0.6525563 16711746
0.1059826 -0.1595755 0.7008290 16711746
0.2924660 -0.0448462 0.9673439 16711746
1.2148386 -0.0204182 1.3053521 16711746
0.3679381 -0.0978933 1.0748323 16711746
0.2625424 -0.0748225 0.7349557 16711746
0.2431356 -0.0934722 0.7646997 16711746
0.5407465 -0.1258330 0.6409352 16711746
0.1625258 -0.0039311 0.3487054 16711746
0.0753303 -0.1081661 0.8929006 16711746
-0.3257404 -0.1810710 0.7331522 16711746
-0.9139064 -0.1289500 1.0354049 16711746
-0.0425113 -0.1249809 0.6037652 16711746
0.1080822 0.1044004 0.3661530 16711746
0.2597716 -0.1093588 0.4135593 16711746
0.3843572 -0.1182122 0.4044327 16711746
0.3778341 -0.1081300 0.4462931 16711746
0.2148847 -0.0721711 0.4026038 16711746
0.0262783 -0.1170250 0.4894084 16711746
0.2248733 0.1191231 0.4337077 16711746
0.0149455 0.0862410 0.3332498 16711746
0.1649299 -0.1066454 0.6771879 16711746
0.2213783 0.0944212 0.3323081 16711746
0.4771902 -0.1346597 0.4683289 16711746
0.3125421 -0.0596539 0.4654721 16711746
0.2727461 -0.0768862 0.4377239 16711746
-0.4438615 -0.0770859 0.7196052 16711746
-0.3056129 -0.1396442 0.7162549 16711746
0.2648070 -0.1410756 0.6108102 16711746
-0.1463405 -0.2058516 0.7247056 16711746
0.4236600 -0.0711299 0.5234450 16711746
0.1136444 0.1017178 0.3801520 16711746
0.2064578 -0.1293958 0.4101860 16711746
0.2987204 -0.0983684 0.3212803 16711746
-0.1130062 0.1135174 0.5419929 16711746
-0.1271932 -0.0978609 0.5902824 16711746
0.3593840 -0.1412593 0.3975449 16711746
-0.1073427 -0.0949995 0.6432837 16711746
-0.0966146 -0.0990648 0.5796892 16711746
0.0378763 -0.0568363 0.3575448 16711746
0.3213114 -0.1550367 0.5219361 16711746
-0.6652790 -0.0907279 0.8892509 16711746
0.1017202 0.1123308 0.4158239 16711746
0.3222020 0.1099565 0.6296333 16711746
0.0863143 -0.1681921 0.7978991 16711746
0.4165206 -0.1499197 0.7493880 16711746
0.2923904 -0.0424293 0.8737008 16711746
0.2540545 -0.1419736 0.6401463 16711746
0.4675613 -0.2370823 0.6106369 16711746
0.7316402 -0.1883371 0.8347551 16711746
0.3546238 0.1645510 1.0329659 16711746
-0.5348424 -0.0663383 1.0675139 16711746
0.1354307 0.1113089 0.3851394 16711746
0.2550821 -0.1072215 0.4002796 16711746
0.0531576 -0.1242128 0.7698069 16711746
-0.0507824 -0.1112923 0.5458061 16711746
0.0968952 -0.0845075 0.8717821 16711746
0.7056425 -0.0592034 0.7335398 16711746
0.6319135 -0.0319803 0.7583991 16711746
0.1883395 -0.0720829 0.5595621 16711746
-0.1407946 -0.1151614 0.3755188 16711746
-0.1283798 0.0645624 0.3363775 16711746
-0.1712541 -0.1311271 0.4060701 16711746
-0.1544305 -0.1081360 0.4246028 16711746
-0.1332089 -0.0481790 0.4451909 16711746
-0.1494582 -0.1194807 0.3820776 16711746
-0.0557124 -0.0834419 0.3478567 16711746
-0.0738347 -0.0927747 0.4497923 16711746
-0.1215639 -0.0936115 0.4264455 16711746
-0.1786666 -0.1094065 0.4393004 16711746
-0.1977209 -0.1151206 0.4266528 16711746
-0.0711688 0.0759136 0.3257201 16711746
0.1171107 0.1014344 0.3818167 16711746
0.3389963 -0.1490261 0.5326213 16711746
0.3228064 -0.1403641 0.5056007 16711746
-0.0207092 -0.0841205 0.3806857 16711746
0.0745980 0.0872884 0.3205563 16711746
-0.0169229 -0.0856591 0.3635538 16711746
0.1060232 0.0942352 0.3438603 16711746
-0.0335556 0.0631311 0.2995537 16711746
-0.1563144 -0.0901507 0.4339671 16711746
-0.1236677 -0.0747820 0.4488604 16711746
-0.0212307 -0.1002169 0.3858089 16711746
-0.0493207 -0.1302264 0.6325995 16711746
-0.0318475 -0.0919181 0.6218833 16711746
0.1484491 -0.0423828 0.4458993 16711746
0.1485407 0.0771284 0.5571455 16711746
0.2684776 0.1482496 0.6411664 16711746
0.3825869 -0.1410678 0.4788619 16711746
0.2116013 -0.1228605 0.4674008 16711746
0.1752791 -0.0535591 0.2820469 16711746
0.2248127 -0.0734648 0.3733235 16711746
-0.0553932 -0.1602713 0.5533877 16711746
0.5412061 -0.0945523 0.6516470 16711746
0.3594068 -0.1118297 0.3835919 16711746
0.1063436 0.1050793 0.4046057 16711746
0.2191073 -0.0845501 0.3679163 16711746
0.2645800 -0.1269976 0.3729517 16711746
0.3724193 -0.0921604 0.4016345 16711746
0.1189843 -0.0604828 0.3414108 16711746
-0.1783723 -0.0617193 0.6748270 16711746
0.2699242 -0.0705210 0.3851834 16711746
-0.1804371 -0.1438357 0.5215937 16711746
-0.0040503 -0.0799366 0.4866648 16711746
0.1595049 0.0952470 0.3626543 16711746
-0.1921397 -0.0915734 0.6956508 16711746
-0.1182135 -0.1005458 0.5582749 16711746
0.0108052 -0.0518002 0.3981892 16711746
-0.2271287 -0.1162835 0.4018876 16711746
-0.2675976 -0.0751932 0.6318209 16711746
-0.1247135 -0.1037987 0.5689468 16711746
-0.0201226 -0.0783911 0.5190647 16711746
0.0922674 -0.0488927 0.3593420 16711746
-0.0022063 -0.0769679 0.4741178 16711746
-0.0724055 -0.0771140 0.4614314 16711746
-0.0802048 -0.1093382 0.5450488 16711746
-0.0074786 -0.0716977 0.3551813 16711746
0.1928699 -0.0716908 0.8587376 16711746
-0.7395194 -0.2832681 1.3423145 16711746
0.0165645 -0.0936612 0.8536505 16711746
0.0832736 0.2037537 1.0663532 16711746
0.1221394 -0.0783894 0.7454254 16711746
0.0496126 -0.1051722 0.6958482 16711746
0.0784780 -0.0865171 0.8050811 16711746
0.1904005 -0.1522012 0.5129710 16711746
0.4027844 -0.1171416 0.4181122 16711746
-0.0897079 -0.0872717 0.5060096 16711746
0.1416236 -0.0647632 0.4423327 16711746
0.2050722 -0.1178121 0.4040148 16711746
0.1120192 0.0952063 0.3619100 16711746
0.1201427 -0.0534051 0.4682554 16711746
0.1652449 -0.1020983 0.8854690 16711746
-0.1694962 -0.1032696 0.4319304 16711746
0.0933980 -0.1074962 0.8376011 16711746
0.3307123 -0.0971560 0.9567090 16711746
0.7358013 -0.0090667 0.6147856 16711746
-0.3986433 -0.1705358 0.8412816 16711746
0.1309306 0.2086173 1.0960416 16711746
0.0786760 -0.0036523 0.2391099 16711746
0.1896976 0.0612762 0.2697878 16711746
-0.0817803 -0.0936587 0.3611126 16711746
-0.1069803 -0.0844578 0.3755350 16711746
-0.0441933 -0.0736801 0.3899380 16711746
-0.1299693 -0.0753842 0.3967999 16711746
0.0877529 -0.0088491 0.1884723 16711746
0.1279290 -0.0035975 0.2149929 16711746
0.1187730 0.1075807 0.4391374 16711746
0.2695682 0.1079075 0.5228708 16711746
0.0207566 -0.1180014 0.6218880 16711746
0.0208905 -0.1143838 0.6174420 16711746
0.0678870 -0.0689608 0.8459817 16711746
0.1702829 -0.0630251 0.4237210 16711746
0.1175465 0.1708685 0.9202573 16711746
0.3289521 -0.1130045 0.5322748 16711746
0.1620342 -0.0447802 0.4002890 16711746
0.1625156 -0.0328377 0.3175682 16711746
0.0785425 -0.0037605 0.2375295 16711746
0.1633402 0.0990643 0.3705110 16711746
-0.3878309 -0.0608405 0.6749728 16711746
-0.0904615 -0.0834015 0.4607031 16711746
-0.2533642 -0.1200047 0.6166308 16711746
-0.1603382 -0.1196454 0.4869194 16711746
0.2135613 0.0318054 0.3282710 16711746
-0.0982750 -0.1097309 0.4135748 16711746
-0.1965164 -0.1265682 0.4458390 16711746
0.0447699 -0.0807152 0.4970471 16711746
0.4778758 -0.1792848 0.5138074 16711746
0.2080739 0.0592655 0.3993555 16711746
0.1802342 0.0062772 0.3366916 16711746
0.0780411 -0.0954277 0.9217990 16711746
0.1990667 -0.1131022 0.4390483 16711746
0.2447015 -0.0831847 0.6336370 16711746
0.0668481 -0.1049826 0.5385948 16711746
0.2335480 0.0723225 0.4501930 16711746
0.1432436 -0.0483564 0.4412550 16711746
0.1296725 -0.0793478 0.6013548 16711746
0.1226806 -0.0461555 0.4024898 16711746
0.0233640 0.1280682 0.5667865 16711746
0.0740669 -0.1769260 0.5790400 16711746
0.1505064 -0.0934127 0.4835139 16711746
0.1943244 0.1580118 0.6317292 16711746
0.2907379 -0.0980640 0.2619332 16711746
0.1599767 -0.0738342 0.4547143 16711746
0.0764712 -0.1099294 0.6183982 16711746
0.0701252 -0.0829391 0.9987280 16711746
0.4829990 -0.1183913 0.5461878 16711746
0.1451484 -0.0841524 0.7576485 16711746
0.1038316 -0.1481283 0.9336134 16711746
0.4746822 -0.2091197 0.5781192 16711746
0.1016770 -0.0167609 0.2935019 16711746
-0.0414641 0.0346458 0.2636833 16711746
0.1680617 -0.0806079 0.3473155 16711746
0.1958966 0.1039175 0.4427990 16711746
0.2010327 0.0968366 0.4710058 16711746
0.1289673 -0.0798278 0.4892687 16711746
-0.2727404 -0.1262180 0.4647143 16711746
-0.0725749 0.0611497 0.3287731 16711746
0.2001492 -0.0798100 0.3276056 16711746
0.1137188 0.0741262 0.3052968 16711746
0.0748248 -0.0606632 0.4941299 16711746
0.1144413 0.0864014 0.3663336 16711746
-0.2388042 -0.0623650 0.6329613 16711746
-0.1623679 -0.1082856 0.5189852 16711746
0.1213042 -0.0239282 0.2262288 16711746
-0.1040380 -0.0763720 0.6431111 16711746
0.2076360 -0.0743148 0.3395583 16711746
-0.0770505 -0.1051179 0.5650511 16711746
-0.0120646 0.0578741 0.3127106 16711746
-0.0778659 0.0561781 0.2972120 16711746
-0.1184555 0.0623463 0.3291526 16711746
-0.0324167 0.0520034 0.2748780 16711746
0.0928635 0.0577778 0.2963192 16711746
-0.1837767 -0.0980216 0.5381538 16711746
0.0868146 0.0436987 0.2635193 16711746
0.0783736 0.0209632 0.2680630 16711746
0.1442168 0.0914751 0.4353323 16711746
0.1130289 0.0729629 0.3027287 16711746
0.2040636 -0.0819176 0.3320593 16711746
0.1374212 -0.0659770 0.3628980 16711746
-0.0687377 -0.1058153 0.5260204 16711746
0.0176036 0.0662585 0.4265970 16711746
0.2315090 -0.1122883 0.3874308 16711746
-0.1576104 -0.1197036 0.4857571 16711746
-0.0715192 0.0605961 0.3279539 16711746
0.1856622 0.0922908 0.4147156 16711746
-0.0688569 -0.0896334 0.4636199 16711746
0.1678232 0.0702270 0.3231318 16711746
0.0822166 0.0554081 0.2746009 16711746
0.1038598 0.0728567 0.3648318 16711746
-0.0251418 0.0519174 0.2741017 16711746
-0.1122376 0.0598322 0.3227377 16711746
-0.1154360 0.0604157 0.3245153 16711746
0.1060323 0.0413510 0.3570767 16711746
-0.2413874 -0.1134324 0.5280430 16711746
-0.2570451 -0.0453534 0.5260491 16711746
-0.0746675 -0.0743309 0.5400295 16711746
0.2426740 0.1224041 0.5890101 16711746
0.2017057 -0.0556071 0.6698787 16711746
0.2029398 -0.1385765 0.5916979 16711746
0.2941718 -0.0783145 0.3587753 16711746
0.0637279 -0.1433500 0.5736714 16711746
0.2639919 -0.0757757 0.4272539 16711746
0.0975093 -0.0819313 0.6702341 16711746
0.3029608 0.1128446 0.6170036 16711746
0.2512582 0.0892122 0.5154960 16711746
0.0716616 -0.0873139 0.6768906 16711746
0.1813857 -0.0783481 0.4562739 16711746
-0.6878573 -0.0860059 0.9975058 16711746
0.7494718 -0.0691502 0.8658570 16711746
0.0294188 -0.1517665 0.5955392 16711746
-0.0262934 -0.0812116 0.6832511 16711746
0.2557449 -0.1557458 0.6452811 16711746
0.0256696 0.1134503 0.5161677 16711746
0.6531199 -0.0640910 0.6799005 16711746
0.1625885 -0.1060993 0.3968853 16711746
0.3427612 -0.1257935 0.4639880 16711746
0.2630455 -0.0745673 0.4236822 16711746
0.1530416 -0.0504813 0.3720414 16711746
-0.0436019 -0.1011963 0.4332179 16711746
0.1319536 -0.0088731 0.5555872 16711746
0.1447140 -0.0101503 0.2698018 16711746
0.1285255 -0.0976275 0.6149015 16711746
0.1533481 -0.0373927 0.6384469 16711746
0.4951203 -0.1250958 0.5528616 16711746
0.2437949 -0.0389784 0.7908442 16711746
0.5929679 -0.0297616 0.7225711 16711746
0.3010982 -0.0763442 0.3845168 16711746
0.0835930 -0.0063453 0.1807004 16711746
0.0944568 -0.0172051 0.2707379 16711746
0.0963326 -0.0043643 0.2131230 16711746
-0.1305946 -0.0584378 0.3265262 16711746
-0.0987888 -0.0852843 0.3668119 16711746
-0.1021384 -0.0801242 0.3664564 16711746
0.0331905 -0.0568957 0.3586348 16711746
-0.2030267 -0.1056437 0.5629171 16711746
-0.2018874 -0.0379504 0.4706472 16711746
0.1528466 -0.1157643 0.4178486 16711746
0.1076502 0.0433764 0.2517974 16711746
0.1044818 0.0488734 0.2954755 16711746
0.0942948 0.0427466 0.2580001 16711746
0.0525185 0.0637081 0.3812753 16711746
0.0928263 0.0473025 0.2605738 16711746
0.0674430 0.0500750 0.2774034 16711746
0.2662873 -0.0775071 0.3498684 16711746
0.2093565 -0.1016038 0.3690508 16711746
0.1586273 -0.0996374 0.4190046 16711746
0.1354778 -0.0900305 0.4391825 16711746
0.1858372 -0.0507307 0.3296327 16711746
0.0844558 -0.0055497 0.1803819 16711746
0.1553773 -0.0956964 0.4093498 16711746
-0.1329622 -0.1068855 0.4020263 16711746
0.1334707 -0.0639361 0.4066862 16711746
0.1658880 -0.0388962 0.2983196 16711746
0.1502824 -0.0393280 0.2983299 16711746
0.2815289 -0.1271666 0.3935454 16711746
0.1629661 -0.1150980 0.5190337 16711746
0.1993601 0.0951765 0.4083648 16711746
0.2253310 -0.0672268 0.3703079 16711746
-0.1880440 -0.0907699 0.5434503 16711746
0.1592276 -0.0543317 0.2822972 16711746
0.3151007 -0.1109705 0.4080614 16711746
-0.0103664 -0.0631789 0.5701447 16711746
-0.0371176 -0.0853807 0.5875970 16711746
0.0009268 -0.0773301 0.4920671 16711746
0.0076189 -0.0724245 0.4634048 16711746
0.0787582 -0.1605579 0.7180588 16711746
0.1415181 -0.0632189 0.4474404 16711746
0.0678514 -0.1136836 0.5350803 16711746
0.2885400 -0.0771843 0.4073344 16711746
0.0967436 -0.1117267 0.4636885 16711746
0.1668162 0.0673063 0.3409404 16711746
0.1283399 0.0737772 0.3512738 16711746
0.0085981 0.0651020 0.4153308 16711746
0.1593920 -0.1026661 0.4254463 16711746
0.2012355 -0.0447865 0.3306491 16711746
0.1983881 -0.0560865 0.3492598 16711746
0.1534756 -0.0687304 0.4104312 16711746
-0.4936486 -0.0989832 0.6276943 16711746
0.2446596 -0.0501455 0.3519959 16711746
0.1939115 -0.0362085 0.3518161 16711746
0.1232388 -0.0397673 0.3189158 16711746
0.1744927 -0.0860275 0.3580111 16711746
0.0066235 0.0895596 0.4504203 16711746
0.2287233 -0.0969738 0.3719132 16711746
0.1690105 -0.0729849 0.4884522 16711746
0.4641376 -0.0497718 0.5640610 16711746
0.3494406 -0.0675313 0.4459106 16711746
0.0251475 -0.1103657 0.4777012 16711746
-0.6020511 -0.1105584 0.8574392 16711746
0.1397389 -0.1013204 0.6691554 16711746
0.0955647 -0.1643589 0.6684238 16711746
0.1942443 -0.0958930 0.4385619 16711746
0.5502866 -0.0271846 0.6695576 16711746
0.6769211 -0.0751084 0.7852323 16711746
0.0291465 -0.0724481 0.6881106 16711746
0.1485883 -0.0362692 0.6147563 16711746
0.0815160 -0.0760078 0.6858718 16711746
0.0830476 -0.0592760 1.0766667 16711746
-0.0011288 0.1163815 0.5381979 16711746
0.0963859 -0.1277562 0.7029838 16711746
0.0345531 -0.0810036 0.3679013 16711746
0.1907253 -0.0667643 0.2960529 16711746
0.0428233 -0.0549900 0.3761425 16711746
0.2121073 -0.0633937 0.3136740 16711746
0.1567384 -0.0398858 0.2498051 16711746
0.0545614 -0.0267198 0.3613208 16711746
0.0294940 -0.0691424 0.3689446 16711746
0.0436338 -0.0507820 0.3146012 16711746
0.2166371 -0.0380827 0.3189369 16711746
0.2192527 -0.0105092 0.3177284 16711746
0.2279616 -0.0720587 0.3314677 16711746
0.1154398 0.0455556 0.3082828 16711746
0.1069955 0.0429638 0.2674262 16711746
0.0577460 0.0462609 0.3176942 16711746
0.0685405 0.0396020 0.2502708 16711746
0.0569201 0.0495286 0.3401486 16711746
0.0415863 0.0434154 0.3298981 16711746
0.0988273 0.0545874 0.3060563 16711746
0.1965097 -0.0697694 0.3016871 16711746
0.1337837 -0.0649294 0.3115146 16711746
0.0284021 -0.0560224 0.3860859 16711746
0.1774879 -0.0530224 0.3192735 16711746
0.2271933 -0.0646379 0.3150482 16711746
0.0533241 -0.0757928 0.3646155 16711746
0.0436478 0.0499488 0.3398921 16711746
0.0678222 0.0384869 0.2441726 16711746
0.0685267 0.0392017 0.2496732 16711746
0.1228535 -0.0629023 0.4089113 16711746
0.2036720 -0.0386066 0.3341391 16711746
-0.0405346 -0.0683760 0.4814667 16711746
0.0195329 0.0305498 0.2381484 16711746
0.1842204 -0.0422638 0.3298999 16711746
0.1421918 -0.0864000 0.4285794 16711746
0.1209138 0.0462387 0.2638572 16711746
-0.3115860 -0.1509788 0.4704390 16711746
0.4528277 -0.1204414 0.4727598 16711746
0.0224428 0.0535954 0.3754715 16711746
-0.0090929 -0.0671432 0.4724000 16711746
0.1983141 -0.0583126 0.3433326 16711746
0.1334909 -0.0782982 0.4688743 16711746
0.1412247 0.0730927 0.4213524 16711746
0.2831549 -0.0490034 0.3652388 16711746
0.2762530 -0.0732641 0.3947168 16711746
-0.2744271 -0.0617329 0.5073228 16711746
0.3234906 -0.1095567 0.4092613 16711746
0.1011014 -0.0082053 0.2822077 16711746
0.1971393 -0.1144847 0.4342623 16711746
0.3014993 -0.0898298 0.8253371 16711746
0.0321313 -0.0231865 0.2120032 16711746
0.0792892 -0.0900516 0.5198169 16711746
0.1535677 -0.1076929 0.5800390 16711746
0.3526377 -0.1009009 0.4087572 16711746
0.1759130 -0.0707704 0.5434463 16711746
0.1670814 0.0933780 0.6424738 16711746
0.2691198 -0.1279704 0.4409324 16711746
0.1327895 0.0236967 0.2158248 16711746
0.0567552 0.0372084 0.2453498 16711746
0.1182129 0.0281956 0.2219580 16711746
0.0915309 0.0305187 0.2363309 16711746
0.0855515 0.0358503 0.2481927 16711746
0.0848193 0.0270722 0.2409894 16711746
0.0541429 0.0471856 0.2760049 16711746
0.1345825 0.0257452 0.2361591 16711746
0.0368057 0.0447292 0.2638210 16711746
0.1227431 0.0237744 0.2193608 16711746
0.0976139 -0.0099631 0.2120412 16711746
0.0891745 0.0364978 0.2539390 16711746
-0.0535102 -0.0448178 0.3624693 16711746
0.0981587 0.0504271 0.3079701 16711746
0.1049213 0.0431688 0.2639943 16711746
0.1422398 0.0312489 0.2804237 16711746
0.1931526 -0.0501767 0.2893175 16711746
0.1359853 0.0300959 0.2558700 16711746
0.0479137 0.0350231 0.2491141 16711746
0.0391302 0.0371289 0.2579784 16711746
0.0691367 0.0378443 0.2473157 16711746
0.0533256 0.0345269 0.2333309 16711746
0.0275507 0.0446962 0.2813830 16711746
0.0356437 0.0370706 0.2576437 16711746
0.1067022 0.0296566 0.2357665 16711746
0.0553763 0.0355795 0.2471109 16711746
0.0645956 0.0370916 0.2466914 16711746
0.0400321 0.0406045 0.2765563 16711746
0.0865078 0.0371610 0.2433793 16711746
0.0536372 0.0340838 0.2325678 16711746
0.0480189 0.0348236 0.2488922 16711746
0.1114329 0.0327670 0.2390242 16711746
0.1295263 0.0272681 0.2223707 16711746
0.0862368 0.0386962 0.2456447 16711746
0.2096622 -0.0187201 0.3136401 16711746
0.2019541 -0.0058092 0.3080644 16711746
0.1016641 0.0471194 0.2781113 16711746
0.2142607 -0.0596669 0.2963007 16711746
0.1114877 0.0330955 0.2397566 16711746
0.2078364 -0.0277552 0.3121533 16711746
0.0465597 -0.0410517 0.2916315 16711746
0.2522993 -0.0039735 0.3325305 16711746
0.0625121 -0.0371461 0.3316977 16711746
0.1812282 -0.0581570 0.3663821 16711746
0.1107693 0.0518872 0.2888811 16711746
0.2287963 -0.0678592 0.3507665 16711746
0.2011306 -0.0761698 0.3192334 16711746
0.2888648 -0.0420088 0.3801413 16711746
0.1332330 0.0544226 0.3016519 16711746
