# .PCD v.7 - Point Cloud Data file format
VERSION .7
FIELDS x y z rgb
SIZE 4 4 4 4
TYPE F F F F
COUNT 1 1 1 1
WIDTH 1165
HEIGHT 1
VIEWPOINT 0 0 0 1 0 0 0
POINTS 1165
DATA ascii
2.1972179 -7.8669095 9.5021734 16711746
-3.5179954 -10.9439983 11.4160690 16711746
0.3331785 -8.7519817 11.4165745 16711746
4.4037786 -17.2375603 12.6792755 16711746
-0.9440792 -7.2526984 8.7321482 16711746
2.1229126 -7.8041019 9.3773403 16711746
-0.6847515 -20.7937260 13.6979065 16711746
-1.4208708 -7.2182155 9.2676859 16711746
0.9451658 -5.9793410 9.4376879 16711746
0.5951535 -14.7110653 12.0369186 16711746
4.2278438 -7.4816017 9.3125000 16711746
1.9461939 -6.8366327 9.5856657 16711746
2.4646635 -7.7680950 9.0158644 16711746
-0.0685619 -6.4463878 8.8201933 16711746
3.4793019 -8.8755999 9.5503311 16711746
3.0068710 -7.7472343 9.6757755 16711746
3.5501668 -8.7560787 9.8322916 16711746
4.2683978 -7.9188547 9.9993858 16711746
3.5652010 -9.2193785 9.5726976 16711746
3.1627755 -9.1330700 9.6745996 16711746
4.3819847 -7.4842234 9.3957615 16711746
2.3157828 -7.8428311 9.1155281 16711746
1.8941411 -7.5800667 9.3230610 16711746
-0.5834893 -7.4993796 9.0749893 16711746
4.4249310 -7.6356077 10.1852617 16711746
2.9332888 -8.3224583 9.9162922 16711746
3.8370397 -7.1198726 9.3590040 16711746
4.1703873 -7.9902978 9.7573357 16711746
3.8440511 -7.1607075 9.5707245 16711746
3.8084495 -7.1595855 9.5756807 16711746
4.7192955 -7.6082449 9.5185232 16711746
2.5198762 -8.8549414 9.0873451 16711746
5.1939592 -7.7172608 8.8507767 16711746
1.0776709 -5.6290226 9.3318939 16711746
2.9594171 -6.4253192 9.6140442 16711746
4.6683598 -8.3946886 9.4486275 16711746
4.5616484 -7.7840161 9.9355192 16711746
2.4146254 -6.4881964 9.4481478 16711746
6.4845605 -9.5727978 9.1123018 16711746
4.8777676 -9.0452404 11.0383091 16711746
0.6950777 -6.9480133 9.4905262 16711746
-6.4799423 -17.5263100 12.6942320 16711746
4.7704582 -7.6176410 9.4574022 16711746
3.2838435 -8.0626097 9.7195883 16711746
2.3333817 -7.1081085 9.1505852 16711746
4.1808615 -10.4006109 14.5907354 16711746
4.6849136 -7.9000216 10.8911800 16711746
5.6122241 -9.8798704 12.9579096 16711746
5.2531881 -9.7429152 12.9290771 16711746
2.1680682 -7.2185698 9.1571484 16711746
5.1506462 -9.6805077 11.7918663 16711746
4.3856525 -7.1350703 9.4071865 16711746
3.8336039 -8.1806755 9.3118200 16711746
0.7984154 -10.5858841 14.4638681 16711746
5.5011082 -9.6662188 13.2797785 16711746
5.3736119 -10.1034174 13.6314173 16711746
3.1055849 -6.6610827 10.6462212 16711746
3.7127991 -7.6943607 9.5020084 16711746
5.8780003 -11.0261440 13.3088541 16711746
5.2475324 -8.2025690 10.7727518 16711746
2.0928960 -7.6077042 9.3859024 16711746
0.0617477 -9.8863106 14.3231010 16711746
2.0900733 -7.2997928 10.5795374 16711746
3.9736736 -9.8305950 13.1195974 16711746
3.0349810 -8.2741919 11.9885416 16711746
5.0063848 -9.0945911 11.4731684 16711746
4.8486142 -9.5578651 11.9968996 16711746
4.0249548 -7.4090290 10.1994972 16711746
2.7102907 -7.1257987 9.4487247 16711746
1.9167883 -6.3033519 8.9671669 16711746
6.5339217 -9.2116861 11.9619570 16711746
6.0941300 -8.9055662 11.2889376 16711746
5.7362866 -10.2046118 13.7127724 16711746
4.7328115 -8.2033424 11.9481249 16711746
3.0403273 -7.7081594 11.5812645 16711746
4.7128506 -8.2525759 12.1647167 16711746
3.9535146 -8.0598259 10.4543133 16711746
2.2267089 -7.2849298 10.1289873 16711746
2.2907195 -7.0316439 9.1260061 16711746
0.5313293 -10.4173803 13.8774691 16711746
3.3098035 -11.6926193 14.9083977 16711746
0.6934431 -10.4817562 14.3585682 16711746
2.3052979 -7.8236632 9.0575857 16711746
4.4675088 -7.2554722 9.4785948 16711746
4.6268187 -8.1309452 10.6264801 16711746
4.4158731 -7.6973467 10.3849535 16711746
3.8820958 -7.4124169 9.3093443 16711746
7.2244487 -10.5029688 12.9459705 16711746
4.1277590 -9.4491043 9.9387331 16711746
-1.1478270 -7.5931277 10.4908104 16711746
-1.2782576 -7.7198105 10.5706015 16711746
2.9018798 -6.2692900 9.6615572 16711746
2.7926977 -5.5081749 9.4583426 16711746
2.6028550 -4.4731154 9.3906078 16711746
0.0891939 -7.5191469 9.2247992 16711746
0.2290975 -7.1909389 8.6839256 16711746
-0.8210171 -6.9102373 8.6645403 16711746
-1.1702209 -7.5200481 8.5311174 16711746
1.6668448 -6.4226832 10.6489077 16711746
0.7299633 -7.6534362 9.2007055 16711746
-1.3771714 -7.4978237 9.0974579 16711746
-1.8907753 -8.1870642 8.4704609 16711746
4.1063371 -7.8192396 10.6955643 16711746
4.2890906 -9.4300623 12.4399557 16711746
2.0551751 -8.9829054 11.2515926 16711746
4.7779856 -9.9084740 11.3623085 16711746
2.7565148 -5.9047952 9.5271950 16711746
6.7184505 -23.5180149 26.6994934 16711746
7.4457359 -13.5260267 11.1417522 16711746
1.6381015 -10.7144136 12.2021427 16711746
5.6346045 -8.7243776 10.3482294 16711746
7.3793883 -13.3134851 15.4354553 16711746
8.6842070 -11.8917265 15.1338272 16711746
5.3691897 -8.1723108 9.7739630 16711746
7.4816976 -10.5457258 13.5147800 16711746
8.6415491 -11.9267855 14.4203711 16711746
3.5377989 -13.4312458 10.0839272 16711746
4.7811270 -7.6285772 9.5392733 16711746
8.7585049 -11.3841896 15.4656820 16711746
4.8376522 -8.4761734 10.6247263 16711746
4.0687714 -9.2596331 9.6407309 16711746
4.6969771 -7.4267216 9.5209684 16711746
6.6165709 -10.7150030 13.0460663 16711746
4.9544339 -18.1505775 11.5614557 16711746
4.3421779 -9.0303288 11.8567820 16711746
5.1493292 -8.3356218 10.0248690 16711746
3.8719966 -12.1589613 16.6966610 16711746
-11.7557917 -29.0278511 24.7935658 16711746
2.4112606 -8.2428379 9.7172098 16711746
3.1349711 -8.3412924 11.3994741 16711746
8.0814037 -11.3119345 14.0208664 16711746
5.2054543 -11.5297155 13.2467375 16711746
2.1397812 -13.2738266 13.8168631 16711746
4.9273710 -12.1335735 13.7227678 16711746
1.8473146 -6.2655048 10.2490749 16711746
3.2099326 -12.0692225 14.3868704 16711746
3.1921329 -10.1978998 10.0490952 16711746
4.4308834 -8.3334055 9.7959042 16711746
2.4653707 -15.3633232 15.0923004 16711746
6.9320607 -22.6828365 22.9194832 16711746
0.1430238 -6.5070376 9.9376469 16711746
6.9596615 -13.1028175 16.1427822 16711746
7.8996124 -17.5775509 17.3772774 16711746
3.2984140 -8.8178101 12.0119677 16711746
-0.8165036 -14.8635139 10.8008490 16711746
2.2506530 -4.4569902 9.6554422 16711746
2.6366525 -6.0977478 11.3408766 16711746
5.1984944 -9.9963856 12.8127060 16711746
0.4846073 -6.5458546 10.6353893 16711746
6.6964865 -16.3337574 20.7338829 16711746
1.5805525 -7.8773637 9.5532093 16711746
12.0366650 -25.0043259 24.7923813 16711746
4.4003668 -13.9241934 17.1099148 16711746
1.2833095 -10.4072523 12.4469137 16711746
6.4469323 -9.3673353 11.7803497 16711746
6.2236004 -9.0663996 11.6375742 16711746
6.2585921 -29.0080566 30.5475540 16711746
2.8482161 -5.4662490 10.2764387 16711746
8.4493036 -10.5271254 13.4612608 16711746
1.7640899 -6.9724355 10.2716866 16711746
2.2059367 -4.1725397 9.6287279 16711746
-1.0094297 -7.9253454 9.3128262 16711746
-0.5869468 -6.6477137 9.4434891 16711746
3.2396896 -6.1498294 10.0595341 16711746
-0.4534289 -7.3266826 9.4321890 16711746
3.1226249 -6.3720899 10.1878471 16711746
-1.5806674 -6.7073040 8.7519054 16711746
1.7836604 -6.4420395 10.0086241 16711746
2.5915728 -4.7798233 10.4784927 16711746
2.9894485 -4.9477968 10.9055519 16711746
4.2163272 -5.7658825 11.4524794 16711746
1.9363518 -6.2304053 9.6789894 16711746
-4.0685558 -9.2235403 9.5919237 16711746
-4.4661627 -8.5647612 9.2553053 16711746
-1.4229128 -7.2998576 9.3862114 16711746
1.7579098 -5.7732530 10.0833797 16711746
-1.1316020 -8.2744894 9.3921404 16711746
-1.9595400 -7.1078000 9.6091919 16711746
-2.0810378 -7.8453054 10.4443493 16711746
-0.2331474 -7.0300622 9.4410219 16711746
-1.2986177 -7.1505809 9.3990841 16711746
1.7798444 -6.3492584 10.0913420 16711746
1.9594455 -6.1187329 9.6702633 16711746
-0.0343457 -7.6975646 11.5992069 16711746
2.7203341 -4.8508129 10.5604057 16711746
3.4424694 -5.4196587 11.3206568 16711746
2.8559413 -5.2062883 10.4722729 16711746
2.2301934 -4.4031420 9.6114902 16711746
3.7212908 -7.9424019 11.1885586 16711746
2.2299190 -8.5771914 11.8160896 16711746
2.1362090 -4.6429048 9.6584625 16711746
4.9290838 -15.2078171 17.7647495 16711746
9.9581852 -23.9979134 34.7225418 16711746
6.6426749 -15.7626371 20.0880871 16711746
11.4786997 -15.3727179 22.9587040 16711746
11.9733982 -22.9374695 22.5740490 16711746
10.5318975 -36.7758560 31.6081734 16711746
11.6646814 -21.9772530 21.8961887 16711746
2.0356500 -7.3180656 9.5656424 16711746
4.5376568 -6.9428787 10.7656717 16711746
12.7103710 -16.5406151 24.4766426 16711746
2.8980281 -5.4475756 10.6859236 16711746
8.6672544 -16.1582851 18.1444817 16711746
11.8172350 -18.5669098 19.6413498 16711746
-3.6107256 -12.8343182 14.4745283 16711746
-5.4432373 -16.1743374 16.3094120 16711746
-6.2998815 -19.8248920 13.0601301 16711746
-7.0605750 -10.6752300 7.4821215 16711746
3.1221111 -5.9035006 9.8722095 16711746
3.0370352 -5.8945632 9.8751059 16711746
3.2877007 -6.2568631 9.9223537 16711746
3.2685609 -6.2143121 9.9182482 16711746
2.9107935 -5.3222170 9.9521122 16711746
2.7120271 -5.3577271 10.0219755 16711746
2.7405987 -5.6361284 9.8652582 16711746
2.8300006 -5.5868731 9.9282904 16711746
1.8509523 -6.1416402 9.9580336 16711746
2.3555024 -5.8239441 10.3008966 16711746
2.3688140 -6.5145469 10.8115511 16711746
3.1828673 -6.6810188 10.7664156 16711746
2.8143077 -7.0338292 10.9777927 16711746
2.4630380 -5.8875427 10.4377584 16711746
3.3436270 -7.9934635 11.4075556 16711746
2.3523576 -6.3178129 10.5913591 16711746
3.3952787 -7.2678256 10.8944864 16711746
2.8726704 -5.5376396 10.1977606 16711746
2.3504419 -6.7338457 10.8917732 16711746
1.4451113 -8.3356705 11.6542492 16711746
2.6972690 -7.7544146 12.4695501 16711746
5.4436164 -11.4442625 13.9598217 16711746
4.0837297 -15.7448635 18.9307594 16711746
2.8032215 -23.2825031 30.3554382 16711746
3.0039210 -6.2150493 10.5779009 16711746
2.3584101 -6.3212662 10.7767391 16711746
1.9957359 -5.7189107 10.3557863 16711746
2.4810183 -6.2612634 10.9493361 16711746
2.8424556 -6.9187665 10.9450455 16711746
2.8201873 -6.7987585 11.0150518 16711746
2.8612654 -6.6877389 10.5225382 16711746
2.7204967 -5.9479604 10.0888882 16711746
2.4303329 -5.6148648 10.3182278 16711746
2.4435594 -5.9969840 10.5547867 16711746
-0.5981086 -5.8786178 10.6479435 16711746
2.9261098 -5.5518527 10.0110121 16711746
2.6538594 -5.4329295 10.1001902 16711746
1.2352084 -6.4465079 11.3653708 16711746
0.8141351 -6.5967889 10.6730833 16711746
2.8666008 -5.6940193 10.0186520 16711746
3.4454107 -6.8491406 10.3674822 16711746
-0.2728688 -5.7320242 10.0108175 16711746
2.0919080 -6.5363412 10.5373325 16711746
-0.8871754 -6.0835171 10.7547083 16711746
2.9502046 -6.4979405 10.7723284 16711746
6.1223722 -7.6062608 11.0010967 16711746
-0.6383932 -6.2662821 10.3407679 16711746
2.3803954 -5.6828279 10.3124504 16711746
-0.0133024 -6.9514279 11.0301676 16711746
2.4792387 -5.4579921 10.3529205 16711746
2.4439518 -6.0111408 10.5612469 16711746
1.9690958 -7.9141450 11.6019945 16711746
-0.8017927 -6.8863525 10.2121696 16711746
4.1778316 -8.3095465 12.2961884 16711746
5.7405505 -11.2866840 11.8948765 16711746
-1.1472282 -6.7632456 8.7417812 16711746
-0.3963596 -5.9570861 8.9174776 16711746
1.4913528 -10.7565050 14.9240999 16711746
2.7844663 -5.5008655 10.3050747 16711746
5.6553183 -18.5545540 23.9034691 16711746
4.1603017 -17.0824432 19.2364140 16711746
2.9250245 -5.4729881 10.7535305 16711746
1.4315004 -6.9713068 9.6509047 16711746
1.6366938 -7.6214538 11.0586891 16711746
2.4695542 -6.1280193 10.8768730 16711746
1.4305028 -5.8078818 10.7140989 16711746
0.1028591 -6.2318873 10.8808451 16711746
3.1531968 -6.7518544 10.9356136 16711746
3.0480130 -6.9346018 10.4011726 16711746
0.5232711 -6.1126652 10.2834740 16711746
0.3366292 -6.4696522 10.8286629 16711746
0.6728601 -6.0881686 10.7568836 16711746
2.3430560 -6.4497333 10.9160614 16711746
0.0275040 -6.6846161 10.4372396 16711746
-0.1714277 -5.6637373 9.1074896 16711746
1.1085773 -6.2117834 10.6197538 16711746
0.0691792 -6.1133366 10.9675283 16711746
0.6160574 -6.2877145 10.9298563 16711746
0.9992627 -6.4468622 10.7164688 16711746
-0.1909436 -6.5250421 11.2620668 16711746
1.0901526 -5.8548732 10.6824999 16711746
2.1773853 -6.2135196 10.5901575 16711746
-0.0422048 -6.0454950 10.1046104 16711746
0.9812927 -6.0679994 10.7490969 16711746
0.9836766 -6.5376110 10.2291641 16711746
2.4415615 -5.6259551 10.3249426 16711746
0.9127335 -6.6309280 11.2886229 16711746
0.8434325 -6.4343371 11.0529070 16711746
1.1926129 -6.0554547 10.5461998 16711746
2.4580300 -6.4504447 10.3042898 16711746
0.5762312 -6.2856393 11.6376390 16711746
1.4663672 -5.6816559 10.5035286 16711746
1.0594851 -6.6658764 10.7689562 16711746
2.7695231 -5.9002709 10.0792122 16711746
2.7853358 -6.7797508 10.5777750 16711746
0.8977727 -6.7766638 10.6730642 16711746
1.3335532 -5.9272571 10.6336985 16711746
2.1291442 -6.8603621 11.0585642 16711746
2.5214598 -5.2237148 10.4188395 16711746
2.4497571 -6.2890162 10.9655218 16711746
2.2551506 -6.4688172 11.1482525 16711746
2.8842528 -6.0480022 10.0658922 16711746
0.9629338 -6.1451325 10.4343128 16711746
2.2680478 -6.3402495 10.6078033 16711746
0.3063729 -6.5284395 10.8796692 16711746
0.7413456 -6.4173627 10.9135571 16711746
2.0126231 -6.3177133 11.7566795 16711746
2.7902267 -6.9557500 12.8096619 16711746
1.1478059 -6.2133784 10.5901823 16711746
1.0405681 -6.0584683 10.0716333 16711746
0.9874659 -6.8601780 10.6804476 16711746
2.2918215 -5.6824737 10.1402826 16711746
3.0982721 -6.6504979 10.2304726 16711746
0.0495167 -6.3239756 11.5330219 16711746
2.7727866 -6.8631258 12.7028542 16711746
2.5766046 -8.3528881 12.3683853 16711746
2.3403256 -5.3346829 10.1726494 16711746
2.8098269 -6.1754208 10.1919260 16711746
2.8609381 -6.1981883 10.1416464 16711746
0.1482641 -5.7031598 10.1565247 16711746
2.4572697 -5.9815545 10.5321283 16711746
0.8808911 -5.5845370 11.2497492 16711746
1.0568048 -6.4747801 10.9472666 16711746
2.8376968 -6.0781522 9.9607849 16711746
2.4026353 -6.2531509 10.4082823 16711746
2.7144578 -6.1161170 10.1455984 16711746
2.5983219 -7.9769802 12.5111074 16711746
0.1208168 -6.5323534 10.2523956 16711746
2.2038198 -6.3960328 10.5032339 16711746
0.7966930 -6.4517255 10.8198814 16711746
-0.5540805 -6.7385468 10.1042032 16711746
10.9321251 -17.0778198 18.6036072 16711746
0.8408371 -7.0511265 10.4577274 16711746
0.9034380 -6.3854833 10.1533289 16711746
2.3941252 -6.4885178 10.3656540 16711746
0.9957143 -6.2648926 10.7642641 16711746
2.8787563 -6.9412265 11.1331539 16711746
1.0895240 -5.9934044 10.8833790 16711746
2.8570261 -6.6215100 10.6827307 16711746
2.6275620 -6.9109359 10.1720028 16711746
2.4620452 -6.3983440 9.9953508 16711746
2.6235723 -6.9755163 9.9128857 16711746
0.7893622 -6.5976081 10.9202766 16711746
3.4018016 -7.2518272 10.9134474 16711746
2.8866241 -7.3147302 10.2149582 16711746
2.5516014 -6.2347479 10.5054245 16711746
2.8779099 -6.8361979 10.5591087 16711746
3.3638422 -6.7180381 10.6278524 16711746
0.7509986 -6.2263646 10.4282017 16711746
2.4016054 -7.7205582 10.2067699 16711746
2.4802725 -6.7172050 10.0301580 16711746
2.9148748 -6.9169841 10.0113754 16711746
1.0468055 -6.5070944 10.5708790 16711746
0.7254330 -6.5317636 10.1104231 16711746
2.8098857 -6.8542871 10.2407990 16711746
2.0100589 -6.3221574 10.5594835 16711746
2.4776649 -6.5509543 10.3112583 16711746
0.0376527 -6.2457423 10.9566803 16711746
1.9223864 -6.7473507 10.3168678 16711746
1.4741447 -7.0710988 11.1983461 16711746
3.3977709 -6.6401811 10.6155472 16711746
3.3984108 -6.5320444 10.4962626 16711746
0.9950274 -6.8741717 10.8419695 16711746
2.7183056 -6.6616611 10.2793436 16711746
3.6067023 -7.2459292 11.1945963 16711746
1.3711340 -7.1180835 11.9324579 16711746
2.4643052 -6.4890885 10.0056725 16711746
2.9370999 -6.8829861 10.4938354 16711746
0.8683251 -6.6471372 10.6763411 16711746
3.5477617 -7.2232141 10.9824448 16711746
2.7256970 -6.7282543 10.8073292 16711746
0.9684109 -6.1976056 10.3550310 16711746
0.9529409 -6.2184625 10.3504047 16711746
3.3333015 -7.6866693 10.9637642 16711746
3.2923460 -6.4534025 10.5387812 16711746
3.1716144 -6.7456551 10.5485954 16711746
3.2346709 -7.2768960 10.0139446 16711746
0.8265237 -6.4289689 10.2911720 16711746
1.1909177 -5.9623699 10.1524887 16711746
3.8668013 -7.1688809 11.8910589 16711746
2.1572769 -6.4629016 10.7593250 16711746
2.0163374 -6.3918653 10.5816269 16711746
1.8200485 -6.7609305 10.8711243 16711746
0.2611614 -6.4335551 10.3429146 16711746
2.7712903 -6.7153850 10.1220770 16711746
2.9009459 -6.8474364 10.0078592 16711746
2.2986717 -6.3909993 10.3166990 16711746
2.9251487 -7.2098293 11.5061693 16711746
2.4929333 -7.0222044 10.0290289 16711746
1.8009887 -6.2253489 10.5912199 16711746
2.8669453 -6.8095765 10.3555441 16711746
2.3386328 -6.5416460 10.6750393 16711746
2.6025183 -6.4343567 10.5743046 16711746
3.0627401 -7.6234379 10.0940237 16711746
3.1916156 -6.4385986 10.4200144 16711746
3.1882024 -6.2164354 10.4591255 16711746
0.4874508 -6.8425593 10.5813847 16711746
0.5155233 -6.8269343 10.4048672 16711746
0.8058279 -6.6205125 10.2898922 16711746
0.8950595 -6.5283122 9.9788179 16711746
2.3086970 -6.4351764 10.4555159 16711746
2.4074950 -6.6603098 11.0653982 16711746
2.3001337 -6.3310905 10.3070984 16711746
1.9867586 -6.7809830 12.1616793 16711746
1.6736085 -6.7746115 11.1026421 16711746
1.7383375 -6.4473138 10.6784840 16711746
1.9426522 -6.2107878 10.4926538 16711746
3.1498418 -6.8415837 10.2186518 16711746
0.2014371 -6.5222726 10.4487648 16711746
2.8160648 -7.1829209 10.7857943 16711746
3.1413584 -6.6125503 10.3796120 16711746
3.2117610 -7.0583920 10.3148232 16711746
1.1648428 -5.9028311 10.4395819 16711746
0.9892842 -6.6973228 10.2010889 16711746
2.2051065 -6.7349772 10.9006701 16711746
0.5566517 -6.4524212 10.4521685 16711746
0.7254624 -6.7141418 10.3017159 16711746
1.3407321 -6.3962064 10.3459425 16711746
-0.0882384 -6.0941429 10.0929375 16711746
1.9671844 -6.5813437 12.0095282 16711746
0.8650129 -6.5586510 10.0281715 16711746
0.7929210 -6.1466780 10.5628510 16711746
2.9448552 -6.4986944 10.2352934 16711746
2.9382410 -7.2726550 10.6208296 16711746
3.0888691 -6.0063362 10.3829794 16711746
0.2210145 -8.0437469 10.5884008 16711746
0.3942959 -6.6844616 10.3989782 16711746
1.1427231 -6.0004935 10.6415520 16711746
1.8881642 -5.7524910 10.4085999 16711746
2.9956272 -8.0576019 11.4534178 16711746
2.9995210 -6.4175115 10.1940765 16711746
3.5600579 -7.4573927 10.6909618 16711746
2.4383333 -6.4559278 10.3109674 16711746
-0.3116928 -6.2892566 10.8221970 16711746
3.8424037 -6.9589024 10.4551325 16711746
3.6184790 -6.9262657 10.3994837 16711746
1.5392343 -6.8836942 10.9226217 16711746
1.4393493 -7.5038948 11.4463015 16711746
0.8378217 -7.0997581 10.6169748 16711746
2.7481780 -7.3544292 10.2427320 16711746
2.8563914 -6.8424554 10.4218216 16711746
2.3559515 -6.1075063 10.3501740 16711746
2.6149735 -6.6323662 11.8968678 16711746
2.3554277 -4.7886515 10.4328995 16711746
2.3936729 -5.5712276 10.7615376 16711746
2.9700894 -7.6715426 11.4000435 16711746
1.9516927 -7.1323924 12.4587107 16711746
2.9898422 -7.0319428 11.5845327 16711746
0.8920324 -6.3352642 10.6570711 16711746
1.1783894 -7.6605082 11.5819216 16711746
1.5003424 -6.9379878 11.1239700 16711746
3.4720721 -7.3028049 11.0804520 16711746
2.9957294 -6.5042562 10.0479536 16711746
2.3902931 -6.3288021 10.4902306 16711746
-0.7746792 -6.7968345 9.9595518 16711746
1.5442699 -7.9252348 12.3802395 16711746
4.9370675 -9.2245235 13.1643820 16711746
4.0346303 -8.4239883 12.4226704 16711746
11.1829567 -15.0834732 16.0576191 16711746
8.9374685 -16.1555214 18.3568439 16711746
0.9767201 -16.6418915 13.0580044 16711746
3.4055586 -7.2954288 11.0425501 16711746
2.4600511 -6.4838510 10.3094492 16711746
2.6305091 -6.8253617 10.1298552 16711746
3.3568394 -7.4367819 10.8067865 16711746
3.5682719 -8.0299187 11.6052246 16711746
0.0692807 -5.9508920 10.0743322 16711746
2.4568787 -5.3649416 10.9593344 16711746
3.2568433 -7.2553010 11.2492714 16711746
3.0138614 -7.1620541 11.2802706 16711746
0.7709150 -6.1149406 9.8636255 16711746
2.1145635 -5.2276692 10.7347860 16711746
-2.3769054 -10.6645651 13.0361624 16711746
2.3263905 -6.7058125 10.8447523 16711746
1.2825731 -7.5987701 11.6303635 16711746
0.5863401 -6.2304220 9.9490080 16711746
3.6131940 -7.3163996 11.1423359 16711746
1.2145804 -7.3474622 11.4938583 16711746
-0.6548798 -6.0991845 9.9385204 16711746
-0.5879830 -6.5860910 9.9761515 16711746
-0.1338905 -6.3314052 10.0749369 16711746
2.4459035 -6.5396457 10.4697008 16711746
3.1040068 -6.6204486 10.1931124 16711746
2.2462654 -6.9336119 11.1192980 16711746
2.9120970 -6.8096519 10.2395973 16711746
2.4766619 -6.8448901 10.1069403 16711746
3.5780623 -7.3182855 11.1882114 16711746
-0.2271408 -6.5412321 10.6761408 16711746
3.0910416 -6.4712052 10.3441849 16711746
0.4426376 -6.3164487 9.9452991 16711746
-0.8825229 -6.7186117 9.7097902 16711746
2.5332761 -6.7209711 11.2120800 16711746
2.7262950 -7.4595389 11.3189125 16711746
3.4557281 -7.2179604 11.0499334 16711746
2.3800199 -6.4380422 10.9608116 16711746
3.2915235 -7.1422114 11.0665951 16711746
2.4669151 -6.4231648 10.3228941 16711746
3.1989901 -7.5610528 10.9907455 16711746
0.4539538 -6.4095793 10.3150187 16711746
2.7823780 -6.8791685 10.4244184 16711746
2.8206644 -6.5933881 11.2984476 16711746
0.0135057 -6.3799515 9.9854536 16711746
3.1353414 -7.3802342 10.9454002 16711746
0.7374539 -6.4629030 9.9470463 16711746
-0.7965546 -6.9002919 10.1446781 16711746
-0.7566427 -6.3912225 10.3315372 16711746
0.7522622 -6.0078783 9.9162960 16711746
2.7008464 -7.0408964 10.2407084 16711746
0.7222573 -6.4941974 9.9340038 16711746
0.6749064 -5.8318124 9.7051363 16711746
3.1362631 -6.0796776 10.2300034 16711746
1.8868164 -6.5703835 10.0858450 16711746
1.6866094 -7.0500569 11.7842722 16711746
2.8593915 -7.4753881 11.2189484 16711746
3.3846185 -8.7097626 12.9839382 16711746
0.6893079 -6.5734491 11.0022421 16711746
2.7144258 -7.2510381 10.0400276 16711746
2.9072559 -7.0990119 11.1835794 16711746
3.2325151 -8.8189068 12.4117622 16711746
3.9893913 -7.9288158 12.0949059 16711746
2.4884822 -7.6978998 12.2430353 16711746
4.3762774 -8.5499516 13.0099621 16711746
2.7722046 -7.2550540 11.1536741 16711746
4.4081602 -8.6230106 13.0464249 16711746
3.2169697 -8.3725586 12.6186218 16711746
3.2723799 -6.7986345 10.6718864 16711746
0.5484574 -6.4621043 10.3768768 16711746
3.9755931 -7.8053823 11.5482645 16711746
3.3535893 -8.7509909 12.9446192 16711746
2.0013156 -6.6531768 10.7300816 16711746
3.6546767 -7.2596288 11.1929731 16711746
2.7058754 -7.8124714 12.5036182 16711746
3.3502409 -7.1441455 10.9653521 16711746
1.9394321 -6.2021523 10.0760803 16711746
2.4515424 -6.8743830 10.1116886 16711746
1.9303271 -6.5838475 11.8077841 16711746
2.8089430 -7.8631821 13.1686754 16711746
2.8224568 -7.5532746 11.0158024 16711746
1.8048798 -7.9726381 12.4945745 16711746
2.7108755 -6.7209830 10.3926392 16711746
2.6922820 -6.5543895 10.3589621 16711746
3.2827988 -7.1128807 10.8379154 16711746
2.3289289 -6.4036555 10.2440577 16711746
2.2396455 -6.5285659 10.5849991 16711746
1.9579840 -6.1486287 10.5308552 16711746
2.3256564 -6.4688096 10.2526226 16711746
0.7842068 -6.5150466 10.8028927 16711746
0.7191994 -6.1113796 10.9581718 16711746
1.5509446 -6.8668780 10.8627529 16711746
1.4686152 -6.0872192 11.2531796 16711746
2.1044352 -6.3044181 10.4484653 16711746
1.4228009 -7.3278494 11.1328659 16711746
1.1459199 -7.1627173 12.3239202 16711746
1.6982800 -6.4045367 10.2762175 16711746
2.4453454 -6.4209218 10.3040171 16711746
1.7828121 -6.1564903 10.1457853 16711746
0.4021872 -6.4180479 9.5906296 16711746
-0.3166288 -7.4828405 9.9140739 16711746
14.4765987 -26.0009060 24.6683216 16711746
1.9986353 -6.8627553 10.7890539 16711746
1.0588115 -6.2394309 10.0887995 16711746
0.7167549 -6.0963583 9.9994802 16711746
2.3927195 -6.2574801 10.3654881 16711746
1.0059713 -7.1483917 9.9667635 16711746
-0.3837371 -6.0567350 9.7121124 16711746
1.3931447 -6.1179714 11.3328533 16711746
2.2215574 -6.5471044 10.9466219 16711746
0.2342423 -6.6297297 9.8213863 16711746
0.3871616 -6.2389245 10.1695881 16711746
0.4298021 -5.9628558 9.7373629 16711746
2.2324727 -5.4859610 10.1081381 16711746
2.1958926 -6.5195856 10.2612820 16711746
2.7964497 -6.9581480 10.2597752 16711746
2.2480915 -6.7921600 10.2598057 16711746
2.3178782 -6.3840337 10.5244856 16711746
2.3642962 -6.4672308 10.6749182 16711746
2.2599401 -6.2544756 10.8017979 16711746
0.8199849 -6.5348883 10.2493525 16711746
2.6723442 -6.7982426 10.2427311 16711746
-0.8021738 -6.6055179 9.7143230 16711746
2.5124750 -7.3941565 11.7510252 16711746
-0.0153021 -6.3468342 9.9423609 16711746
-0.3778416 -6.4008732 9.9512463 16711746
2.6506331 -6.8557639 10.1613073 16711746
1.9351974 -6.2544489 10.5412731 16711746
1.2465425 -6.7669101 12.0871992 16711746
2.4524155 -6.9954853 11.8802090 16711746
3.3231051 -7.2557240 11.3857412 16711746
2.3705432 -7.0655951 11.2096224 16711746
5.0115929 -8.8070593 11.7480297 16711746
1.1841320 -7.2193537 11.8977575 16711746
3.0379713 -6.9842653 10.2213106 16711746
-0.1985623 -6.2094336 10.0048208 16711746
5.2681437 -8.1686859 10.9866896 16711746
2.9628880 -7.2356086 10.1809788 16711746
2.8981535 -6.8091078 10.1187849 16711746
3.0989854 -7.0671811 11.0063133 16711746
2.2081943 -7.9723320 12.0946627 16711746
3.8474808 -7.5904908 10.6511555 16711746
2.7500646 -6.7824268 10.2990780 16711746
1.6696510 -6.7007561 11.0341721 16711746
1.5477415 -7.1844425 11.5954580 16711746
2.4706075 -6.2789345 10.9733543 16711746
2.1725268 -7.3875928 11.6331387 16711746
3.3741591 -7.1447392 10.9024096 16711746
2.6408060 -6.5576024 11.8795538 16711746
3.1305387 -8.3045425 12.1432915 16711746
3.4096060 -6.2889881 10.5957737 16711746
3.3707752 -6.6582618 10.3948374 16711746
2.4279301 -6.5849504 10.3057728 16711746
2.4485829 -6.5479465 10.4662018 16711746
2.3282955 -6.4544859 10.7855721 16711746
2.4935462 -5.8125095 11.5416632 16711746
2.9028885 -7.1668053 11.4897261 16711746
3.3111851 -6.9445395 10.8334503 16711746
2.2405903 -6.2958894 10.6785402 16711746
2.4222994 -6.5329361 10.2989597 16711746
3.4699652 -7.0358448 11.1558285 16711746
2.7480917 -6.7592602 10.2970600 16711746
2.5170624 -6.0996957 11.7925901 16711746
2.5883775 -6.4921789 11.8219547 16711746
2.3083925 -6.7692475 10.3070784 16711746
-0.3788626 -5.9347911 9.7154922 16711746
3.9586442 -7.3736386 12.3961830 16711746
4.9881601 -7.9795985 11.7153502 16711746
0.9889128 -6.2788372 11.2574997 16711746
0.8345047 -6.5358019 11.2777758 16711746
2.4736679 -6.3400078 11.0070372 16711746
1.8954957 -6.3097548 11.5721941 16711746
2.6998410 -6.9231071 12.5833454 16711746
4.9444060 -7.7876449 11.3631735 16711746
0.6159251 -5.9688087 9.5577106 16711746
1.0040655 -6.4159980 10.8446236 16711746
2.8467541 -6.6287489 10.4966593 16711746
3.5119505 -7.5800457 11.4232464 16711746
2.3769817 -6.0076184 10.4756002 16711746
2.4181123 -6.3348150 10.6764069 16711746
2.4696765 -6.2983184 10.9859352 16711746
2.2426264 -7.1445680 11.6553955 16711746
1.9075487 -6.7863035 11.7427988 16711746
3.5417728 -6.3469324 10.5516071 16711746
1.8033813 -6.4192100 10.4385319 16711746
1.0236697 -6.4036150 10.8381824 16711746
1.1950518 -7.0363116 10.8805952 16711746
4.2434154 -8.0561800 12.0236921 16711746
2.4679208 -6.3548403 11.0036402 16711746
0.3726896 -6.7828627 11.9476814 16711746
0.2332817 -6.2894087 12.0547085 16711746
2.3798361 -4.4602685 10.4810648 16711746
2.3657961 -4.4052863 10.4035606 16711746
3.0694451 -7.6089277 12.2266960 16711746
2.3741174 -7.2474809 11.6017513 16711746
1.9203346 -6.5912771 11.6355648 16711746
0.5954067 -6.2809167 11.2314739 16711746
3.7325504 -6.6864491 10.4976892 16711746
4.0374317 -7.5131664 12.4961109 16711746
3.8371608 -8.0629015 11.4740143 16711746
1.9655043 -5.6754899 10.3895035 16711746
2.8908143 -7.1904235 10.6707258 16711746
4.6973877 -7.2286696 11.3715677 16711746
4.9847736 -7.6550436 10.9176159 16711746
3.2667699 -7.1562033 13.0320749 16711746
2.3868861 -7.1862106 11.5896835 16711746
2.0810466 -5.1903248 10.2626257 16711746
1.5060953 -6.2429729 10.6212425 16711746
1.5373621 -6.3997660 9.9260216 16711746
-0.4603331 -6.0523753 9.4971237 16711746
4.7941351 -7.8066707 11.7273254 16711746
1.0840315 -6.4947042 11.5372648 16711746
2.6363497 -6.8144736 12.4576321 16711746
3.5012307 -6.4974594 10.6096821 16711746
5.2301736 -8.0682316 12.1878710 16711746
0.0180025 -6.5880437 10.5599232 16711746
2.3349745 -6.4983859 10.6878357 16711746
1.7941365 -5.9396954 10.2536621 16711746
4.8913183 -8.2592516 11.6613226 16711746
2.5032563 -6.0867867 10.5037556 16711746
2.6606770 -6.8830271 12.3666267 16711746
1.7250711 -7.2036176 11.2052517 16711746
3.2344005 -6.3220620 10.3127785 16711746
5.6323981 -8.4369726 11.1023006 16711746
1.4164295 -7.7951684 11.8859491 16711746
3.1666474 -8.2771912 12.2454662 16711746
4.1129212 -8.1133003 11.8565445 16711746
2.7738764 -6.1861801 10.5443354 16711746
0.5201401 -6.0372558 9.5169525 16711746
2.1515713 -6.4209809 10.5712786 16711746
2.0857441 -5.7294316 11.5411749 16711746
2.5034916 -5.8121901 11.4808931 16711746
3.1406679 -7.9634118 11.0687656 16711746
3.2207463 -6.6456318 10.6406755 16711746
3.5163860 -7.2660270 11.7443018 16711746
-0.5697473 -6.0030355 9.6817331 16711746
3.3481355 -6.5983415 10.5616741 16711746
0.3678257 -5.9044147 10.7472286 16711746
1.6430688 -7.0038037 10.7959375 16711746
3.3425004 -6.4436841 10.4608412 16711746
2.5177345 -6.8984246 12.0122662 16711746
2.6389294 -6.2378521 11.5605831 16711746
0.5049632 -7.1172652 10.6043720 16711746
0.3326458 -6.6345816 11.9659472 16711746
3.1525843 -6.6483459 10.3739405 16711746
1.6592953 -7.3270802 10.8584814 16711746
1.6756624 -6.8160596 10.3745785 16711746
1.7490182 -6.2585769 10.1114836 16711746
-1.4887264 -6.0652733 11.4634132 16711746
2.2384570 -6.4255939 10.3945179 16711746
2.3869464 -5.4356389 10.4628897 16711746
4.6633883 -11.7054424 14.0043392 16711746
1.5636569 -5.6952605 10.2789078 16711746
-1.7509586 -6.3936062 10.9035645 16711746
1.8481975 -6.5653086 10.9875774 16711746
2.1521409 -6.0874887 10.8040094 16711746
2.2854495 -6.2593770 10.7621889 16711746
0.6124524 -7.0743995 10.0043879 16711746
2.1379912 -6.2033110 10.8424683 16711746
3.3066499 -6.5912976 10.2868176 16711746
-0.1839545 -7.2455659 10.4450569 16711746
2.4705491 -6.1122632 10.5817451 16711746
1.6767064 -6.6970201 10.8978300 16711746
0.7268267 -7.2035980 10.4465914 16711746
3.0383549 -6.3091202 10.4878521 16711746
2.3899465 -6.8666391 10.5388222 16711746
2.3809342 -6.4909191 10.4492617 16711746
0.6391373 -7.3668003 10.4565802 16711746
1.7202582 -6.8219562 10.6276131 16711746
0.5950404 -6.8529091 10.4671812 16711746
0.6590739 -6.6911259 10.3593035 16711746
1.2582024 -6.3624516 10.8097496 16711746
2.2100916 -6.5603442 10.9486494 16711746
2.3206913 -6.5250759 10.8241434 16711746
2.2076225 -6.9011364 10.3744640 16711746
1.1399370 -6.1754994 10.8452673 16711746
4.7552629 -8.5604458 10.8868694 16711746
3.1260548 -8.2558174 14.3629465 16711746
4.8273020 -9.6134281 14.3741589 16711746
3.1455781 -6.7133803 10.1659431 16711746
2.5930965 -6.9112964 10.1090937 16711746
2.7577755 -6.9353223 10.9464149 16711746
-0.0652618 -6.7752781 10.9510984 16711746
2.5273416 -6.0190058 10.4491882 16711746
0.8733477 -6.8852587 10.8134623 16711746
0.8479749 -6.3623757 10.6000290 16711746
0.7250645 -6.2162638 10.5851955 16711746
3.4495499 -6.8669724 11.0613232 16711746
3.3075037 -6.5660152 10.5987310 16711746
2.4626069 -6.7969503 10.1027222 16711746
5.5938077 -9.4398088 12.4334106 16711746
3.0265822 -6.8943381 10.3827906 16711746
3.3940833 -8.5720329 12.6048794 16711746
5.4657717 -9.2256670 12.3366442 16711746
1.8849103 -6.1906505 10.0287018 16711746
3.4495597 -8.0271492 10.9460001 16711746
2.0663445 -6.8636870 10.6356478 16711746
2.6151865 -6.0296903 11.4240170 16711746
3.7672071 -7.0814199 11.2227259 16711746
2.3077197 -6.3861170 10.4756241 16711746
4.7896895 -8.2762032 11.1433172 16711746
1.8574677 -7.2310057 11.1702394 16711746
2.6813469 -7.0483551 10.2516346 16711746
2.9119997 -6.9061604 11.1707582 16711746
2.2084458 -6.7390394 10.4342089 16711746
2.4389191 -6.1977468 10.9686966 16711746
2.7272749 -6.6827521 10.8678236 16711746
1.0030657 -6.6389737 10.7503119 16711746
2.1218495 -7.0574217 10.2766542 16711746
2.2477241 -6.4735961 10.8872519 16711746
3.1469085 -6.5760317 10.4676218 16711746
3.1163456 -6.9327850 11.0999308 16711746
2.1326003 -6.8902593 10.2686644 16711746
2.8070197 -7.1785789 11.2537203 16711746
2.2414215 -6.4225397 10.7219715 16711746
2.1447554 -6.1871295 10.6208830 16711746
2.9483404 -6.6419115 10.2095213 16711746
2.2121854 -6.7248139 10.4351730 16711746
3.0417402 -7.4309764 11.0435343 16711746
3.3035712 -6.4387617 10.5476952 16711746
2.3078775 -6.1459894 10.5469418 16711746
0.7837802 -6.3256493 10.9032173 16711746
1.3964921 -7.6181254 11.5818319 16711746
1.0878292 -6.4732080 10.6781635 16711746
1.0608689 -5.7910767 10.4177589 16711746
2.8806913 -7.3405547 11.1415396 16711746
0.5378893 -6.6687698 11.0188732 16711746
0.8362308 -7.0676036 10.4331837 16711746
0.8404097 -6.4286914 10.3461342 16711746
3.2641549 -6.8150196 10.2835531 16711746
1.8750343 -6.1480951 10.0390749 16711746
0.7993184 -6.1009250 10.5583363 16711746
1.5227480 -7.3826461 12.0829973 16711746
2.1639929 -6.7015586 10.4917736 16711746
3.1659317 -6.6899633 10.4019480 16711746
2.7766287 -5.5581870 10.8323250 16711746
3.2528093 -6.9201975 10.9726982 16711746
2.1519725 -5.9080462 10.6525726 16711746
0.8195335 -6.2945256 10.5020866 16711746
1.0104226 -5.8604364 10.3421059 16711746
3.0104918 -7.2802148 11.0175896 16711746
2.1485775 -6.6574497 11.0218143 16711746
1.0485982 -6.7359266 10.3209114 16711746
1.5890896 -6.6737514 10.9737015 16711746
3.2475801 -7.3999500 11.4198456 16711746
4.2132587 -6.9111075 11.3565140 16711746
0.7744490 -6.7531185 11.1715431 16711746
1.8497117 -6.5911975 10.9812555 16711746
1.0684277 -6.2366467 10.6008339 16711746
1.0502579 -5.9676723 10.4362993 16711746
0.7506291 -6.1625113 10.5771723 16711746
2.3867140 -6.7518620 11.0959730 16711746
3.2185521 -6.1354961 10.4225664 16711746
4.0764618 -7.3261576 10.6902809 16711746
2.4894929 -6.0459070 10.4944210 16711746
0.8115609 -6.0025053 10.8341322 16711746
0.8825629 -5.8738322 10.6676245 16711746
0.8350661 -6.2973256 11.0737925 16711746
4.7917337 -8.4192133 11.4005184 16711746
4.5078530 -7.6125813 11.2008133 16711746
2.2260950 -6.3945236 10.3783178 16711746
1.5066432 -7.6196637 11.7748404 16711746
0.0056459 -6.0698647 10.6718712 16711746
2.7080021 -6.7379661 10.8517475 16711746
5.3620911 -8.1053562 11.9385815 16711746
1.9707299 -8.0500317 11.6970463 16711746
2.7697308 -6.8531289 10.3015308 16711746
-1.0494848 -6.0307841 10.7845726 16711746
1.8571227 -6.5412102 10.7902317 16711746
4.8316231 -8.7585554 12.7031193 16711746
-0.2197715 -6.4328279 10.6407757 16711746
-1.1050996 -6.0618296 10.7961121 16711746
4.5601697 -7.4285803 11.4018335 16711746
3.3016481 -6.4098911 10.7379665 16711746
4.8909869 -8.4065571 12.3002758 16711746
1.6074140 -7.6815553 11.2580004 16711746
1.6687952 -7.9572215 11.3141623 16711746
2.5521126 -6.7787309 10.6688042 16711746
4.4639773 -8.1033573 10.9202080 16711746
5.4994249 -8.6343851 11.6599865 16711746
3.0073588 -7.2525096 11.8690805 16711746
7.1824794 -10.1148415 13.4882145 16711746
-0.2924763 -6.5287189 10.7468681 16711746
3.3168621 -6.7810578 10.6659069 16711746
2.0143340 -6.6226225 10.7007685 16711746
1.6709986 -7.2140431 10.8275824 16711746
3.3577580 -8.6405468 12.0210323 16711746
1.3660814 -8.0642967 11.9739237 16711746
2.4363430 -4.9858851 10.9823132 16711746
1.8721262 -5.1985202 11.0008364 16711746
2.3682258 -6.3363919 10.7886992 16711746
2.4776325 -6.0502024 10.4683790 16711746
3.0610654 -6.0476236 10.8306446 16711746
0.8977003 -7.3885484 10.1471910 16711746
3.8174331 -6.0506349 11.0962095 16711746
2.8558412 -5.6098242 10.3600655 16711746
2.1544428 -6.9942622 10.2945852 16711746
2.6267977 -6.9422827 10.1716986 16711746
2.0407672 -6.9149885 10.7349691 16711746
2.3926744 -7.4565959 11.6853094 16711746
2.8921084 -6.5911965 10.4146214 16711746
2.9018934 -6.6058831 10.4114456 16711746
2.1466188 -5.3915148 10.3606176 16711746
1.9588765 -6.3396811 10.7932768 16711746
2.6789410 -6.6557398 10.7221870 16711746
4.4568825 -7.9226995 11.5546093 16711746
2.2896049 -6.6314459 10.9185333 16711746
1.8043071 -8.0519133 11.6601830 16711746
2.6991310 -6.4920483 10.3575668 16711746
1.8104321 -6.7342744 11.0369797 16711746
4.8432660 -7.7688408 11.2355413 16711746
1.9505848 -6.8010182 10.5135698 16711746
1.2239095 -8.0166473 10.7378654 16711746
2.3938212 -7.1004243 11.9495821 16711746
0.6593465 -6.6216378 11.5099401 16711746
0.2109202 -6.4279594 9.8871126 16711746
2.7437565 -6.8035159 11.9457722 16711746
5.5126605 -8.3430481 11.7974033 16711746
3.2087502 -7.5485764 10.9993305 16711746
2.3392355 -6.7242756 11.1244793 16711746
1.0985550 -7.8930502 11.5892954 16711746
3.0326331 -7.4379444 10.5461416 16711746
0.5316623 -6.3313079 11.2832642 16711746
4.8824463 -7.8323441 11.7377739 16711746
1.6255745 -5.6761813 11.0776520 16711746
1.7336515 -6.8529954 10.6428204 16711746
0.2876876 -6.8569713 10.4608040 16711746
1.6333240 -7.0297675 10.5442591 16711746
0.5362873 -6.8467817 9.7982922 16711746
1.3826653 -7.5267491 11.1846294 16711746
1.7292134 -6.8917909 10.7477474 16711746
0.2246414 -5.6590676 9.7580709 16711746
3.1250422 -5.8884706 10.4183283 16711746
3.3407190 -8.2938967 10.7124672 16711746
2.4219553 -6.2768888 10.6134710 16711746
3.2691383 -6.1994300 10.4439487 16711746
2.1723011 -6.2713342 10.9499865 16711746
3.8342044 -6.3650846 10.6515121 16711746
2.3075604 -6.8298354 10.4495258 16711746
2.4534144 -6.3233538 11.3365173 16711746
1.9821962 -6.6615729 10.5031013 16711746
2.6366234 -6.4809890 12.2238998 16711746
2.0930543 -5.7075324 10.4561110 16711746
3.3251565 -6.2383175 12.0674362 16711746
2.8421891 -6.3613987 11.0312004 16711746
3.0043375 -6.7933459 10.8308096 16711746
2.9415653 -6.6210132 10.7404823 16711746
1.6871375 -6.5499640 10.7024231 16711746
2.1156294 -6.2352047 10.7104912 16711746
3.0354986 -6.6368184 11.0106125 16711746
2.4449267 -6.0389886 10.8977566 16711746
2.3542426 -6.5798645 11.3116875 16711746
2.3809731 -6.4957390 10.4252262 16711746
2.4416420 -6.6863670 11.5256586 16711746
1.9290441 -5.8638048 10.4305925 16711746
0.6080249 -7.0667405 10.0152712 16711746
1.5812304 -5.7835555 11.4140720 16711746
1.8288934 -6.9676313 10.1376524 16711746
2.1736424 -7.0509062 11.1193304 16711746
2.7772832 -6.6174498 12.0640955 16711746
1.8844049 -6.3868513 10.5715065 16711746
1.8760351 -6.4013143 10.7406893 16711746
2.8605673 -7.2370644 10.7817059 16711746
2.1733236 -6.2421947 10.7381182 16711746
3.1687799 -6.3637033 10.9343023 16711746
2.8161347 -6.6505375 11.5035582 16711746
2.9204443 -6.4965739 10.9154558 16711746
0.9328300 -6.3167057 10.3365860 16711746
3.1127903 -6.4692030 11.1193876 16711746
1.0225604 -5.8435440 10.7983904 16711746
2.3321655 -6.4963751 10.8223915 16711746
2.5074570 -5.5976553 11.7960091 16711746
3.2194972 -6.4565172 11.5150232 16711746
1.1681904 -5.9240375 10.6708870 16711746
1.0891542 -6.2531867 10.0633230 16711746
3.1681089 -6.0469513 10.9609241 16711746
2.9036283 -6.5070686 10.9033241 16711746
2.2876101 -6.4839635 11.1596489 16711746
2.0584662 -6.0882592 10.9246922 16711746
2.7597446 -6.3124542 11.3381634 16711746
2.0168133 -6.1917887 10.7348804 16711746
1.7277950 -6.6752234 10.3245764 16711746
3.2036073 -6.4071431 11.3458996 16711746
1.4033983 -5.9823027 11.4296436 16711746
2.8343806 -5.5350747 11.6211281 16711746
3.1576681 -6.1724954 11.9624500 16711746
2.7200041 -5.6814766 11.4410267 16711746
1.6467683 -5.6707797 11.3812294 16711746
0.2215076 -7.1922059 9.9981127 16711746
2.4488113 -5.9644747 11.5459223 16711746
2.8901076 -6.6119442 11.1682901 16711746
3.2230337 -6.6054764 10.4736567 16711746
2.0945468 -6.5573153 10.7525787 16711746
2.0027912 -6.3065276 10.7081976 16711746
2.2280977 -6.5090785 10.3940964 16711746
2.9154978 -5.9947953 10.9478045 16711746
1.8998733 -6.3809185 10.2861605 16711746
2.4147341 -5.5424962 11.1166601 16711746
2.4834259 -6.0694218 11.5694323 16711746
1.7079539 -7.1101074 12.1656961 16711746
3.2648671 -6.4448805 10.5337667 16711746
4.9090099 -7.4276438 11.3392048 16711746
4.6209402 -7.4017220 11.2926979 16711746
1.7119037 -6.4971929 10.6095457 16711746
2.1751392 -6.7672553 10.6971378 16711746
-1.2573148 -7.0553274 9.6382380 16711746
1.1428714 -7.0272722 10.4848709 16711746
5.9422784 -9.4998922 12.3504124 16711746
2.9037511 -6.6582842 10.4151955 16711746
2.9550824 -6.9192753 11.3444195 16711746
1.3526058 -7.1984653 11.5138760 16711746
3.4761879 -6.8509274 10.4754152 16711746
1.8281145 -6.3783975 10.3657312 16711746
2.6402719 -8.9223108 14.6172400 16711746
3.0838785 -7.9798532 12.0280294 16711746
1.5004020 -5.9218750 11.6445513 16711746
2.9859419 -7.7499614 12.2444773 16711746
2.0880322 -7.4129581 11.5550928 16711746
2.8622921 -7.0174227 10.8536272 16711746
3.0203032 -7.9702244 12.3675756 16711746
3.3048868 -6.9870133 10.8561840 16711746
2.4705918 -6.1543312 10.5237617 16711746
1.0559150 -7.5772386 11.5293770 16711746
3.1725724 -6.8637805 11.0807619 16711746
3.0632432 -8.1531668 12.1991901 16711746
2.1664853 -6.3103704 10.7618113 16711746
4.8872361 -7.8526578 11.2586813 16711746
3.0588729 -8.1525278 12.4642334 16711746
2.1780667 -6.2316408 10.7420511 16711746
1.8479695 -6.3013272 10.6664152 16711746
3.2711961 -7.4518633 11.7861071 16711746
0.9587178 -7.3136444 12.2413788 16711746
1.9271592 -6.4167891 10.8964653 16711746
3.3766015 -7.2744589 11.4029322 16711746
1.1480771 -7.1401200 11.7619734 16711746
3.9319413 -7.7435594 12.7243729 16711746
2.2875545 -6.4218326 10.5477400 16711746
1.2319897 -6.7685986 11.2401915 16711746
3.9619644 -7.2126985 12.0008526 16711746
1.3676755 -6.7505293 11.4570570 16711746
3.2515333 -6.8363810 11.3205843 16711746
2.9379945 -7.3601480 11.2804356 16711746
2.8604906 -6.6334801 11.1539249 16711746
2.9339797 -7.1327028 11.2436800 16711746
2.6931186 -6.6023655 11.8004999 16711746
4.7040353 -8.5537643 12.0847721 16711746
0.3210475 -8.1808424 13.1146345 16711746
1.2083607 -6.9896197 11.9816437 16711746
1.7774097 -7.4114485 12.9274645 16711746
4.1923647 -7.8076468 12.0904379 16711746
1.9185730 -6.3835545 10.7298470 16711746
1.2809646 -6.5870109 11.3755531 16711746
3.5888915 -7.2773299 11.2674379 16711746
2.2154346 -6.3209262 10.9138021 16711746
5.1604710 -7.6918197 12.1217308 16711746
0.7543807 -7.3402224 12.6425018 16711746
1.1499612 -7.1412458 12.0686712 16711746
3.1338193 -8.0696716 12.6175203 16711746
1.8809861 -6.3048801 10.7440176 16711746
2.7042339 -6.8665314 10.9591846 16711746
1.1460170 -7.4705276 12.1145010 16711746
1.0609552 -7.5470653 11.7861509 16711746
4.5665603 -6.7640805 13.1685295 16711746
1.9923487 -7.4374771 13.7345219 16711746
2.5497301 -5.8462720 11.6853113 16711746
2.3403244 -6.3166871 10.7914467 16711746
2.9060266 -6.5629797 11.2138891 16711746
2.4789205 -6.0282025 10.5358877 16711746
3.0033791 -6.8852096 11.0183172 16711746
2.1313741 -5.7617583 11.7994986 16711746
1.8089288 -6.2361279 10.9915838 16711746
1.6984415 -7.0572481 12.1478281 16711746
3.9707885 -7.9164944 12.3857527 16711746
2.6116850 -5.7077479 11.7060099 16711746
3.7735598 -7.0787787 12.1890068 16711746
4.2765455 -7.0952868 11.2086535 16711746
2.0571144 -7.3936076 10.8392496 16711746
5.9765592 -8.9024000 13.7960367 16711746
-5.3260288 -21.3849564 11.7073870 16711746
4.8394914 -7.8050375 11.4921865 16711746
-0.6220748 -6.1848936 9.7121162 16711746
4.5925498 -7.9943266 11.3801785 16711746
3.1450069 -5.5471969 11.3162441 16711746
5.3814430 -11.1880398 14.3222656 16711746
-0.8638227 -12.5001144 13.3653488 16711746
-0.8542801 -12.2531033 13.2628469 16711746
-0.7663744 -6.6372185 10.2051725 16711746
1.7133504 -6.1806002 10.3422785 16711746
-5.8011489 -9.0888767 11.5648756 16711746
3.4799583 -10.7659903 14.8743477 16711746
1.9296311 -7.3772826 11.4999981 16711746
3.0620377 -8.5140371 12.2235680 16711746
2.6167715 -6.9963813 12.1197119 16711746
2.5488551 -7.2686872 12.0927715 16711746
2.5521090 -7.3227043 12.1243744 16711746
3.4987500 -9.4425411 13.0634880 16711746
2.6558962 -7.3686800 11.2738400 16711746
2.7184618 -7.6444893 10.9791479 16711746
2.3956256 -6.4880481 10.7081394 16711746
2.8071461 -7.5238500 11.3750505 16711746
3.3517137 -10.0756130 13.1649170 16711746
0.6123851 -7.6545606 12.4841070 16711746
3.1955237 -8.5998278 12.9147310 16711746
2.5272555 -7.4582438 12.6732607 16711746
2.7829220 -7.1295710 10.9756575 16711746
2.2009797 -6.6244397 10.6839066 16711746
3.1858923 -8.2571659 11.1035337 16711746
2.4085717 -6.7113233 10.7421188 16711746
0.3891603 -8.1329250 12.7650681 16711746
1.9293548 -7.5259919 11.5369377 16711746
2.4309614 -7.5169859 12.0883007 16711746
-0.5197303 -7.2225623 12.7518940 16711746
3.0174839 -7.4334402 11.2023296 16711746
0.0176032 -8.3789387 12.9282646 16711746
2.4242647 -7.6124520 12.4595881 16711746
0.4002509 -6.3827467 10.0060482 16711746
4.3514814 -9.5204420 14.8308449 16711746
1.2512512 -6.9758697 11.4745979 16711746
0.5035261 -5.9381771 10.0257664 16711746
3.6772199 -9.0221109 12.5135937 16711746
3.2108240 -8.4814396 11.7740641 16711746
0.8150853 -7.4817839 12.6389256 16711746
3.5046368 -7.5862985 11.0049915 16711746
2.4585395 -6.4763885 11.0377693 16711746
1.0554080 -7.1390691 10.5802774 16711746
1.0440046 -6.8258047 12.1846542 16711746
3.0760267 -7.1820664 11.2604933 16711746
2.4104388 -6.5961485 10.7169962 16711746
1.6585596 -7.7660632 11.1854897 16711746
2.1708133 -6.7382731 11.0570774 16711746
0.8950450 -7.6746469 10.8613281 16711746
2.4442163 -6.8126144 11.1270180 16711746
0.5447536 -6.8929734 11.2040958 16711746
2.0435977 -6.7220225 10.9625711 16711746
2.1548162 -5.4149976 10.8431158 16711746
-0.3321680 -7.2644219 9.9764147 16711746
3.3938301 -7.6091151 10.7630215 16711746
1.2654351 -6.6000257 11.2941885 16711746
1.6290570 -6.6326742 10.9488211 16711746
3.5457797 -8.2047968 10.9251337 16711746
0.6009723 -6.8023682 11.1735077 16711746
1.9486076 -7.3839612 11.1174860 16711746
2.7924268 -7.9037490 10.9193640 16711746
1.6589223 -7.4134946 10.4705734 16711746
1.6606946 -6.7071462 11.2437506 16711746
1.1976314 -7.6846690 11.3562098 16711746
1.8555183 -7.3551841 10.6869621 16711746
0.2773561 -7.1327705 11.4698048 16711746
0.4298715 -7.8394489 11.1273232 16711746
1.0177361 -7.4897089 11.6435566 16711746
2.0805354 -7.4654112 11.2165155 16711746
0.4024363 -6.7786603 10.0434742 16711746
0.6422385 -7.4286966 11.0451422 16711746
1.8474243 -7.4226799 10.6993361 16711746
0.4950324 -7.4986587 11.4063110 16711746
0.3677903 -7.6042175 11.6579475 16711746
0.8906571 -6.9020066 11.9111919 16711746
0.5296536 -6.7089963 11.5810852 16711746
1.9557091 -6.3918386 10.8101606 16711746
3.4777703 -7.1582117 11.9787693 16711746
2.7018228 -6.8938694 11.9820156 16711746
0.6291394 -8.1362276 11.1343269 16711746
1.1677724 -7.2698703 11.6898346 16711746
-0.1953013 -6.1288218 10.2568207 16711746
1.6983346 -7.4993057 11.6372881 16711746
3.9051628 -7.6090341 11.3418713 16711746
1.7067813 -6.7559934 10.5845060 16711746
0.9459744 -7.5211697 11.9570751 16711746
0.6027604 -6.7010589 11.4787569 16711746
0.7134913 -6.5869994 11.2902308 16711746
0.3804637 -7.1571193 11.3721743 16711746
0.1714074 -6.5060072 11.3643112 16711746
2.1617045 -5.4513302 10.9127188 16711746
2.3742702 -6.8405247 10.7368193 16711746
1.9323219 -6.4860616 10.8162622 16711746
0.2922984 -5.9724007 10.0377550 16711746
1.0651464 -6.0567312 11.0973892 16711746
2.3777745 -6.6230836 10.7134371 16711746
0.2544250 -6.3594999 12.1304827 16711746
0.1349367 -7.1536431 11.9087906 16711746
1.4728143 -6.8312974 11.0751390 16711746
0.8591528 -6.2668161 11.2558117 16711746
-0.6307881 -7.2465739 10.3097248 16711746
0.3914901 -6.2013845 12.0149670 16711746
5.4568167 -9.9439192 14.3902597 16711746
2.1547823 -7.6376705 11.9892530 16711746
1.6909087 -7.5850525 13.2472391 16711746
1.7753485 -6.4297080 10.7536469 16711746
2.6354098 -6.9537606 12.7850885 16711746
1.2442501 -8.0541096 10.8499165 16711746
7.9223161 -12.6955109 13.4823341 16711746
1.1026522 -7.1747160 11.2698135 16711746
2.4288836 -7.2545266 12.0156298 16711746
2.5953619 -6.0209112 12.1267719 16711746
1.1024779 -5.7004867 10.8448954 16711746
2.5953622 -6.0209136 12.1267748 16711746
3.8033543 -7.6906476 12.1097412 16711746
3.3216465 -8.1727390 12.4223948 16711746
-0.4550692 -5.7443199 9.8244019 16711746
2.6304252 -5.7622828 12.1796341 16711746
