# .PCD v.7 - Point Cloud Data file format
VERSION .7
FIELDS x y z rgb
SIZE 4 4 4 4
TYPE F F F F
COUNT 1 1 1 1
WIDTH 1193
HEIGHT 1
VIEWPOINT 0 0 0 1 0 0 0
POINTS 1193
DATA ascii
0.5093848 -1.2028462 2.8289213 16711746
0.8821006 -1.3765386 3.3602736 16711746
0.5539002 -1.0657332 2.5829995 16711746
-0.4332743 -1.4126629 3.4546351 16711746
0.6338714 -1.2076544 2.8607013 16711746
0.4922780 -1.0349197 2.5279982 16711746
0.8779465 -1.1178851 2.8281755 16711746
1.3900968 -1.2053633 2.9752429 16711746
0.5583293 -1.1704496 2.7828941 16711746
0.6201658 -1.0965257 2.6453993 16711746
0.6836573 -1.0266930 2.6011691 16711746
0.8058825 -1.1046951 2.7637110 16711746
0.7175139 -1.1482911 2.7834058 16711746
0.4143206 -1.0308098 2.5149958 16711746
0.5878717 -1.1821173 2.7977970 16711746
-0.2113096 -1.4166760 3.4089296 16711746
0.6358202 -1.2110668 2.8487992 16711746
0.5818143 -1.1091110 2.6457112 16711746
0.6603947 -1.1296533 2.7179825 16711746
0.8020442 -1.9077603 4.3858337 16711746
0.4738525 -1.0240501 2.5142372 16711746
0.2503980 -1.0525808 2.5243461 16711746
0.1888667 -1.0674213 2.5311670 16711746
0.8031337 -1.2420083 3.0141373 16711746
-0.8172795 -1.5049198 3.6038315 16711746
0.5734568 -1.2445605 2.9117355 16711746
0.3667218 -1.5137476 3.5592301 16711746
0.6382457 -1.2633828 2.9611282 16711746
0.9061792 -1.1581628 2.9029458 16711746
0.5587797 -1.2047585 2.8404007 16711746
0.2729409 -1.1257079 2.6510262 16711746
0.3686321 -1.1616853 2.7324674 16711746
0.5004529 -1.1149443 2.6511889 16711746
0.4224663 -1.1109265 2.6660371 16711746
0.4777393 -1.1806983 2.7781544 16711746
0.7933365 -1.0743178 2.7229772 16711746
1.1595116 -1.1574231 2.9003506 16711746
0.4883879 -1.0457867 2.5605838 16711746
0.5318424 -1.3296380 3.1459277 16711746
0.8723059 -1.2934347 3.1749339 16711746
0.3762864 -1.3420953 3.1871269 16711746
1.3928435 -1.2325333 2.9945319 16711746
0.5535747 -1.0656091 2.5824831 16711746
0.1204262 -1.2710531 3.0253305 16711746
0.8440229 -1.1973274 2.9502094 16711746
0.2352832 -1.1805494 2.7361500 16711746
0.1115440 -1.1537913 2.7482643 16711746
0.3456128 -1.2353202 2.8950253 16711746
0.1688081 -1.2535118 2.9671221 16711746
0.4091754 -1.0793202 2.5999358 16711746
0.2022096 -1.1287669 2.6745102 16711746
0.5264175 -1.1702068 2.7975891 16711746
0.3128400 -1.0856065 2.5951133 16711746
0.2753997 -1.0962963 2.6056592 16711746
1.0587147 -1.1899463 2.9575763 16711746
1.1034213 -1.0774691 2.7041347 16711746
0.7119439 -1.1445414 2.7742054 16711746
0.5558437 -1.2372378 2.9168863 16711746
0.1787972 -1.2542864 2.9499724 16711746
0.5629866 -1.3380710 3.1456780 16711746
-0.0136360 -1.1654685 2.7640331 16711746
0.8957638 -1.2134050 3.0020156 16711746
0.4298907 -1.0845821 2.6208537 16711746
0.4965300 -1.1160812 2.6600039 16711746
0.3566513 -1.2399950 2.8702302 16711746
0.2569660 -1.0857452 2.5649118 16711746
0.4165336 -1.1402990 2.7052183 16711746
0.3952738 -1.4089540 3.0605242 16711746
-1.1493964 -1.6623081 3.9471846 16711746
0.2332337 -1.1989452 2.8091831 16711746
0.5464104 -1.3001692 3.0435510 16711746
1.1375214 -1.2077156 3.0034747 16711746
0.3347380 -1.1543218 2.6948671 16711746
0.4028903 -1.2622110 2.9694164 16711746
0.4973223 -1.2234982 2.9205620 16711746
0.2380720 -1.0772315 2.5850375 16711746
0.3671215 -1.4529094 2.8820868 16711746
0.8662067 -1.2173200 3.0133982 16711746
0.8073245 -1.3506249 3.1949613 16711746
0.6715407 -1.1070271 2.6984429 16711746
0.2939545 -1.0985805 2.5984089 16711746
0.5522460 -1.2603196 2.9866574 16711746
0.4349935 -1.1646590 2.7531898 16711746
0.4387480 -1.2014225 2.8242106 16711746
-0.3116655 -1.2748848 3.0585346 16711746
0.4283464 -1.4952648 2.8258762 16711746
1.0613176 -1.2540938 3.0779595 16711746
0.0438961 -1.1134973 2.6714106 16711746
1.0758260 -1.0705838 2.7268443 16711746
0.4801109 -1.3543378 3.2107527 16711746
0.3790286 -1.0778154 2.5898600 16711746
0.4897367 -1.0308657 2.5173650 16711746
0.6328548 -1.2569330 2.9536610 16711746
0.4148432 -1.0628136 2.5413585 16711746
0.5389108 -1.3021381 3.0836411 16711746
0.2466626 -1.1338303 2.6940508 16711746
0.2557422 -1.0609814 2.5403655 16711746
0.5364912 -1.1122615 2.6272156 16711746
0.9878380 -1.2340194 3.0173528 16711746
0.9324784 -1.2426482 3.0653305 16711746
0.5029901 -1.2429546 2.8838305 16711746
0.3191736 -1.0528122 2.5527411 16711746
0.4583471 -1.0924184 2.6382875 16711746
0.2281126 -1.1119671 2.4811659 16711746
0.6129692 -1.2386943 2.8335752 16711746
0.5877105 -1.3417034 3.2561226 16711746
0.4765759 -1.0726323 2.6396222 16711746
0.5343836 -1.1060566 2.6395249 16711746
1.8372371 -1.3065234 3.2206690 16711746
1.3999050 -1.1103088 2.8566599 16711746
-0.4823529 -1.5946211 3.7827756 16711746
0.4943429 -0.9723006 2.4770727 16711746
0.5353161 -1.4757972 3.4670556 16711746
1.7140259 -1.5530480 3.7226312 16711746
1.3182527 -1.1272428 2.8183651 16711746
0.4936431 -1.7153329 4.0408096 16711746
0.6267703 -1.1221774 2.6819820 16711746
0.9573143 -1.4828814 3.5296624 16711746
0.8253666 -1.2885778 3.1382720 16711746
0.3317750 -1.2170035 2.8439381 16711746
0.8454943 -1.8048941 4.1680241 16711746
1.3971344 -1.4416682 3.4492867 16711746
0.8450883 -1.1958104 2.9504347 16711746
0.4151244 -1.0316104 2.5131128 16711746
0.2491248 -1.1104819 2.6125040 16711746
-1.1926837 -1.6677219 4.0002480 16711746
0.5831970 -1.1697035 2.7590411 16711746
1.2703822 -1.1684834 2.9314644 16711746
1.1613872 -1.2873694 3.1738625 16711746
0.7268552 -1.0310783 2.6127317 16711746
0.8647883 -1.2630800 3.1049418 16711746
1.6537511 -1.3997210 3.4050517 16711746
0.8970705 -1.1864593 2.9391441 16711746
0.6359847 -1.2634206 2.9643288 16711746
0.2559966 -1.1138192 2.6011302 16711746
0.6366231 -1.4234716 3.4086795 16711746
0.3442471 -1.0465157 2.5247955 16711746
0.4193747 -1.1401180 2.6998444 16711746
-0.6633899 -1.3522302 3.1809058 16711746
1.2971063 -1.3349259 3.2264276 16711746
0.8332059 -1.6573861 3.8582327 16711746
0.9281936 -1.1526171 2.8623846 16711746
0.5576502 -1.1718276 2.7846336 16711746
0.2776391 -1.1834601 2.8313301 16711746
0.7824172 -1.4419034 3.4619193 16711746
0.5624249 -1.2299187 2.8994977 16711746
0.5957587 -1.3748267 3.2758951 16711746
0.5866292 -1.1272467 2.6849382 16711746
0.3192306 -1.1716787 2.7428412 16711746
1.0953704 -1.4188608 3.5051985 16711746
0.5822697 -1.1137460 2.6605499 16711746
0.5088022 -1.1844907 2.7947969 16711746
1.0834677 -1.1572107 2.8933144 16711746
-0.0675541 -1.1561297 2.7294431 16711746
0.7442097 -1.0666772 2.6550424 16711746
0.6479605 -1.2244173 2.8846204 16711746
0.4793006 -1.1729727 2.7698791 16711746
0.5213189 -1.1500248 2.6804600 16711746
0.2415725 -1.2533952 2.9449575 16711746
-0.3592910 -1.2077407 2.8588576 16711746
0.8680679 -1.1545042 2.8561373 16711746
0.5445807 -1.2238376 2.9200377 16711746
-0.0725587 -1.1320869 2.8181102 16711746
0.7483907 -1.4773122 3.5168090 16711746
0.5036405 -1.0916637 2.6223738 16711746
0.8950262 -1.1860809 2.9407728 16711746
0.4690214 -1.2168857 2.8749521 16711746
0.8750046 -1.8855127 3.9685566 16711746
1.0025570 -1.2039356 2.9741893 16711746
1.3717843 -1.5638527 3.7232735 16711746
1.6649241 -1.4021293 3.4273407 16711746
0.7832305 -1.2167642 2.9575701 16711746
1.1824615 -1.4104552 3.4232762 16711746
0.0129691 -1.3463809 3.2069409 16711746
0.3121276 -1.4632348 3.4869802 16711746
0.5848199 -1.2275869 2.8959997 16711746
0.3639845 -1.5151525 3.5803788 16711746
0.1964809 -1.2586460 2.9727533 16711746
0.0821947 -1.1819242 2.8068361 16711746
0.5177734 -1.0216479 2.5233533 16711746
0.8247829 -1.1167213 2.8308368 16711746
0.8069254 -1.1530017 2.8703029 16711746
-0.3427557 -1.2773875 3.1020839 16711746
1.4020478 -1.2615432 3.1031888 16711746
0.9325923 -1.1403701 2.8793108 16711746
-0.4411380 -1.2780883 3.1411631 16711746
0.7446622 -1.3411703 3.1452460 16711746
0.8933573 -1.6209809 3.8110590 16711746
1.1043196 -1.1978799 2.9314141 16711746
0.3363057 -1.1518369 2.7182112 16711746
0.9062903 -1.4120367 3.4163477 16711746
0.8126319 -1.3756915 3.2302556 16711746
0.4878663 -1.0449287 2.5589554 16711746
0.8493300 -1.2366619 3.0315888 16711746
0.8913966 -1.2994735 3.1639431 16711746
0.8264912 -1.2900904 3.1380959 16711746
0.6352968 -1.3330319 3.1522279 16711746
0.6032755 -1.1985177 2.8223736 16711746
0.6577497 -1.3720651 3.2792957 16711746
0.3985361 -1.0700324 2.5682368 16711746
0.3127199 -1.1264479 2.6616948 16711746
0.3997189 -1.1085224 2.6304414 16711746
0.3898952 -1.1177021 2.6604898 16711746
1.3634368 -1.3015182 3.1788223 16711746
1.2980505 -1.3635482 3.3471296 16711746
0.8155488 -1.3761064 3.2863457 16711746
0.6458154 -1.2298800 2.8904469 16711746
0.9930919 -1.2264779 3.0303950 16711746
0.9821783 -1.2565640 3.0897663 16711746
-0.4950028 -1.3081181 3.1704237 16711746
1.1229221 -1.3429019 3.2959590 16711746
1.4780488 -1.5635335 3.6911840 16711746
1.2369527 -1.7321075 4.1637383 16711746
0.6737220 -1.1089131 2.6919134 16711746
1.2412987 -1.3981729 3.4723470 16711746
0.7221398 -1.2217826 2.9013517 16711746
0.5565029 -1.2663870 2.9639366 16711746
0.4927609 -1.1254339 2.6619518 16711746
0.8668721 -1.2193730 2.9877508 16711746
0.8297334 -1.1502160 2.8795383 16711746
0.9104159 -1.1661923 2.8991504 16711746
0.7587541 -1.2865585 3.0584772 16711746
-0.1522565 -1.2493552 2.9598625 16711746
0.4050284 -1.2193077 2.8408175 16711746
1.0057596 -1.1235394 2.8808725 16711746
0.4334309 -1.0325693 2.5314324 16711746
0.4130270 -1.2304890 2.8650274 16711746
0.3089306 -1.1248336 2.6662199 16711746
0.4715655 -1.2574278 2.9645164 16711746
0.2731934 -1.0954366 2.6061616 16711746
0.5315967 -1.3292983 3.1437457 16711746
-0.0099564 -1.1841284 2.7858031 16711746
-1.3243532 -1.6802187 4.1183720 16711746
1.3219154 -1.5055262 3.6004179 16711746
-0.4299578 -1.4142269 3.4225953 16711746
0.8047615 -1.2001295 2.9313726 16711746
0.4657073 -1.0993654 2.6263802 16711746
0.6779125 -1.2637198 2.9416184 16711746
0.8663521 -1.2184100 2.9962583 16711746
1.0148996 -1.1688671 2.9438353 16711746
0.4412209 -1.0509479 2.5666497 16711746
0.6924308 -1.1276770 2.7285788 16711746
0.6119934 -1.1945676 2.8054121 16711746
0.6392925 -1.2116649 2.8416109 16711746
1.5050232 -1.3995178 3.3102672 16711746
0.6392034 -1.4237211 3.3433964 16711746
0.6122549 -1.5072860 3.4958425 16711746
0.5395908 -1.6251142 3.9078324 16711746
-0.0243094 -1.2396709 2.9376533 16711746
0.4218440 -1.1985979 2.8407521 16711746
0.8753771 -1.2950367 3.1411014 16711746
0.3591234 -1.2016436 2.8111742 16711746
0.1646722 -1.1434896 2.6426125 16711746
0.2662531 -1.2589104 2.9010434 16711746
0.5331205 -1.4744964 3.4553373 16711746
0.3367713 -1.1329455 2.6885490 16711746
0.1639068 -1.3279729 3.1331341 16711746
0.5595191 -1.5970032 3.7119567 16711746
-1.9521763 -1.8772788 4.4789343 16711746
0.6481300 -1.2279477 2.8877776 16711746
0.6513209 -1.1450495 2.7023833 16711746
1.2208366 -1.1267492 2.8961871 16711746
1.1710365 -1.0935794 2.8233986 16711746
0.6234433 -1.4333987 3.4310796 16711746
0.7880936 -1.4758430 3.5487378 16711746
0.6812282 -1.1958121 2.8139474 16711746
0.6861274 -1.2126073 2.8506787 16711746
0.3608348 -1.1415447 2.7011106 16711746
1.1365497 -1.2017133 3.0056775 16711746
0.4241146 -1.4987253 2.8291862 16711746
-0.3403714 -1.3816302 3.3417788 16711746
0.4146924 -1.4067318 3.2344122 16711746
0.0646933 -1.1574844 2.7002707 16711746
1.2142084 -1.1288135 2.8908186 16711746
0.4853267 -1.0922711 2.6409373 16711746
0.5132805 -1.1250720 2.6743383 16711746
0.4458395 -1.0947242 2.6069901 16711746
-0.4383985 -1.3443298 3.3113246 16711746
0.6791806 -1.4590969 3.4779170 16711746
1.3615661 -1.1957943 2.9798028 16711746
0.7498245 -1.1876304 2.8637800 16711746
0.3519163 -1.2601240 2.9300537 16711746
0.4617655 -1.4187126 3.3615434 16711746
0.5854207 -1.2281947 2.8959677 16711746
0.4563362 -1.1569389 2.7324963 16711746
0.8232011 -1.2056637 2.9658172 16711746
0.4727804 -1.2599967 2.9594052 16711746
0.4682840 -1.0994730 2.6312051 16711746
-0.1676197 -2.4530685 5.7897425 16711746
1.1756854 -1.2113688 2.9690549 16711746
0.5412832 -1.1019294 2.6414165 16711746
0.9826735 -1.4727215 3.5590382 16711746
1.2023761 -1.6087569 3.8772831 16711746
0.5247102 -1.1604888 2.7511332 16711746
0.4457070 -1.0570503 2.5599332 16711746
-0.6279152 -1.8208973 4.2678699 16711746
-1.5073664 -1.5595443 3.8647923 16711746
0.9386613 -1.1416605 2.9081712 16711746
0.8073875 -1.3495582 3.2537515 16711746
0.7189431 -1.2117958 2.8764338 16711746
0.5456487 -1.1064929 2.6336639 16711746
0.5225103 -1.1603730 2.7537580 16711746
0.3885776 -1.1050963 2.6330450 16711746
1.8215388 -1.6107571 3.8059878 16711746
0.5201705 -1.1242777 2.6840472 16711746
0.6939896 -1.1247743 2.7273030 16711746
0.7573823 -1.1380173 2.8110003 16711746
1.1042813 -1.4631659 3.5879934 16711746
0.6497174 -1.6843475 3.9662821 16711746
0.9242557 -1.7559611 4.0348592 16711746
1.1819199 -1.6479005 3.9610741 16711746
1.3150132 -1.2784677 3.1141005 16711746
1.2330623 -1.2822524 3.1523440 16711746
0.8033713 -1.1939962 2.9270329 16711746
1.2345217 -1.4568535 3.5134318 16711746
0.4696706 -1.1450832 2.7190402 16711746
-0.2159777 -1.4564211 3.5170641 16711746
0.7396860 -2.0809605 4.6510496 16711746
0.8791438 -1.1601263 2.8774590 16711746
1.0918043 -1.1767167 2.9330399 16711746
1.2626623 -1.2005960 2.9456155 16711746
0.9826112 -1.1447452 2.8901143 16711746
0.8012476 -1.1563544 2.8627775 16711746
1.0898292 -1.1781051 2.9303811 16711746
0.6598914 -1.3089178 3.1802452 16711746
0.6965617 -1.1569607 2.7979450 16711746
1.1307726 -1.1004534 2.8095102 16711746
0.9363167 -1.1629333 2.8807425 16711746
0.8079373 -1.4591330 3.3981414 16711746
0.8140698 -1.3328944 3.2065496 16711746
0.4982010 -1.5664613 3.6507778 16711746
0.5399135 -1.4751668 3.4371438 16711746
0.5254374 -1.2089267 2.8547823 16711746
0.6054780 -1.0892830 2.6404929 16711746
0.9400434 -1.2154603 2.9978220 16711746
0.9038821 -1.1610285 2.9015820 16711746
1.1881907 -1.6380076 3.9593854 16711746
0.4332936 -1.3398927 3.0300527 16711746
0.5260442 -1.4778787 3.4955590 16711746
1.0004852 -2.0616429 4.5970125 16711746
1.1200860 -1.3431185 3.2848799 16711746
1.0683885 -1.2521391 3.0879889 16711746
1.5811396 -1.3795717 3.3502760 16711746
0.5102298 -1.2243133 2.8841357 16711746
0.5298741 -1.1478523 2.7642260 16711746
1.0421457 -1.7496048 4.1292949 16711746
0.8453778 -1.1982847 2.9627492 16711746
-0.6623434 -1.4240220 3.3527632 16711746
-0.5664059 -1.3940789 3.3569813 16711746
-0.4396082 -1.4118787 3.4639189 16711746
1.2260009 -1.3992703 3.3828058 16711746
0.4668863 -1.0981404 2.6449378 16711746
-0.7452515 -1.5174410 3.6374226 16711746
0.4768801 -1.1780523 2.7812548 16711746
0.4280861 -1.1858255 2.7702177 16711746
0.6656373 -1.0946177 2.6830559 16711746
1.0060978 -1.1207272 2.8825481 16711746
1.1890951 -1.5181916 3.6466634 16711746
0.8810681 -1.1380782 2.8731749 16711746
-0.0115924 -1.4085417 3.3263352 16711746
2.1148531 -1.6221883 3.7840271 16711746
0.0053746 -1.7465698 4.3184786 16711746
-0.2941782 -1.3561016 3.2812588 16711746
2.1264300 -1.5151982 3.7021174 16711746
1.9134580 -1.4700358 3.5253971 16711746
1.0039905 -1.1880509 2.9764280 16711746
0.3385617 -1.2492231 2.8662481 16711746
1.1326052 -1.2073147 2.9990904 16711746
-0.6813946 -1.4254103 3.3664241 16711746
2.0365465 -1.3692502 3.3460262 16711746
0.7719324 -1.4131470 3.3404872 16711746
0.7210136 -1.3933771 3.2691016 16711746
1.0052074 -1.1532010 2.9167986 16711746
0.8341848 -1.6567991 3.8582919 16711746
0.5017356 -1.0816536 2.6257813 16711746
1.2181296 -1.2135538 2.9996192 16711746
1.2845236 -1.2296658 3.0506992 16711746
0.8800321 -1.1117554 2.8433816 16711746
1.3246459 -1.2476909 3.0727580 16711746
-1.3514148 -1.6816328 4.1432528 16711746
1.6335438 -1.2639759 3.1877644 16711746
1.8204559 -1.2793360 3.2233264 16711746
0.8816497 -1.1372660 2.8752589 16711746
1.4050611 -1.3124281 3.1832190 16711746
0.1090675 -1.7014282 4.0593667 16711746
1.6010243 -1.3780934 3.3689296 16711746
-0.0386537 -1.2070909 2.8574545 16711746
0.9647290 -1.1889422 2.9509335 16711746
0.5246188 -1.1279892 2.6788242 16711746
1.4558394 -1.2736840 3.1539149 16711746
0.7116635 -1.4634582 3.4797297 16711746
1.7764233 -1.2856413 3.1904745 16711746
1.1323836 -1.0980183 2.8424625 16711746
1.2563736 -1.4497850 3.4910154 16711746
0.6652216 -1.0954105 2.6807806 16711746
0.7902316 -1.1729758 2.8866580 16711746
1.2022910 -1.1394526 2.9184117 16711746
2.0414960 -1.3695159 3.3503971 16711746
0.9525160 -1.6610783 3.9020309 16711746
0.6376508 -1.6156609 3.6930077 16711746
0.7941940 -1.2691084 3.0525517 16711746
0.8964805 -1.2525589 3.0445580 16711746
0.8406132 -1.2516329 3.0543315 16711746
0.7826377 -1.5406713 3.6186805 16711746
0.4608452 -1.0520926 2.6132803 16711746
0.0332960 -1.3333050 3.2033324 16711746
0.3349771 -1.1992706 2.8073270 16711746
-0.0710402 -1.2738788 3.0308263 16711746
0.2796662 -1.1408120 2.6808393 16711746
0.5663550 -1.2312168 2.8984742 16711746
1.0031674 -1.1527749 2.9186571 16711746
0.4224949 -1.1533623 2.7156317 16711746
1.2163121 -1.2150522 2.9956245 16711746
1.2090689 -1.4216835 3.4164021 16711746
-0.2880703 -1.3578115 3.2765975 16711746
1.6592128 -1.1484663 2.9382703 16711746
0.3995996 -1.2596154 2.9314716 16711746
0.9087059 -1.1520517 2.9197438 16711746
0.0103284 -1.1893181 2.7711759 16711746
0.7044831 -1.2679380 3.0164919 16711746
0.2881844 -1.1453553 2.6704299 16711746
-0.0530669 -1.2787313 3.0724461 16711746
-0.6217651 -1.3569638 3.1456275 16711746
1.3023124 -1.3382109 3.2275279 16711746
0.7362623 -1.2326413 2.9137487 16711746
0.9227475 -1.0977629 2.8733211 16711746
0.4882500 -1.3952044 2.8817952 16711746
0.7749562 -1.2675190 3.0138857 16711746
0.5952495 -1.2206008 2.8829546 16711746
0.4666260 -1.3804368 3.2802200 16711746
0.5516765 -1.2177750 2.8614295 16711746
0.2422832 -1.1103142 2.6680858 16711746
0.3267768 -1.0561430 2.5395873 16711746
0.1815505 -1.1367214 2.6757967 16711746
0.5009016 -1.0672483 2.5960464 16711746
1.2340117 -1.1183598 2.9170930 16711746
1.1108249 -1.1076030 2.8744047 16711746
1.4074591 -1.1965852 3.0089722 16711746
0.3113194 -1.2457625 2.8983417 16711746
0.3577888 -1.1413242 2.7074571 16711746
0.7758746 -1.2650967 3.0231011 16711746
0.3198287 -1.0913087 2.6154051 16711746
1.4422717 -1.1843339 3.0048981 16711746
0.9725428 -1.1188065 2.8704865 16711746
0.2899263 -1.1480173 2.6673551 16711746
0.5051385 -1.0917999 2.6191397 16711746
0.4632547 -1.0949255 2.6326313 16711746
1.1606703 -1.1043662 2.8173802 16711746
0.4209640 -1.0771508 2.6292033 16711746
0.1121590 -1.2357049 2.9231424 16711746
0.0964376 -1.2661980 3.0456612 16711746
1.2211621 -1.4196545 3.4887843 16711746
0.5359542 -1.1126240 2.6573021 16711746
1.7451335 -1.1101156 3.0588238 16711746
1.1308143 -1.1878479 2.9133577 16711746
0.9421862 -1.2194985 3.0044463 16711746
0.6575052 -1.2891811 3.0324681 16711746
1.3867644 -1.2526072 3.0996652 16711746
1.4357268 -1.1885303 2.9997568 16711746
0.8942671 -1.1878703 2.9368131 16711746
1.6764401 -1.1272252 3.0010498 16711746
1.0003380 -1.1786497 2.9426193 16711746
0.3764044 -1.0982356 2.6431344 16711746
1.2889801 -1.1868728 2.9703741 16711746
0.4525263 -1.1163465 2.6579516 16711746
0.8161489 -1.3755333 3.2655201 16711746
0.7279063 -1.2509267 2.9572845 16711746
0.7473729 -1.1839929 2.8854825 16711746
0.8435950 -1.2607591 3.0530958 16711746
0.1099332 -1.1265075 2.6732399 16711746
0.2641741 -1.2021210 2.5879531 16711746
1.1759955 -1.1511186 2.9996369 16711746
0.4515166 -1.1666633 2.6954448 16711746
0.1477804 -1.2118002 2.8928087 16711746
0.5143838 -1.2266828 2.8795629 16711746
0.7294477 -1.2535015 2.9540772 16711746
0.8720767 -1.1278775 2.8500979 16711746
1.6379415 -1.5968575 3.5683959 16711746
1.7572563 -1.3628110 3.3231688 16711746
0.4974290 -1.1317648 2.6851790 16711746
1.2786448 -1.7927755 4.2765660 16711746
0.7897357 -1.1721976 2.8892367 16711746
1.5282658 -1.4258889 3.4119744 16711746
0.7508273 -1.1843404 2.8704083 16711746
0.3746475 -1.2619293 2.9343088 16711746
0.8711943 -1.2157458 3.0000355 16711746
1.0905257 -1.4202968 3.4816051 16711746
2.0845506 -1.9104615 4.4472232 16711746
0.4779835 -1.0482004 2.5783162 16711746
0.5708314 -1.5416740 3.6167626 16711746
0.1579970 -1.2404231 2.9116874 16711746
1.1218029 -1.5023381 3.6583157 16711746
2.2000096 -1.4872363 3.4326286 16711746
0.7348960 -2.0837419 4.4577808 16711746
1.0601106 -1.1856060 2.9745247 16711746
0.9454491 -1.2419398 3.0580471 16711746
0.5462849 -1.6135575 3.8710234 16711746
0.5460810 -1.1380843 2.6905682 16711746
0.4250544 -1.1995556 2.8304589 16711746
-0.0441394 -1.2367748 2.9138725 16711746
1.8079604 -1.6093742 3.7960398 16711746
1.3611706 -1.5642112 3.6933415 16711746
0.9644213 -1.9190567 4.4267340 16711746
0.5658281 -1.1696969 2.7472329 16711746
0.9055275 -1.1288258 2.8758049 16711746
0.4741088 -1.4430174 3.4402471 16711746
0.3960049 -1.1561552 2.7373958 16711746
2.2552187 -2.0471597 4.6911645 16711746
0.5263909 -1.1036406 2.6459670 16711746
1.1110432 -1.1931517 2.9354732 16711746
1.0588437 -1.1916633 2.9537086 16711746
0.5300502 -1.1041420 2.6410875 16711746
0.6285715 -1.1233417 2.6758652 16711746
0.1407332 -1.2272422 2.8838806 16711746
1.0213197 -1.1230116 2.8742030 16711746
0.8119694 -1.2648063 3.0600197 16711746
0.8091775 -1.2638156 3.0781536 16711746
1.0324485 -1.1139153 2.8991005 16711746
1.0900103 -1.1584443 2.9029016 16711746
0.4259994 -1.3060333 3.0209119 16711746
0.7616620 -1.8398767 4.3808346 16711746
0.5576217 -1.1683785 2.7552493 16711746
2.3198683 -1.8670017 4.3790693 16711746
0.8701643 -1.1417193 2.8641362 16711746
0.5830692 -1.2054279 2.8211040 16711746
-0.0826412 -2.3689530 5.5558605 16711746
2.4540188 -1.8358412 4.0019469 16711746
0.8462437 -1.2093191 2.9656188 16711746
2.4402246 -1.5225198 3.7508609 16711746
0.9980059 -1.1298513 2.8703811 16711746
1.1595752 -1.1541988 2.9081349 16711746
0.8373125 -1.6632353 3.8634870 16711746
1.0065215 -1.1351318 2.9027090 16711746
0.8747854 -1.1510463 2.8655481 16711746
0.8852143 -1.3080726 3.1569521 16711746
0.9925801 -1.1470677 2.8514185 16711746
2.3781583 -2.1055603 4.9309406 16711746
0.4453022 -1.5050544 2.8710446 16711746
0.9911526 -1.3290623 3.2446847 16711746
1.4884875 -1.8701634 4.4069238 16711746
0.9899893 -1.3305895 3.2415347 16711746
2.4139063 -2.3175871 5.4347420 16711746
0.4885317 -1.3534026 2.8597159 16711746
0.8059870 -1.3496532 3.2013805 16711746
1.0438683 -1.5177619 3.6503491 16711746
1.0820330 -1.9052907 4.3024445 16711746
1.0778731 -1.8941690 3.4520340 16711746
1.0305703 -1.2685618 3.0889039 16711746
0.6426831 -1.5700920 3.6396234 16711746
0.8940518 -1.2447525 3.0526040 16711746
0.4357162 -1.2058681 2.8129792 16711746
0.5011995 -1.2308671 2.8616920 16711746
0.5128487 -1.1898955 2.7889438 16711746
0.5909962 -1.1663498 2.7670231 16711746
1.1116469 -1.2372059 3.0659609 16711746
0.7945947 -1.2704173 3.0487394 16711746
0.4994153 -1.2301670 2.8678916 16711746
0.5917246 -1.2900184 3.0319991 16711746
1.5572047 -1.4246483 3.4196479 16711746
0.5587918 -1.3383000 3.1502669 16711746
0.7630116 -1.1261736 2.8020728 16711746
1.3598469 -1.3023427 3.1731451 16711746
0.5913895 -1.1808871 2.7714841 16711746
1.1831756 -1.3679694 3.3413517 16711746
0.3156093 -1.2657636 2.9201801 16711746
0.4492338 -1.0775115 2.6035221 16711746
0.5727214 -1.3301092 3.1218615 16711746
0.4452255 -1.4417434 3.4240601 16711746
0.5039674 -1.2342696 2.8559132 16711746
0.3842242 -1.1111702 2.6593912 16711746
-0.1326969 -1.9177661 4.6046162 16711746
-0.1723531 -1.9337941 4.6892838 16711746
0.8008051 -1.1863097 2.9356885 16711746
1.5101703 -1.4405912 3.4293087 16711746
0.9585261 -1.4828986 3.5333517 16711746
1.0700964 -1.7134461 4.0596781 16711746
1.1867149 -1.4317552 3.4561989 16711746
0.2227912 -1.2267914 2.8379343 16711746
0.1371314 -1.2106377 2.8345470 16711746
1.5580214 -1.1430730 2.9724360 16711746
0.9743046 -1.1146116 2.8771074 16711746
0.7492178 -1.3439575 3.1290946 16711746
0.7321829 -1.2484345 2.9520957 16711746
0.8633180 -1.3226575 3.1893420 16711746
0.5103212 -1.1844671 2.7891088 16711746
0.6908220 -1.1260166 2.7327349 16711746
0.6885533 -1.2069724 2.8600218 16711746
1.1298312 -1.2516581 3.0839756 16711746
0.7682307 -1.3286105 3.1049523 16711746
0.5161623 -1.5368696 3.5057428 16711746
0.6678279 -1.2774402 2.9998910 16711746
0.5655274 -1.3288618 3.1248486 16711746
0.4067576 -1.1794369 2.7776682 16711746
0.5909746 -1.2161028 2.8917131 16711746
1.4248664 -1.5341808 3.6022978 16711746
0.4982339 -1.1781580 2.8125281 16711746
0.4406773 -1.4688941 2.7807779 16711746
0.4313968 -1.3533316 3.0427480 16711746
0.8627388 -1.3405266 3.2565296 16711746
1.1702542 -1.1905504 2.9884336 16711746
1.1015624 -1.1367440 2.9155715 16711746
1.0864084 -1.2114308 3.0041084 16711746
0.3666796 -1.2678560 2.9784873 16711746
1.0146163 -1.1377679 2.8969369 16711746
0.9089532 -1.1629547 2.9142380 16711746
0.6274355 -1.2167943 2.8919842 16711746
1.0605956 -1.1894712 2.9706149 16711746
0.2735733 -1.1559529 2.7373886 16711746
0.8274390 -1.2068911 2.9576032 16711746
0.8825411 -1.3777231 3.3324599 16711746
0.7753114 -1.2691884 3.0051837 16711746
1.0046657 -1.1521429 2.9155972 16711746
0.3515981 -1.2084533 2.8344035 16711746
0.6485071 -1.2311203 2.8860307 16711746
-0.0121136 -1.2257940 2.9338596 16711746
-0.0505832 -1.2811962 3.0713480 16711746
0.4686323 -1.4194626 3.3505194 16711746
0.6408302 -1.1353804 2.7290320 16711746
0.6263989 -1.1204498 2.6844571 16711746
1.1937548 -1.3519258 3.3257279 16711746
1.1030041 -1.1964021 2.9334166 16711746
0.9667217 -1.5476406 3.7211189 16711746
1.3611681 -1.7821625 4.2725158 16711746
1.1141171 -1.5000399 3.6157310 16711746
0.7117831 -1.2169479 2.8970029 16711746
0.6682017 -1.2225708 2.8948648 16711746
0.6293012 -1.2184455 2.8871927 16711746
0.8264493 -1.2911518 3.1390800 16711746
0.9863729 -1.2067238 2.9881904 16711746
0.0043654 -1.3017559 3.1519244 16711746
0.9008526 -1.3209456 3.1911647 16711746
0.9252015 -1.3968668 3.3504832 16711746
0.6575593 -1.2741021 3.0070736 16711746
0.2276873 -1.5090117 3.5623679 16711746
0.4414819 -1.2361588 2.9099343 16711746
0.4209924 -1.2258357 2.8969743 16711746
0.4894764 -1.1302072 2.6998484 16711746
0.4320061 -1.3502946 3.1709497 16711746
0.4168641 -1.3423665 3.1433938 16711746
0.6192422 -1.4428145 3.4157503 16711746
0.6442887 -1.1412792 2.7198339 16711746
0.9675742 -1.3041989 3.1870291 16711746
1.2067528 -1.4240839 3.4058886 16711746
0.7751153 -1.2673593 3.0109828 16711746
0.3477360 -1.2366735 2.8819938 16711746
0.3346035 -1.2522877 2.8697283 16711746
1.3123698 -1.3375553 3.2457237 16711746
0.2896468 -1.1656809 2.7280288 16711746
0.2561107 -1.2140753 2.8373466 16711746
1.3635745 -1.0949807 2.9103248 16711746
0.8043467 -1.2051917 2.9457867 16711746
0.9015375 -1.3147043 3.2442219 16711746
0.9123061 -1.3471394 3.2539270 16711746
0.1882965 -1.2557641 2.9741657 16711746
0.4836081 -1.4615824 3.4735329 16711746
0.4171062 -1.2246754 2.8992569 16711746
0.4150041 -1.3488364 3.2002792 16711746
0.4108382 -1.1769701 2.7861414 16711746
0.6580327 -1.2769990 3.0006263 16711746
0.6363133 -1.3959771 3.4765649 16711746
1.5368251 -1.1583734 2.9959648 16711746
0.6437171 -1.2270162 2.9035511 16711746
0.1467030 -1.2076896 2.8839960 16711746
0.7181748 -1.3850273 3.3009255 16711746
0.8978851 -1.3178219 3.1979709 16711746
0.3837996 -1.2342603 2.8651972 16711746
0.4194095 -1.1502035 2.7797997 16711746
1.1400406 -1.1613574 2.9277868 16711746
0.8516071 -1.2357547 3.0359688 16711746
0.6365400 -1.2077858 2.8517768 16711746
0.6663819 -1.2319783 2.8834252 16711746
0.6202437 -1.2091812 2.9308469 16711746
1.3015345 -1.1257421 2.9185901 16711746
0.8909209 -1.3058491 3.1561804 16711746
0.0182802 -1.3159467 3.1375766 16711746
0.1498082 -1.3331010 3.1663468 16711746
0.0045947 -1.3394320 3.3322225 16711746
0.0069252 -1.3600601 3.2254009 16711746
0.8300408 -1.1705594 2.8276188 16711746
0.4960631 -1.1536533 2.7681379 16711746
0.5436535 -1.2063340 2.9309959 16711746
-0.2880504 -1.2837863 3.0491605 16711746
-0.4633478 -1.3497391 3.3526411 16711746
1.6636108 -1.2870417 3.2058265 16711746
1.5670873 -1.2458632 3.0913539 16711746
0.8150573 -1.3752539 3.2703795 16711746
0.3561910 -1.2305205 2.9197662 16711746
0.2785630 -1.2208152 2.8219922 16711746
-0.1462975 -1.2760776 3.0154536 16711746
0.7396076 -1.2313489 2.9216807 16711746
0.4031322 -1.1328518 2.7441170 16711746
0.4822054 -1.2299590 2.9270148 16711746
0.9528484 -1.2217298 3.0249116 16711746
0.5660908 -1.2234851 2.8787737 16711746
0.6121642 -1.3388479 3.1278436 16711746
0.5329096 -1.2007802 2.8263259 16711746
0.3969240 -1.4871073 3.4571588 16711746
1.1492578 -1.2928123 3.1569774 16711746
0.6197041 -1.2467524 3.0103250 16711746
-0.0432661 -1.3082538 3.1258724 16711746
0.4051205 -1.3329103 2.8935487 16711746
0.2475639 -1.2748878 2.9405372 16711746
0.1732794 -1.2663201 2.9808702 16711746
0.3604722 -1.1851403 2.7648251 16711746
0.8498570 -1.1978266 2.9622650 16711746
0.8653367 -1.2153007 2.9651339 16711746
0.4174398 -1.2186593 2.8132048 16711746
0.3982250 -1.4089258 2.8764048 16711746
0.0537379 -1.2930757 3.0357981 16711746
0.4239260 -1.1589561 2.7638092 16711746
0.2768730 -1.2190166 2.8656290 16711746
0.4855267 -1.3031473 3.0501585 16711746
0.4182948 -1.3334507 2.8805339 16711746
1.5150255 -1.4048190 3.3483984 16711746
0.9225112 -1.3957978 3.3531606 16711746
1.0381093 -1.1740640 2.9134178 16711746
1.0363930 -1.2031015 2.9591300 16711746
0.4432092 -1.2477974 2.9353099 16711746
1.0646055 -1.1871858 2.9655311 16711746
1.0503526 -1.5231663 3.6118691 16711746
1.0718142 -1.5680515 3.8060205 16711746
0.6019046 -1.2305119 2.8952861 16711746
0.7300872 -1.5690119 3.6947577 16711746
1.0377022 -2.1760240 4.9207759 16711746
1.0758889 -1.5362155 3.7259371 16711746
0.8465645 -1.9366974 4.3476882 16711746
1.0029962 -1.4767653 3.5538023 16711746
0.9060754 -1.3182440 3.2135100 16711746
0.2471103 -1.5989633 3.7444141 16711746
0.3823319 -1.5157043 3.5524740 16711746
0.1797476 -1.4869183 3.5151520 16711746
1.2119771 -1.2525663 3.0815959 16711746
0.9054058 -1.2114800 3.0233424 16711746
1.0138018 -1.1355827 2.9121697 16711746
0.8643180 -1.2581748 3.0544326 16711746
0.8781422 -1.1201612 2.9031851 16711746
0.7716054 -1.4170400 3.3073802 16711746
0.7173162 -1.3913471 3.3337727 16711746
0.3867677 -1.2764707 2.9529641 16711746
0.3182088 -1.2665085 2.9194701 16711746
0.8509548 -1.2272832 3.0219717 16711746
0.6019927 -1.2201196 2.8704534 16711746
1.4424134 -1.4126607 3.3378119 16711746
0.8679576 -1.2677802 3.1033809 16711746
0.8863446 -1.3891644 3.3058748 16711746
0.5047036 -1.4597501 3.3955879 16711746
0.0339144 -1.3336763 3.1936204 16711746
0.4771780 -1.2143250 2.8687978 16711746
-0.0695840 -1.2280872 2.9362214 16711746
0.5607162 -1.3387059 3.1414974 16711746
0.8687023 -1.3200939 3.1897416 16711746
0.1888057 -1.4872150 3.5101869 16711746
0.8225054 -1.1842989 2.8957446 16711746
1.0149444 -1.2380342 3.0547216 16711746
1.4827758 -1.2931080 3.1651690 16711746
0.8332168 -1.1387308 2.8778272 16711746
1.7785263 -1.4898002 3.5075014 16711746
0.2536258 -1.2056295 2.8254924 16711746
0.8982641 -1.2121559 3.0072396 16711746
0.3188448 -1.2663815 2.9220874 16711746
0.1328771 -1.2867626 3.0809550 16711746
1.8191223 -1.6005770 3.7794764 16711746
0.4083316 -1.2179278 2.8471169 16711746
0.8337737 -1.5676744 3.6603930 16711746
0.9545478 -1.4835807 3.5126958 16711746
-0.0595494 -1.2519356 3.0479608 16711746
1.0706211 -1.1734970 2.9556301 16711746
0.7916149 -1.2569764 3.0388579 16711746
0.7219571 -1.3659497 3.1981153 16711746
0.4024749 -1.2178004 2.8467491 16711746
0.5024748 -1.2205970 2.8625307 16711746
0.3335449 -1.1311004 2.6910672 16711746
0.5562209 -1.2005733 2.8455245 16711746
1.4351431 -1.5404601 3.6048384 16711746
0.7386493 -1.2110370 2.8972480 16711746
1.2069778 -1.2573302 3.0698738 16711746
0.5884371 -1.2081933 2.9008565 16711746
0.5011311 -1.6061441 3.6778626 16711746
0.8271757 -1.4446734 3.4129462 16711746
0.6429408 -1.2486098 2.9299607 16711746
0.7108168 -1.2731057 2.9944787 16711746
0.4455255 -1.2382468 2.9032040 16711746
0.5144889 -1.3693703 3.2392738 16711746
0.4540754 -1.3054780 3.0758467 16711746
-0.0307179 -1.3064904 3.0698612 16711746
0.6381667 -1.3510919 3.1735678 16711746
0.1237324 -1.2193350 2.9078279 16711746
1.2849301 -1.3157172 3.1957819 16711746
1.4333378 -1.3923717 3.3289325 16711746
0.4231656 -1.3211389 3.1156397 16711746
0.8037931 -1.2021421 2.9514935 16711746
-0.4464977 -1.3314981 3.3674839 16711746
1.1247638 -1.2835575 3.1449137 16711746
0.9022712 -1.4426970 3.4378428 16711746
0.3074445 -1.2033373 2.8761911 16711746
0.4083529 -1.2355160 2.9381921 16711746
0.3402686 -1.2487208 2.9195862 16711746
0.5545376 -1.3774538 3.2729571 16711746
0.1326941 -1.2434539 2.9451942 16711746
0.9543652 -1.4830503 3.5048337 16711746
0.6969539 -1.2454188 2.9811537 16711746
0.1248425 -1.2228330 2.9032030 16711746
0.2317543 -1.1817589 2.7439313 16711746
1.1930501 -1.1611241 2.9390390 16711746
0.4946489 -1.3048439 3.0324206 16711746
0.2952512 -1.2603538 2.9334784 16711746
0.6062606 -1.4428358 3.4998024 16711746
0.3775856 -1.3201685 3.0658779 16711746
0.3567251 -1.2028533 2.8062317 16711746
0.4051588 -1.2603948 2.9202101 16711746
0.8695214 -1.3192831 3.1643786 16711746
0.8285237 -1.1583314 2.9008641 16711746
0.5656978 -1.3500247 3.3217516 16711746
0.4211745 -1.3374479 3.1065235 16711746
0.3401318 -1.4567703 3.3989191 16711746
0.7070228 -1.2697724 2.9999831 16711746
0.8125504 -1.2263675 2.9778934 16711746
1.4643056 -1.2007132 2.9226463 16711746
0.8228081 -1.2438799 3.0087740 16711746
1.4545814 -1.2112714 3.0196648 16711746
0.9386232 -1.2463088 3.0382116 16711746
0.6405154 -1.2245178 2.9033520 16711746
0.5950598 -1.2186658 2.8807068 16711746
0.8424863 -1.2016941 2.9413171 16711746
0.2883486 -1.2219297 2.8463130 16711746
0.3835132 -1.3463610 3.1706307 16711746
0.3621267 -1.3382610 3.1573958 16711746
0.7886054 -1.2702777 3.0537915 16711746
0.4902994 -1.3646867 2.9584394 16711746
0.2530838 -1.3948312 3.2903843 16711746
0.7637683 -1.3660542 3.2998929 16711746
0.2960094 -1.2609737 2.9327126 16711746
1.1671959 -1.3860227 3.2789404 16711746
0.7100853 -1.2758868 2.9837952 16711746
1.6995348 -1.6257224 3.8283212 16711746
1.8896712 -1.7345084 4.1382456 16711746
-0.0376555 -1.2570640 3.0372906 16711746
0.9558669 -1.3658677 3.2998271 16711746
-0.0221391 -1.6851147 4.0736237 16711746
0.9696282 -1.5075667 3.5975435 16711746
0.6975214 -1.6835663 3.8891754 16711746
0.7967469 -1.7228272 3.9711416 16711746
1.0137842 -1.1742352 2.9314983 16711746
0.6758761 -1.5150906 3.6160331 16711746
0.8784379 -1.3109769 3.1684575 16711746
1.0552092 -1.2578346 3.0821800 16711746
1.3268964 -1.5402102 3.6969151 16711746
0.6923591 -1.2061367 2.8748560 16711746
0.6507025 -1.1625158 2.7759519 16711746
0.6915132 -1.1562399 2.8007038 16711746
0.8040145 -1.2410448 3.0207050 16711746
0.8401351 -1.2510679 3.0508375 16711746
0.2893744 -1.4358705 3.4103072 16711746
0.3174403 -1.1491104 2.7434409 16711746
0.4432635 -1.1891621 2.8290448 16711746
0.6052733 -1.3500427 3.1940475 16711746
0.7191737 -1.3250111 3.1183131 16711746
0.3842619 -1.2757535 2.9521310 16711746
0.5306260 -1.5115224 3.5333517 16711746
1.4995239 -1.8681216 4.4208584 16711746
-0.1862126 -1.8246647 4.4088583 16711746
0.0219596 -1.6720257 3.9682877 16711746
2.0893865 -1.6233977 3.7579470 16711746
0.2942348 -1.5009341 3.5520248 16711746
-1.9445119 -1.8704020 4.4967275 16711746
-0.6195920 -1.4496614 3.5100074 16711746
1.6575369 -1.1987853 3.0937498 16711746
0.4248926 -1.1418931 2.7644877 16711746
0.6432505 -1.2871630 3.0051594 16711746
0.6340408 -1.4772962 3.4195998 16711746
0.5211884 -1.5784853 3.7011666 16711746
0.3282096 -1.1602881 2.6218457 16711746
1.2421695 -1.3047755 3.1549120 16711746
0.4829081 -1.3533201 3.2105477 16711746
1.2325710 -1.2808725 3.1499286 16711746
1.3625792 -1.7259756 4.1116786 16711746
1.2740610 -1.4982681 3.5975182 16711746
1.7390521 -1.5162420 3.6090317 16711746
1.0734186 -1.3854377 3.3525960 16711746
0.8328577 -1.2305261 3.0079451 16711746
0.4253138 -1.3492818 3.1865160 16711746
1.8832979 -1.7365088 4.1088090 16711746
0.7324884 -1.2348682 2.9339402 16711746
1.0959395 -1.1629100 2.9363954 16711746
0.2593602 -1.6101987 3.7971535 16711746
1.2130136 -1.2884990 3.1559777 16711746
0.6309900 -1.4742479 3.4284577 16711746
0.9801949 -1.2566569 3.0902836 16711746
0.9897837 -1.2516254 3.1237409 16711746
1.1183217 -1.2589095 3.0631104 16711746
0.5778854 -1.3101019 3.0490134 16711746
1.1163121 -1.2581089 3.0669022 16711746
0.5561703 -1.6037029 3.7781451 16711746
1.1425819 -1.6665113 4.0364246 16711746
2.1506100 -1.9978254 4.6746297 16711746
1.4920616 -1.8692131 4.4066806 16711746
1.2518327 -1.4520752 3.4527712 16711746
1.2132993 -1.2922951 3.1456926 16711746
0.8790076 -1.3616840 3.2480145 16711746
0.6366309 -1.2431914 2.9418411 16711746
0.6722432 -1.5549623 3.4665966 16711746
0.1818556 -1.2536550 2.9828367 16711746
0.5187406 -1.2204107 2.8598814 16711746
0.7336693 -1.3542119 3.1381118 16711746
0.5646779 -1.2272937 2.9070177 16711746
0.6296911 -1.3497673 3.1866751 16711746
1.1775289 -1.4225610 3.4362853 16711746
0.9350199 -1.4078025 3.3496673 16711746
0.3808830 -1.3289794 3.1257875 16711746
1.6554874 -1.3202790 3.1871166 16711746
0.1484894 -1.4324027 3.3908334 16711746
0.5603737 -1.2012727 2.8421488 16711746
1.1199640 -1.2593371 3.0923829 16711746
0.6606337 -1.3879164 3.2645531 16711746
0.0956490 -1.2687812 3.0504618 16711746
0.0128515 -1.3017240 3.1431134 16711746
0.4134560 -1.3757662 3.1754775 16711746
0.6881605 -1.1971848 2.8881383 16711746
1.2746891 -1.3891534 3.3118110 16711746
1.4343189 -1.3923616 3.3259099 16711746
0.9811411 -1.2590307 3.0893569 16711746
1.2557896 -1.3019307 3.1316099 16711746
1.2375374 -1.3088692 3.1869979 16711746
0.9181526 -1.2810740 3.1335058 16711746
0.5633389 -1.2259740 2.9094675 16711746
-0.2109989 -1.7134938 4.0877972 16711746
1.8776937 -1.5732093 3.7092795 16711746
0.6807771 -1.8590907 4.2697258 16711746
0.6607568 -1.4650226 3.3828168 16711746
0.6242504 -1.1933899 2.8795567 16711746
0.7751060 -1.2131411 2.9483764 16711746
1.1398656 -1.4023074 3.3921165 16711746
0.7565203 -1.3220252 3.0880568 16711746
0.2669849 -1.5988604 3.6917720 16711746
1.2088399 -1.2931303 3.1420579 16711746
0.6543528 -1.2492242 2.9469609 16711746
-0.0843510 -1.2738999 3.0139525 16711746
0.3923398 -1.4761243 3.4185405 16711746
0.8690023 -1.3547529 3.2290637 16711746
0.4302554 -1.4646499 3.4060225 16711746
0.8713530 -1.2472585 3.0635965 16711746
0.8094646 -1.2249020 2.9849703 16711746
0.3911341 -1.3408076 3.1474948 16711746
0.7251897 -1.3902400 3.2287059 16711746
0.5093989 -1.3452125 3.1731541 16711746
2.1823413 -1.5637293 3.6143453 16711746
0.6770861 -1.1861213 2.8360462 16711746
1.1557363 -1.3411025 3.2449481 16711746
0.2389398 -1.2066886 2.8515782 16711746
0.6295421 -1.2846696 2.9819369 16711746
0.4854065 -1.5738617 3.7143109 16711746
1.4396814 -1.2214382 3.0515378 16711746
0.5736661 -1.3206420 2.9946744 16711746
0.6330315 -1.3768231 3.0940382 16711746
0.0019204 -1.2826834 3.0848553 16711746
0.4788760 -1.3856107 3.2406876 16711746
0.4186443 -1.4014953 3.2666786 16711746
1.4339821 -1.5390772 3.5988801 16711746
1.4078892 -1.4473437 3.4525738 16711746
1.3947351 -1.5039077 3.5779514 16711746
1.2980471 -1.3436248 3.2108681 16711746
1.4594764 -1.4157242 3.3488300 16711746
0.8678441 -1.2602366 3.1053367 16711746
0.8367460 -1.1876967 2.9022377 16711746
0.8880726 -1.3071034 3.1519380 16711746
0.2599524 -1.1817909 2.8512726 16711746
0.6700873 -1.2780074 2.9896743 16711746
0.7290733 -1.5527740 3.4864714 16711746
0.7926046 -1.2715421 3.0480905 16711746
0.6398780 -1.2186863 2.9111509 16711746
0.8269730 -1.5679694 3.5970459 16711746
0.4551928 -1.4534128 3.3782794 16711746
0.5050979 -1.3039613 2.9504955 16711746
0.0261624 -1.6777890 3.9550838 16711746
2.1043179 -1.6338847 3.7647383 16711746
1.2894125 -1.5506639 3.5843115 16711746
0.6284547 -1.2878348 2.9732819 16711746
0.5555813 -1.3108835 3.0334587 16711746
0.7766702 -1.3685263 3.1833713 16711746
1.1901853 -1.2210771 3.0094223 16711746
1.1910784 -1.5891622 3.8116152 16711746
0.9568377 -1.6567088 3.8361206 16711746
-0.0801835 -1.9692720 4.7615809 16711746
1.2081488 -1.3738008 3.2982273 16711746
0.2055874 -1.8536942 4.3356676 16711746
0.6618317 -1.6678275 3.8551316 16711746
-0.0747587 -1.8253601 4.2522902 16711746
0.9604924 -1.6600116 3.9071884 16711746
2.0833776 -1.5564584 3.7268970 16711746
0.7960167 -1.2671566 3.0560284 16711746
1.0120796 -1.4528118 3.4873033 16711746
0.9555101 -1.4573160 3.4668999 16711746
0.9177173 -1.2827008 3.1299026 16711746
0.1284447 -1.5555507 3.7114372 16711746
0.4143731 -1.3397617 3.1513755 16711746
0.7875059 -1.5581104 3.6366711 16711746
-0.4994796 -2.1620786 4.8894124 16711746
2.3144188 -1.8575414 4.3693299 16711746
0.8133415 -1.3276964 3.1491179 16711746
0.6396291 -1.2481511 2.9320564 16711746
0.8919442 -1.3415623 3.2428024 16711746
0.6360295 -1.3500514 3.1741149 16711746
0.5029559 -1.3594811 3.2097323 16711746
0.6590580 -1.3974185 3.3105791 16711746
0.4290294 -1.4041682 3.3192675 16711746
-0.0639550 -1.9546659 4.7126260 16711746
-0.1585894 -1.8123689 4.3442874 16711746
1.2052956 -1.6090169 3.8615866 16711746
1.5142071 -1.4425849 3.4326906 16711746
1.1376504 -1.4496918 3.5006151 16711746
0.3690304 -1.4127182 3.3295541 16711746
-0.0018672 -1.6782466 4.0050192 16711746
1.3882463 -1.3739276 3.2991071 16711746
0.8969828 -1.4422619 3.4200301 16711746
0.7227631 -1.2204133 2.9055555 16711746
0.8787423 -1.3814238 3.2574487 16711746
0.3853870 -1.5144970 3.5095158 16711746
0.4855818 -1.4094819 3.2798073 16711746
0.2585665 -1.6095476 3.7825248 16711746
1.6213523 -1.3827471 3.3004179 16711746
0.9181432 -1.4188131 3.3584073 16711746
0.4478087 -1.3687814 3.1856985 16711746
0.8580371 -1.3499082 3.1911504 16711746
1.1793878 -1.5972590 3.8031099 16711746
0.9215335 -1.3951765 3.3565202 16711746
0.8074166 -1.3516617 3.1894894 16711746
1.1780107 -1.4272949 3.4516182 16711746
0.8805154 -1.2937158 3.1513469 16711746
0.3974005 -1.1723908 2.7864573 16711746
2.2640216 -2.0340240 4.8384829 16711746
-0.0986695 -2.0603144 4.8816886 16711746
0.3558682 -1.2612675 2.9283433 16711746
0.9499880 -1.2395083 3.0597272 16711746
1.0408307 -1.6183124 3.9315360 16711746
1.4090827 -1.3708990 3.2670107 16711746
0.8456002 -1.8055067 4.1768937 16711746
0.8916067 -1.4514438 3.4204783 16711746
0.4357854 -1.4383312 3.3859627 16711746
0.9075420 -1.2592494 3.0912073 16711746
0.2345218 -1.6044341 3.7741954 16711746
0.5330740 -1.5139601 3.4602189 16711746
1.1290202 -1.2807477 3.1517653 16711746
0.7357475 -1.2362083 2.9332874 16711746
0.5157998 -1.3982838 2.8204627 16711746
0.8493453 -1.6220409 3.7795212 16711746
1.0107361 -2.1138449 4.8046584 16711746
0.6354903 -1.4766953 3.4141874 16711746
0.8462847 -1.9725808 4.4743376 16711746
1.5512224 -2.0078697 4.6984615 16711746
1.2801247 -2.3524978 5.5291791 16711746
-0.0706190 -1.4654837 3.2608821 16711746
-0.3459998 -1.2727280 3.0713520 16711746
0.4679554 -1.3541042 2.9033437 16711746
0.8829583 -1.4089954 3.3444028 16711746
1.6666431 -1.6734724 3.9299688 16711746
1.6012764 -1.7075179 3.9983385 16711746
0.8836858 -1.5328721 3.5537512 16711746
0.8804327 -1.2256560 3.0566893 16711746
-0.1859572 -1.7089378 4.0423317 16711746
0.6604006 -1.5373529 3.5630209 16711746
0.6410931 -1.3992534 3.2927268 16711746
0.4230986 -1.4033060 3.3267484 16711746
0.6580709 -1.4292998 3.3658223 16711746
0.6990743 -1.3099513 3.0644531 16711746
2.0894251 -1.6729794 3.8600371 16711746
0.8951944 -1.6217474 3.8154426 16711746
1.1962006 -1.3587439 3.2444813 16711746
-0.2084851 -1.7339885 4.1193008 16711746
0.9144261 -1.3248003 3.2075565 16711746
0.7323580 -1.5448014 3.5952976 16711746
0.3443440 -1.4566672 3.3442667 16711746
0.5886979 -1.2516788 3.0087311 16711746
-0.0380225 -1.5077072 3.5728412 16711746
0.8887287 -1.4785581 3.4427667 16711746
0.3233317 -1.4884677 3.4576628 16711746
0.5848417 -1.4050796 3.3094299 16711746
0.6228914 -1.4430306 3.3995852 16711746
0.6627310 -1.5193255 3.5287044 16711746
1.4313760 -1.5566649 3.6477649 16711746
0.9961609 -1.2210805 3.0356975 16711746
0.9244299 -1.2127054 3.0302653 16711746
0.9519168 -1.3109897 3.1794024 16711746
1.1158183 -1.3490450 3.2660487 16711746
1.3901813 -1.6466913 3.9280150 16711746
1.0605935 -1.2555946 3.0863411 16711746
0.7777670 -1.3065517 3.0944510 16711746
0.8156592 -1.3808547 3.2123387 16711746
0.8717291 -1.3494965 3.2507777 16711746
0.7636634 -1.4972801 3.4417334 16711746
1.6221724 -1.3053613 3.1716375 16711746
0.8442599 -1.4449241 3.3442566 16711746
0.7305414 -1.5428979 3.5938387 16711746
1.1943346 -1.3581222 3.2421587 16711746
0.9264082 -1.4197758 3.3682694 16711746
0.6543211 -1.3914912 3.2694647 16711746
1.7657721 -1.6333019 3.7887614 16711746
2.1142011 -1.6304213 3.7707479 16711746
1.4451351 -1.5316927 3.6221070 16711746
0.6327820 -1.2336870 2.9613481 16711746
0.9352677 -1.4170288 3.3900778 16711746
1.0429869 -1.2705058 3.0952818 16711746
1.0638620 -1.5632362 3.7222981 16711746
1.1971773 -1.4801966 3.5406060 16711746
0.5837392 -1.2826891 3.0577681 16711746
1.3082632 -1.3394367 3.2307658 16711746
1.7012680 -1.6155590 3.6928613 16711746
1.0540942 -1.4728218 3.5338056 16711746
1.3872228 -1.2001696 2.9953496 16711746
0.6900786 -1.4499863 3.4248672 16711746
0.7266449 -1.4606621 3.3949885 16711746
0.8640677 -1.2892914 3.1063488 16711746
0.6249599 -1.2522657 2.9431944 16711746
0.5370622 -1.3317869 3.1334770 16711746
0.8475804 -1.3322164 3.2171438 16711746
1.3823752 -1.3132341 3.0861578 16711746
0.7883998 -1.4621323 3.4187446 16711746
1.3766028 -1.7591941 4.2009144 16711746
1.4909286 -1.7258583 4.0530276 16711746
1.2517866 -1.4511193 3.4403386 16711746
2.1631408 -1.7777121 4.2106690 16711746
-0.0534384 -1.2810180 3.0746100 16711746
1.6830930 -1.4461299 3.4435399 16711746
0.8722510 -1.2776724 3.1189835 16711746
1.5241222 -1.7833546 4.1787305 16711746
0.8455952 -1.4457880 3.3480420 16711746
0.8712823 -1.3225397 3.1726172 16711746
0.7097535 -1.2096974 2.9085679 16711746
1.6514860 -1.3195668 3.1880360 16711746
1.2737038 -1.3894259 3.3137264 16711746
0.7451166 -1.3277863 3.1098831 16711746
-0.2406610 -2.1256118 4.8934741 16711746
-1.0642685 -2.3159690 5.2831225 16711746
0.7541782 -1.2311589 2.9630737 16711746
0.8398568 -1.4437946 3.3750541 16711746
0.9158062 -1.3703258 3.2763135 16711746
0.2398195 -1.3989384 3.3080873 16711746
0.9144950 -1.3741138 3.2561197 16711746
0.8699569 -1.2121372 3.0135579 16711746
0.7353399 -1.4258035 3.2401173 16711746
0.4834488 -1.3504823 3.1911681 16711746
1.1585302 -1.2877996 3.1701968 16711746
1.4605262 -1.3001709 3.1373463 16711746
1.0667967 -1.3892759 3.3299778 16711746
1.0733143 -1.5355461 3.7156949 16711746
1.5084156 -1.2063584 3.0245984 16711746
0.7629797 -1.3787280 3.2054560 16711746
1.3180231 -1.5734662 3.8009050 16711746
0.9540133 -1.4835674 3.4390333 16711746
1.3361822 -1.4509832 3.4190071 16711746
0.6853553 -1.3344351 3.1093876 16711746
1.0870798 -1.4210696 3.4269161 16711746
1.1150841 -1.5011883 3.6111767 16711746
0.8598952 -1.4821894 3.4463868 16711746
-0.4465800 -2.2587547 5.3619280 16711746
0.9210273 -1.2979151 3.1645839 16711746
0.7619964 -1.3202631 3.0955372 16711746
0.8161944 -1.3350822 3.1750073 16711746
0.9220466 -1.5928001 3.8545969 16711746
0.7801378 -1.5232383 3.6351967 16711746
0.7039797 -1.4100088 3.3283129 16711746
1.0839393 -1.2116231 3.0055506 16711746
1.1567174 -1.3161399 3.2175071 16711746
1.3539582 -1.5660332 3.6829703 16711746
0.7897527 -1.4640284 3.4886904 16711746
1.1949069 -1.4343019 3.4552577 16711746
1.2421241 -1.6181859 3.8831577 16711746
1.3953173 -1.7999295 4.3520789 16711746
1.3501804 -2.5023413 5.4666142 16711746
0.8630626 -1.6860945 3.9586520 16711746
0.1026313 -1.3727453 3.2943265 16711746
0.1459177 -1.3975101 3.3178866 16711746
0.7372680 -1.5672812 3.6525743 16711746
0.4515122 -1.3121512 3.1122575 16711746
0.6599593 -1.5353978 3.5739443 16711746
0.5504255 -1.4816613 3.4323366 16711746
0.2177854 -1.3422990 3.1934495 16711746
-0.3454977 -1.5008601 3.6250017 16711746
1.0769567 -1.4253196 3.4187815 16711746
1.1040395 -1.4626956 3.5212271 16711746
0.7499217 -1.3476090 3.1322999 16711746
0.9043622 -1.3952022 3.3312035 16711746
0.7850818 -1.3688889 3.2038302 16711746
0.9462669 -1.7137469 3.9811268 16711746
0.8106323 -1.3346217 3.1589966 16711746
0.9564770 -1.4563103 3.4691606 16711746
1.2218069 -1.4045955 3.3623114 16711746
-0.2205584 -1.8004335 4.3237023 16711746
0.7178265 -1.3267825 3.1193821 16711746
0.8817322 -1.3141419 3.1752961 16711746
0.8647627 -1.6029328 3.7208319 16711746
1.2493687 -1.4555438 3.4774444 16711746
1.1720067 -1.6106778 3.8619764 16711746
1.1427376 -1.6616973 4.0104446 16711746
