# .PCD v.7 - Point Cloud Data file format
VERSION .7
FIELDS x y z rgb
SIZE 4 4 4 4
TYPE F F F F
COUNT 1 1 1 1
WIDTH 427
HEIGHT 1
VIEWPOINT 0 0 0 1 0 0 0
POINTS 427
DATA ascii

 0.0135330 -0.0454953 -0.0100546 16777215
 0.0022830 -0.0056431 0.0045691 16777215
-0.9437031 0.3028748 2.9562778 16711746
-0.8424598 0.2135278 2.5952556 16711746
-0.9158637 0.2242917 2.6380687 16711746
-1.6483352 -0.2168125 2.1061323 16711746
0.7214087 -0.6869949 4.5977879 16711746
0.3423728 -0.3792855 3.7600000 16711746
-1.9008677 0.4512256 1.8749852 16711746
-2.6907239 0.5549724 2.4419689 16711746
0.1191534 0.7012851 2.8196216 16711746
0.1519973 0.8287096 3.5378606 16711746
0.7545528 0.8604451 3.7344880 16711746
0.5331961 0.6867300 3.0187285 16711746
0.5157635 0.5543395 2.5973303 16711746
1.6457310 -0.0249361 4.4177499 16711746
-0.3673721 0.6527736 2.7126963 16711746
-0.4740731 0.6475776 2.7915301 16711746
-0.9816723 0.2613448 2.5023987 16711746
-1.0680612 0.2271159 2.7159767 16711746
-0.0140401 0.5094708 2.8932834 16711746
1.4836106 0.7863235 2.6176882 16711746
1.0964913 -0.1263562 2.7647314 16711746
0.2814667 0.4579987 3.7523654 16711746
0.1244867 0.3724174 3.0503938 16711746
-0.6240712 0.2608310 2.5074079 16711746
-0.3875692 0.6859743 2.5457506 16711746
-1.2515243 -0.3789083 2.5541062 16711746
3.7219548 0.1122725 2.7659938 16711746
0.1522041 -0.9444929 2.8925149 16711746
0.2638314 -1.1423137 3.3222780 16711746
1.8927009 0.8902799 3.0833671 16711746
0.5265734 0.4160159 3.4457088 16711746
0.8752931 0.4327003 4.1957064 16711746
-1.5150014 -0.0540534 2.2560210 16711746
-0.9463068 -0.3383001 3.3941469 16711746
-0.7994034 -0.3395864 2.9566879 16711746
0.2245871 0.6423159 3.3792720 16711746
0.3941365 -0.0398964 3.3240280 16711746
-0.7499893 0.2453642 2.8007464 16711746
-0.7932789 0.4762668 2.5106909 16711746
-1.3996279 0.7769603 4.2518706 16711746
-0.6283715 0.5139735 2.4327242 16711746
-0.8676059 0.6287203 3.0685160 16711746
-2.1263227 -0.1018796 2.3862133 16711746
-0.4893298 0.5732653 2.7811348 16711746
-0.6241410 0.5340968 2.6662073 16711746
-0.6889674 0.4995179 2.8935463 16711746
0.6781154 -0.8983710 4.3853517 16711746
-0.9286444 -0.4184273 3.2815058 16711746
-0.7070091 0.3998690 3.1066151 16711746
-0.5036865 0.3349000 2.9356878 16711746
1.8276798 0.2841708 4.3516073 16711746
-0.7919780 -0.5022175 3.0616872 16711746
-0.9106646 -0.6537055 3.5426099 16711746
1.4160323 0.2596685 3.3442268 16711746
1.7010213 0.4115714 4.7008328 16711746
-0.8616149 -0.6522884 3.4973941 16711746
-1.0030506 -0.7160110 3.5434744 16711746
-0.8150740 -0.6893690 3.4000478 16711746
1.8424399 0.2975622 2.8811169 16711746
2.7541475 -1.4805579 3.7718256 16711746
0.8160794 0.0052951 2.9354098 16711746
1.0002707 -0.0534434 3.6819658 16711746
0.9105644 -0.0551270 3.7996287 16711746
-1.2964448 0.3137693 2.8788540 16711746
0.8316609 0.7323934 2.8957298 16711746
0.0537306 0.2635634 3.0638373 16711746
-0.0616440 0.3703981 4.1076536 16711746
1.4463813 0.8847370 2.7381060 16711746
1.3539184 0.9417780 2.9854167 16711746
1.3469622 0.8855418 2.9815223 16711746
0.1806839 0.7760360 2.2571487 16711746
0.8677199 0.1042892 3.1797287 16711746
1.0094973 0.0825415 3.7663846 16711746
-1.9145656 0.8917784 2.2782338 16711746
-1.8048825 0.8143758 2.2253735 16711746
-1.1288623 -1.1870302 2.6696563 16711746
-0.6561996 0.4444864 2.8473997 16711746
-0.7743180 0.5517310 3.9579761 16711746
1.1484203 0.3870776 3.7631342 16711746
1.1494828 0.3230354 3.7253649 16711746
-1.8381746 -0.2641132 2.0851862 16711746
0.7383284 0.9064404 3.7810948 16711746
0.9773648 0.8214188 2.6649282 16711746
0.7341535 0.6814028 2.3327079 16711746
0.9338920 0.7749009 2.7331541 16711746
1.0391688 0.9016318 3.2787223 16711746
2.8476646 -1.3270448 3.7654667 16711746
-0.8982328 0.1422197 3.8105719 16711746
-0.9078140 0.0464164 3.7426455 16711746
-0.5101172 0.0411378 2.7714236 16711746
-0.3779805 -1.5424271 3.1712210 16711746
2.6908844 -1.9069681 3.5390527 16711746
0.1529759 0.7274181 2.5138168 16711746
0.1413853 0.6090038 2.2800000 16711746
-2.0060272 -0.2247192 3.1419048 16711746
-0.5294253 0.0115315 3.3949082 16711746
1.6026181 -0.3383566 4.2033358 16711746
-0.2006717 -1.1573074 3.8999252 16711746
-0.3150546 -1.0554303 3.5893810 16711746
0.6225676 -0.2612548 2.9428329 16711746
3.3589165 -0.7566507 3.4061918 16711746
2.9682169 -1.2063609 3.6944737 16711746
0.9958886 -1.1975002 4.2015657 16711746
0.8164597 -0.1429242 3.8556437 16711746
0.5757871 -0.1268824 3.0829244 16711746
0.9231697 0.7283722 2.7414899 16711746
0.7266937 0.5536720 2.3314106 16711746
2.3678844 -0.1644170 3.3192751 16711746
2.9711056 -1.6064190 3.4225430 16711746
0.7051524 -1.1021572 4.0540218 16711746
-0.4370870 -1.0204117 3.8063841 16711746
0.4448359 -1.2182099 4.2440610 16711746
-1.7250112 -0.6271850 2.6900375 16711746
1.2563649 0.7065784 2.8751965 16711746
1.8725423 0.3632030 2.8553910 16711746
-0.6761026 -0.4473885 3.5824990 16711746
-0.6931449 -0.4989994 3.5378947 16711746
-0.4152523 -0.0825355 3.2246239 16711746
-0.3388503 -0.1159518 2.5501707 16711746
-0.5197144 -0.1351117 3.2624938 16711746
-1.4643667 -0.6649245 3.0179067 16711746
0.8075201 0.8908466 2.9790323 16711746
0.7234473 0.9304613 3.1348271 16711746
0.5758700 0.7134714 2.5519223 16711746
-0.5796849 -0.8533567 2.2455363 16711746
-0.3781499 -1.0017378 2.8378310 16711746
-1.9724542 -0.3888932 2.5116189 16711746
-1.6485293 -0.3791366 2.1815920 16711746
-0.5524291 0.2618739 2.9329293 16711746
-0.5812752 0.2394866 3.2445567 16711746
1.4460160 -0.3065031 4.5125022 16711746
1.4078302 -0.3398233 4.5487757 16711746
1.1159474 0.3733111 2.9767947 16711746
1.4973013 0.3897275 3.5442760 16711746
-1.0000956 -0.2848477 3.4997180 16711746
-0.3237189 -0.8902189 3.0173621 16711746
0.9202654 -0.1302151 3.7280831 16711746
0.8763006 -0.1568743 3.7643635 16711746
0.2679013 -1.2012825 3.2086270 16711746
-0.3220774 -1.3380502 2.9456499 16711746
3.0155227 -1.3090234 3.5615573 16711746
1.5341997 -1.4738456 3.1791399 16711746
-0.5134100 -1.0221834 2.9230351 16711746
-0.9915943 -0.7714264 3.4474003 16711746
-0.9057312 -0.1866087 4.0655503 16711746
-0.9023421 -0.1961200 3.5144134 16711746
0.5943582 -0.9570850 4.4277520 16711746
0.0960521 -1.3771732 3.0214670 16711746
2.5467944 0.5696248 3.1252451 16711746
-0.7250651 -0.3710054 3.7119291 16711746
-0.8348623 -0.4433608 3.7352877 16711746
-0.7516195 0.2110065 3.0371685 16711746
-0.8516904 0.1292282 3.0500948 16711746
0.4527951 -1.1057622 3.1777191 16711746
-0.4553325 -0.2428510 3.5926654 16711746
-0.3167008 -0.2379682 3.0077610 16711746
-0.4282666 -0.2514981 3.0797846 16711746
-0.5879891 -1.3267940 3.3538380 16711746
-0.5522065 -1.3370179 3.2733340 16711746
-1.6830442 -0.0384462 2.3232551 16711746
0.9096893 0.8054765 3.4588063 16711746
0.9190866 0.7215840 3.4109128 16711746
0.8377122 0.7188090 3.5387599 16711746
3.5578661 -0.6523989 3.1796470 16711746
1.0931807 0.2646535 3.7693219 16711746
0.9624011 -0.3267446 4.6399741 16711746
1.9177544 0.2100792 2.7197249 16711746
-2.1150398 -0.3830478 2.3323379 16711746
0.0676533 -1.1039305 3.0670366 16711746
-0.6231893 0.1148779 2.8929520 16711746
-0.5681772 -0.5431172 3.3704727 16711746
1.3226384 0.9437007 3.0617175 16711746
1.0084157 0.6035599 3.2251973 16711746
0.9313885 0.5882811 3.3366022 16711746
1.3312712 0.7100237 2.9502954 16711746
1.5289266 0.7346625 3.6893799 16711746
1.6445243 1.0074133 3.5968239 16711746
0.0435598 0.5909881 2.8661010 16711746
0.4180186 0.5910502 2.7258155 16711746
0.5179737 0.5771058 3.0052514 16711746
0.4383698 0.5864436 3.1034517 16711746
0.3778048 0.7794886 2.8233345 16711746
0.3420519 0.7715776 3.2815998 16711746
1.9299724 0.3501366 4.2235894 16711746
0.9241596 0.4763524 4.1481361 16711746
1.5864407 0.5544539 3.4702368 16711746
1.1196185 0.4701144 3.0087175 16711746
0.1599298 0.3735460 3.8489592 16711746
0.0834795 0.2446285 3.8571916 16711746
0.3939567 0.2724149 3.5227010 16711746
0.6641088 0.2219000 3.2003806 16711746
0.4496683 0.2141563 4.6972275 16711746
0.2013117 0.5640359 3.9020901 16711746
0.0610929 0.3682473 2.7723887 16711746
2.4448493 0.9240074 3.7809765 16711746
1.9730997 0.5736627 2.5469701 16711746
1.9141122 0.9609413 3.0529048 16711746
1.5555136 0.6653377 2.4078050 16711746
2.5225418 1.0196774 2.8656890 16711746
3.3351140 0.2868004 2.7448936 16711746
2.3705270 0.5882791 3.6819520 16711746
0.7080997 1.1356976 2.1423066 16711746
0.5574328 1.0158916 2.2145772 16711746
0.8242179 1.0062501 1.8519078 16711746
1.2402867 1.1216542 2.2775621 16711746
0.9298667 1.0891883 2.1405256 16711746
0.1388646 1.0376779 2.2989326 16711746
0.4172572 1.2050383 2.4326434 16711746
0.3966233 1.2102004 2.1431816 16711746
0.8755012 1.0000501 2.8804810 16711746
0.8563287 1.0349114 2.9221263 16711746
0.8613791 0.9127776 2.8893511 16711746
1.4267012 1.0043702 2.8232903 16711746
0.8584310 1.0651591 2.3199248 16711746
0.8319545 0.9812422 2.3817236 16711746
0.9458406 1.0644878 2.3644972 16711746
1.2200513 0.9387462 2.3388331 16711746
0.0677344 1.0996171 3.3007257 16711746
0.1848243 0.8726540 2.7745869 16711746
0.4052261 0.8352001 2.7985103 16711746
0.0914999 0.9574470 2.3632443 16711746
-0.0612065 0.8711162 2.1225379 16711746
0.2030170 0.8251160 2.2323487 16711746
0.4687047 1.0476432 2.3620386 16711746
0.3752828 1.0183215 2.5111349 16711746
0.4099894 0.9594266 2.4572260 16711746
1.5663726 1.3864118 2.7415969 16711746
1.2938900 1.2020881 2.0142436 16711746
2.5186017 1.1005292 2.5454631 16711746
0.0076265 -0.0029824 2.5357940 16711746
1.5120988 0.9125332 2.5721650 16711746
1.2575181 1.0197492 2.2160146 16711746
2.0069144 1.2588909 2.7647817 16711746
-1.9314960 0.5661038 2.2448428 16711746
-2.0690868 0.6343002 2.7098770 16711746
-1.9124660 0.6767542 2.2240393 16711746
-1.4138802 0.6608027 2.0610774 16711746
-1.6584892 0.7524751 2.1623769 16711746
-1.8218522 0.7071458 2.2051296 16711746
-1.8729773 0.1956262 2.1542935 16711746
-2.0699847 0.2860166 2.6961596 16711746
-2.6085589 0.4964411 2.3915639 16711746
-2.0324752 0.4731863 2.6396701 16711746
-1.8409020 0.3395260 2.4899485 16711746
-2.6885865 0.2802170 2.3751204 16711746
-0.6407123 0.4993862 2.8605270 16711746
-0.2449435 0.5943862 2.6065905 16711746
-0.4632114 0.6835797 3.0880859 16711746
-0.3978549 0.5030079 2.6927242 16711746
-0.4916493 0.6981110 2.6271029 16711746
-0.6710689 0.6354053 2.3508463 16711746
-0.5805274 0.5568736 2.2789340 16711746
-0.2654175 0.8496801 2.9584701 16711746
-1.2152148 0.4816018 2.3404324 16711746
-0.7249299 0.5228688 2.3486836 16711746
-1.1226915 0.6008772 2.5871191 16711746
-0.9723324 0.7227699 2.5461056 16711746
-0.7651110 0.5672459 2.3852158 16711746
-0.2740803 0.2708834 3.0060415 16711746
-0.4524306 0.1746519 2.8187590 16711746
-0.5880074 0.4589452 3.7378991 16711746
-0.8466511 0.0943695 2.1546495 16711746
-1.4113474 0.4302621 2.3922727 16711746
-0.8708815 0.3649068 2.5044053 16711746
-1.7588131 0.5795918 3.9306688 16711746
-2.1757293 1.2453049 1.7766579 16711746
-1.7579336 1.0192317 2.5647097 16711746
-1.5823435 0.9666198 1.8602077 16711746
0.0330238 -0.0098791 2.7439637 16711746
-2.1897266 1.0120523 1.5659696 16711746
-0.7137504 1.3238183 2.1951530 16711746
-0.3683721 1.0888842 1.9223330 16711746
-0.7901683 0.9873596 1.9800396 16711746
-0.5350338 0.8659538 2.5403273 16711746
-0.5195255 0.8800834 2.6848450 16711746
-0.2192056 0.6717128 2.0671408 16711746
-0.3691204 1.0577339 3.3834453 16711746
-0.4418491 0.8880119 2.1305983 16711746
-0.5507297 0.9449660 2.1865184 16711746
-0.5337098 0.9622551 2.5539708 16711746
-0.6946672 0.9480172 2.5227315 16711746
-0.2320962 0.8615934 2.0628645 16711746
-0.2700983 1.0248075 2.7728620 16711746
-0.2732813 0.9187682 2.4795511 16711746
-1.1694278 0.8133522 2.2993817 16711746
-1.5866125 0.9202278 2.4589083 16711746
-1.1343125 0.9603155 2.6755877 16711746
-0.8762926 0.8009976 2.5067778 16711746
-1.0974975 1.0370245 2.2147193 16711746
-0.7817342 0.8475896 2.0794163 16711746
-1.1460891 1.1033849 2.7044170 16711746
0.6558229 -1.3105365 3.7872224 16711746
0.5729958 -1.8307264 3.7533309 16711746
0.5691027 -1.3510333 3.8304393 16711746
0.2988285 -1.2770463 3.0270736 16711746
1.1417222 -0.2544907 4.4507732 16711746
1.8304583 0.0558545 4.1639519 16711746
1.0282203 -0.0095686 2.3510334 16711746
0.2078750 -0.2347390 3.3560553 16711746
-0.0100300 -0.3561213 4.1842694 16711746
0.3550375 -0.0719364 2.6349530 16711746
0.5205449 -0.2565149 3.6819150 16711746
0.2631091 0.0279011 3.5093203 16711746
-0.1216104 -0.0130817 3.8940544 16711746
0.8383379 0.1141089 4.0288563 16711746
0.7466630 -0.0133286 4.0600357 16711746
1.0374501 -0.3108025 3.4393497 16711746
0.8740878 -0.3775887 3.5777833 16711746
1.4047792 -0.4466329 3.1320581 16711746
-0.0519368 -0.3860335 4.2032428 16711746
-0.0093834 -0.4888928 4.0407338 16711746
2.0119965 -0.3912276 3.5777459 16711746
-0.3776127 -0.9292864 3.8862135 16711746
-1.9045414 -0.1455721 2.0515122 16711746
-2.2335789 0.0553698 2.5797477 16711746
-2.5153348 0.0135020 2.6251168 16711746
-2.3449688 -0.0582817 2.0270350 16711746
-1.9794052 -0.3261276 3.0229361 16711746
-0.9241769 -0.3168045 3.9570594 16711746
-0.4743704 0.0407237 3.8432012 16711746
-0.4005884 0.0230413 4.2374892 16711746
-1.9485600 -0.1219626 3.2018383 16711746
-1.3428088 -0.1419273 3.9418571 16711746
-1.2766645 -0.2737438 3.7437830 16711746
-2.0430124 -0.0597469 3.3050935 16711746
-0.9324668 0.0740839 3.0627468 16711746
-1.5037922 0.0283194 3.3951874 16711746
-1.1126977 -0.0100147 3.4719501 16711746
-1.1129915 -0.0565545 2.5328867 16711746
-1.4039785 -0.3965885 3.3274817 16711746
-1.4099673 -0.4462891 3.2743354 16711746
0.0992377 -0.1243882 0.0137507 16711746
0.0562411 -0.0806476 -0.0113893 16711746
0.4757924 -0.8078640 0.3211308 16711746
0.0727022 -0.0945819 -0.0034572 16711746
0.2097630 -0.3144861 0.1033646 16711746
0.2395733 -0.3581651 0.1282105 16711746
0.0638880 -0.0867175 -0.0084484 16711746
0.0684001 -0.1207889 0.0760525 16711746
0.1145506 -0.1442216 0.0256347 16711746
0.1365469 -0.1798942 0.0457009 16711746
0.1000893 -0.1252915 0.0139583 16711746
0.2063478 -0.1303510 0.0707965 16711746
0.2310427 -0.3466196 0.1243162 16711746
0.2174459 -0.3347663 0.1198666 16711746
0.2187121 -0.3285299 0.1082513 16711746
0.1770783 -0.2565047 0.0764435 16711746
0.1306747 -0.1767176 0.0392467 16711746
0.1413832 -0.1856634 0.0474980 16711746
0.0898131 -0.1144935 0.0069009 16711746
0.4367145 -0.7787095 0.2907957 16711746
0.5811473 -0.9741337 0.3816054 16711746
0.5279971 -0.8966950 0.3578417 16711746
0.0572075 -0.0805848 -0.0115316 16711746
0.0643454 -0.0874858 -0.0081379 16711746
0.1410340 -0.1828303 0.0482524 16711746
0.0734303 -0.0953582 -0.0033821 16711746
0.2070564 -0.3122798 0.1016380 16711746
0.1873280 -0.4658150 0.4732043 16711746
0.1301624 -0.1754322 0.0389553 16711746
0.1637942 -0.2231191 0.0677641 16711746
0.6431977 -1.0343430 0.2552276 16711746
0.0487383 -0.0596506 -0.0146213 16711746
0.1482331 -0.1896927 0.0471781 16711746
0.0800401 -0.1093507 -0.0087471 16711746
0.2355350 -0.3212125 0.1208743 16711746
0.0760178 -0.1013103 -0.0028019 16711746
0.0574787 -0.0771190 0.0216274 16711746
0.1501142 -0.3606308 0.3429635 16711746
0.0648301 -0.0879093 -0.0081235 16711746
0.0568876 -0.0799632 -0.0115635 16711746
0.1736433 -0.2519443 0.0744734 16711746
0.2385749 -0.3544335 0.1271649 16711746
0.1300494 -0.1617233 0.0379894 16711746
0.5458661 -0.9764780 0.3735513 16711746
0.0979263 -0.1233563 0.0134715 16711746
0.1727558 -0.2492277 0.0746834 16711746
0.2249429 -0.3514575 0.1236080 16711746
0.3154134 -0.5040120 0.1963913 16711746
0.2421412 -0.3780455 0.1327290 16711746
0.0699198 -0.0998290 0.0279390 16711746
0.0770439 -0.1031489 -0.0026152 16711746
0.1367604 -0.1865966 0.0534065 16711746
0.0561526 -0.0800742 -0.0111910 16711746
0.2293319 -0.3468565 0.1252173 16711746
0.4347344 -0.7425193 0.2931379 16711746
0.1312907 -0.1769149 0.0399064 16711746
0.1439541 -0.2050101 0.0501042 16711746
0.0715434 -0.0905709 -0.0058337 16711746
0.0788122 -0.1024314 -0.0037912 16711746
0.0893513 -0.1146098 0.0069036 16711746
0.0755901 -0.1010396 -0.0014882 16711746
0.1737830 -0.2351089 0.0761011 16711746
0.1846213 -0.2589576 0.0906740 16711746
0.2497166 -0.3765406 0.1370337 16711746
0.2756290 -0.4342399 0.1551440 16711746
0.4379948 -0.7410970 0.2650126 16711746
0.1522825 -0.2082414 0.0585833 16711746
0.1683806 -0.2295826 0.0641713 16711746
0.1596278 -0.2342930 0.0650642 16711746
0.0721975 -0.0904964 -0.0054320 16711746
0.0728006 -0.0922659 -0.0059425 16711746
0.0664525 -0.0906022 -0.0068352 16711746
0.0742916 -0.1010604 -0.0043310 16711746
0.1637072 -0.2422817 0.0739127 16711746
0.1303378 -0.1704781 0.0396108 16711746
0.1489191 -0.2121272 0.0517854 16711746
0.1263246 -0.1581958 0.0370273 16711746
0.4704055 -0.7910308 0.3120026 16711746
0.1158689 -0.1611145 0.0290054 16711746
0.0792406 -0.1059507 -0.0016717 16711746
0.0713546 -0.0954971 -0.0011551 16711746
0.0904483 -0.1163309 0.0071791 16711746
0.0785038 -0.1048479 -0.0017209 16711746
0.0703712 -0.0954555 -0.0041510 16711746
0.4692219 -0.8448061 0.3215669 16711746
0.2912761 -0.4593747 0.1672611 16711746
0.2365387 -0.3601272 0.1337284 16711746
0.0622483 -0.0812128 -0.0089008 16711746
0.1602290 -0.2162771 0.0682129 16711746
0.1332362 -0.1712245 0.0392496 16711746
0.1499940 -0.2076793 0.0568074 16711746
0.1309817 -0.1780486 0.0405028 16711746
0.1218025 -0.1663268 0.0303955 16711746
0.0677335 -0.0915165 -0.0087274 16711746
