# .PCD v.7 - Point Cloud Data file format
VERSION .7
FIELDS x y z rgb
SIZE 4 4 4 4
TYPE F F F F
COUNT 1 1 1 1
WIDTH 1182
HEIGHT 1
VIEWPOINT 0 0 0 1 0 0 0
POINTS 1182
DATA ascii
1.2805283 -1.4413145 4.1727133 16711746
2.2373283 -2.9366517 5.1364298 16711746
1.9325463 -1.8742896 4.6910043 16711746
0.7347129 -1.6407028 4.5305405 16711746
1.7059547 -1.2684865 4.7224460 16711746
1.6299396 -2.3274920 5.2970243 16711746
1.6008866 -2.0521369 5.3976727 16711746
1.6221113 -1.1607571 4.7485514 16711746
1.5144488 -2.1538889 5.2705407 16711746
1.1602508 -1.4498237 4.3265934 16711746
1.0093720 -1.6265187 4.3777466 16711746
-0.1201707 -0.8596164 3.9877639 16711746
0.8764504 -1.6419188 4.4357643 16711746
4.7786450 -4.6351600 8.1474218 16711746
2.3097093 -1.1851645 4.4058652 16711746
2.8801749 -1.4183458 5.3807592 16711746
5.7970343 -4.0569372 9.5898924 16711746
4.1654024 -3.7525368 7.5284734 16711746
0.1575289 -1.3624537 4.4050770 16711746
-0.6976129 -1.6905702 4.1908932 16711746
-0.1265157 -1.1377010 4.2996907 16711746
-0.3446464 -1.9496301 5.0304933 16711746
1.3994418 -2.2405069 5.1632605 16711746
2.8548956 -3.3054402 7.4895639 16711746
2.8281143 -2.4159679 6.5867767 16711746
2.3436348 -1.3938553 5.3145976 16711746
3.4235942 -3.0883217 7.1121402 16711746
0.2624630 -1.6088461 4.5501814 16711746
-1.1608442 -3.5021715 5.8433046 16711746
2.7730002 -2.6490946 4.4661145 16711746
11.1872120 -8.4652443 14.1551418 16711746
0.0469399 -1.1503874 3.9839516 16711746
-2.5685320 -7.5395241 6.9390097 16711746
2.4383354 -3.7529953 7.1222696 16711746
0.3936004 -1.2652743 3.9228375 16711746
-0.8028746 -2.1204982 5.2489567 16711746
2.7698934 -1.3883315 5.7236834 16711746
1.9141884 -2.2061567 5.6979885 16711746
0.2832413 -1.2525241 4.0119581 16711746
0.3056318 -1.7026266 4.6438599 16711746
4.5425558 -4.4892707 5.9841905 16711746
0.3358322 -1.5240718 3.9667037 16711746
0.9250371 -1.6069547 3.7837143 16711746
11.4924316 -9.5608158 12.9862995 16711746
1.3663887 -1.8685699 3.6341298 16711746
1.0340412 -3.4256651 5.6966925 16711746
0.0960987 -1.3772250 4.1701851 16711746
-0.0050609 -1.0975267 4.0550556 16711746
0.6578645 -1.3032330 3.8952549 16711746
0.6757831 -1.5370269 4.3196139 16711746
0.2978767 -1.9341604 4.2877226 16711746
0.4276119 -1.5193988 4.4246249 16711746
0.2807982 -1.2887647 4.1171684 16711746
-0.2211332 -1.0140544 4.0384688 16711746
-0.2183246 -0.9999533 4.0334888 16711746
-0.0218244 -1.1560487 4.2956109 16711746
0.5037983 -1.3573353 4.2736201 16711746
0.8249506 -1.3478723 3.6927681 16711746
-0.0989250 -1.1877084 4.3615241 16711746
0.1001827 -1.1067464 4.1248670 16711746
0.4277978 -1.1414504 3.9544170 16711746
0.3147521 -1.0571015 3.9060106 16711746
-0.0595830 -0.8920841 4.1454010 16711746
-0.1226780 -1.1920373 4.3090067 16711746
-0.1487932 -1.1524665 4.2946763 16711746
1.3199260 -1.6260344 4.3409400 16711746
1.2109241 -1.5433748 4.3038845 16711746
1.9570029 -2.4446473 5.0861826 16711746
2.5483606 -1.5092088 5.1108770 16711746
3.9542780 -1.8317940 6.1549945 16711746
-0.1284882 -1.0317293 4.2010741 16711746
3.1503797 -3.1291528 6.4483218 16711746
4.1164365 -2.5432975 6.4225740 16711746
0.3797905 -1.5518708 3.9864795 16711746
0.9121150 -2.1236644 5.2804294 16711746
1.2063336 -2.2866642 4.4037089 16711746
1.4520048 -5.1201119 7.6376452 16711746
0.3552874 -0.8667304 3.9103270 16711746
0.4727390 -1.2601838 4.0212641 16711746
1.1736695 -2.0090251 5.0127435 16711746
0.5055993 -1.3551316 4.0172625 16711746
0.7226132 -1.4031951 4.2739563 16711746
0.4030961 -1.4046870 4.2275395 16711746
0.4021703 -1.3057189 4.1391015 16711746
0.4396124 -1.3079797 4.0783324 16711746
1.2047064 -1.4692525 4.5193305 16711746
1.4688265 -1.5380305 4.1994033 16711746
0.0480083 -2.0643003 4.2727475 16711746
0.4341735 -1.5778694 4.5014734 16711746
-1.2912565 -2.2995484 4.4387465 16711746
0.7633141 -1.6193304 4.3880701 16711746
-0.0472632 -1.6404380 4.6330094 16711746
0.9671471 -1.4605261 4.3351932 16711746
0.8457369 -1.5195825 4.3110695 16711746
0.4231613 -1.4988008 4.3164625 16711746
0.6479149 -1.7533925 4.5209775 16711746
0.3604203 -1.4028559 4.3287354 16711746
0.2996160 -1.3054572 4.2196980 16711746
0.7020845 -1.6246567 4.5582628 16711746
0.4321249 -1.2255901 3.9937620 16711746
0.6741601 -1.9662789 4.7122812 16711746
1.3002694 -1.9059442 4.7629685 16711746
1.9116549 -2.3710132 5.1538329 16711746
0.6496582 -1.6322198 4.3291197 16711746
0.4127215 -1.3434944 4.1097178 16711746
0.3356010 -1.3392661 4.2492380 16711746
0.7169279 -1.4263983 4.1560583 16711746
0.4105378 -1.3154449 4.1446443 16711746
1.0982534 -1.2630504 4.2948132 16711746
2.1749573 -2.6223478 5.7680793 16711746
0.3571965 -1.2538338 3.9479115 16711746
3.4745092 -6.0611610 4.6385241 16711746
2.6744916 -4.9150715 4.4175239 16711746
1.1616627 -1.5639966 4.4722466 16711746
1.0339611 -1.5150963 4.3635097 16711746
1.0179328 -1.6027809 4.4372516 16711746
0.7327775 -1.7141379 4.5954862 16711746
0.7134219 -1.5189016 4.3539586 16711746
0.6536571 -1.5997343 4.2824965 16711746
0.4578249 -1.3714389 4.1319299 16711746
2.1057935 -1.7803380 4.5764766 16711746
1.1141067 -1.5003313 4.2147727 16711746
0.5338406 -1.3335080 4.0885677 16711746
0.4465523 -1.3864378 4.1154776 16711746
0.8135808 -1.4192865 4.2513638 16711746
0.7011668 -1.5393027 4.2372165 16711746
0.3694034 -1.2805722 4.0532398 16711746
1.3366477 -1.8812490 4.7368150 16711746
1.2686466 -1.2110606 4.2137256 16711746
0.7958387 -1.3472732 4.1791019 16711746
-0.1219362 -0.9214187 4.1885157 16711746
0.7922418 -1.5607989 4.3062944 16711746
0.8141890 -1.4103553 4.2211032 16711746
0.8445597 -1.4400649 4.2820630 16711746
0.9745475 -1.4409075 4.3934922 16711746
0.6268305 -1.1882907 3.8310859 16711746
0.4233805 -1.2694643 3.9971621 16711746
0.4569897 -1.1559533 3.9832599 16711746
0.5157294 -1.1980020 4.0238476 16711746
1.1304923 -1.4265617 4.4938731 16711746
2.8414116 -2.8727942 6.0228100 16711746
3.0463817 -5.5011787 4.3420115 16711746
5.2796292 -6.4531837 10.4529724 16711746
0.5694190 -1.4391227 4.0980716 16711746
0.6034834 -1.5255166 3.9582059 16711746
0.5545757 -1.4391407 4.0431876 16711746
0.0141366 -1.4203135 4.1651516 16711746
0.2337868 -1.5468165 4.3671651 16711746
0.1130696 -1.2520612 4.2417064 16711746
1.9107695 -2.1630130 3.9334052 16711746
0.4599417 -1.4512966 4.3827024 16711746
-0.0776083 -0.7350678 4.0617733 16711746
-0.1177045 -1.6777874 4.4337063 16711746
1.5658460 -1.8269573 5.4222226 16711746
-0.2443373 -1.5122739 4.4609714 16711746
2.0749571 -2.5770919 5.1813941 16711746
2.0641699 -1.5462817 4.7652922 16711746
1.4222075 -1.9389687 5.1011491 16711746
-0.6597950 -2.4216213 4.8194747 16711746
2.1998756 -5.2841048 6.0562849 16711746
1.7006263 -1.7455150 5.2081046 16711746
2.7171557 -2.8035436 6.1689949 16711746
0.9800625 -1.4017314 4.1466498 16711746
0.4774859 -1.3050808 4.2806749 16711746
0.8671962 -1.2526172 4.2259502 16711746
1.2536474 -1.8156787 4.8598642 16711746
0.6108345 -1.5453310 5.0081201 16711746
6.2673192 -4.2064123 10.2465839 16711746
1.5477147 -1.1088151 4.8617644 16711746
0.9610419 -1.3362418 4.3766923 16711746
1.7290252 -6.0790567 8.2834969 16711746
0.6582998 -2.1872308 6.0237231 16711746
0.3925601 -1.7558358 5.4811568 16711746
1.0191462 -1.4273205 4.1583233 16711746
1.2872144 -5.8755631 7.8981218 16711746
-0.1330090 -0.8221112 4.1239409 16711746
0.2341130 -0.8836672 4.4261327 16711746
0.1066540 -0.8472045 4.2967534 16711746
0.3804942 -1.2017567 4.1312885 16711746
-0.0899942 -1.0819203 4.1803756 16711746
0.2401462 -0.9833100 4.0303445 16711746
0.4857604 -1.1967690 4.1673126 16711746
0.5642744 -1.2083104 4.1519217 16711746
0.5709735 -1.2214228 4.2511749 16711746
0.3027626 -1.1470113 4.0514579 16711746
0.6453013 -1.2728783 4.1889391 16711746
0.5470044 -1.1954244 4.1542006 16711746
0.3817981 -1.1294146 4.1601434 16711746
0.1188616 -1.0330224 4.2439237 16711746
2.4647484 -2.9217854 6.3558192 16711746
0.1920846 -1.1248777 4.1195741 16711746
0.2657752 -1.3682734 4.2111969 16711746
0.1367539 -0.9161667 4.3148580 16711746
0.5554733 -1.2493349 4.1824884 16711746
2.6885707 -3.3761063 5.9681034 16711746
-0.3768998 -1.2400253 4.4569635 16711746
-0.2852266 -1.1971544 4.4661932 16711746
0.1776389 -1.6139791 4.9701734 16711746
0.0239496 -1.1988614 4.5589142 16711746
-0.5785492 -2.2680583 4.8735418 16711746
-0.2798861 -1.4397700 4.4667468 16711746
-0.1103654 -0.9491535 4.1522479 16711746
-0.0790380 -1.1675613 4.5500107 16711746
-0.3932298 -1.1689254 4.4923582 16711746
-0.0750767 -1.0581100 4.1518373 16711746
-0.3938100 -1.2170746 4.4876690 16711746
0.0403383 -1.3200947 4.5771351 16711746
-0.5335495 -1.3619599 4.4257789 16711746
-0.6175792 -1.6767024 4.3242588 16711746
0.0521424 -1.2307280 4.6348338 16711746
-0.0778705 -1.2101676 4.5833187 16711746
0.0683742 -1.2448640 4.6531582 16711746
-0.0808053 -1.1529613 4.3064651 16711746
-0.3683525 -1.6729649 4.7732310 16711746
-0.0913439 -1.0844793 4.2774954 16711746
-0.4197990 -1.3645751 4.5722113 16711746
-0.0938718 -0.8867763 4.1519151 16711746
-0.0135307 -1.0299271 4.4104710 16711746
-0.2482491 -1.2579105 4.3697453 16711746
-0.7227097 -1.4330987 4.3424697 16711746
-0.1047167 -0.8512506 4.1752152 16711746
-0.0255072 -1.1222765 4.3381510 16711746
-0.2389122 -1.5907381 4.2360020 16711746
-0.0716299 -1.0516207 4.1642380 16711746
-0.5391296 -1.5547566 4.7683330 16711746
-0.6799476 -1.3775246 4.9137106 16711746
0.0440857 -1.1624357 4.5996017 16711746
0.1552246 -1.0746988 4.5300741 16711746
-0.7463791 -1.8205644 4.6219420 16711746
-0.1412315 -1.4722522 4.2135644 16711746
0.0080575 -1.0610744 4.3395576 16711746
-0.0976587 -0.7482719 4.1067872 16711746
-0.0700611 -0.8372931 4.1353545 16711746
0.2192563 -1.6948422 4.5556707 16711746
-0.2861215 -1.0640619 4.2945733 16711746
-0.1551484 -1.0355512 4.2757673 16711746
0.0672863 -1.4687715 4.5267730 16711746
-0.3807440 -1.3682647 4.4270587 16711746
-0.6587605 -1.3418579 4.3133988 16711746
-0.3328675 -1.1259587 4.2193780 16711746
-0.6601487 -1.3642969 4.7081099 16711746
-0.4624911 -1.1137888 4.4916205 16711746
-0.0999669 -0.7854692 4.1542668 16711746
-0.4820717 -1.6628234 4.4110746 16711746
0.0136534 -1.2203504 4.3174291 16711746
-0.0738563 -0.8838860 4.1767659 16711746
0.1767801 -1.7681732 4.5000811 16711746
0.1361802 -1.4936018 4.7705507 16711746
0.0591310 -1.3870580 4.4646988 16711746
-0.0881689 -0.8242689 4.1773148 16711746
-0.0970132 -1.0846437 4.2782555 16711746
-0.0976323 -1.1256485 4.2707939 16711746
-0.3027435 -1.2893866 4.2415028 16711746
-0.6203529 -1.6721020 4.3550882 16711746
-0.0370754 -0.8835483 4.1675558 16711746
-0.1165147 -0.8425835 4.1198153 16711746
0.4628291 -1.1697938 4.8229685 16711746
0.2738119 -1.5074991 4.6564021 16711746
-0.0450821 -0.9311002 4.2673731 16711746
0.8538435 -2.1784284 5.4391136 16711746
0.2908367 -1.2460542 4.8579259 16711746
-0.3970845 -1.2613168 4.4721251 16711746
0.3093940 -2.1601734 4.5932522 16711746
0.2507676 -1.0163831 4.4197254 16711746
0.0230192 -0.8000723 4.0725017 16711746
-0.1232929 -0.7670934 4.1685581 16711746
-0.1828086 -1.3249466 4.1855421 16711746
-0.5885680 -1.6049371 4.4375110 16711746
-0.1870001 -1.0032066 4.3214655 16711746
-0.4833183 -1.5217203 4.3643775 16711746
-0.0867842 -0.7946784 4.0913343 16711746
-0.8843591 -1.7813755 4.3896832 16711746
-0.1822392 -1.0451375 4.3108788 16711746
-1.1067253 -1.8614972 4.6322188 16711746
-0.0171904 -1.0620176 4.3106079 16711746
-0.6050647 -1.7061975 4.4819851 16711746
-0.0829497 -0.9853882 4.3806553 16711746
-0.6536835 -1.5969808 4.4823532 16711746
-0.5468511 -1.4978065 4.3162293 16711746
-0.2963991 -1.6625768 4.3350043 16711746
-0.0553714 -0.8720906 4.1438999 16711746
-0.1856479 -0.9468486 4.2872410 16711746
-0.1932521 -1.5749232 4.2476988 16711746
-1.1488578 -1.8248891 4.5838814 16711746
-0.8414863 -1.4699360 4.3447065 16711746
-0.1447657 -0.9765367 4.2899790 16711746
-0.6732262 -1.7978933 4.5382667 16711746
-0.5053079 -1.4409877 4.3828182 16711746
-0.2720930 -1.1854163 4.4396110 16711746
-0.3867598 -1.7941060 4.4090433 16711746
-0.5339381 -1.6601574 4.2783442 16711746
-0.7866405 -1.4237262 4.4416828 16711746
-0.2797216 -1.0383049 4.2452245 16711746
-0.4589611 -1.4733212 4.3320994 16711746
0.3351116 -1.1015435 4.4801583 16711746
-0.8291520 -1.5321834 4.2987075 16711746
-0.1158059 -0.7005446 4.1179705 16711746
-0.1506691 -1.0887749 4.2973680 16711746
-0.5517110 -1.5216821 4.4081922 16711746
-0.4452939 -1.3005784 4.5931759 16711746
-0.5259684 -1.4444776 4.3046637 16711746
-0.8982522 -1.7302736 4.6162243 16711746
-0.3287616 -1.5049652 4.4043851 16711746
-1.0988021 -2.0379913 4.7597928 16711746
-0.9870672 -1.6701475 4.5822592 16711746
-1.0520035 -1.7864026 4.6002231 16711746
-0.1722607 -0.8020359 4.1474209 16711746
-0.0558767 -0.6748775 4.1158719 16711746
0.7699342 -1.2820922 4.1370592 16711746
0.6917021 -1.2138524 4.1061816 16711746
3.4811761 -2.7090588 5.5345201 16711746
-0.0074347 -0.7817281 4.2018189 16711746
1.1153754 -2.5374184 4.9910169 16711746
0.2221251 -0.8863230 4.1070752 16711746
0.5145414 -1.1804200 4.0378881 16711746
2.1951401 -1.9840844 4.0554538 16711746
0.1911884 -0.8478544 4.0959082 16711746
1.4688935 -1.6502683 4.1103563 16711746
0.9765121 -1.5313673 4.1638179 16711746
-0.2559840 -1.2045127 4.3899593 16711746
-0.7532323 -1.7983489 4.5667443 16711746
-0.2510273 -1.0851268 4.3755584 16711746
-0.1302817 -1.0867550 4.3537817 16711746
0.4187360 -1.0990627 4.0046864 16711746
-0.0629030 -0.7987931 4.1196427 16711746
-0.1266024 -0.6813749 4.0971127 16711746
-0.1411163 -0.8129711 4.1555891 16711746
-0.0246977 -0.9341107 4.2640820 16711746
-1.0080981 -1.8389926 5.1206775 16711746
-0.2017391 -0.9934253 4.3366022 16711746
-0.6166971 -1.6724924 4.4616036 16711746
-0.4234360 -1.1993389 4.4750285 16711746
-0.6248404 -1.3197724 4.6702538 16711746
-0.4056582 -1.3488958 4.3825769 16711746
-0.1517273 -1.1342973 4.2971740 16711746
-0.4765541 -1.5207576 4.3456464 16711746
-0.1491915 -0.8768554 4.3258295 16711746
-0.1801540 -0.8927695 4.3019900 16711746
-0.1490397 -0.8854917 4.2970657 16711746
-0.0859309 -1.0943462 4.1510177 16711746
-0.1537784 -0.8715205 4.3555441 16711746
0.1217650 -0.9678609 4.1015682 16711746
-0.1571799 -0.7946311 4.2778935 16711746
-0.0452029 -0.8549084 4.1129670 16711746
-0.1481955 -0.9848372 4.3696685 16711746
-0.1501379 -0.9702410 4.4555688 16711746
-0.1529074 -0.9159774 4.3130493 16711746
-0.1878754 -0.9118054 4.4084063 16711746
-0.2524238 -1.1496961 4.3735218 16711746
-0.2202479 -1.0824335 4.4085984 16711746
-0.6140969 -1.3549743 4.2739253 16711746
-0.1855891 -1.0250894 4.3330479 16711746
-0.2200205 -1.0099361 4.2850099 16711746
-0.2326206 -1.2731781 4.7992711 16711746
-0.1871915 -1.0210633 4.2603159 16711746
-0.1857472 -1.1776607 4.3731852 16711746
-0.7711760 -1.5760988 4.4418159 16711746
-0.1371298 -1.1584977 4.4438806 16711746
-0.1855173 -0.9974418 4.2498503 16711746
-0.1486870 -0.9802518 4.2889414 16711746
-0.1560801 -1.0882252 4.3340640 16711746
-0.2694218 -1.1624928 4.6242137 16711746
-0.1893451 -1.3242563 4.3886471 16711746
-0.0262464 -0.9219727 4.1498404 16711746
-0.7356457 -1.5237404 4.4193435 16711746
-0.3214516 -1.1273781 4.5190668 16711746
-0.2171174 -1.4895965 4.3770170 16711746
-0.1681973 -0.9787400 4.3282204 16711746
-0.2243084 -1.0793192 4.3869414 16711746
0.0258814 -1.1188370 4.1802559 16711746
0.3200856 -1.3244606 4.0377579 16711746
-0.3657162 -1.2194189 4.4248996 16711746
0.5397610 -1.7834470 4.5711222 16711746
-0.1704834 -0.9888387 4.2311268 16711746
-0.1780581 -0.9606072 4.3299818 16711746
1.3046495 -1.5434242 4.1621532 16711746
-0.2288647 -1.1328470 4.4232025 16711746
-0.1749139 -0.8853202 4.1936617 16711746
-0.1547137 -0.8937465 4.2561045 16711746
-0.1943806 -0.9794492 4.3182077 16711746
-0.1774028 -0.9163918 4.3016977 16711746
-0.1358259 -0.9111398 4.2360477 16711746
-0.4813397 -1.4615766 4.6012683 16711746
-0.1083827 -0.8436891 4.2078156 16711746
0.0433938 -0.9152766 4.1247983 16711746
0.0024866 -0.8835310 4.1181235 16711746
-0.2185230 -0.9753144 4.2766991 16711746
-0.1861110 -1.0289233 4.3369694 16711746
-0.1609016 -1.1716413 4.3053737 16711746
-0.1704216 -1.0705050 4.2869759 16711746
-0.1428339 -0.9960089 4.2167840 16711746
-0.0069770 -0.8902283 4.1956320 16711746
-0.1510813 -0.8839639 4.2046175 16711746
-0.0226572 -0.9077642 4.1687450 16711746
-0.1869578 -0.9660052 4.2092872 16711746
-0.0566486 -1.0879283 4.3163471 16711746
-0.0697630 -0.9017324 4.1609001 16711746
-0.0469039 -1.1273953 4.3288989 16711746
-0.2600134 -1.1167822 4.3019023 16711746
-0.1120076 -0.8340901 4.2118325 16711746
0.0973748 -0.9462639 4.1698809 16711746
-0.1949013 -1.0343447 4.4067130 16711746
0.1434081 -1.0083526 4.1758709 16711746
0.1338541 -0.8651592 4.1946330 16711746
-0.1408675 -1.0362179 4.2307854 16711746
0.0485897 -0.9966560 4.2304378 16711746
0.0118542 -0.9056935 4.1693053 16711746
-0.1953816 -1.0244167 4.4021721 16711746
-0.3825243 -1.1066167 4.3932633 16711746
-0.1445279 -1.6378373 4.5249028 16711746
-0.1847020 -1.0854224 4.3294816 16711746
-0.2116553 -1.0109116 4.2694988 16711746
-0.0841360 -0.8512972 4.1710234 16711746
0.4999708 -2.4418476 5.2863803 16711746
-0.7283334 -1.5187670 4.4283924 16711746
-0.2310260 -1.2038521 4.3644958 16711746
-0.1924363 -1.0031511 4.2712245 16711746
2.7741032 -2.9084682 6.0992508 16711746
-0.9454994 -1.6897415 4.5110316 16711746
-0.7863729 -1.7448208 4.4838767 16711746
-0.3942625 -1.1424385 4.4371085 16711746
-0.7418116 -1.4213610 4.4182377 16711746
-0.1757412 -0.8759401 4.2749672 16711746
-0.3929716 -1.5444983 4.4610200 16711746
1.0353298 -1.7958573 4.2226515 16711746
-0.4594879 -1.3924681 4.4262047 16711746
-0.5140277 -1.7703111 4.4412875 16711746
-0.3226533 -1.2667902 4.3766928 16711746
-0.2442575 -1.8576790 4.4359388 16711746
-0.5828296 -1.5283340 4.4688840 16711746
-0.4454095 -1.8571414 4.4195027 16711746
-0.8406175 -1.9617295 4.5560813 16711746
-0.5488997 -1.3955607 4.4728746 16711746
-0.2802785 -1.3507693 4.3717179 16711746
-0.4875339 -1.6879234 4.4150414 16711746
-0.5088420 -1.3229784 4.4381146 16711746
-0.8204865 -1.7907156 4.7427034 16711746
-0.3604465 -1.2102504 4.4293075 16711746
1.1990145 -1.8817837 4.0097957 16711746
-0.5600535 -1.3549364 4.5139413 16711746
-0.5122935 -1.3328179 4.4454207 16711746
0.9564403 -2.5985191 4.9222651 16711746
1.5061939 -2.0592799 4.0240970 16711746
0.1624845 -1.4988722 4.3404856 16711746
0.6432981 -1.4858136 4.2610917 16711746
-0.4356958 -1.8028551 4.4020810 16711746
-0.4506700 -1.4901278 4.4546676 16711746
-0.5903593 -1.5611203 4.5106592 16711746
0.2566001 -3.6423545 4.8694582 16711746
1.6413951 -2.1731195 4.4083629 16711746
-0.1831288 -1.4796083 4.3798146 16711746
-0.2483229 -1.2295107 4.3174129 16711746
2.1866367 -2.9164016 4.6352792 16711746
-0.4228993 -1.4820147 4.5296826 16711746
0.9065242 -2.0568252 4.1587744 16711746
-0.2019381 -1.1035260 4.4575534 16711746
-0.3456736 -1.2359421 4.3775640 16711746
0.1163501 -1.3586346 4.3677635 16711746
0.7561134 -1.8835087 4.4169230 16711746
-0.2119593 -0.9309655 4.3921609 16711746
0.1565531 -0.8919955 4.4705539 16711746
1.4393287 -1.7921867 4.1228309 16711746
-0.2008647 -1.0949744 4.2973995 16711746
-0.3457218 -1.1857535 4.5630174 16711746
0.6916357 -1.2369660 4.1936479 16711746
-0.4149159 -1.1816179 4.4661293 16711746
0.6128802 -1.2221950 4.4047318 16711746
0.2747604 -1.3660967 4.5402703 16711746
0.6770056 -1.2679446 4.4512434 16711746
-0.2434400 -2.3542562 4.6470809 16711746
-0.3001000 -1.3583131 4.4382892 16711746
1.7736020 -2.0153446 4.3416185 16711746
1.4798445 -1.9745718 4.0758905 16711746
0.8570060 -2.1096988 4.1803851 16711746
1.7453558 -1.5888152 4.3047929 16711746
1.6406338 -1.8817393 4.1497602 16711746
2.3238056 -2.3908434 3.9252672 16711746
0.3834547 -2.0144699 4.6663213 16711746
2.0422668 -1.8496455 4.2151728 16711746
1.3693317 -2.2971387 4.9512577 16711746
-0.3824469 -1.6861269 4.4643264 16711746
-0.2542440 -1.1466643 4.3583894 16711746
1.0549194 -2.2410529 4.5427241 16711746
0.2043814 -1.6420517 4.3012862 16711746
-0.7980692 -1.5835899 4.5394816 16711746
2.5854936 -1.6026132 5.6339374 16711746
2.8470562 -1.6108979 5.5405269 16711746
0.0104756 -0.8000490 4.2048693 16711746
2.8091412 -2.8098757 4.1371188 16711746
-0.6759455 -2.2311897 4.5824203 16711746
0.0540222 -1.4030141 4.6587253 16711746
-0.3499397 -1.7930700 4.4919538 16711746
1.1939051 -1.5304298 4.0859261 16711746
-0.4102114 -1.0720763 4.4644265 16711746
-0.3767396 -1.1839110 4.5109253 16711746
-0.0414135 -1.2365673 4.4032726 16711746
-0.2609015 -1.0980214 4.3069191 16711746
0.1398331 -0.8846433 4.2563396 16711746
-0.0231056 -1.0820347 4.2520733 16711746
-0.1080234 -0.8622239 4.2370677 16711746
-0.1293210 -0.9738348 4.2612462 16711746
-0.0704172 -1.0294366 4.2955647 16711746
-0.3125230 -1.7876507 4.4215965 16711746
-0.0901744 -0.9271734 4.2539010 16711746
0.3280607 -1.5607971 4.8788805 16711746
-0.0980694 -0.7427109 4.1818080 16711746
-0.3487964 -0.9448640 4.4469199 16711746
-0.1161757 -0.9010915 4.2625837 16711746
-0.1103927 -0.7467743 4.1941795 16711746
-0.0966932 -0.9353200 4.3557510 16711746
-0.0467001 -0.9054409 4.3161869 16711746
-0.2100496 -1.2056842 4.3741579 16711746
-0.0783673 -0.9881832 4.2689848 16711746
-0.2158666 -1.2137051 4.3473349 16711746
1.5555007 -1.8671674 4.0028391 16711746
1.6123978 -2.8140526 4.8512149 16711746
0.0152273 -0.7402627 4.2449002 16711746
-0.5250607 -1.8876936 4.4438925 16711746
0.5196673 -1.7937845 4.1436739 16711746
0.8642065 -2.2003534 4.4524775 16711746
1.0399090 -1.4394628 4.0642028 16711746
1.4220674 -1.6712166 4.4085360 16711746
1.0184281 -1.7742417 4.0250840 16711746
0.3648201 -2.2143984 4.7187867 16711746
0.6092319 -1.9697809 4.2623525 16711746
1.4054729 -2.5120876 4.5248909 16711746
2.5716457 -3.6867054 5.0409145 16711746
-0.0753042 -0.7646078 4.2659535 16711746
0.8565826 -2.0145659 4.4849496 16711746
1.1158735 -2.2520831 4.3161039 16711746
0.8827171 -1.6712315 3.9941783 16711746
0.9559966 -1.7584033 4.3095284 16711746
0.9335044 -1.7944796 4.3404107 16711746
1.2080251 -2.0863900 4.2722993 16711746
0.6937169 -1.6468077 4.2228317 16711746
0.8084753 -2.3742325 4.8358231 16711746
1.4330848 -2.5903823 4.9144597 16711746
0.6139475 -1.5594538 4.3772058 16711746
1.0927223 -1.9875345 4.2623653 16711746
0.5392930 -2.2769883 4.4991040 16711746
0.5251047 -2.7412820 4.6311884 16711746
0.3382620 -2.3690033 4.5294347 16711746
0.3289859 -2.2515469 4.9763961 16711746
0.8909577 -2.5443933 4.8907990 16711746
1.2948788 -1.9114043 3.9586055 16711746
0.6299682 -1.9650214 4.3658843 16711746
2.4535298 -1.7691276 4.6077423 16711746
2.5201781 -1.5318848 4.6013060 16711746
4.2386489 -1.8345634 5.1632056 16711746
1.4592646 -1.7805216 5.2808862 16711746
0.2331370 -0.9809507 4.3252635 16711746
3.8968811 -3.3432453 5.3803105 16711746
2.6978369 -2.7567809 5.6410112 16711746
3.1401525 -3.0199130 5.5241222 16711746
3.8126252 -2.1588924 5.8451543 16711746
3.5790517 -2.5653346 7.4328809 16711746
0.0713186 -0.9651748 4.4103870 16711746
3.0785046 -1.7097332 4.8614788 16711746
0.5086057 -1.1549892 4.6384254 16711746
0.4762519 -1.1401916 4.4285107 16711746
2.2099237 -1.9601247 5.9466343 16711746
-0.0779452 -0.8832376 4.3971901 16711746
1.8126516 -2.1498070 4.7635798 16711746
1.7019120 -1.5369940 3.7259543 16711746
2.0891445 -2.2976594 4.6428857 16711746
0.7972343 -1.5593828 4.2175097 16711746
0.5592845 -1.4678075 4.8448873 16711746
0.4837990 -1.4898021 4.7334223 16711746
2.7291000 -2.6295381 5.4651341 16711746
3.1146097 -1.8711023 5.2713318 16711746
0.7353492 -1.6389726 4.7600822 16711746
-0.0657507 -1.4193454 4.5380735 16711746
0.3697858 -1.7443484 4.5779572 16711746
0.0193994 -1.5839707 4.6292863 16711746
0.3253568 -1.2090753 4.2398548 16711746
0.8122396 -1.8151990 4.5019159 16711746
0.5155365 -1.5813611 4.5292244 16711746
0.3787186 -1.3707347 4.3423338 16711746
-0.0662580 -1.2500734 4.4795680 16711746
-0.2753932 -1.1271909 4.4458232 16711746
0.9477438 -1.6862050 4.4710288 16711746
0.2224339 -1.5269831 4.5863976 16711746
-0.1872335 -1.1465720 4.8136320 16711746
0.4240176 -1.3777678 4.3059130 16711746
0.3411494 -1.3683724 4.2559896 16711746
-0.2166416 -1.1932042 4.5479822 16711746
0.2379102 -1.3412647 4.5120492 16711746
0.6811798 -1.6153250 4.7529831 16711746
0.2700209 -1.2729646 4.4966912 16711746
0.0050355 -1.5367451 4.9079976 16711746
1.1692646 -1.5798720 5.0555449 16711746
0.0468149 -0.8340616 4.2947512 16711746
-0.1367365 -1.0334305 4.3376102 16711746
4.4048519 -3.4931562 6.1257071 16711746
3.9652224 -3.5424085 6.7452693 16711746
0.3056113 -0.9908491 4.4656682 16711746
0.2855791 -1.0189033 4.5225501 16711746
-0.0243988 -0.9225662 4.2455802 16711746
3.4734368 -3.3861041 6.3436007 16711746
5.6294293 -2.8687625 5.7774730 16711746
-0.1715262 -0.7777925 4.2797236 16711746
-0.3339719 -1.4707114 4.5076466 16711746
-0.2659880 -1.3973740 4.9905539 16711746
1.2134851 -1.7460992 4.7095637 16711746
1.2507631 -1.7818098 4.7143822 16711746
1.0047644 -1.8267400 4.7409472 16711746
1.2758274 -1.7403313 4.9605751 16711746
0.6854496 -1.7446455 4.5093699 16711746
-0.2301403 -1.1571209 4.7581072 16711746
0.8075304 -1.5785123 4.2706208 16711746
1.0549656 -1.5427979 4.6110706 16711746
0.1233178 -2.1362154 4.7890368 16711746
-0.2709298 -1.1841044 4.5824819 16711746
0.0813952 -1.6206461 4.8012471 16711746
0.2893355 -1.2552152 4.3455429 16711746
0.4760776 -1.6352433 4.7270298 16711746
-0.2245347 -1.0086707 4.6012831 16711746
1.4629964 -1.7471007 4.9897013 16711746
0.7100523 -1.6527249 5.0351501 16711746
-0.0679679 -1.6728183 4.8667331 16711746
0.3930560 -1.4804709 4.4399681 16711746
-0.2411258 -1.3642287 4.8908210 16711746
1.0184127 -1.9172393 4.7989588 16711746
-0.1084869 -0.7341553 4.2673345 16711746
1.5291529 -1.9932035 5.2172971 16711746
-0.1560962 -0.7970285 4.2806578 16711746
0.0404840 -0.9735577 4.3124633 16711746
0.0347083 -0.7435963 4.3847761 16711746
1.3507415 -1.8533503 4.7379928 16711746
-0.2488397 -1.1519799 4.7937202 16711746
-0.2100259 -1.0247427 4.5762320 16711746
-0.0530807 -1.4859948 4.7996168 16711746
-0.0000508 -1.3222080 4.6194048 16711746
0.4920868 -1.5378919 4.4124413 16711746
-0.0354423 -1.5045915 4.6087642 16711746
-0.2517364 -1.1884170 4.8255253 16711746
-0.1996196 -0.9838646 4.5338688 16711746
1.2926745 -1.9248329 5.4724712 16711746
1.4173399 -1.9253465 5.1636920 16711746
-0.2106925 -0.9743079 4.5404749 16711746
1.3193314 -1.6711977 4.6382647 16711746
1.5232847 -1.8815757 4.9230666 16711746
1.3612951 -1.8663279 4.2075553 16711746
1.2871939 -1.6758109 4.3206120 16711746
1.0063112 -1.7804580 5.8462925 16711746
2.2264123 -2.5615649 5.8070836 16711746
2.6403604 -2.2330399 5.2878680 16711746
2.5117586 -2.1525748 5.2307782 16711746
2.3929951 -2.7804542 6.5006771 16711746
2.4406676 -2.3540766 4.2088637 16711746
2.1309030 -2.4122617 5.5968523 16711746
2.6085925 -3.1819479 6.9176407 16711746
2.5515110 -2.9750922 6.4818459 16711746
2.0099442 -2.1767628 6.3582792 16711746
2.4868484 -2.6200447 5.8356957 16711746
-0.0003190 -0.8064148 4.3015232 16711746
2.3866498 -2.5250771 5.4648485 16711746
1.6755025 -2.4906783 5.9400582 16711746
3.1780481 -2.6165977 5.3735247 16711746
2.8778758 -2.4639897 5.2960210 16711746
3.4208164 -3.0559270 5.9510479 16711746
2.9284050 -2.7881844 7.3352804 16711746
2.6133761 -3.0155885 6.0354939 16711746
-0.0375431 -0.9508387 4.4613156 16711746
0.2544807 -1.5595909 4.2501836 16711746
2.8117824 -2.4041214 5.0130744 16711746
0.1324760 -0.9280397 4.3076425 16711746
3.9471104 -3.4349401 8.3083305 16711746
-0.1631334 -0.8135621 4.2972097 16711746
-0.0087345 -1.2253481 4.3694196 16711746
0.0091233 -1.2597853 4.3594313 16711746
-0.0492510 -1.1916945 4.3601675 16711746
0.0491617 -0.9942492 4.4244275 16711746
-0.1028715 -1.4395975 4.3299828 16711746
-0.3014368 -1.3090841 4.4483290 16711746
-0.0125095 -1.2033674 4.3001518 16711746
0.2773871 -1.1666328 4.2988696 16711746
-0.1688500 -1.3406123 4.3850369 16711746
-0.1172654 -1.2683436 4.3479786 16711746
-0.0003901 -1.2769780 4.3208175 16711746
0.0169569 -1.1329695 4.3216577 16711746
-0.1030449 -1.0586534 4.3850331 16711746
-0.0015265 -1.2783189 4.3197536 16711746
-0.2929505 -1.3067769 4.4781799 16711746
-0.1581096 -1.5489554 4.4240284 16711746
-0.0855172 -1.1271505 4.3378830 16711746
0.1785097 -1.1597788 4.2416029 16711746
0.1088219 -1.0899806 4.3488083 16711746
0.0390492 -1.1836311 4.3285933 16711746
0.0168974 -1.2870660 4.3642812 16711746
0.2019106 -1.2204123 4.3795438 16711746
-0.0245832 -1.2750393 4.3272514 16711746
0.1654094 -1.1388222 4.2583070 16711746
0.1516175 -1.1274128 4.2418952 16711746
-0.1533945 -1.1013808 4.4179759 16711746
0.2561644 -0.9914889 4.2134681 16711746
-0.0333455 -1.1319176 4.3348856 16711746
-0.1010651 -1.2498956 4.3518915 16711746
0.1127868 -1.1588625 4.2985535 16711746
0.1010405 -1.0296015 4.2952943 16711746
0.0097484 -1.1640648 4.3393826 16711746
-0.0679934 -1.4001071 4.7679162 16711746
0.1019813 -1.0275260 4.3616877 16711746
0.2803398 -1.1084859 4.3310604 16711746
-0.0783731 -1.1291084 4.3477669 16711746
0.2123209 -1.1141132 4.2497520 16711746
0.3929662 -1.2270139 4.2683215 16711746
0.1990987 -1.2560295 4.2704344 16711746
-0.0051932 -1.2329936 4.3708196 16711746
-0.0207334 -1.1755983 4.2980280 16711746
0.2760336 -1.1902977 4.2655268 16711746
-0.1117834 -1.2971160 4.3506999 16711746
1.4011006 -1.9938748 5.2579174 16711746
-0.2286112 -1.0218604 4.3755164 16711746
-0.2049255 -1.0190773 4.4496036 16711746
-0.0616557 -1.1802299 4.3147554 16711746
0.1458465 -1.2872329 4.3175240 16711746
0.1920022 -1.1697346 4.2809148 16711746
-0.2907203 -1.2561628 4.4323907 16711746
-0.1323316 -1.0078045 4.3881521 16711746
-0.0838923 -1.4656656 4.3687525 16711746
0.6190692 -1.2172154 4.3644314 16711746
0.0059439 -1.1211138 4.3199534 16711746
0.0081046 -1.2148139 4.3062391 16711746
-0.1451223 -0.8647419 4.3925829 16711746
0.4494899 -1.0999691 4.4420910 16711746
-0.0244057 -1.1706671 4.3408947 16711746
-0.0630745 -1.2544439 4.3607216 16711746
-0.4248991 -1.5983748 4.5152726 16711746
-0.0934547 -1.0941797 4.3280296 16711746
-0.0642229 -1.5339692 4.3907056 16711746
0.2966341 -1.1813167 4.2878666 16711746
-0.2763840 -1.1924018 4.4183655 16711746
-0.3064111 -1.4088253 4.4695878 16711746
-0.0373977 -1.2946470 4.3966599 16711746
0.6670095 -1.3742476 4.2273021 16711746
-0.3289977 -1.3561414 4.5521049 16711746
-0.3544569 -1.3253580 4.4326448 16711746
-0.0715639 -1.2913375 4.4635515 16711746
-0.3374288 -1.2235644 4.4295712 16711746
-0.0262680 -1.1573185 4.3385158 16711746
-0.3609979 -0.9315859 4.5535769 16711746
-0.3390267 -1.1742038 4.7380614 16711746
-0.5500532 -1.3106797 4.4815297 16711746
0.7087747 -1.7207761 4.5471420 16711746
1.5873405 -1.8841460 4.6505404 16711746
1.4960259 -1.5865560 4.2095160 16711746
0.5646800 -1.9907085 5.2863350 16711746
-0.2172510 -1.3113043 4.6648769 16711746
-0.1091314 -1.2576535 4.6532912 16711746
-0.2555849 -1.5617470 4.6228552 16711746
0.0157208 -1.4396173 4.6525488 16711746
-0.3254467 -1.2022129 4.5275269 16711746
-0.2717161 -1.3571579 5.0157566 16711746
-0.2089269 -1.1899697 4.6800919 16711746
-0.3268729 -1.2769023 4.5575533 16711746
-0.2342542 -1.3352981 4.4369979 16711746
-0.0724578 -1.4227291 4.5315423 16711746
-0.2109260 -1.7928855 4.4372849 16711746
0.3020926 -1.3130997 4.4452524 16711746
-0.2232875 -1.2328628 4.5665936 16711746
0.1587280 -1.3410618 4.4478250 16711746
0.1543797 -1.4006052 4.4619379 16711746
-0.2536502 -1.2932122 4.4398623 16711746
-0.2875521 -1.2377545 4.5576262 16711746
-0.0613177 -1.5011899 4.5599885 16711746
-0.2619104 -1.4540651 4.4465456 16711746
0.1030906 -1.0646664 4.4078937 16711746
0.4594757 -1.1629754 4.2328343 16711746
-0.3140873 -1.1864955 4.5092649 16711746
-0.3011342 -1.7651955 4.6136599 16711746
-0.2556962 -1.3236629 4.4944129 16711746
-0.2738063 -1.2228613 4.5168447 16711746
-0.2575980 -1.3444780 4.4550562 16711746
-0.2630641 -1.5765641 4.4675989 16711746
-0.0742807 -1.2572402 4.4918370 16711746
0.0367386 -0.9782037 4.3743162 16711746
0.1295510 -1.2252992 4.2907596 16711746
-0.2757733 -1.1898202 4.4582877 16711746
-0.1660838 -1.4093010 4.4595990 16711746
-0.0944823 -1.2152367 4.4998517 16711746
0.5747197 -1.2963480 4.4305553 16711746
-0.2579960 -1.3461837 4.4230433 16711746
-0.1309238 -1.4593822 4.5425372 16711746
-0.2715229 -1.4678022 4.5493112 16711746
-0.1003560 -1.0741750 4.3772750 16711746
-0.7945962 -1.7190831 4.6277738 16711746
0.3434130 -1.2453563 4.4290938 16711746
0.0017406 -1.3015625 4.4714580 16711746
0.1200562 -1.0892568 4.4173694 16711746
0.2400711 -1.6502804 4.5182467 16711746
-0.2383546 -1.1988300 4.5213366 16711746
-0.2802978 -1.1884805 4.5316396 16711746
-0.2473862 -1.2641554 4.4740720 16711746
-0.0599583 -1.1612916 4.3322039 16711746
-0.2971518 -1.4993175 4.4905090 16711746
-0.1838951 -1.2863911 4.5380359 16711746
-0.1712541 -1.5451702 4.4972506 16711746
-0.1192441 -1.6693546 4.6217504 16711746
-0.0107920 -1.2640074 4.4574614 16711746
0.1114811 -1.3539841 4.4374709 16711746
0.1066116 -1.0009701 4.4591646 16711746
-0.2620143 -1.4213595 4.4478278 16711746
-0.3376700 -1.2492936 4.5353127 16711746
-0.2318598 -1.4361942 4.4223471 16711746
-0.0559700 -1.2485266 4.3718572 16711746
-0.4890494 -1.4638219 4.5542531 16711746
0.1811598 -1.3500284 4.3219843 16711746
0.0546671 -1.4913791 4.4881716 16711746
1.4181161 -1.6936510 5.1913981 16711746
1.2878870 -1.7403188 5.6427498 16711746
1.6013943 -1.7302397 4.8580914 16711746
1.1043897 -1.9150387 4.7159243 16711746
2.6289926 -2.8082538 6.0132027 16711746
1.5191201 -1.7605778 4.1900382 16711746
2.8754418 -3.6606181 6.2813935 16711746
-0.0590896 -0.7777550 4.2492137 16711746
0.1668919 -0.9214879 4.4260273 16711746
0.2572849 -0.9229745 4.2492366 16711746
3.4710567 -2.8156576 5.5014663 16711746
0.0203328 -0.8417001 4.2531238 16711746
4.0875692 -5.6765800 7.0040984 16711746
0.0605433 -0.8548042 4.2402039 16711746
3.6176996 -4.9003000 6.7639313 16711746
-0.2069986 -0.9532070 4.5194898 16711746
0.6523536 -1.5014577 4.9507632 16711746
1.9419214 -1.9863676 4.9826288 16711746
1.8654751 -1.9375159 4.9584761 16711746
1.3368315 -1.8767850 5.0028138 16711746
-0.3109885 -1.1937677 4.5139966 16711746
0.2006923 -1.3655607 4.2979226 16711746
-0.2472051 -1.2175535 4.5307684 16711746
-0.2273099 -1.2362766 4.5778193 16711746
0.0848455 -1.0381118 4.2760992 16711746
-0.0548526 -1.1731756 4.3305020 16711746
0.4649608 -1.1887927 4.1625609 16711746
-0.2713593 -1.2919024 4.6145782 16711746
0.1727144 -1.3461670 4.3225932 16711746
-0.0463049 -1.2046825 4.3367906 16711746
0.1741060 -1.3762159 4.2794442 16711746
-0.1152968 -1.1407348 4.4144301 16711746
0.5168866 -1.1478680 4.1549497 16711746
-0.0161611 -1.2086629 4.3207531 16711746
-0.2771085 -1.3362535 4.4812074 16711746
0.1610172 -1.2315485 4.3180499 16711746
-0.2679241 -1.1571038 4.4282894 16711746
0.2883070 -1.2096951 4.2805214 16711746
0.2220846 -1.2926197 4.3153682 16711746
0.0400914 -1.0577174 4.4168215 16711746
-0.2659121 -1.3131481 4.5020442 16711746
-0.2785813 -1.1272719 4.5232439 16711746
-0.0739625 -1.2213575 4.4157448 16711746
-0.1441862 -1.1439348 4.4662790 16711746
-0.2864380 -1.1548047 4.5408516 16711746
-0.2278928 -0.9982700 4.6227846 16711746
-0.2909744 -1.3229786 4.5709896 16711746
0.6689647 -1.3800601 4.2094431 16711746
0.0675556 -1.3300880 4.4563332 16711746
-0.0107132 -1.3054551 4.3319359 16711746
-0.1245943 -1.5151719 4.5663342 16711746
-0.1126896 -1.4482757 4.5954509 16711746
0.2115095 -1.1453874 4.2559524 16711746
0.3429515 -1.2519867 4.3925862 16711746
-0.2239130 -1.1462178 4.4733973 16711746
0.0479244 -1.2709266 4.4385505 16711746
0.3951929 -1.4230404 4.4429326 16711746
-0.2508946 -1.4562098 4.5746918 16711746
-0.2939589 -1.3792944 4.5607996 16711746
-0.0372882 -1.1986864 4.3761868 16711746
-0.2929246 -1.2156947 4.6758084 16711746
-0.0334445 -1.2918539 4.4058552 16711746
-0.0766182 -1.5273554 4.6256952 16711746
0.2369519 -1.2836013 4.2900691 16711746
-0.2763035 -1.1426516 4.6189423 16711746
1.1858166 -1.7004783 4.5657668 16711746
1.5760990 -1.5339341 4.0466199 16711746
1.4559890 -1.7674794 4.9037862 16711746
0.5315978 -1.6030908 4.5349607 16711746
1.8747822 -2.1394076 4.6315904 16711746
1.7703185 -1.6596516 4.6211925 16711746
0.1452543 -0.9444426 4.3207350 16711746
4.1893229 -4.0647640 7.0170236 16711746
0.1474955 -0.9546101 4.3234997 16711746
-0.0243418 -1.0907801 4.4954977 16711746
0.0131976 -0.8282084 4.3173828 16711746
-0.2452480 -1.1247402 4.4098740 16711746
-0.2510451 -1.1281190 4.4147730 16711746
-0.1967821 -1.0916754 4.3993611 16711746
-0.2065939 -1.0004027 4.4042087 16711746
-0.2331408 -1.0036676 4.4135442 16711746
-0.2427794 -1.0648488 4.3966155 16711746
-0.3107615 -1.0401465 4.5313945 16711746
-0.3138330 -1.2395020 4.5201263 16711746
-0.3039953 -1.1711714 4.4972310 16711746
-0.1743923 -1.4118100 4.4876671 16711746
-0.2400224 -1.2381222 4.5009031 16711746
-0.2535923 -1.1384135 4.4607730 16711746
0.1524760 -1.2787569 4.2932267 16711746
-0.3037679 -1.2829520 4.5204940 16711746
-0.1635503 -1.6126263 4.4820561 16711746
-0.3372713 -1.2285991 4.4955525 16711746
-0.2798266 -1.3742964 4.4323301 16711746
-0.2297295 -1.2043303 4.4998312 16711746
-0.2082856 -1.2529706 4.5982280 16711746
-0.3030290 -1.0026742 4.3766937 16711746
-0.3549788 -1.1977863 4.4258180 16711746
-0.0734877 -1.0227807 4.3050599 16711746
-0.2484434 -1.0475494 4.3700457 16711746
-0.1281787 -1.2141334 4.5112276 16711746
-0.2835698 -1.3662792 4.4013309 16711746
0.4826744 -1.1109023 4.2341490 16711746
1.5152578 -1.5871968 4.2036767 16711746
1.8083465 -1.4762832 4.5075545 16711746
1.8928264 -1.7640245 5.3080707 16711746
0.8220376 -1.6504158 4.4578958 16711746
1.7881858 -1.8219864 4.7475452 16711746
0.5270545 -1.1977159 4.1996045 16711746
3.3769774 -1.9330062 5.3619232 16711746
0.0642980 -0.8818374 4.3420119 16711746
3.3444264 -2.9921072 5.5967584 16711746
3.5004876 -4.3851542 7.1184449 16711746
-0.2404063 -1.0511639 4.4361777 16711746
-0.4075881 -1.3129814 4.4733863 16711746
-0.2830380 -1.1294576 4.4628310 16711746
0.1820092 -0.9752560 4.3000956 16711746
-0.3048171 -1.1955185 4.4984093 16711746
-0.3333349 -1.3689468 4.5490847 16711746
0.0103316 -1.5402713 4.5620556 16711746
-0.2343028 -1.1762410 4.4071031 16711746
-0.0539543 -1.4562536 4.6127958 16711746
-0.1022055 -1.4896753 4.4778008 16711746
-0.3481964 -1.2430713 4.4542079 16711746
-0.3272522 -1.2541579 4.4055438 16711746
0.0082941 -1.1614490 4.4035635 16711746
-0.2494931 -1.4535238 4.4129605 16711746
-0.0817465 -1.2939062 4.7149320 16711746
-0.2089371 -1.0267419 4.4565911 16711746
3.5674961 -3.0252440 6.3875723 16711746
2.8594995 -2.5835319 5.7308345 16711746
1.1209393 -1.6404408 4.0712910 16711746
-0.1377213 -0.8689157 4.3989778 16711746
1.9262036 -8.5116148 6.3588228 16711746
-0.0288640 -1.4736937 4.7225323 16711746
-0.1713625 -0.8164232 4.3380051 16711746
-0.0523035 -0.8157412 4.4234428 16711746
-0.3002304 -1.2352494 4.5006075 16711746
1.7513477 -1.8279824 4.9163089 16711746
-0.0854896 -1.1644138 4.6162586 16711746
1.2978889 -1.8138583 4.7158885 16711746
0.6401795 -1.6987927 4.9052744 16711746
-0.0328393 -1.4028593 4.4527359 16711746
-0.1889994 -1.0984764 4.7576709 16711746
0.8052563 -1.3825448 4.4888978 16711746
-0.0770168 -1.5499699 4.5491710 16711746
-0.3143955 -1.1871117 4.4833765 16711746
1.1732138 -1.1488022 4.8239431 16711746
1.6710551 -1.8997034 4.7937140 16711746
1.2109889 -1.5379795 4.8765221 16711746
0.9867319 -1.2452850 4.4563465 16711746
0.8819372 -1.4271234 5.3454123 16711746
-0.2471121 -1.2313147 4.4468946 16711746
-0.0573651 -1.2134061 4.7072296 16711746
-0.2944420 -1.2739302 4.4798303 16711746
-0.1848712 -1.1095110 4.7671413 16711746
-0.0449023 -1.6049043 4.6852212 16711746
0.4922931 -1.4724839 4.5505376 16711746
0.2743665 -1.6820667 4.5609808 16711746
-0.2654435 -1.1407801 4.6013460 16711746
1.5221202 -1.7102637 4.4352307 16711746
1.2731011 -1.8059593 4.1989913 16711746
0.4595803 -1.2109178 4.4321408 16711746
0.0096995 -1.3679141 4.4549828 16711746
-0.0897870 -1.2083846 4.6565614 16711746
0.4282174 -1.3629854 4.6259890 16711746
0.2674289 -1.4918430 4.3361235 16711746
0.7250665 -1.4156021 4.5247302 16711746
0.6748312 -1.4571675 4.3919935 16711746
0.4110872 -1.4686453 4.3273406 16711746
1.2555430 -1.8327984 4.6131740 16711746
0.5254844 -1.5348748 4.3778462 16711746
-0.2020032 -1.3803564 4.4515390 16711746
-0.3594132 -1.3614438 4.4301395 16711746
0.4997608 -1.4751396 4.5769796 16711746
0.9702623 -1.6141226 4.9254889 16711746
1.1508039 -1.8360300 4.5340614 16711746
0.6882747 -1.3488743 4.3990850 16711746
1.2530054 -1.8934038 4.3126984 16711746
0.7777608 -1.6277333 4.5087895 16711746
0.9134742 -1.4521116 4.3604274 16711746
-0.0673104 -1.1912349 4.6091833 16711746
0.6608132 -1.4800345 4.9390936 16711746
0.7065613 -1.2576510 4.3509202 16711746
0.2949913 -1.7118206 4.5418653 16711746
0.6012741 -1.3472434 5.0477586 16711746
0.4712896 -1.3366842 4.8704715 16711746
0.7070077 -1.6493490 4.7010908 16711746
-0.4177067 -1.3830462 4.4721222 16711746
0.3647855 -1.3594775 4.9908028 16711746
0.6438509 -1.6872493 4.9589415 16711746
1.3245823 -2.1651096 5.5843244 16711746
-0.0682743 -0.7957839 4.2983356 16711746
3.2966912 -5.3582535 6.9043841 16711746
1.0663249 -1.5338880 4.4524546 16711746
0.1792037 -0.9628587 4.4028635 16711746
0.1601763 -0.9425518 4.3950620 16711746
4.5264578 -5.4764061 7.8302722 16711746
-0.3345534 -2.1375439 4.7920361 16711746
-0.2800498 -1.1256750 4.4136300 16711746
0.2010998 -0.9770213 4.3771958 16711746
0.1468281 -0.9186701 4.3476553 16711746
1.2168694 -1.0839967 5.2193022 16711746
1.2772150 -1.6867144 4.7235403 16711746
0.8756404 -1.4009732 4.5397143 16711746
-0.1987327 -1.4092237 4.4637256 16711746
-0.3943741 -1.3746911 4.5916877 16711746
0.6918952 -1.4149529 4.2212782 16711746
1.8324217 -1.3574055 4.4490023 16711746
-0.0578652 -1.3544009 4.7667718 16711746
0.2063078 -1.6205509 4.4939747 16711746
-0.0531728 -1.2955765 4.6115947 16711746
0.3769341 -1.3109019 4.2720575 16711746
0.3081163 -1.2697079 4.2982812 16711746
0.4865405 -1.5439705 4.4491429 16711746
1.0675493 -1.3207291 4.4280367 16711746
0.4620219 -1.4341190 4.4818044 16711746
-0.0498015 -1.3743067 4.7765145 16711746
0.2242291 -1.5634584 4.5288601 16711746
-0.1983619 -1.3881892 4.4579916 16711746
-0.4124701 -1.3730487 4.4788375 16711746
-0.3022937 -1.2900909 4.4681587 16711746
-0.2942271 -1.3911188 4.4508128 16711746
0.2868982 -1.7075986 4.5682073 16711746
-0.2327313 -1.3202473 4.4680734 16711746
0.6629458 -1.5370885 4.8476043 16711746
-0.2233143 -1.3417735 4.4805293 16711746
0.4731643 -1.2810941 4.4521909 16711746
0.8036619 -1.4492270 4.2151241 16711746
0.0887288 -1.2630230 4.4544330 16711746
0.3218552 -1.1927840 4.2871547 16711746
0.4180524 -1.3845568 4.3418980 16711746
1.0985993 -1.8785428 4.5236449 16711746
-0.0739264 -1.2396984 4.6219397 16711746
0.8695611 -1.8148061 4.5967374 16711746
-0.0506366 -1.2490537 4.6674380 16711746
-0.1998027 -1.4579563 4.4719768 16711746
0.0619868 -1.7838277 4.5429602 16711746
-0.3674270 -1.6075500 4.5784101 16711746
0.6025184 -1.5532905 4.7361217 16711746
0.5290237 -1.2960383 4.3084712 16711746
0.9949058 -1.4220349 4.3468542 16711746
0.2566333 -1.2890900 4.8436608 16711746
-0.0409932 -1.1376802 4.8179507 16711746
0.7776145 -1.4318912 4.6961908 16711746
0.9559779 -1.4644670 4.9242234 16711746
-0.3194503 -1.1746919 4.5205650 16711746
-0.0441800 -1.4900709 4.5122762 16711746
-0.1115750 -1.4907355 4.7982936 16711746
0.3216318 -1.2621888 4.8980308 16711746
0.8516832 -1.4506941 4.7410636 16711746
1.3283720 -1.6378337 4.9522901 16711746
1.4692312 -1.5956994 4.8624053 16711746
0.0544958 -0.8327157 4.3010793 16711746
0.8691933 -1.5038922 4.2023792 16711746
1.5377816 -1.5420555 4.5556502 16711746
1.1089511 -1.2239158 4.3934932 16711746
0.6894011 -1.4576017 4.8719192 16711746
-0.2509505 -1.1345532 4.7680616 16711746
-0.0398364 -1.7886152 4.7233353 16711746
-0.0592750 -1.2985415 4.6179338 16711746
1.1862596 -2.5607955 6.1470294 16711746
-0.0511785 -0.8723826 4.3800335 16711746
2.3805013 -1.3750358 4.6967111 16711746
1.5960772 -3.2911096 4.7581449 16711746
1.3567929 -2.2209754 5.5342755 16711746
3.1257193 -2.7490106 5.8539720 16711746
3.3067689 -3.5281100 7.6329103 16711746
0.0106420 -0.8380374 4.2950625 16711746
0.0048946 -0.8586757 4.3344502 16711746
1.9486611 -2.5550444 4.8454967 16711746
1.1639382 -2.8828156 5.0076671 16711746
0.0241232 -0.8622259 4.2901387 16711746
-0.0623857 -1.7669222 4.6412587 16711746
3.5954118 -4.9934883 5.8768392 16711746
3.6476712 -5.0523748 5.9025407 16711746
0.5705306 -1.1685836 4.7268934 16711746
0.2999160 -1.1445122 4.2668748 16711746
1.1939867 -2.1973724 4.8588495 16711746
0.4240071 -1.3122826 4.6777611 16711746
1.7342455 -1.2902957 4.6281576 16711746
-0.1301251 -0.7307867 4.3006005 16711746
-0.3429614 -1.5462520 4.8409586 16711746
1.7056379 -1.3403620 4.8557138 16711746
0.9537190 -1.4040822 4.9590101 16711746
-0.2395657 -0.7746593 4.3446007 16711746
-0.3135791 -1.2968805 4.6963129 16711746
1.1511631 -1.0240152 4.4490905 16711746
2.0336912 -2.0647161 5.5365858 16711746
1.5760597 -1.2197955 4.6096225 16711746
2.4454699 -1.2786146 4.8135066 16711746
1.2779093 -1.1719574 4.8656321 16711746
1.3430290 -1.9613234 5.7044773 16711746
-0.0965320 -0.7206839 4.2855673 16711746
1.2006119 -1.3561724 4.2526598 16711746
-0.1374395 -0.7343580 4.3050723 16711746
1.4919969 -2.0951767 5.7188540 16711746
1.5165867 -2.0599554 5.2854142 16711746
1.1803613 -1.3456627 4.2533345 16711746
-0.1427902 -0.7902066 4.3989549 16711746
1.3013620 -1.8128039 4.9649410 16711746
1.2600859 -1.2082831 4.8284974 16711746
1.3664995 -1.7365127 5.8379917 16711746
1.5703676 -1.2176771 4.6076188 16711746
1.3062222 -1.1692837 4.4977770 16711746
1.2552148 -1.1505527 4.4916806 16711746
-0.1659695 -0.7278544 4.3246398 16711746
0.5666401 -0.9905084 3.9865274 16711746
0.5334145 -0.9904917 4.0026979 16711746
1.8557808 -2.0468128 4.8311429 16711746
1.9218888 -2.0944099 4.8507357 16711746
2.2273078 -2.6241238 6.2454925 16711746
2.2110984 -2.9574718 6.5712967 16711746
1.5293140 -1.2894899 4.7951417 16711746
0.0570520 -1.4888340 5.2402043 16711746
-0.5636950 -1.6645705 4.5929875 16711746
0.1204427 -1.0289043 4.3286662 16711746
0.3329594 -0.9128019 4.3651056 16711746
0.2941387 -0.8701593 4.3710194 16711746
0.1475589 -0.9151932 4.3286037 16711746
0.2073864 -0.9768322 4.3605289 16711746
0.1463932 -0.9147801 4.3285542 16711746
0.3017563 -0.9512252 4.3867173 16711746
0.4236724 -0.8959646 4.4200625 16711746
0.1987129 -0.9715149 4.3594141 16711746
0.0964787 -0.8500133 4.3540850 16711746
0.2053789 -0.9431608 4.3543444 16711746
0.0149130 -0.8386049 4.3045855 16711746
3.0237741 -2.6759961 5.8059950 16711746
0.5444604 -1.1463753 4.3790913 16711746
1.6626952 -1.3239166 4.4235840 16711746
-0.0440301 -0.7806237 4.2700891 16711746
0.0894545 -0.9465775 4.3481236 16711746
-0.2961861 -0.8732623 4.3688359 16711746
3.9157939 -4.1579070 7.9661007 16711746
0.2627864 -0.9760942 4.3689804 16711746
0.2184182 -1.2388787 4.4063568 16711746
0.5613117 -1.3475264 5.0193367 16711746
-0.9811187 -3.1829684 5.3592267 16711746
0.0954416 -0.7956308 4.3691201 16711746
0.2491213 -1.1650193 4.6576419 16711746
6.3442788 -2.7516668 6.6894102 16711746
-1.0583222 -3.5344117 5.2835689 16711746
-0.1136711 -1.8306110 4.7190599 16711746
-1.6625792 -7.1548800 8.4551296 16711746
-0.1795157 -0.9319316 4.4268951 16711746
0.8889922 -0.9399238 4.5221157 16711746
-0.1362188 -0.7343214 4.3089538 16711746
0.4835124 -1.3042860 4.1528287 16711746
0.4835070 -1.3042814 4.1528301 16711746
0.3671676 -1.1655961 4.1594763 16711746
1.6082845 -1.2832761 4.4265671 16711746
1.5153382 -1.2852677 4.5690985 16711746
-0.3644052 -1.3283377 4.5097075 16711746
-0.4793666 -1.7414801 4.4789882 16711746
1.1202016 -1.2876518 4.4575644 16711746
0.5093177 -1.2176552 4.2068486 16711746
0.4869795 -1.2829436 4.1613479 16711746
0.5038509 -1.2271414 4.1308541 16711746
-0.1373103 -0.7303116 4.3042870 16711746
1.2079524 -1.6863140 4.6416912 16711746
-0.2906323 -1.2771256 4.6871982 16711746
-0.3944520 -1.6221372 4.5056992 16711746
-0.4272970 -1.7055570 4.4857926 16711746
-0.2712338 -1.5730841 4.4977226 16711746
0.5097190 -1.2135569 4.1419773 16711746
-0.0292227 -0.8166745 4.4031463 16711746
-0.4318727 -1.8632755 4.6880403 16711746
0.3469652 -1.2248420 4.2875557 16711746
0.3683508 -1.4253204 4.3743024 16711746
0.5545471 -1.1812831 4.1525478 16711746
-0.3443981 -1.8065559 4.5881252 16711746
0.2382719 -1.4041822 4.3005767 16711746
-0.2372329 -1.6278628 4.4547062 16711746
