# .PCD v.7 - Point Cloud Data file format
VERSION .7
FIELDS x y z rgb
SIZE 4 4 4 4
TYPE F F F F
COUNT 1 1 1 1
WIDTH 193
HEIGHT 1
VIEWPOINT 0 0 0 1 0 0 0
POINTS 193
DATA ascii

 0.8742568 -0.3965644 2.2070966 16777215
 0.3151666 -0.1032502 0.8583489 16777215
 0.8984756 -0.3648905 2.2255964 16777215
 0.9071950 -0.4285895 2.2472160 16777215
 0.9082597 -0.4623429 2.2621164 16777215
 0.9027538 -0.4317734 2.2486794 16777215
 0.9169692 -0.5052390 2.2940502 16777215
 0.9237423 -0.5344937 2.3048058 16777215
 0.9326857 -0.5400062 2.3092313 16777215
 0.9230672 -0.5738021 2.3126941 16777215
 0.9357014 -0.6006656 2.3324504 16777215
 0.9356450 -0.5972920 2.3260295 16777215
 0.9339286 -0.6196024 2.3418713 16777215
 0.9376779 -0.6403243 2.3504262 16777215
 0.9468838 -0.6711697 2.3626542 16777215
 0.9424374 -0.6639063 2.3789506 16777215
 0.9488187 -0.6692651 2.3631291 16777215
 0.9741163 -0.7212272 2.3584416 16777215
 0.9340454 -0.6615589 2.3498714 16777215
 0.9549018 -0.6390327 2.3924990 16777215
 0.9647847 -0.6737002 2.4731026 16777215
 0.9424270 -0.6061938 2.4002783 16777215
 0.9495118 -0.5853738 2.4190736 16777215
 0.9751391 -0.6439223 2.4600582 16777215
 0.9705540 -0.6305295 2.4720840 16777215
 1.0051754 -0.6455827 2.4990139 16777215
 1.0069145 -0.6619088 2.5100503 16777215
 1.0068038 -0.6217340 2.5500109 16777215
 1.0192577 -0.6535317 2.5680687 16777215
 1.0043762 -0.6271718 2.6072004 16777215
 1.0448885 -0.6502621 2.6918361 16777215
 1.0005734 -0.6347793 2.7494648 16777215
 1.0531411 -0.6484902 2.8531203 16777215
 1.1314542 -0.6779767 2.8539758 16777215
 1.1191120 -0.7073057 2.8973246 16777215
 1.1254811 -0.7609707 2.9308548 16777215
 1.1757616 -0.6784866 3.0054011 16777215
 1.1933860 -0.6839026 3.0828621 16777215
 1.2191296 -0.7134871 3.1503575 16777215
 1.2363131 -0.7310815 3.1924865 16777215
 1.2522478 -0.7513404 3.2312391 16777215
 1.2726889 -0.7577415 3.2920225 16777215
 1.2720748 -0.7965133 3.3356371 16777215
 1.3090308 -0.8150458 3.3893485 16777215
 1.3599881 -0.8242754 3.4414263 16777215
 1.3325163 -0.8350587 3.4855499 16777215
 1.3387229 -0.8488623 3.5174072 16777215
 1.3670001 -0.8910751 3.5622127 16777215
 1.3490349 -0.9061760 3.5998907 16777215
 1.3716075 -0.8911564 3.6473155 16777215
 1.3442667 -0.9185736 3.6772466 16777215
 1.4006820 -0.8995618 3.7389290 16777215
 1.3935952 -0.9159003 3.8010771 16777215
 1.4246027 -0.9411237 3.8236325 16777215
 1.4742677 -0.9369301 3.8849492 16777215
 1.5289178 -0.9268849 3.9286723 16777215
 1.5128351 -0.9042014 4.0108523 16777215
 1.5421876 -0.9466530 4.0586410 16777215
 1.5914171 -0.9523643 4.1240735 16777215
 1.5479099 -0.9341897 4.1831145 16777215
 1.5524987 -0.9427316 4.2164288 16777215
 1.5711914 -0.9900303 4.3138041 16777215
 1.5860548 -1.0064343 4.3521919 16777215
 1.5997742 -1.0367357 4.3903084 16777215
 1.6172723 -1.0757037 4.4267397 16777215
 1.6418549 -1.0881106 4.4480219 16777215
 1.6358889 -1.1036376 4.5400205 16777215
 1.5986388 -1.1051725 4.5918941 16777215
 1.6854874 -1.1292617 4.6227913 16777215
 1.6738293 -1.1471322 4.6744046 16777215
 1.6399055 -1.1763864 4.7708902 16777215
 1.7197731 -1.1952457 4.8434114 16777215
 1.7111485 -1.1763835 4.9216881 16777215
 1.7027667 -1.2156712 4.9567304 16777215
 1.6675402 -1.1890935 4.9931550 16777215
 1.7719692 -1.2436315 5.0311666 16777215
 1.6721361 -1.1958694 5.0574203 16777215
 1.7304895 -1.2318921 5.1021848 16777215
 1.7195082 -1.2043672 5.1388521 16777215
 1.6551327 -1.1452607 5.2016120 16777215
 1.6090932 -1.1547573 5.2654386 16777215
 1.5912327 -1.1775227 5.2994957 16777215
 1.7051165 -1.2055217 5.3286276 16777215
 1.6967783 -1.2077408 5.3626728 16777215
 1.6913515 -1.1800334 5.4361696 16777215
 1.7165962 -1.2270943 5.4336491 16777215
 1.7817215 -1.2603213 5.4612017 16777215
 1.7327070 -1.1780658 5.5336499 16777215
 1.6874568 -1.1656848 5.5318336 16777215
 1.7192841 -1.2031250 5.5873990 16777215
 1.7539780 -1.1833774 5.6046491 16777215
 1.7481554 -1.2170258 5.6421609 16777215
 1.7638586 -1.2674353 5.6680884 16777215
 1.7870152 -1.2728312 5.6975489 16777215
 1.7955275 -1.2533863 5.7125998 16777215
 1.8117570 -1.2466902 5.7606320 16777215
 1.8299499 -1.2174411 5.7982044 16777215
 1.8163081 -1.2250094 5.9168949 16777215
 1.8254275 -1.2025161 5.9555187 16777215
 1.8459383 -1.2069403 5.9839344 16777215
 1.8462758 -1.2039871 6.0186048 16777215
 1.8546963 -1.2171535 6.0765395 16777215
 1.8774384 -1.2280266 6.0993352 16777215
 1.8641961 -1.2490084 6.1222725 16777215
 1.8972516 -1.2348342 6.1869740 16777215
 1.9252914 -1.2340755 6.2112741 16777215
 1.9197941 -1.2482615 6.2284436 16777215
 1.9127414 -1.2407907 6.2690606 16777215
 1.9690713 -1.2590950 6.3050332 16777215
 1.9483659 -1.2681526 6.3330007 16777215
 1.9360521 -1.2525944 6.4006996 16777215
 1.8755151 -1.2733142 6.4614882 16777215
 1.9206597 -1.3101106 6.5203199 16777215
 1.9568188 -1.3614333 6.5385408 16777215
 1.9446023 -1.3803357 6.5674696 16777215
 1.9189820 -1.3524439 6.6132097 16777215
 1.8862354 -1.3843675 6.6083112 16777215
 1.9473022 -1.3864888 6.6342897 16777215
 1.9457490 -1.4015584 6.7016916 16777215
 1.9354801 -1.4066586 6.7407818 16777215
 1.9411809 -1.4163486 6.7990084 16777215
 1.9716326 -1.4165161 6.8429155 16777215
 1.9733760 -1.4313784 6.8695521 16777215
 1.9561058 -1.3446230 6.9264274 16777215
 1.9626485 -1.3031013 6.9522281 16777215
 1.9697957 -1.3428457 7.0056801 16777215
 1.9682420 -1.3351352 7.0342565 16777215
 1.9876688 -1.3662207 7.0690322 16777215
 1.9889346 -1.2968302 7.1302209 16777215
 2.0344141 -1.3412733 7.1521292 16777215
 2.0365274 -1.3471758 7.2037506 16777215
 2.0435379 -1.3888128 7.2072234 16777215
 2.0496583 -1.3175610 7.2758818 16777215
 2.0637164 -1.3362459 7.3102970 16777215
 2.0585618 -1.3299549 7.3543329 16777215
 2.0643201 -1.3254333 7.3784237 16777215
 2.0761037 -1.3683275 7.4032683 16777215
 2.0941260 -1.3351905 7.4342494 16777215
 2.0971098 -1.3373272 7.4433789 16777215
 2.1001899 -1.3800910 7.4677997 16777215
 2.1029713 -1.4106095 7.4868550 16777215
 2.1192026 -1.3954115 7.5219240 16777215
 2.1302974 -1.4056565 7.5224061 16777215
 2.1157799 -1.4255702 7.5452313 16777215
 2.1321511 -1.4161077 7.5325694 16777215
 2.1449466 -1.4087769 7.6487522 16777215
 2.1497638 -1.4297447 7.6687450 16777215
 2.1545851 -1.4371520 7.6824446 16777215
 2.1658072 -1.4510289 7.6954260 16777215
 2.1775846 -1.4551861 7.7514606 16777215
 2.1864026 -1.4690461 7.7654009 16777215
 2.1922672 -1.4706676 7.7763238 16777215
 2.1921711 -1.4751067 7.7774124 16777215
 2.2080300 -1.4926430 7.8154907 16777215
 2.2073939 -1.4736252 7.8805437 16777215
 2.2054515 -1.4781983 7.9319110 16777215
 2.2009952 -1.5104338 7.9572396 16777215
 2.2277725 -1.5227075 8.0012350 16777215
 2.2399559 -1.5237255 8.0147390 16777215
 2.2539570 -1.5598480 8.0379543 16777215
 2.2977064 -1.5560101 8.0576191 16777215
 2.2943482 -1.5525610 8.0842915 16777215
 2.3103390 -1.5727853 8.0943604 16777215
 2.3134375 -1.5437809 8.1113396 16777215
 2.3158627 -1.5553398 8.1368809 16777215
 2.2907755 -1.5043081 8.1892405 16777215
 2.3001356 -1.5455753 8.2298527 16777215
 2.3166926 -1.5677168 8.2447872 16777215
 2.3132520 -1.5655333 8.2513037 16777215
 2.3260863 -1.5734749 8.2657318 16777215
 2.3357160 -1.5874331 8.2762728 16777215
 2.3279164 -1.5814573 8.3027620 16777215
 2.3349714 -1.5882909 8.3105469 16777215
 2.3440185 -1.5910668 8.3256941 16777215
 2.3454585 -1.5869563 8.3529577 16777215
 2.3558168 -1.5694022 8.3661604 16777215
 2.3579283 -1.5878180 8.3815088 16777215
 2.3727553 -1.5969558 8.4054832 16777215
 2.3891940 -1.6002786 8.4259882 16777215
 2.3942504 -1.6039059 8.4634867 16777215
 2.3906665 -1.6185466 8.4873791 16777215
 2.3705382 -1.6079807 8.4993553 16777215
 2.3778110 -1.6065912 8.5367241 16777215
 2.4103630 -1.6181329 8.5516157 16777215
 2.4119608 -1.6137688 8.6003485 16777215
 2.3947010 -1.6381810 8.5787621 16777215
 2.4033501 -1.6310787 8.5880814 16777215
 2.4379399 -1.6501784 8.6394329 16777215
 2.4097221 -1.6542327 8.7049789 16777215
 2.4487085 -1.6718302 8.6982803 16777215
 2.4523699 -1.6591229 8.6781559 16777215
 2.3407855 -1.7118251 8.7259092 16777215
 2.3536444 -1.7016227 8.7401781 16777215
