# .PCD v.7 - Point Cloud Data file format
VERSION .7
FIELDS x y z rgb
SIZE 4 4 4 4
TYPE F F F F
COUNT 1 1 1 1
WIDTH 48
HEIGHT 1
VIEWPOINT 0 0 0 1 0 0 0
POINTS 48
DATA ascii

 0.4897622 -0.1853217 1.0100291 16777215
 0.0047808 -0.0009346 0.0121185 16777215
-0.3741122 -5.3884172 1.7140007 16711746
-0.9910583 -0.6954629 0.4572341 16711746
0.1363006 -1.1572833 -0.0504013 16711746
0.1661095 -1.8980832 -0.1472508 16711746
-0.4238634 -0.6090180 -0.0587915 16711746
-1.1139257 -6.5712533 0.0367486 16711746
-0.2285242 -0.5874590 -0.0086547 16711746
-0.3218323 -3.9840865 -0.3548166 16711746
-0.4338014 -1.3303887 -0.0621885 16711746
-0.2312826 -0.5794353 -0.0790841 16711746
-2.2567594 -5.9637918 -0.6313469 16711746
-0.3663971 -0.8894146 -0.0915534 16711746
-0.2036048 -1.0025048 -0.0432424 16711746
-0.3030971 -1.1478182 -0.0796290 16711746
0.0536420 -1.1576777 0.0480433 16711746
-2.2749982 -1.8885696 -0.5773880 16711746
0.1605761 -1.0980948 -0.0277485 16711746
-0.5769454 -1.1390076 0.0213051 16711746
-0.6801741 -1.2546841 0.0197584 16711746
-0.1328824 -0.8986668 -0.0112092 16711746
-0.9282287 -0.9489786 -0.2753553 16711746
-0.1681790 -0.9694011 -0.0865711 16711746
-0.1171385 -0.4993360 0.0685851 16711746
-3.3854787 -2.4358239 -0.0648952 16711746
-0.1841289 -0.8867748 -0.0613098 16711746
-0.5305430 -2.1616478 -0.1946564 16711746
-0.2298972 -1.0563649 -0.1059890 16711746
-0.2516391 -1.0870864 -0.1121791 16711746
-0.2472192 -1.0599905 -0.0294453 16711746
0.0749717 -0.4932058 0.0423664 16711746
-0.1498211 -0.9305980 -0.0438721 16711746
0.1178565 -1.1952969 -0.0622113 16711746
-0.5277795 -1.0715506 -0.0408559 16711746
0.0608154 -1.1023513 0.0992399 16711746
0.0431652 -1.2062843 0.0158182 16711746
-0.2855748 -0.6384124 -0.0141017 16711746
0.1049802 -1.0444739 0.0750005 16711746
-0.4794236 -1.0153381 -0.0590853 16711746
-0.4093628 -0.9377744 -0.0673347 16711746
-0.1450689 -3.0007505 0.1235089 16711746
-0.1507635 -0.6782596 0.0811387 16711746
-0.1568817 -0.6710750 -0.0703515 16711746
-0.4357266 -1.2774084 -0.1544921 16711746
-2.2539577 -4.1707945 -0.4097144 16711746
-0.4610991 -1.0100785 0.0299649 16711746
-0.8939613 -1.5288998 0.1310419 16711746
