# .PCD v.7 - Point Cloud Data file format
VERSION .7
FIELDS x y z rgb
SIZE 4 4 4 4
TYPE F F F F
COUNT 1 1 1 1
WIDTH 162
HEIGHT 1
VIEWPOINT 0 0 0 1 0 0 0
POINTS 162
DATA ascii

-0.0672150 -0.2417024 0.0174961 16711746
1.3529524 -1.3586979 0.4205905 16711746
0.1455552 -2.0150113 0.2440421 16711746
-0.0810242 -1.0707413 0.2953256 16711746
-0.1046852 -1.5243378 0.4011234 16711746
-0.3049083 -0.8096322 0.1915636 16711746
0.0728582 -1.0218874 0.0569175 16711746
0.0177865 -1.6668439 0.9968051 16711746
0.0232874 -1.0693074 0.7920954 16711746
-0.0172658 -1.0754278 0.7361016 16711746
0.4313834 -2.0947187 1.0021485 16711746
0.5101800 -1.6492465 0.9164194 16711746
0.6861032 -1.2487394 0.7016482 16711746
-0.9019992 1.6816103 -1.8739725 16711746
-0.6804964 1.6123078 -1.7703748 16711746
-0.8500432 1.4588599 -1.8143984 16711746
0.1764715 1.6607395 -1.8039603 16711746
0.2666864 1.6527961 -1.8255986 16711746
-0.5790905 1.5972148 -1.4155484 16711746
0.5385023 -1.4672165 1.2254553 16711746
-0.4711337 1.4397601 -1.4393835 16711746
-0.5795724 1.4887199 -1.4499167 16711746
0.0317806 -2.0941372 1.6988437 16711746
0.0569935 -0.9286752 0.3636174 16711746
0.3875193 -1.3561556 0.5767142 16711746
-2.0613651 -1.3609258 0.0022995 16711746
0.4835007 -2.0910652 0.8195121 16711746
0.0334306 -0.6541306 0.1216699 16711746
0.5352684 -0.8298639 0.1706281 16711746
-0.3130255 -1.4305357 0.0521757 16711746
-0.3331986 -1.4905206 0.0185156 16711746
-0.0170423 -1.4167314 0.5620516 16711746
-0.0539276 -0.3007457 -0.0202239 16711746
0.0667107 -1.3985353 0.2014664 16711746
1.5181220 -1.5193555 0.3792408 16711746
-0.6243025 -1.1651986 0.0465228 16711746
1.4883540 1.6013472 -1.6937482 16711746
1.1605327 -1.7019475 0.4182334 16711746
-0.0192947 -0.7465449 0.0888709 16711746
-0.3635289 -0.8052340 -0.0511741 16711746
0.5842678 -1.4356364 -0.0073689 16711746
-0.1955539 -1.1511167 0.2019692 16711746
-1.6891496 -1.1601616 -0.0269620 16711746
-0.2203130 -1.0440464 0.1839356 16711746
-0.1090338 -0.4743220 0.0881993 16711746
-0.2076236 -0.9224198 -0.0136034 16711746
-0.2397417 -0.8746216 -0.0112889 16711746
-0.2592894 -0.8488534 -0.0187407 16711746
0.1728780 -0.3411883 0.0046488 16711746
0.0549048 -0.5759328 -0.0071078 16711746
0.6800980 -1.7449600 0.9784111 16711746
0.7976633 -2.2638535 1.2666808 16711746
0.7283466 -2.0400300 1.0930318 16711746
-0.0633755 -0.4110904 0.0084158 16711746
-0.0043893 -0.5023496 0.0056769 16711746
-0.0093239 -0.5683390 -0.0015049 16711746
-0.3037857 -1.2628499 0.1421344 16711746
-0.1396555 -0.0777873 0.0649781 16711746
0.3059002 -0.9375635 0.3129098 16711746
1.7909343 -2.0388503 0.7208735 16711746
-0.2719881 -1.5162948 0.0270176 16711746
-0.1368232 -0.6290384 0.0601765 16711746
-0.8275592 -1.3287992 -0.0582286 16711746
-0.2506847 -0.6692609 0.0139993 16711746
-0.0834899 -0.2080614 0.0092083 16711746
-0.3923586 -0.9506963 -0.1025048 16711746
-0.3646717 -0.9814680 0.1876219 16711746
-0.4252001 -0.9688765 0.1587246 16711746
-0.3599519 -0.9516390 0.1306864 16711746
-0.1526887 -1.5989001 1.3825134 16711746
-0.8368362 -1.0643473 0.5008528 16711746
1.9802147 1.5123670 -1.6641517 16711746
1.2037728 1.7854824 -1.6763523 16711746
0.3867864 -1.5278764 0.2178847 16711746
0.0174487 -0.8521831 0.0842537 16711746
0.0209547 -0.4252087 0.0287780 16711746
0.0675540 -0.4410458 0.0382293 16711746
0.0973530 -0.4098333 -0.0209771 16711746
0.0498198 -0.7266485 -0.0359701 16711746
0.1294129 -0.7700629 -0.0482695 16711746
0.0677497 -0.4974294 0.0264346 16711746
1.2244523 -1.8758266 1.1544794 16711746
-0.1459910 -1.5738976 1.3095081 16711746
0.1658983 -1.3533576 0.2694297 16711746
0.2254395 -1.6565430 0.2917749 16711746
-0.7169470 -0.9189389 0.0537679 16711746
0.8329797 -2.0247891 1.2240111 16711746
-0.4076079 -0.7088134 -0.0550496 16711746
-0.4918791 -1.1698942 0.0700187 16711746
1.3947728 1.5938133 -2.0012157 16711746
0.5353706 -1.3106850 0.9624828 16711746
0.9573344 -1.7147694 0.6601650 16711746
-0.1587535 -0.4637043 0.0574441 16711746
0.1166721 -0.8407719 0.1099902 16711746
0.1378813 -0.8850185 0.1057271 16711746
0.1351323 -0.9056387 0.1004332 16711746
0.0016078 -0.3959131 0.0317686 16711746
-0.6223529 -1.7519065 -0.2374634 16711746
0.2989590 -2.0523865 0.8901433 16711746
0.2095074 -1.5591339 0.6455688 16711746
-0.7357961 -1.3894470 -0.0669173 16711746
0.4528407 -1.6928520 0.6098334 16711746
0.0771267 -0.2928122 0.0003316 16711746
-0.6209608 -1.5131049 0.3320083 16711746
-0.0054989 -0.2662735 0.0196142 16711746
-0.0729982 -0.1823334 0.0058804 16711746
-0.3295130 -0.7337692 -0.0259913 16711746
2.0843272 1.7055026 -1.5010806 16711746
0.5690850 -0.7917067 0.1735382 16711746
0.1410214 -1.2573264 0.6297420 16711746
-0.6298538 -1.2092007 0.0325904 16711746
-0.2589519 -0.5478195 0.0153881 16711746
-0.2948289 -0.8274116 -0.0259441 16711746
-0.0384204 -0.2377248 0.0557315 16711746
-0.0427601 -0.2867756 -0.0014300 16711746
0.1146091 -0.3065231 -0.0034082 16711746
0.1597391 -1.3971691 0.2179077 16711746
0.0636537 -0.7838448 0.1169911 16711746
0.8400457 -1.3242214 0.0960239 16711746
0.5495074 -1.0390581 0.1367521 16711746
-0.1014791 -0.4496898 -0.0209162 16711746
0.1932192 -1.4829528 0.6842850 16711746
0.7417153 -1.7803048 1.1486404 16711746
0.5621478 -1.5703170 1.0279388 16711746
0.5914181 -1.7225341 1.0637879 16711746
1.5812384 -2.0164137 0.6875518 16711746
-0.5710496 -1.1331500 0.0715614 16711746
0.3064522 -1.4114541 -0.0669063 16711746
0.5770239 -1.1487517 0.1151175 16711746
1.3230447 -1.8982899 0.2913170 16711746
-0.3489893 -1.1444025 0.1307262 16711746
-0.0166425 -2.1089227 0.5868306 16711746
1.2125499 -1.4098469 0.4150201 16711746
1.1989963 -1.4888790 0.4421691 16711746
0.1595852 -1.2666750 0.2664457 16711746
0.2074881 -0.7817751 -0.0314991 16711746
0.2446287 -1.4851360 0.2463972 16711746
0.2569751 -1.9650818 0.3205607 16711746
0.3063552 -0.8124514 -0.0248742 16711746
0.3619242 -0.6776835 0.0117084 16711746
0.1995419 -1.1988407 0.3060001 16711746
0.2520817 -1.8360180 0.4822447 16711746
-0.3679750 -0.8095298 0.1585232 16711746
0.1942128 -0.7263082 -0.0392469 16711746
-0.2596992 -0.9646897 -0.0357411 16711746
-0.2833439 -1.0929735 -0.0883045 16711746
-0.0209686 -1.5538660 0.8655490 16711746
-0.6564801 -0.7423820 0.1225402 16711746
1.2529480 -1.9476367 1.2628391 16711746
5.5583634 -14.4436493 7.9416981 16711746
8.9955235 -6.7278080 2.1081741 16711746
-35.5022087 -17.4346638 2.3089020 16711746
-1.6696465 -64.7707672 11.4263983 16711746
1.6155474 -3.1912127 2.8796275 16711746
1.2525406 -2.4720058 2.2279902 16711746
0.2923960 -1.2392331 1.0831960 16711746
0.4915427 -2.8006222 2.1498032 16711746
0.7537853 -2.0990872 1.2688754 16711746
5.8694458 -11.0153933 12.1920652 16711746
3.1693132 -15.5133924 13.2844448 16711746
1.1622808 -2.1854920 2.1636834 16711746
-32.1390419 -110.9452362 31.1422157 16711746
