# .PCD v.7 - Point Cloud Data file format
VERSION .7
FIELDS x y z rgb
SIZE 4 4 4 4
TYPE F F F F
COUNT 1 1 1 1
WIDTH 85
HEIGHT 1
VIEWPOINT 0 0 0 1 0 0 0
POINTS 85
DATA ascii

 0.0686808 0.0208894 -0.1641068 16777215
 -0.6442009 0.6336212 1.4453946 16777215
-1.4101220 1.8281553 1.0636615 16711746
-0.5212112 2.0379155 1.2883210 16711746
-0.5458650 1.9825178 1.2458686 16711746
-0.4278433 1.6227646 0.8723703 16711746
-1.0125169 1.5804677 0.8238424 16711746
-1.2718744 2.0296266 1.2983699 16711746
-0.7835353 0.0255889 2.9464581 16711746
-0.3848151 0.0125479 2.5354185 16711746
-0.3841361 0.0207107 2.5455794 16711746
-1.5542067 1.5745307 0.7000421 16711746
-0.7885900 1.7934005 1.0646210 16711746
-0.8157493 1.7567008 1.0325933 16711746
-0.6875142 1.4647032 0.7438836 16711746
-1.7949191 -0.2591799 2.3760958 16711746
-1.3737246 1.5440881 0.7026320 16711746
-0.7771370 1.8130108 1.0793169 16711746
-1.3154932 1.8534104 1.1202040 16711746
-1.3748125 1.7909081 1.0370260 16711746
-0.9712130 1.4279068 0.6776369 16711746
-1.0547214 -0.0986332 2.4725399 16711746
0.7195389 -0.3040147 2.0883572 16711746
-1.4653176 1.7579167 0.9690748 16711746
-0.1763401 2.0445454 3.4612279 16711746
-1.3363690 1.8688593 1.1296508 16711746
-1.3771962 -0.1698486 2.7850528 16711746
-1.3999336 -0.1625992 2.7758195 16711746
-1.3168128 -0.2834419 2.1256080 16711746
-1.2854699 1.9459095 1.2200068 16711746
-0.9344642 1.5446690 0.8215256 16711746
-1.2538173 1.4549559 0.6234757 16711746
-1.7726880 1.7340468 0.8713306 16711746
-1.8408848 -0.2445136 2.3880978 16711746
-1.2703488 1.4827439 0.6585830 16711746
-0.5742305 1.9913971 1.2495385 16711746
-0.1310921 1.8512063 1.0334103 16711746
-1.0062044 -0.2042791 2.3383484 16711746
-0.2175310 1.7735506 0.9832514 16711746
-0.6183903 1.9490124 1.2137233 16711746
-0.6256984 -0.0416665 2.3425508 16711746
-1.8496674 -0.2097457 2.4573967 16711746
-1.8117175 -0.2644612 2.3056629 16711746
-1.8507398 -0.2201616 2.4340351 16711746
-0.4018509 0.0970210 2.6144922 16711746
-0.4319028 0.0397970 2.5149295 16711746
-1.8598658 -0.1810429 2.5189757 16711746
-1.7905999 -0.2608231 2.2994785 16711746
-0.5756819 1.9625860 1.2290316 16711746
-0.6087024 1.9327167 1.2040278 16711746
-1.7592382 -0.3726938 2.1065347 16711746
-2.0515223 -0.3533541 2.2829971 16711746
-1.2832348 1.8854774 1.1616491 16711746
-0.8950444 -0.2359099 1.9636443 16711746
-1.4409050 1.7483948 0.9693837 16711746
-1.2377478 2.0585895 1.3365490 16711746
-0.9529002 1.5892633 0.8622685 16711746
-1.7440573 -0.2777360 2.3533554 16711746
-1.3826827 -0.2282714 2.2059872 16711746
-1.2196881 2.0259659 1.3139147 16711746
-1.1999531 2.0432751 1.3347646 16711746
-1.7470248 -0.2319513 2.4312336 16711746
-1.7060637 -0.2382461 2.4262404 16711746
-1.4771299 1.6702371 0.8607681 16711746
-0.9095172 -0.0857451 0.2544662 16711746
-1.7353340 -0.1708473 2.5483496 16711746
-1.7931609 -0.2056798 2.4745164 16711746
-1.6945113 -0.1919006 2.5133288 16711746
-0.4361360 -0.3201956 2.6199956 16711746
-1.7373405 -0.1466877 2.5982358 16711746
-1.8386251 -0.1878411 2.5063701 16711746
-1.7642193 -0.1619368 2.5640867 16711746
0.4822369 -0.3314470 1.9663507 16711746
0.4679433 -0.2445747 2.2921152 16711746
-0.0346226 -0.1288099 2.6332383 16711746
0.1506768 -0.4046038 1.8675314 16711746
0.0438554 -0.3109675 2.3587689 16711746
-0.3050531 2.2245200 1.4346060 16711746
-0.0219667 1.9398451 1.0921465 16711746
0.5880008 -0.1396878 2.5426466 16711746
-1.2458615 -0.3291097 2.0862923 16711746
-1.8972222 -0.4393148 2.0834994 16711746
-0.4037782 -0.0870917 2.3949714 16711746
-0.4085577 -0.0938356 2.3823187 16711746
-1.3642943 1.5416790 0.7000772 16711746
