# .PCD v.7 - Point Cloud Data file format
VERSION .7
FIELDS x y z rgb
SIZE 4 4 4 4
TYPE F F F F
COUNT 1 1 1 1
WIDTH 65
HEIGHT 1
VIEWPOINT 0 0 0 1 0 0 0
POINTS 65
DATA ascii

 0.0343987 0.0111484 -0.2028265 16777215
 -0.0231015 0.0071581 0.0312326 16777215
-1.5141938 0.7236087 1.6162983 16711746
-1.8341687 0.4517694 1.4131550 16711746
-1.6507192 0.5640317 1.6424763 16711746
-0.5549546 0.2830251 2.6044719 16711746
-2.1170435 0.0500359 1.4941028 16711746
-1.0107831 -0.9412099 1.8308402 16711746
-1.5981400 -0.4609450 1.7422292 16711746
-1.2153536 -0.5948001 1.7340220 16711746
-0.8425480 -0.4051718 1.5126846 16711746
-1.1744932 0.6873384 1.8933381 16711746
-1.1269321 -0.5997831 2.0206494 16711746
0.0067929 -0.0047325 2.3967698 16711746
-1.1835741 0.6846363 1.9043448 16711746
-1.6706383 0.5255547 1.6475445 16711746
-1.7856237 0.5312278 1.7510746 16711746
-1.6642934 0.5482283 1.6561520 16711746
-1.8207486 0.5943126 1.8124119 16711746
-1.2911023 -0.6444748 1.5731065 16711746
-0.7901732 0.2394750 1.7512418 16711746
0.4940439 -0.9721413 2.2143545 16711746
-0.8940191 -0.9715829 1.9057055 16711746
-0.9806815 -0.8611146 1.6172264 16711746
-1.0201513 -0.8573877 1.5555987 16711746
-0.5486536 -0.8658157 2.2053168 16711746
-0.3889788 -0.9912483 2.3784385 16711746
-0.0029096 -0.0017073 2.2445571 16711746
0.0042257 -0.0032318 2.2874298 16711746
-1.9309890 0.1892636 1.6116964 16711746
-0.0020151 -0.0017947 2.2044466 16711746
-0.6066170 -0.9873312 1.9737490 16711746
-1.5660691 0.5775669 1.6555357 16711746
-0.6927496 1.1492046 1.9526136 16711746
-0.9355810 0.6609689 1.9861834 16711746
-1.3568445 -0.3158596 1.9755726 16711746
-0.7205446 -0.8793533 1.9685771 16711746
-0.5441931 -0.7174395 2.4371154 16711746
-2.0740802 -0.3775874 1.5613757 16711746
-2.0529113 0.0898940 1.5346434 16711746
-2.0061848 0.2576816 1.4695863 16711746
-1.8930746 0.4053446 1.3984512 16711746
-1.0299208 -0.8041860 1.6543316 16711746
-1.1377865 -0.9113441 1.7440150 16711746
-1.1449367 -0.3925126 1.3982593 16711746
-1.7686328 -0.3916274 1.6526694 16711746
-1.9064845 -0.3101721 1.6048690 16711746
-0.7252553 -0.4051138 1.6112286 16711746
0.1377937 -0.8859933 1.9525431 16711746
-0.2470075 -0.5328749 1.9446492 16711746
-0.3887644 -0.6849604 2.5398166 16711746
-0.4056659 -0.7722094 2.4588745 16711746
-0.8930367 -0.2633312 1.5741010 16711746
-1.8200312 0.4759642 1.4626698 16711746
-1.3703535 0.9415345 1.5253383 16711746
-0.0001481 -0.0035709 2.3564138 16711746
-1.5259557 0.8884662 1.5297260 16711746
-0.0030823 -0.0017025 2.2542794 16711746
-0.0030649 -0.0017146 2.2560225 16711746
-0.6455365 0.7837606 2.2063189 16711746
-1.2668246 -0.7371956 1.8142949 16711746
-1.3491189 -0.7343839 1.7453113 16711746
-1.0175929 -0.6699929 2.0627868 16711746
-0.8345438 -0.8177297 1.9017289 16711746
-1.2094738 -0.3416262 1.9680119 16711746
