# .PCD v.7 - Point Cloud Data file format
VERSION .7
FIELDS x y z rgb
SIZE 4 4 4 4
TYPE F F F F
COUNT 1 1 1 1
WIDTH 1188
HEIGHT 1
VIEWPOINT 0 0 0 1 0 0 0
POINTS 1188
DATA ascii
1.9882898 -3.3065350 8.0900192 16711746
2.0078375 -2.7751384 8.3261595 16711746
2.8156326 -4.0561481 8.0840578 16711746
3.0407071 -3.6359241 8.8691015 16711746
2.0388539 -2.7518573 8.2157354 16711746
0.9132126 -4.0681963 8.1168184 16711746
1.4750240 -2.8019369 7.9769573 16711746
4.3156796 -6.8608069 11.6529989 16711746
1.3788409 -3.6720629 7.6114168 16711746
4.1729312 -6.5442448 10.6624746 16711746
3.9364183 -4.6299081 8.3014221 16711746
2.9066823 -3.1813040 9.1210623 16711746
3.8104141 -5.4394813 11.4250612 16711746
1.3367071 -6.1778688 10.7719479 16711746
3.8585002 -4.7784286 10.2276669 16711746
3.1547801 -5.1808362 11.1330118 16711746
3.9834521 -5.6085982 10.9647026 16711746
2.9618239 -3.3296797 8.4029560 16711746
2.9097011 -3.8900609 8.9441862 16711746
2.2600241 -5.3939266 10.6210518 16711746
2.5824873 -3.3735261 8.4228039 16711746
3.3704231 -4.9685955 9.7560091 16711746
2.5242562 -2.3108678 8.4199553 16711746
2.6346920 -2.9438758 8.8506060 16711746
2.2884772 -3.4413776 8.6724119 16711746
2.8482633 -3.0515094 8.3852110 16711746
1.9100163 -3.5580184 7.8816533 16711746
2.2749503 -3.3266842 8.7904434 16711746
2.2362561 -3.1670303 8.6851282 16711746
2.5839460 -3.9678223 8.0642271 16711746
1.9621189 -4.0024090 8.9145164 16711746
2.6306543 -2.8116996 8.3844995 16711746
0.7572048 -3.8059206 8.2016363 16711746
2.4173806 -2.8428369 8.3426027 16711746
1.0140840 -2.6569486 8.2912512 16711746
2.4082291 -2.9326131 8.4359941 16711746
2.4224241 -3.0729344 8.5289707 16711746
1.8714862 -3.4607165 9.2843361 16711746
2.5662365 -2.7731781 8.9177723 16711746
1.0439554 -4.3112106 8.0452318 16711746
2.6249621 -4.0047860 8.0801077 16711746
2.2240288 -3.1108930 8.7383919 16711746
2.3774598 -3.6030543 8.2133036 16711746
3.9475832 -5.8103781 11.7268410 16711746
2.3629651 -3.1069710 8.2516422 16711746
2.2746530 -4.2405028 8.8869638 16711746
3.1117918 -3.1172094 8.2958069 16711746
2.2682061 -3.8157940 8.6959276 16711746
2.4293883 -2.6424370 8.2774229 16711746
4.1792216 -5.1083164 9.0066128 16711746
1.9726802 -3.1293011 8.6015501 16711746
1.6369225 -3.0756390 9.3241425 16711746
1.9879266 -3.1311979 8.5932503 16711746
0.8070005 -3.8407831 8.0501299 16711746
2.2897379 -3.2423105 8.6363926 16711746
1.5424151 -2.7120337 8.3498306 16711746
2.1657939 -3.7691822 8.1666603 16711746
3.6475618 -5.8800540 8.9950991 16711746
3.1209910 -4.9275699 8.6870108 16711746
3.2127533 -3.4798398 8.2237082 16711746
4.5456748 -4.8689113 11.2945051 16711746
1.6729831 -2.8596685 8.4822598 16711746
2.0680189 -2.4194894 8.5146627 16711746
2.2020011 -3.2641306 8.8640003 16711746
2.6370158 -3.2529097 8.2701893 16711746
2.6116550 -2.3446441 8.2791672 16711746
3.0059071 -4.5367451 8.9191523 16711746
2.1597641 -3.1643200 8.7472000 16711746
2.8031676 -3.9464371 8.6459360 16711746
2.6629903 -2.9808795 8.4484968 16711746
3.4668014 -3.9836137 8.6681757 16711746
1.9571823 -2.3687932 8.3224974 16711746
2.2228916 -2.9035277 8.7416668 16711746
2.2168889 -3.1253855 8.6185102 16711746
2.4477167 -2.9116864 8.2405643 16711746
2.2124696 -3.0310292 8.5967531 16711746
1.6930807 -3.3120201 8.4773855 16711746
2.6430640 -3.3026979 8.5814123 16711746
2.5455322 -3.1257198 8.3782663 16711746
1.6654071 -3.2802827 8.4122868 16711746
2.4363227 -2.7535937 8.2412243 16711746
2.1809216 -3.0859745 8.6394873 16711746
2.8361287 -4.1043177 8.4433813 16711746
2.2470202 -2.9221029 8.2899046 16711746
2.3994544 -2.7595053 8.3139534 16711746
2.0059197 -3.3279755 8.7602396 16711746
1.6590976 -2.3057258 8.6260595 16711746
2.2459118 -2.7474582 8.6416111 16711746
2.8931422 -2.7792344 8.5094271 16711746
1.5419109 -3.1562836 8.3350973 16711746
2.8225996 -2.9689720 8.2637548 16711746
2.6741781 -2.9625931 8.4004927 16711746
3.1563222 -4.4338980 9.1433487 16711746
2.6445308 -3.4918885 8.1905689 16711746
2.7820630 -2.9660077 8.3736219 16711746
3.1191766 -3.1675107 8.4914188 16711746
2.3892758 -2.7855814 8.1264162 16711746
2.9323366 -2.9080262 8.5990276 16711746
3.0015187 -2.7291851 8.5396299 16711746
2.7120016 -2.8530381 8.7437267 16711746
3.1962123 -3.4267819 8.2121744 16711746
2.1622136 -3.1268108 8.7333784 16711746
2.6104391 -3.0919664 8.3109436 16711746
2.8807523 -2.8838274 8.3872108 16711746
2.7330949 -3.0406342 8.3572159 16711746
2.3523450 -2.8630002 8.3573456 16711746
1.9966123 -2.8823643 8.1769428 16711746
2.5677388 -3.4322746 8.1329041 16711746
2.9538100 -3.5334642 8.1302509 16711746
2.3585281 -2.5885639 8.2925911 16711746
3.3008704 -3.9189055 9.2128334 16711746
2.1142781 -2.5943832 8.3898964 16711746
2.8066788 -3.0568719 8.5376949 16711746
2.8659430 -3.5093799 8.3392572 16711746
2.7944574 -3.2864373 8.3334150 16711746
2.6378298 -3.2428696 8.3088961 16711746
2.8107696 -3.7573643 8.1307201 16711746
2.6897657 -2.9956212 8.4512787 16711746
2.1653309 -3.5036736 8.8893061 16711746
2.6564991 -3.3436303 8.3914709 16711746
1.9396930 -3.7951605 8.1586237 16711746
1.9403106 -3.8557365 8.9315729 16711746
1.8400835 -3.7431428 9.4388971 16711746
2.0950429 -3.2704444 8.2241325 16711746
2.7413819 -3.1163895 8.9213705 16711746
2.0869620 -3.1961493 8.2145853 16711746
2.1468515 -4.2812219 8.7223568 16711746
3.4680991 -3.3688169 9.5720491 16711746
2.6605613 -3.8830175 7.9106979 16711746
2.7436020 -4.2070608 8.1474705 16711746
2.4854677 -3.1289811 8.1927462 16711746
2.6041675 -2.9114628 8.7273149 16711746
2.4702175 -3.0609093 8.3560152 16711746
2.4504347 -3.6422603 8.0461397 16711746
1.6749408 -3.2470701 8.5042610 16711746
2.6410351 -3.2889616 8.2704458 16711746
2.6129603 -2.7579706 8.9813528 16711746
2.1215792 -3.1266639 8.1418543 16711746
2.7122421 -2.9593811 8.5724316 16711746
1.7479458 -3.3116879 8.3971148 16711746
1.8851110 -3.5555472 8.9272184 16711746
1.6052657 -3.0572698 8.3172626 16711746
2.7569933 -3.2560081 8.4760227 16711746
5.0252590 -7.3706427 12.7814856 16711746
2.6362054 -2.8717189 8.5264673 16711746
2.1242027 -3.4086287 8.4999781 16711746
2.4557290 -3.1507833 8.0933332 16711746
1.9276760 -2.9197433 8.3279800 16711746
2.4207296 -3.2145617 8.1779146 16711746
2.0038130 -2.6046259 8.1819725 16711746
2.8109074 -3.1597130 8.5071535 16711746
3.0673504 -3.2547979 8.5560951 16711746
1.5481533 -3.5486476 8.4319439 16711746
2.4899573 -3.2086444 8.4058981 16711746
2.7641358 -3.5867825 8.7243690 16711746
1.9867581 -2.7521095 8.1930609 16711746
2.0077295 -2.4048543 8.7029905 16711746
2.1466854 -3.1360195 8.3079329 16711746
2.0322101 -3.3082364 8.3374119 16711746
2.7596400 -2.2547204 8.4414282 16711746
2.7499468 -2.9946342 8.3613682 16711746
2.4319651 -2.7509398 8.2496891 16711746
2.8760924 -4.0576806 8.1153154 16711746
2.1287451 -3.2384708 8.2603350 16711746
2.4647217 -2.4430301 8.2554512 16711746
2.0319808 -3.3001318 8.1882343 16711746
2.5905132 -2.9314108 8.4443417 16711746
1.2790502 -2.3369570 8.5106020 16711746
1.5515970 -3.5204918 8.2728806 16711746
2.8506470 -3.2039027 9.1916809 16711746
1.5955024 -3.2909064 8.3770943 16711746
2.4613562 -2.5002520 8.7079372 16711746
2.1156263 -3.3469467 8.2541265 16711746
2.1136498 -3.3363533 8.4831104 16711746
2.7622776 -2.8113003 8.3445120 16711746
1.7808592 -3.4532313 8.3896408 16711746
1.9068375 -2.7014825 8.3429022 16711746
1.6826937 -3.2065544 8.3080940 16711746
2.3783202 -2.4937797 8.3551121 16711746
2.5333562 -2.5794091 8.6182766 16711746
1.9525652 -2.2087066 8.8457146 16711746
1.7169230 -3.1212983 8.3111935 16711746
1.9717593 -2.4100704 8.3916321 16711746
1.9810675 -2.3262672 8.2615767 16711746
1.6784172 -3.0408871 8.2561703 16711746
2.6795313 -2.6095173 8.3651819 16711746
1.6528859 -3.2778666 8.2997904 16711746
1.8848509 -3.0746458 8.3283424 16711746
1.6868478 -3.1983249 8.3035698 16711746
2.8003447 -2.9349964 8.4043722 16711746
0.5616106 -3.7936049 9.1700640 16711746
2.9995875 -2.8537936 8.9900408 16711746
3.2780387 -4.4213762 9.4575939 16711746
0.5368953 -2.9029441 9.1624117 16711746
2.2613494 -3.3131258 8.1067677 16711746
2.9545846 -3.0181363 9.2409124 16711746
2.7517622 -2.9210696 8.4045362 16711746
2.4070604 -2.3909659 8.2436724 16711746
2.3932657 -2.2515509 8.6260376 16711746
2.2701950 -2.8272622 9.2661486 16711746
2.9457271 -2.7336500 8.5045767 16711746
1.5487452 -3.1551564 8.6235800 16711746
1.6264757 -3.0223978 8.6031342 16711746
3.0272324 -2.8580663 8.4353180 16711746
2.0855486 -2.6697338 8.5511179 16711746
3.1226537 -4.2954283 9.1088905 16711746
1.4453615 -4.2758679 8.1884003 16711746
2.6445169 -2.7355652 8.5421371 16711746
1.1068391 -3.5034254 8.3066950 16711746
2.6287384 -3.0747988 8.4073372 16711746
3.4582698 -4.6354656 9.7496815 16711746
3.5383148 -5.4117389 10.0102119 16711746
2.6195235 -2.8861120 8.3724623 16711746
2.7434704 -2.6921749 8.2447863 16711746
2.4867134 -2.6790636 8.4927797 16711746
2.4433699 -2.6605606 8.5172319 16711746
2.7254951 -2.9427333 8.7555017 16711746
2.3936841 -2.7729530 8.2488575 16711746
1.0448060 -3.4453061 8.0802908 16711746
1.9304925 -2.5297968 8.2844658 16711746
1.4481449 -3.3386619 8.2962189 16711746
1.1902941 -2.9764426 8.0066833 16711746
3.0122454 -3.4276192 8.4793921 16711746
2.8977230 -2.5393751 8.9515018 16711746
2.7179570 -3.1923938 8.9131784 16711746
2.7722456 -3.5628741 8.3942432 16711746
4.0181489 -6.0300736 10.7924786 16711746
2.7017705 -3.0496302 8.6117611 16711746
1.5023776 -3.6915119 9.0448608 16711746
9.5026464 -10.9346781 9.6055002 16711746
2.5798926 -3.4289620 8.1332378 16711746
3.2919362 -4.2948666 9.1358557 16711746
2.9667797 -7.1344852 9.8404036 16711746
1.7787114 -3.5132053 8.5055523 16711746
2.5492318 -2.2733395 8.4781446 16711746
2.0656836 -3.3689463 8.2794075 16711746
2.6593831 -2.5783820 8.3906422 16711746
2.6937587 -2.4121754 8.3406143 16711746
2.1308601 -3.2169032 9.0261335 16711746
2.9634902 -4.0231094 9.1266394 16711746
2.6511047 -2.9732339 8.9409599 16711746
1.3860908 -3.4620655 8.0767956 16711746
2.6919677 -3.3540721 8.3666229 16711746
3.0685771 -2.9014854 8.3863840 16711746
1.3846163 -3.0172088 8.1872520 16711746
2.0814929 -3.0470715 9.2235832 16711746
1.2217907 -3.3632004 8.4994450 16711746
0.5708582 -3.4672725 8.7013178 16711746
2.4965067 -2.9856391 8.8611832 16711746
1.3759097 -3.4855120 8.0744925 16711746
3.3708241 -3.9748964 9.4360867 16711746
3.5200233 -4.6450605 9.5071840 16711746
3.9801326 -3.5381331 8.4282055 16711746
3.7659883 -4.0853238 10.4099417 16711746
1.7914772 -3.3520629 8.1994028 16711746
1.4879602 -3.3698461 8.1782131 16711746
2.8136027 -3.0997350 8.3675814 16711746
0.7876924 -4.9343529 7.8601904 16711746
3.2471571 -3.5529990 8.3201990 16711746
2.5889750 -3.2679427 8.3838501 16711746
0.7546744 -4.2882023 7.9474654 16711746
3.3404760 -3.3942604 8.3430109 16711746
1.7799839 -3.8430724 8.0822115 16711746
0.9524020 -3.9333420 7.9853597 16711746
2.9235532 -2.8984554 8.5621586 16711746
3.0148079 -3.0192146 8.7474785 16711746
4.0489211 -5.5225520 10.4298372 16711746
1.4556361 -3.9797482 8.8757744 16711746
3.2049451 -3.5439169 9.1743422 16711746
2.6870787 -3.1293144 8.6306047 16711746
2.8387117 -3.6409073 8.7796860 16711746
2.7639544 -3.2502773 8.4915810 16711746
1.1807092 -3.5481915 8.0537977 16711746
3.3314414 -3.4016042 8.3791056 16711746
2.6226535 -2.7885520 8.7692413 16711746
3.0146706 -3.8288152 8.7309332 16711746
3.4181211 -4.6019893 9.5682697 16711746
3.4940550 -5.0195565 10.0997095 16711746
1.7121605 -3.3666060 8.7593555 16711746
1.7254876 -3.3451018 8.7592897 16711746
3.6205103 -4.8086963 9.7683496 16711746
2.4704666 -2.7372780 8.4972000 16711746
2.6943705 -3.1473885 8.3965025 16711746
3.0340452 -3.9824934 8.8311691 16711746
3.3101714 -3.5549014 9.0980730 16711746
3.1922343 -3.4507401 8.3247643 16711746
1.8965192 -3.6916227 8.8440094 16711746
2.4917915 -2.9680183 8.5165825 16711746
3.0908535 -3.7364280 9.0614777 16711746
3.8564720 -3.6950743 8.4074011 16711746
2.8245547 -3.6845269 8.5864773 16711746
2.4206867 -3.0052083 8.5434389 16711746
2.7018223 -3.1138580 8.8894749 16711746
3.1921358 -3.0259690 9.3826284 16711746
2.5649767 -3.3467309 8.4709415 16711746
2.2898428 -3.8331225 8.8316021 16711746
2.1255865 -2.9995394 8.9581947 16711746
2.6705706 -3.5877295 8.6140919 16711746
2.9321632 -3.5117757 8.6766481 16711746
1.8368598 -4.6246834 9.5061293 16711746
2.1325531 -3.3478749 8.8329306 16711746
2.9087336 -2.7964320 8.5364161 16711746
2.1000199 -2.7259634 8.9869175 16711746
0.9848663 -3.2402129 9.2038517 16711746
2.3524861 -3.4153442 8.6468267 16711746
2.7022331 -2.9843509 9.6517229 16711746
2.6955173 -3.2579980 8.9836092 16711746
2.4210229 -2.9649305 8.5661049 16711746
2.7729871 -3.4314916 8.4959154 16711746
3.4594460 -4.6925511 9.3419676 16711746
0.4912668 -3.6738381 8.0038862 16711746
3.0044386 -3.5786109 8.8685913 16711746
1.7563354 -3.6632109 8.1271400 16711746
3.4621811 -4.8711576 9.6897421 16711746
3.3115480 -4.4484229 9.7212667 16711746
3.7576528 -4.5428686 9.6287727 16711746
2.0725036 -3.6312423 8.5019751 16711746
3.6872139 -4.6116285 9.7905979 16711746
2.0216312 -3.1809468 9.1346655 16711746
3.9174757 -5.6987491 9.8730850 16711746
1.6937962 -3.3364573 8.4570312 16711746
2.7707939 -3.5407753 8.6889849 16711746
2.4160025 -3.4436891 8.4118118 16711746
2.1586542 -3.6543567 8.4487638 16711746
2.6512396 -3.1621902 8.4691668 16711746
2.1727920 -3.2462466 8.6678991 16711746
1.5332260 -3.6386743 8.9558706 16711746
2.4045672 -3.4044986 8.4104242 16711746
3.9494281 -3.1283751 8.4467573 16711746
3.0528541 -3.9497707 8.7346325 16711746
1.7541524 -3.1408093 8.9769592 16711746
2.9847062 -3.5341954 10.1336136 16711746
2.1530843 -3.4860439 8.7665205 16711746
2.7735384 -3.5349584 8.6887369 16711746
2.6430421 -2.4965117 8.8962059 16711746
2.0214558 -3.8674867 8.5303907 16711746
1.7223636 -3.3096089 8.8446426 16711746
1.5007898 -4.0180612 8.8368835 16711746
1.7046787 -2.9442651 9.4303799 16711746
2.5902398 -3.1167686 8.4526615 16711746
3.4508491 -4.2967310 9.3349342 16711746
2.8218744 -3.2119896 8.3922939 16711746
1.6566484 -4.0026999 8.6027584 16711746
3.0592003 -5.7469716 11.3509026 16711746
1.4673369 -3.5585999 8.4212637 16711746
1.4017648 -3.6251009 8.2526226 16711746
1.0403639 -3.7109997 10.2467775 16711746
3.4580901 -3.3063223 8.3383179 16711746
3.1335189 -4.3148618 9.7465382 16711746
0.2838773 -3.7885053 8.8573370 16711746
2.3720391 -2.2893655 8.6226377 16711746
1.5963275 -3.1153855 8.2560768 16711746
3.4523730 -2.7329297 8.5889463 16711746
1.5431850 -3.2221162 8.2538776 16711746
2.2329173 -5.1529899 8.9489508 16711746
1.4921889 -3.7692158 8.1548157 16711746
1.6178806 -3.0470529 8.3222895 16711746
2.5818310 -2.7680545 8.5052261 16711746
-0.1671223 -4.6576381 8.7217665 16711746
2.4694731 -2.7863035 8.5091085 16711746
1.6967808 -2.8988278 8.6395254 16711746
1.6456468 -2.4913919 8.5911970 16711746
2.5702770 -3.3177660 8.9935646 16711746
1.4153693 -3.7308757 8.5820303 16711746
2.6834540 -3.3198040 8.9425058 16711746
1.2267146 -3.9074402 8.4032125 16711746
2.6611440 -3.2109253 8.9159050 16711746
1.5901390 -3.7012477 8.7396145 16711746
2.7310033 -3.3484590 8.4637585 16711746
1.2466104 -3.7951968 8.1403294 16711746
2.6950617 -2.9279134 8.6498795 16711746
3.1375351 -3.5377233 9.4011698 16711746
1.5956842 -3.6518121 8.7394371 16711746
1.5071020 -3.2805209 8.6826334 16711746
2.0664792 -3.3784637 8.2766132 16711746
1.6233528 -3.6204081 8.6615667 16711746
3.0560999 -3.5157468 9.0412779 16711746
1.5112699 -3.4949806 8.5173988 16711746
2.4239829 -3.0422218 8.4365091 16711746
3.1437037 -3.4980819 9.0932465 16711746
2.6736240 -3.6112809 8.6179838 16711746
3.5755045 -3.5336628 9.7026758 16711746
2.6090009 -3.0797732 8.5299463 16711746
2.0479336 -3.3372140 8.4115887 16711746
3.2723937 -3.6095870 9.0221004 16711746
3.1408069 -3.3137033 8.3248835 16711746
1.6285909 -3.4401639 8.4794302 16711746
2.1830187 -3.8860426 8.6371555 16711746
1.2345163 -3.6300361 8.9091015 16711746
1.9503356 -4.0655751 8.5299168 16711746
3.6625733 -3.5086410 10.3884125 16711746
3.3465445 -4.1408753 9.6766443 16711746
2.0897052 -2.9275162 8.6454782 16711746
3.2221355 -2.5104222 8.6236677 16711746
1.0154423 -2.8752384 9.0305977 16711746
1.3733349 -4.3536868 8.8921003 16711746
1.7334977 -4.1137166 8.8621721 16711746
1.9695098 -2.5799425 8.5786705 16711746
2.5567484 -2.6721885 9.1923704 16711746
2.6728995 -3.1051285 8.8474627 16711746
1.4935383 -3.3404388 9.7363272 16711746
1.5365881 -3.1159756 8.8112555 16711746
2.8831301 -4.3104844 10.2150278 16711746
3.4702604 -4.3309560 10.2669563 16711746
1.1272337 -2.5110800 8.9261856 16711746
1.1787078 -4.0976944 8.5551825 16711746
1.8440444 -3.0526612 8.6484222 16711746
2.7093155 -3.8130400 10.5150785 16711746
3.8960114 -3.6830127 10.8439903 16711746
3.5885751 -3.3861809 10.2845230 16711746
3.4187191 -4.5803466 9.6122360 16711746
3.3800273 -4.0025749 9.7693920 16711746
3.5722599 -3.5820665 10.2050848 16711746
2.9062593 -3.2892816 8.7486553 16711746
3.2530065 -3.3308508 8.2715940 16711746
3.8262987 -5.0725641 11.1230564 16711746
3.1283214 -3.4952295 10.1435814 16711746
3.5780129 -2.8525991 8.6001873 16711746
3.7319191 -3.8678966 9.7830133 16711746
1.8148842 -3.7210600 8.4524050 16711746
3.7244558 -3.8507886 10.4234171 16711746
3.7547328 -5.4794106 11.5900259 16711746
1.3872374 -3.8631270 8.8574677 16711746
3.2392399 -3.7021141 8.9696074 16711746
3.6555445 -3.7533338 10.3330879 16711746
3.6569285 -4.2806659 9.7265825 16711746
3.8794072 -3.5957205 10.1017056 16711746
1.9403677 -2.9614391 8.7295914 16711746
3.3893430 -4.6549778 9.6051626 16711746
4.2475338 -6.0215874 11.8137064 16711746
3.4274600 -4.1076331 10.0477657 16711746
4.0674176 -5.9749384 11.5655413 16711746
1.6852047 -3.4251118 8.7755518 16711746
3.7198811 -4.9092546 10.6440020 16711746
3.9110212 -4.6033602 11.4371481 16711746
3.9015574 -5.0711584 10.9227953 16711746
3.2457147 -4.0749903 9.1599360 16711746
3.8995264 -3.8763483 10.7505522 16711746
3.6083124 -5.0318079 11.2381592 16711746
2.6147723 -3.1134353 8.4221706 16711746
3.4095500 -3.7868509 9.3376484 16711746
3.2198882 -3.1517782 9.1515827 16711746
0.9769781 -3.3025479 8.6969032 16711746
2.7918327 -3.2004545 8.6391840 16711746
0.9720588 -3.2774472 7.9614911 16711746
2.1134021 -2.3874853 8.6470642 16711746
3.0433543 -4.3243804 9.2146215 16711746
3.3164535 -3.3910446 9.4125652 16711746
2.5632665 -2.9625304 8.4584656 16711746
2.5878389 -2.8028095 9.3001413 16711746
1.4206641 -4.1560807 8.7857628 16711746
0.5074742 -3.0776448 9.2589054 16711746
1.4326792 -3.7280354 8.5967808 16711746
1.9974754 -2.8973603 8.3857088 16711746
1.0835966 -2.9037235 8.8727999 16711746
3.0846150 -3.5384665 9.8448448 16711746
3.6058269 -4.3961859 10.4754238 16711746
0.7995821 -3.6715288 9.0057716 16711746
3.1371872 -4.7202978 9.2987051 16711746
1.7809639 -2.6830602 9.3737793 16711746
1.2569317 -3.3103004 8.5348530 16711746
2.9210038 -3.2329116 8.8454542 16711746
0.6862314 -3.9568310 8.5175781 16711746
1.1909519 -4.0661983 8.5700150 16711746
0.6788502 -4.7373757 8.0626783 16711746
2.7747202 -3.5071187 8.8884935 16711746
0.4542967 -3.1938169 9.0863867 16711746
2.9277723 -2.9849110 9.7064362 16711746
3.9101439 -3.8705482 9.4172430 16711746
2.8009300 -2.4207475 8.9360151 16711746
1.4813755 -3.3656127 8.4688854 16711746
2.8491690 -3.3014793 9.6043930 16711746
1.9537934 -3.0854774 8.3740578 16711746
0.4459453 -3.2035642 9.0893488 16711746
2.0724807 -3.8250198 8.6632109 16711746
1.5168723 -3.8445635 8.5334568 16711746
1.5695767 -3.7609868 8.5200005 16711746
2.8704712 -3.6771340 8.9998903 16711746
4.0064425 -5.6806989 10.7074604 16711746
1.9057990 -3.2860811 8.4214258 16711746
1.9262415 -4.3091969 8.5294714 16711746
3.6006091 -4.7518063 10.3739748 16711746
3.5176814 -4.4383488 9.0335855 16711746
3.7558336 -4.8417587 10.9524994 16711746
3.2719595 -5.0681605 9.2237215 16711746
1.7429525 -3.4547009 8.3245106 16711746
3.2675707 -4.2426028 9.8544312 16711746
2.6039841 -3.6034524 9.4699821 16711746
2.6204908 -3.9002268 9.6182108 16711746
2.4098320 -3.4238825 10.1765747 16711746
2.6156080 -2.9169436 8.8911791 16711746
2.3983140 -1.8683355 8.7373657 16711746
1.7727093 -3.6505294 8.4969435 16711746
1.5382221 -4.4979472 8.2344961 16711746
2.5349751 -3.5681112 9.9668369 16711746
1.8085861 -2.7214465 9.3773937 16711746
1.4692552 -2.9285610 9.5668764 16711746
1.6557635 -2.8492074 9.3424616 16711746
3.2428670 -2.9827509 8.9358816 16711746
1.6444936 -3.2945676 8.7785320 16711746
2.5703189 -2.5055804 9.0099516 16711746
2.3862643 -4.4857364 10.6022568 16711746
2.6574087 -2.8509238 8.5551901 16711746
2.4232168 -2.6891375 8.7143087 16711746
1.3470340 -3.6218164 8.4251804 16711746
2.4920642 -2.5314248 8.9712858 16711746
1.4846840 -2.9814456 8.5947847 16711746
2.5423839 -3.4649875 9.8820057 16711746
2.5951486 -3.1154373 9.8459711 16711746
2.5333812 -2.6149950 9.4145536 16711746
3.3437696 -3.8408422 10.4559984 16711746
2.3982639 -3.0020566 9.5690680 16711746
1.5114180 -3.7368882 8.4602737 16711746
3.5130701 -5.1130295 10.6452045 16711746
1.9222217 -4.5059519 9.7492447 16711746
3.4109845 -11.5572500 9.2404594 16711746
2.5620251 -2.5076540 8.5196781 16711746
3.1686847 -2.3321164 8.9356689 16711746
2.6190934 -2.6522515 9.3123798 16711746
2.5132990 -2.8869164 9.8341360 16711746
3.3597152 -3.8626795 10.4700680 16711746
2.6160550 -3.2185047 9.9212551 16711746
2.4648788 -2.1205840 8.8098459 16711746
2.3678598 -3.9488554 10.1427689 16711746
2.8968608 -3.9035497 10.2153606 16711746
2.4024260 -2.6441617 9.4876137 16711746
2.7054806 -2.6478057 8.6586037 16711746
2.4227865 -2.0509074 8.7711744 16711746
2.6202950 -2.9315586 8.6800165 16711746
2.4389286 -2.3678687 8.9294968 16711746
2.1945114 -2.3700452 8.6118021 16711746
2.5244429 -2.3470335 9.0672827 16711746
2.8256721 -2.7390871 9.2709293 16711746
2.7307899 -3.4892418 8.5646410 16711746
3.5966642 -5.1210747 9.8689203 16711746
1.0002521 -4.1593595 8.4816513 16711746
2.3196778 -3.3554564 9.3700237 16711746
2.4800127 -4.1957459 9.5750265 16711746
3.4224873 -3.3415217 8.7521849 16711746
2.6930244 -3.7624929 8.6788921 16711746
0.6571590 -3.0425386 8.8624897 16711746
2.5541487 -3.3510964 8.8532848 16711746
2.6747711 -3.2870984 9.1840725 16711746
2.2719491 -3.0630479 9.2389927 16711746
2.5074244 -2.4615023 8.8572731 16711746
2.4098239 -3.1188271 9.9372730 16711746
2.6885490 -3.3800426 9.2242317 16711746
2.4971995 -3.4519577 9.4740210 16711746
0.6850572 -3.4786589 8.9144802 16711746
2.7399645 -3.3661866 9.5308304 16711746
3.0020723 -4.3245702 9.0147371 16711746
3.9904466 -6.3661985 10.3499556 16711746
2.1124842 -3.3541453 9.0806742 16711746
3.2840128 -4.2687187 8.7237148 16711746
1.6254970 -4.2605629 9.3870478 16711746
3.5058107 -3.0063479 9.4121103 16711746
3.8095088 -3.7463174 10.5964108 16711746
3.8245544 -5.0730462 11.1382399 16711746
3.4497826 -3.4217403 9.6233101 16711746
2.9434228 -3.3985245 10.1624861 16711746
4.2149568 -3.8569355 10.1640568 16711746
3.3891997 -3.8375340 10.3001175 16711746
2.9621832 -3.8761625 9.5585613 16711746
3.0804510 -3.8464825 9.7277460 16711746
3.5285323 -3.7309790 9.7695894 16711746
3.1360660 -3.6955030 9.9450054 16711746
2.3939219 -4.3614321 9.4309511 16711746
2.4161863 -3.1696084 9.9814825 16711746
2.8403509 -3.6693966 8.9107246 16711746
3.0463994 -4.0715251 8.8353834 16711746
3.2787521 -3.9977210 9.0578537 16711746
3.2442310 -3.6117711 10.2747097 16711746
2.1510255 -3.4458263 9.4468431 16711746
3.2343976 -4.0802083 9.4176121 16711746
3.5660760 -3.5636854 10.1992388 16711746
4.1300893 -3.7586713 10.0932007 16711746
2.3554032 -3.8977439 10.1526842 16711746
2.9269276 -4.0653663 9.5417166 16711746
3.4910102 -3.6184514 8.5913210 16711746
3.3133669 -3.8296361 9.7820997 16711746
3.2542281 -4.5851908 8.6949244 16711746
3.0587957 -4.9765062 8.5417490 16711746
0.3633845 -3.2502213 8.7036858 16711746
2.4006772 -4.1865692 9.3746147 16711746
2.4037402 -3.7109642 9.2279663 16711746
2.2128332 -3.6595488 9.1141548 16711746
4.0737052 -3.8275571 9.9829531 16711746
2.4327693 -3.7408130 9.5042572 16711746
1.8738033 -3.8427739 9.5162802 16711746
0.8691697 -4.3680754 8.2124758 16711746
3.7814307 -3.6655116 10.5351562 16711746
3.9590316 -3.5557487 10.2403183 16711746
2.9724629 -3.4671504 10.1226959 16711746
3.8228564 -3.9320610 9.8248224 16711746
3.5058160 -3.3160179 9.6597939 16711746
2.4307170 -3.5023549 9.8781900 16711746
2.9061251 -3.9805679 9.5052223 16711746
3.3911982 -4.1466374 10.1942596 16711746
3.2907727 -3.5215514 9.7513609 16711746
2.7070930 -3.4494827 9.4371824 16711746
2.7362633 -3.6806166 8.5544071 16711746
3.3329375 -4.5909138 9.4938354 16711746
3.3428824 -3.9572084 8.9884129 16711746
4.4671474 -4.5201855 9.0885420 16711746
3.1644452 -3.6581244 10.5020189 16711746
3.3847079 -4.1463552 9.6422396 16711746
2.9753582 -4.3860383 9.3288679 16711746
2.2134657 -3.4203997 8.9789829 16711746
3.6765819 -4.7179537 8.6149359 16711746
2.4718974 -4.0593810 9.3574114 16711746
1.1619015 -3.7090654 8.6115246 16711746
3.9493883 -3.8107281 8.9982767 16711746
2.5349295 -3.9697204 9.7493572 16711746
2.1028383 -3.5042346 9.2342529 16711746
4.2186065 -3.4218814 9.0668774 16711746
2.3076410 -4.2554240 9.1259012 16711746
3.3090067 -4.6712465 9.6167564 16711746
2.0728993 -3.2477117 9.6798868 16711746
1.8760521 -3.2847130 9.7183342 16711746
2.1798916 -3.8583376 9.5671635 16711746
2.4042120 -3.8302834 10.3005114 16711746
2.3217165 -4.1167459 9.4400282 16711746
3.5166926 -4.2903938 9.1836224 16711746
3.5506787 -3.2392883 8.9135199 16711746
0.4081423 -4.4989233 8.6655207 16711746
3.2261062 -3.4414852 9.1275892 16711746
4.1872234 -3.3915262 9.0477171 16711746
2.3196654 -4.1437654 9.0950117 16711746
4.3606257 -4.3300190 8.8286676 16711746
3.5471649 -4.5250950 8.8898525 16711746
1.7812896 -3.4995663 9.8648663 16711746
2.1099498 -4.2913404 9.8358755 16711746
2.0409827 -3.5334048 9.7684660 16711746
1.9746867 -2.9414105 9.3795328 16711746
1.8557658 -3.8189750 9.7719479 16711746
3.9325840 -3.7358527 10.0456619 16711746
2.3338103 -3.5633821 9.3623219 16711746
1.9219853 -3.3775485 9.9883661 16711746
2.1625657 -2.8400819 9.4130526 16711746
4.5072455 -4.7200499 10.9719267 16711746
3.3509455 -3.7317410 9.8991547 16711746
3.3556056 -3.3156173 8.6135931 16711746
3.4019895 -3.9707034 8.6351357 16711746
1.7464935 -3.5490029 9.7080803 16711746
2.0014360 -3.3154998 9.5150347 16711746
3.7759781 -4.2477174 9.9542475 16711746
2.2440608 -3.7629893 8.9754887 16711746
2.0174425 -3.5723331 9.1596632 16711746
2.5257847 -4.0314713 9.2008505 16711746
2.3445272 -3.7397742 9.0312395 16711746
1.5322945 -4.6100388 9.9699678 16711746
3.4028838 -5.0221138 9.7310410 16711746
3.5869107 -3.2795072 10.3665972 16711746
3.1297469 -4.6536336 9.2208939 16711746
3.3393104 -3.9553328 9.2974119 16711746
2.7003105 -3.7752945 8.6801271 16711746
1.5247897 -4.2499318 9.3300381 16711746
3.5143266 -3.5041535 8.6566267 16711746
3.4160588 -4.9428873 9.2696390 16711746
3.7636018 -4.6143742 10.3806257 16711746
3.3019176 -3.5958822 9.8044491 16711746
1.5909897 -4.4894719 9.4711208 16711746
3.3872206 -6.4226108 9.7928276 16711746
2.0928221 -2.6629601 8.9317675 16711746
2.1342731 -3.4205432 9.2112827 16711746
2.0607302 -3.7728868 9.3094854 16711746
3.4250817 -3.9685822 10.1995249 16711746
-2.9478207 -11.7310247 6.6140118 16711746
2.7901316 -2.8662817 9.6510239 16711746
1.8411903 -3.5807385 9.5515814 16711746
2.8511350 -3.1131992 9.7438049 16711746
2.3913116 -2.8911467 9.4964018 16711746
1.8630744 -3.5035281 9.5121431 16711746
2.5057325 -3.7840941 9.1926556 16711746
2.8375885 -3.0131326 9.7677193 16711746
2.9894547 -3.1391563 9.6692305 16711746
2.1187460 -3.5032766 9.2377729 16711746
2.5068076 -2.9832883 9.6097870 16711746
2.6534595 -3.1442013 9.6309910 16711746
2.5972898 -3.4569812 9.4131556 16711746
1.9814199 -3.1058829 9.1033001 16711746
2.4063170 -2.5693531 9.2861023 16711746
2.8492148 -2.7400374 9.8152790 16711746
3.2014332 -4.3797054 9.9032364 16711746
1.9358923 -4.2455063 9.0894032 16711746
2.7028689 -3.5620010 9.3927670 16711746
2.1909306 -2.5926137 9.5656891 16711746
2.6304052 -3.0316501 9.5613661 16711746
2.7259915 -3.2938876 9.6384077 16711746
2.3052032 -3.5885642 9.4828396 16711746
1.8993009 -3.0083163 9.7458448 16711746
1.7514549 -2.7406123 9.3410254 16711746
2.7526777 -3.9688625 10.2333641 16711746
2.3781464 -3.8049169 10.5281010 16711746
3.1117330 -3.9345298 10.6363754 16711746
2.5526936 -3.0094500 9.4112110 16711746
2.5076268 -3.5544639 9.9801931 16711746
2.3802178 -3.5514059 9.8908587 16711746
3.0777323 -3.4433427 10.3227510 16711746
3.0395341 -3.6902132 10.4130011 16711746
2.2167475 -3.4591746 9.4746246 16711746
2.7613847 -3.9051812 10.1342421 16711746
2.3039868 -3.7172396 9.6660490 16711746
3.5955856 -3.1022167 8.9338932 16711746
2.2899227 -3.8031659 9.1518784 16711746
2.0634334 -2.6951632 9.2415419 16711746
2.7415409 -3.8681955 9.0737829 16711746
2.1267812 -3.9246223 10.0687647 16711746
3.4932797 -3.4823420 8.7376032 16711746
2.0482924 -3.6707158 9.0023727 16711746
2.4132423 -3.5684934 9.4972601 16711746
3.1464603 -3.8250890 9.0998297 16711746
2.8480775 -3.7886117 9.1145267 16711746
1.3672360 -5.0614419 9.6561089 16711746
3.9818420 -4.2133641 9.9455318 16711746
2.7322016 -3.6558955 9.0346880 16711746
3.4485493 -4.3300691 9.9766340 16711746
2.5769773 -3.7622907 8.5589314 16711746
2.5936930 -2.3389280 8.6732655 16711746
1.9606931 -3.8132174 9.3675470 16711746
1.6497253 -4.4885702 9.9299145 16711746
3.2165637 -4.2329149 9.6064415 16711746
2.1959589 -4.1480641 9.4476719 16711746
2.4652781 -4.0552306 9.4535093 16711746
2.0064194 -3.2562807 9.1092176 16711746
2.5353596 -4.1851912 9.2011490 16711746
1.9122114 -4.0588479 9.4726753 16711746
1.9082233 -4.0299153 9.2632799 16711746
2.7244732 -3.9617310 9.5542860 16711746
1.8009959 -3.4884779 9.1741467 16711746
2.2147350 -3.7552183 9.8195734 16711746
2.2600665 -2.8396215 9.3231316 16711746
2.3982975 -3.5608463 10.3194246 16711746
2.1973615 -3.4264896 9.5636902 16711746
2.5751069 -3.9675131 9.7541733 16711746
2.1845860 -3.4723434 9.3163080 16711746
2.3259265 -3.9619505 9.3813381 16711746
2.3057077 -3.0989218 9.1286373 16711746
3.4631736 -3.4517298 9.6423979 16711746
3.1587777 -4.2694011 9.2274685 16711746
3.1946156 -3.5242324 8.6900005 16711746
3.0704207 -3.8214793 8.7321749 16711746
2.3412895 -3.5932314 9.4117680 16711746
2.5263851 -3.2703400 9.3943834 16711746
2.9458852 -4.1698284 8.9423647 16711746
2.9456398 -4.1498036 8.9424677 16711746
1.5416989 -3.6626046 8.9855156 16711746
3.4190760 -4.5478425 10.0233250 16711746
4.8709111 -3.6215155 9.0017471 16711746
3.4671471 -4.4359913 9.8983498 16711746
2.0770440 -2.9600980 9.0469093 16711746
1.7580748 -3.5869546 9.1223812 16711746
1.5892241 -4.6052408 9.7630320 16711746
1.7115673 -4.0593181 9.5146484 16711746
3.2458296 -4.3076615 8.7380600 16711746
3.2533324 -3.6746998 8.6922426 16711746
2.8046305 -4.0574193 9.1672182 16711746
2.7591951 -4.1381888 8.8143225 16711746
2.5993335 -4.0159659 8.9060335 16711746
2.9503198 -3.8227098 8.6160107 16711746
3.1281912 -3.8131557 8.8493023 16711746
3.4446521 -3.4931526 8.5841942 16711746
3.3192477 -3.6220338 8.5988865 16711746
3.2119689 -4.3574328 9.8677845 16711746
3.0522707 -3.8291652 8.7586079 16711746
2.1544247 -4.0412307 9.2854357 16711746
2.8519201 -4.0683193 8.9727039 16711746
3.5011280 -4.0086646 9.0767069 16711746
2.7936313 -4.1200409 9.1027946 16711746
3.5634801 -3.5863733 8.6666183 16711746
3.5233393 -3.5422471 8.6039314 16711746
3.2885008 -4.5515165 10.1311064 16711746
3.1578772 -3.9302120 8.8583031 16711746
2.2466764 -4.2618842 9.4292297 16711746
3.6952875 -3.4230537 8.7714691 16711746
3.0522678 -4.6809187 9.7519159 16711746
2.9586544 -4.2926416 9.4966288 16711746
2.3676875 -4.3134689 9.7433920 16711746
2.8345170 -4.1342835 8.8008461 16711746
2.7947299 -3.7327321 8.7218084 16711746
2.0040848 -4.2923522 9.9588642 16711746
3.2979705 -3.7616029 8.6231031 16711746
3.0000718 -4.4047933 9.0755262 16711746
3.0078654 -3.8402436 8.5528049 16711746
3.2958503 -4.6465511 9.9910889 16711746
4.0564165 -4.1210833 10.0058002 16711746
1.9818135 -4.2183962 9.3155241 16711746
3.1421587 -3.3826461 8.6299753 16711746
1.7275106 -3.7103162 9.5738115 16711746
2.0879636 -4.2723980 10.2523336 16711746
2.8187795 -4.1943092 9.1998892 16711746
3.9271173 -4.5233860 9.9616451 16711746
3.3353522 -4.2990150 9.0020819 16711746
2.0632555 -4.2584262 9.8288937 16711746
2.8426616 -4.0791273 8.7333565 16711746
3.4891160 -4.9958467 11.0074091 16711746
2.1534712 -4.4803867 10.2037592 16711746
1.8148620 -3.7153578 9.6113501 16711746
4.1074533 -3.4421611 8.9513330 16711746
2.3622744 -4.2412791 9.5158901 16711746
3.2293191 -3.7995090 8.6869087 16711746
2.5067632 -4.4179034 9.8609953 16711746
2.4768691 -4.0833263 9.0572681 16711746
3.4838722 -3.5953715 8.7608366 16711746
3.4810362 -3.9526520 9.0707302 16711746
2.8033845 -4.1328583 9.1133862 16711746
2.2250226 -4.1425295 9.4935198 16711746
2.0390701 -4.0858936 9.8578463 16711746
2.1053956 -4.1538687 10.1874752 16711746
3.6127090 -3.9505568 9.1360369 16711746
4.3331661 -4.1998181 10.1787176 16711746
2.6782465 -3.2559004 8.7796183 16711746
2.6767237 -3.2908142 8.7482805 16711746
3.9343557 -5.3884044 10.9591627 16711746
2.5763266 -3.9814162 8.9062605 16711746
2.7686479 -3.8607874 8.8109293 16711746
3.7360041 -2.9400654 8.5009680 16711746
4.5612297 -3.5041130 9.1289492 16711746
2.5601342 -3.9730551 9.0223188 16711746
4.2149663 -3.6570730 9.0794020 16711746
2.4503610 -4.6391864 10.0085392 16711746
2.3628948 -4.2928133 9.7403011 16711746
2.2610519 -4.0040340 9.2864380 16711746
3.9668152 -3.5401399 9.0237875 16711746
3.4444065 -4.0810905 9.1468887 16711746
2.9994559 -3.8123798 8.5094023 16711746
2.4675369 -4.0213461 8.9903126 16711746
2.4014921 -3.9929388 8.8178434 16711746
2.4796393 -4.0405202 8.7545748 16711746
2.0240149 -4.4267735 9.6896362 16711746
4.4836459 -3.0986390 8.9086704 16711746
3.3217316 -3.5284269 8.5121937 16711746
2.8366599 -3.9912300 8.9639187 16711746
1.6217586 -3.7076466 10.1894045 16711746
1.7006698 -3.6733813 9.9963074 16711746
3.2434721 -4.2065744 9.6902504 16711746
3.3357286 -4.7762876 10.3973312 16711746
2.0326970 -4.5399938 10.1248493 16711746
3.8859150 -2.9378490 8.7501612 16711746
3.6358137 -4.6308031 10.8246021 16711746
3.4097073 -3.4034104 8.5740023 16711746
2.5625410 -3.9724646 9.0167799 16711746
3.5514357 -2.9831855 8.4766197 16711746
3.2797742 -3.4400706 8.5193310 16711746
3.3476679 -3.8662686 8.8411112 16711746
1.8196828 -3.9210947 9.8349733 16711746
1.7468963 -3.6410582 9.5503082 16711746
1.6421707 -3.8580494 10.1089430 16711746
1.9931778 -4.0367622 10.0373220 16711746
1.6421610 -3.5142937 9.7101564 16711746
5.1187930 -3.4380703 10.3564215 16711746
3.8762429 -4.6283922 11.4634590 16711746
3.0391576 -5.1188455 10.7083302 16711746
2.4205365 -3.7880304 8.5843782 16711746
2.5839574 -4.1173801 8.8541813 16711746
2.6623387 -4.2681484 8.8318710 16711746
3.0184216 -4.3688521 9.4714003 16711746
3.4233069 -2.9118378 8.6931658 16711746
3.7921841 -3.3738899 8.7027130 16711746
2.7970440 -3.9056044 8.6501999 16711746
2.4825010 -4.1364884 9.6410685 16711746
2.4316802 -4.2142749 8.9244146 16711746
1.7794923 -3.5604062 9.1938906 16711746
2.1204031 -4.3133278 9.6115189 16711746
3.8220928 -3.4493098 8.9163427 16711746
4.1539841 -3.0534120 9.0627823 16711746
2.8818996 -5.1106424 9.6374788 16711746
3.7827435 -4.0856190 9.4428110 16711746
3.7338779 -4.5643311 9.6439610 16711746
3.4506090 -3.4811182 8.5690832 16711746
3.5580752 -2.7740481 8.5199471 16711746
1.9264898 -3.9203825 10.3344402 16711746
1.6641178 -3.8894424 9.6619120 16711746
2.0324452 -4.5665159 10.4876633 16711746
2.1585674 -4.2415566 10.0784588 16711746
1.2882104 -3.0886817 9.7097683 16711746
5.4251232 -5.0408659 11.9638720 16711746
4.6700449 -3.9361625 9.7106771 16711746
4.6028538 -4.4915204 10.0484838 16711746
4.4838643 -4.2909060 10.0808086 16711746
3.2147212 -4.4711289 9.9499559 16711746
3.9843254 -4.6522503 10.0318422 16711746
4.3801303 -4.6847191 10.4948797 16711746
3.8224993 -4.1501956 9.4611664 16711746
1.7679374 -3.6442492 8.9239731 16711746
3.4148033 -3.4036031 8.5810261 16711746
5.0129333 -4.9595795 8.7143164 16711746
2.5359035 -4.2553058 9.2532711 16711746
2.2682989 -3.9821484 8.7764597 16711746
4.1919765 -3.4576874 9.2075453 16711746
2.6207581 -4.2865634 9.1998396 16711746
2.7968757 -4.5558534 9.4922342 16711746
3.5864372 -3.6499393 8.8480787 16711746
3.8208249 -3.0333178 8.6236877 16711746
2.7184322 -3.8149109 8.6739998 16711746
3.0753381 -3.8877976 8.8747244 16711746
1.6337999 -3.9750967 9.6984024 16711746
2.3674603 -4.4780016 10.5032139 16711746
5.8646727 -3.6605830 11.0849152 16711746
3.9868109 -5.1967163 11.4930449 16711746
4.3355799 -4.1677561 9.8861933 16711746
3.7963369 -4.2604365 9.8620596 16711746
3.6496804 -4.8288636 10.2290649 16711746
3.7203767 -4.9912105 10.3364086 16711746
3.8614883 -3.3432183 8.6871719 16711746
3.9862807 -4.1148777 9.6898279 16711746
3.9488251 -3.9104295 9.5199232 16711746
1.6476133 -3.9295578 9.2774401 16711746
1.6536005 -2.4021959 9.2616224 16711746
5.1092696 -4.5487399 11.5573244 16711746
5.3538828 -4.7922497 11.5340862 16711746
1.5371699 -3.0519125 9.1592159 16711746
1.8886555 -4.1196828 10.4739418 16711746
4.9127240 -3.9603324 9.8894835 16711746
4.2579474 -4.0489168 9.4832010 16711746
2.5241487 -4.6675200 10.2619658 16711746
3.7878566 -3.4896412 8.6089392 16711746
4.0564461 -3.8777170 9.9649754 16711746
3.7234552 -3.8631151 8.8551264 16711746
3.5582221 -3.7253911 9.0028563 16711746
3.7986329 -4.0373006 9.4372435 16711746
1.7360399 -3.7290361 9.8671408 16711746
2.2284062 -4.0014133 8.9970808 16711746
2.6243019 -4.6321583 9.4802761 16711746
3.7036667 -2.9579086 8.7087831 16711746
3.1255534 -3.9676826 8.9962530 16711746
4.4386010 -4.2631860 9.9375467 16711746
3.9127431 -3.2243929 9.3420105 16711746
3.0463657 -3.8683119 9.1520948 16711746
2.9234004 -3.5005462 8.9529371 16711746
2.8692074 -3.3954630 8.8075256 16711746
2.5588062 -2.9850011 8.5686073 16711746
3.1898868 -4.0564327 9.6224079 16711746
3.1215603 -4.6295829 9.3000345 16711746
2.6018593 -3.0893147 8.5689564 16711746
2.6458066 -3.4590278 8.7523327 16711746
2.0415256 -3.7194180 9.2067690 16711746
1.7523193 -3.6695204 9.2163401 16711746
2.2945261 -3.6809728 9.0483694 16711746
2.8314304 -3.6642489 9.0123682 16711746
2.1176097 -3.2884271 9.1003342 16711746
2.8064046 -3.2960432 8.6442385 16711746
2.9171941 -4.0486174 9.2006092 16711746
2.6976440 -3.0435791 8.6287374 16711746
2.6381872 -3.6083653 8.9208469 16711746
2.1328881 -3.4820688 9.1165543 16711746
2.9954703 -3.3275595 8.6752605 16711746
2.4729667 -5.0546446 10.1837788 16711746
2.6028287 -4.2626128 9.3502464 16711746
2.7478297 -3.6254156 8.7500429 16711746
1.4249169 -4.7566166 10.4320765 16711746
2.5981739 -3.2346101 8.5313320 16711746
2.5276933 -3.4708631 8.5071011 16711746
2.3365948 -4.7597384 9.8701296 16711746
2.5955262 -4.1109624 9.3146210 16711746
2.1801856 -4.3749142 9.5137720 16711746
3.9471366 -5.2697330 11.7849731 16711746
3.1739764 -4.1450496 9.3588657 16711746
3.0069573 -3.7586267 8.7657433 16711746
2.9155781 -3.4219871 8.7529936 16711746
1.8640404 -4.3849607 9.4728441 16711746
2.9905515 -3.7053280 8.7407064 16711746
3.2654963 -3.4239933 8.7182522 16711746
1.8613266 -3.5746362 9.4144630 16711746
3.0402410 -3.3157973 8.6091528 16711746
3.1116998 -4.9088764 10.0318861 16711746
2.6497507 -3.4368756 8.7494459 16711746
2.3470962 -4.5211067 9.7802734 16711746
3.8608015 -5.6071200 12.2525282 16711746
3.7029037 -5.1116867 10.9124670 16711746
3.8400991 -4.3201966 10.0719633 16711746
2.3316741 -3.9848628 9.0076542 16711746
2.7498305 -4.1386037 8.8684559 16711746
2.7431993 -3.5706928 8.7298136 16711746
2.2745097 -3.8530171 9.1299334 16711746
3.1523798 -5.1728768 9.8616314 16711746
1.9346955 -4.0921545 9.1341829 16711746
3.7013397 -5.1058726 10.9102211 16711746
2.7452095 -4.0906582 8.8676271 16711746
1.9588994 -4.0244093 9.1161184 16711746
2.2749155 -3.8393025 9.1251097 16711746
1.9766206 -4.0548825 9.0617867 16711746
2.6336460 -3.3519223 8.6302967 16711746
3.4965982 -5.3355122 10.7097178 16711746
1.7033026 -4.5156627 9.5559216 16711746
4.1856146 -3.6193976 9.9788322 16711746
3.5659823 -5.7545457 11.7197399 16711746
2.0271876 -3.6520555 9.0527649 16711746
2.6326053 -4.1369586 9.1569290 16711746
2.6244106 -4.0624547 9.1397934 16711746
3.0728269 -3.0353587 8.6478367 16711746
3.5853832 -2.7764993 8.5850859 16711746
3.9551778 -4.0805449 10.1257887 16711746
1.6293967 -4.3260531 9.9077740 16711746
1.8387504 -4.4605064 9.5649834 16711746
4.0644279 -4.7450423 10.9040680 16711746
1.7093533 -4.4179492 9.4156637 16711746
2.3462629 -2.0144579 8.8110123 16711746
1.8982772 -4.4009237 9.8412704 16711746
5.0762782 -5.1934252 9.1104765 16711746
3.2444201 -4.1216502 9.8170700 16711746
2.9504459 -2.2658205 8.5619230 16711746
2.5357718 -2.0211110 8.7235498 16711746
1.4913989 -4.7889733 9.4748659 16711746
3.1854687 -4.6452279 9.0484686 16711746
2.4785836 -2.6295631 9.0537310 16711746
3.2593696 -6.3224921 12.0681219 16711746
3.5140214 -4.4546461 9.7501955 16711746
1.7270054 -4.0741744 9.6762638 16711746
-11.0005970 -29.8972702 26.7121124 16711746
-10.7639961 -60.2551918 12.3700676 16711746
1.7743932 -7.3605099 2.2070072 16711746
-2.4604745 -5.3130980 2.9036636 16711746
22.4366608 -50.5192680 19.4875622 16711746
22.2909985 -32.4964218 15.4611225 16711746
-18.5219612 -33.7382851 15.5826769 16711746
1.6748756 -2.9206028 2.6567233 16711746
5.8281097 -6.0080705 6.2299418 16711746
3.8795586 -12.3458242 6.2301378 16711746
2.1023481 -5.6769185 3.8104131 16711746
17.8167095 -40.8297081 15.8413801 16711746
4.9817472 -53.5921402 20.4440842 16711746
31.6125984 -53.3446846 8.7971802 16711746
1.7478429 -2.8712986 2.7059045 16711746
-1.7108593 -4.9676943 4.3180571 16711746
16.6558228 -52.9921112 26.4272022 16711746
-37.8063049 -33.1240234 3.7101598 16711746
9.8787384 -28.2230778 21.4661579 16711746
30.2940350 -58.6812134 12.6031342 16711746
-3.8625293 -32.3778152 27.8102341 16711746
9.6117182 -68.4854050 8.3940945 16711746
-13.4127779 -24.6821308 32.9420395 16711746
1.3465314 -2.1396580 2.8735390 16711746
2.1098871 -5.9634962 3.6924043 16711746
-35.2425842 -50.1853523 -2.3535256 16711746
10.0960007 -58.6699600 15.9397125 16711746
13.6161938 -27.2597122 28.8194046 16711746
1.5740540 -3.0576913 2.5683472 16711746
-0.1317443 -14.0279074 5.6063437 16711746
1.4739355 -4.4070358 2.6069882 16711746
-4.5996885 -24.9245415 17.4621849 16711746
-2.4096239 -42.4885254 23.4139538 16711746
1.6205081 -4.3065982 5.7225223 16711746
1.2637783 -1.6928936 2.9387543 16711746
1.0158391 -3.6865323 2.9113653 16711746
4.1815910 -20.7618980 6.3673048 16711746
5.5816092 -16.8800716 6.8975806 16711746
-9.2379169 -55.1637802 19.4622955 16711746
-9.8567276 -30.1471596 33.9061356 16711746
-14.2924013 -45.9441071 30.1031151 16711746
-9.0933590 -38.8551292 18.7313786 16711746
6.4076872 -74.7993546 14.8194094 16711746
2.1406479 -5.5873613 3.6961491 16711746
-0.3181377 -57.2662354 34.4811020 16711746
-31.3918133 -45.4051514 9.4584332 16711746
12.7029352 -75.1175842 16.5562916 16711746
0.4818709 -6.2026911 3.6807270 16711746
3.0526483 -9.7619162 4.7579913 16711746
1.8281904 -4.3897014 3.2301345 16711746
2.6549294 -4.9083791 4.3704338 16711746
1.0466973 -6.6216550 4.2585540 16711746
4.0598207 -11.4594774 7.0567212 16711746
1.8321996 -4.0291471 2.8330410 16711746
2.5539286 -5.5983415 6.7006831 16711746
1.7891372 -4.2069349 5.9864550 16711746
0.8882189 -2.3521731 3.4732051 16711746
1.8146936 -3.6601119 4.5792041 16711746
1.6867114 -7.6880431 7.5195093 16711746
6.9236784 -48.1641579 33.8188858 16711746
2.3785403 -6.2466669 3.9014983 16711746
5.0765500 -12.1510868 8.1913118 16711746
1.4985731 -3.4025464 2.9564323 16711746
1.4556030 -2.9917171 2.7950370 16711746
2.3098617 -5.3465528 5.7889953 16711746
2.3097312 -3.3846180 4.2319613 16711746
2.1059747 -3.4886720 3.0747874 16711746
2.9625213 -7.1492920 6.1368742 16711746
1.1609938 -4.5254211 2.8082020 16711746
4.1600618 -6.5821548 7.6359138 16711746
1.5490707 -3.5492997 3.3196185 16711746
2.8329875 -4.8604460 2.7530944 16711746
1.2736790 -1.5764376 3.0023472 16711746
16.0585365 -56.2792854 22.4615574 16711746
-4.4886279 -36.2471504 5.4657865 16711746
-3.0570815 -10.6227798 2.6104872 16711746
2.8044417 -8.3021641 3.1130893 16711746
-8.6835651 -16.4569798 9.2934570 16711746
4.1656628 -10.7724485 7.5655303 16711746
2.5454960 -3.5769722 6.1894603 16711746
-2.1858644 -7.4215865 3.9527850 16711746
7.8183379 -20.4531536 12.5228109 16711746
1.6933250 -2.4575315 3.9144130 16711746
1.1918113 -1.8856986 2.7384391 16711746
1.7958529 -3.0692170 3.6608543 16711746
0.1524005 -4.0630059 2.5965214 16711746
-0.5583093 -3.9181812 3.4690936 16711746
-0.3548422 -5.6911998 2.8899381 16711746
3.3906927 -6.3388300 4.3053098 16711746
2.1335890 -6.3638701 3.9331558 16711746
-0.3014085 -3.3717914 3.3076096 16711746
1.5683852 -3.4866729 2.9251046 16711746
0.2410379 -3.2745228 2.7825482 16711746
0.4348450 -3.7474871 2.7175090 16711746
-0.9357445 -2.6240013 2.4136968 16711746
3.1035643 -6.8834524 3.7915659 16711746
0.8087770 -3.9728746 2.6196749 16711746
1.6823702 -3.3898354 2.6093998 16711746
-1.1928854 -5.8153076 2.9801846 16711746
0.6747766 -4.7277126 2.8438303 16711746
1.3144349 -2.4676528 3.3972075 16711746
0.5187652 -2.8413582 2.4775231 16711746
1.0645040 -2.6424913 2.7200668 16711746
-0.3316979 -3.2887928 3.1989157 16711746
-0.8347399 -4.3386216 3.8347986 16711746
1.7207844 -5.4872394 3.6093202 16711746
-0.5685268 -5.1367292 2.2061841 16711746
-2.4947979 -5.2756305 2.6993594 16711746
2.7538419 -3.9733782 3.3323660 16711746
3.4412208 -4.8417730 3.9047329 16711746
-2.8155863 -5.4605217 2.4806666 16711746
-0.5877678 -3.9836087 3.4719589 16711746
1.0834185 -0.9574305 2.5979502 16711746
-0.1543431 -4.7817574 3.1776416 16711746
-1.6804278 -4.7987294 2.5488741 16711746
-0.5722878 -3.6903403 2.8037891 16711746
0.7497306 -2.0402553 2.5784771 16711746
0.4349286 -3.4329109 2.8333056 16711746
-0.6605363 -2.7020257 2.6021512 16711746
0.0913307 -3.2202168 2.5318415 16711746
1.4105909 -3.1618257 2.8672028 16711746
-2.1859136 -3.3258224 2.4668863 16711746
-2.0974886 -3.7901387 2.9722505 16711746
-0.4745573 -1.8760006 2.9228888 16711746
-1.4416703 -3.6551220 2.6361687 16711746
1.5528814 -4.6539187 5.4707270 16711746
0.9886773 -3.7560382 4.5510435 16711746
-0.3009425 -5.1997762 3.2608778 16711746
-2.6596804 -7.0389323 2.6249938 16711746
-3.5353820 -5.3831162 1.8884329 16711746
-3.2422714 -9.5564756 3.3775778 16711746
4.1397033 -5.1068907 3.5384028 16711746
0.6557644 -2.9174545 2.7207594 16711746
3.2798986 -4.0506587 2.8946614 16711746
-9.2804642 -19.2592678 9.2222271 16711746
1.6136410 -3.7044704 3.6253068 16711746
-1.6268430 -5.3083563 3.8276269 16711746
2.1482685 -4.8924298 3.6211808 16711746
2.8049974 -5.0537572 2.8548872 16711746
2.8848131 -6.3498392 5.2226262 16711746
1.5375751 -5.5404048 3.5636446 16711746
-0.5924959 -3.8363168 2.3847857 16711746
-4.0659132 -5.2307115 3.0371571 16711746
0.6554645 -3.4967403 2.7059052 16711746
2.3928740 -6.1445932 4.0293608 16711746
0.8726096 -1.8510967 2.7002561 16711746
2.3883402 -2.1061008 2.8873346 16711746
1.9977140 -3.7894316 4.1747985 16711746
0.8607923 -2.1668649 2.5888228 16711746
1.7826699 -3.5018940 2.7324312 16711746
1.7634901 -4.5061746 2.5420208 16711746
0.0145499 -4.2638035 2.7917035 16711746
-0.0423703 -4.9981818 2.6253397 16711746
-1.7997260 -7.8693829 5.1691489 16711746
-0.6576608 -5.6028090 2.6651561 16711746
1.3925596 -3.1036911 2.8532221 16711746
-1.4250897 -5.8533750 3.0541461 16711746
-3.1251161 -4.9944496 2.4422853 16711746
-2.6176729 -5.6690116 2.3400335 16711746
0.0359199 -4.7342238 3.0255575 16711746
2.2694368 -1.8054415 2.9646912 16711746
0.8782794 -3.1668172 2.4895902 16711746
2.7904677 -2.1509438 3.3404012 16711746
1.4211258 -3.7582965 2.9024444 16711746
1.0127141 -3.0062587 3.3928723 16711746
-0.6925613 -3.4168227 3.6794035 16711746
-0.4380506 -3.7612228 3.3755827 16711746
1.1073554 -2.2979541 3.6671159 16711746
-0.7379713 -4.0156846 2.8328898 16711746
1.5315158 -3.1983118 3.0225885 16711746
1.2718748 -2.4863567 2.8422735 16711746
1.3785869 -4.8779273 5.8662062 16711746
2.2253513 -4.4785566 3.1688066 16711746
0.4875490 -2.7897356 2.6571841 16711746
1.6542284 -3.6540227 2.9237189 16711746
-0.9999603 -5.7273364 2.8828006 16711746
-2.0723376 -4.7096863 2.6786568 16711746
-3.4188197 -4.2863746 3.1583936 16711746
2.0098679 -5.1212659 3.6160760 16711746
