# .PCD v.7 - Point Cloud Data file format
VERSION .7
FIELDS x y z rgb
SIZE 4 4 4 4
TYPE F F F F
COUNT 1 1 1 1
WIDTH 245
HEIGHT 1
VIEWPOINT 0 0 0 1 0 0 0
POINTS 245
DATA ascii

1.4166191 1.1313652 -1.1850320 16711746
0.7092274 -0.9447592 0.0862931 16711746
0.5225559 -1.0147111 0.7854610 16711746
0.5164096 -1.0257591 0.7994902 16711746
0.4806549 -0.9131193 0.6879259 16711746
0.5013848 -1.0205225 0.7678671 16711746
0.7687086 1.2533706 -1.3487420 16711746
0.7185784 1.3159540 -1.3280420 16711746
1.1959057 1.1233181 -1.2656178 16711746
-0.2077728 -0.9620560 0.1344148 16711746
0.5785197 -1.0241086 0.5672159 16711746
0.4741266 -0.8950298 0.4869660 16711746
-0.4193416 -1.3115394 0.0940184 16711746
-0.1539321 -0.5574229 0.0367895 16711746
0.1367577 -1.0289676 0.4860985 16711746
-0.3210554 -0.7237048 0.6341773 16711746
1.1479524 1.1805465 -1.2521728 16711746
1.1124047 1.2242583 -1.2415892 16711746
0.0051112 -0.9660811 0.6318908 16711746
0.7075935 -0.8964488 0.4473011 16711746
0.7296243 -0.9416545 0.4465030 16711746
0.3560795 -0.9690024 0.2111769 16711746
0.1926138 -1.0884694 0.5942577 16711746
-0.9236655 -0.8109192 0.5184488 16711746
0.6901314 -0.8428215 0.1718597 16711746
0.3652273 -1.0200894 0.5569426 16711746
0.4019134 -1.0451461 0.5366595 16711746
-0.3678287 -0.7151373 0.6294385 16711746
-0.3241151 -0.6167706 0.5205839 16711746
-0.6101272 -0.8056301 0.4373555 16711746
0.4176421 -1.0090324 0.7692730 16711746
0.4558884 -1.0207978 0.7757543 16711746
0.7702794 -0.8795813 0.2140613 16711746
0.9920064 -1.0318066 0.2329243 16711746
0.3345546 -0.8078561 0.4859376 16711746
0.3681262 -0.9619711 0.5767894 16711746
0.9865010 -0.7640949 0.1788209 16711746
1.0774230 -0.9331513 0.2266329 16711746
1.0333743 -0.8960118 0.2657056 16711746
1.1292092 -1.0527195 0.3302623 16711746
-0.3326171 -0.8554981 0.4565317 16711746
-0.3190803 -0.9314452 0.4101134 16711746
-0.5457162 -1.2093735 0.2840759 16711746
0.7243305 1.2027413 -1.3759264 16711746
0.7896638 1.1905980 -1.3687745 16711746
-0.2534013 -1.1126879 0.2112188 16711746
0.6470637 -0.9732502 0.1150941 16711746
0.1236141 -0.8172239 0.6313043 16711746
0.1705054 -0.9525015 0.7056563 16711746
0.1498642 -0.9599376 0.7154884 16711746
0.1199012 -0.9639103 0.6766033 16711746
0.2638002 -1.2370082 0.4615226 16711746
0.2024435 -0.9801109 0.3499822 16711746
0.5075664 -0.7632490 0.0736895 16711746
0.4992619 -0.7511118 0.0552280 16711746
-0.6697315 -0.7765542 0.6724607 16711746
0.2798764 -1.1415173 0.5646089 16711746
0.2232843 -1.0249673 0.4875675 16711746
1.6986047 1.0328856 -1.2062104 16711746
-0.3868976 -1.1365472 0.3734921 16711746
0.1548990 -1.0056865 0.3335796 16711746
0.7997644 1.3605531 -1.3017119 16711746
1.2057269 1.1755160 -1.2331836 16711746
1.2325833 1.1991967 -1.2090554 16711746
0.3023709 -1.1187979 0.4348248 16711746
-0.0303360 -1.1015874 0.3090218 16711746
-0.2304791 -1.2647368 0.2364505 16711746
-0.0178639 -0.9309805 0.3023390 16711746
-0.2119275 -1.0847952 0.2708974 16711746
0.0856940 -0.9142677 0.3835661 16711746
0.7496422 -0.9868588 0.1089460 16711746
-0.0688388 -0.9845377 0.1677120 16711746
-0.0201028 -1.0512950 0.3882353 16711746
-0.0913708 -1.1729645 0.4292679 16711746
-0.4196757 -0.7685941 0.1896999 16711746
0.2302157 -0.8946578 0.6300444 16711746
0.5894002 -0.8851956 0.5708427 16711746
-0.8405643 -0.8266340 0.5201020 16711746
-0.7911283 -0.8038574 0.4823202 16711746
-0.1184529 -1.0738628 0.3396860 16711746
-0.4561545 -1.0590447 0.2426674 16711746
-0.4531044 -0.9414152 0.2107852 16711746
0.3030069 -1.0586523 0.4712958 16711746
0.3025295 -0.9414306 0.4060033 16711746
0.9222209 -0.8701552 0.2041732 16711746
1.1175917 -1.0473492 0.2210078 16711746
0.4014321 -1.0136876 0.7245938 16711746
1.1973870 -1.0654042 0.3675033 16711746
-0.5877725 -0.6095858 0.5050619 16711746
0.4764763 1.2753842 -1.4113436 16711746
0.5249156 1.3134785 -1.4047467 16711746
-0.3355242 -0.9736177 0.3833654 16711746
-0.2991909 -1.2555081 0.2107899 16711746
0.3307760 -0.8578331 0.5515566 16711746
-0.0238345 -0.8949240 0.3483506 16711746
-0.0493543 -0.8794078 0.3341911 16711746
-0.4127682 -1.1172450 0.1584657 16711746
1.6435251 1.1247299 -1.0598521 16711746
0.5202080 -0.9549295 0.2018615 16711746
0.4905287 -1.0213109 0.2002520 16711746
1.0927768 -0.9384993 0.1855006 16711746
-0.3104466 -0.8755089 0.2687944 16711746
-0.0994327 -0.7714218 0.1701780 16711746
0.3264501 -1.1503685 0.3864620 16711746
0.2303779 -0.8544533 0.2803966 16711746
-1.0939567 1.2152727 -1.5506790 16711746
-1.2836419 1.5364169 -1.4283332 16711746
-0.1511778 -1.0420455 0.6772442 16711746
-0.4710993 -0.7285542 0.4613449 16711746
-0.3727512 -0.6880106 0.5067313 16711746
-0.3966003 -0.8479943 0.5893084 16711746
-0.0947962 -0.9729482 0.4459557 16711746
-0.1749472 -1.0652651 0.5021427 16711746
-0.0867356 -0.8717508 0.5006432 16711746
-0.4298791 -1.0141153 0.4776961 16711746
-0.3997385 -1.0327729 0.4702792 16711746
-0.3843680 -0.7480757 0.3307040 16711746
-0.4671476 -0.9671634 0.5025750 16711746
0.2292282 1.2133726 -1.4785295 16711746
0.8540397 1.1832653 -1.3611370 16711746
-0.1664352 -0.9019219 0.7418656 16711746
0.7726890 -0.9204540 -0.0473708 16711746
0.2218719 -1.0697539 0.4732968 16711746
0.4185172 -0.9670441 0.4212678 16711746
0.8448017 -1.0157833 0.2175629 16711746
0.2456424 -1.2123370 0.4920116 16711746
0.2032800 -1.0394754 0.4053920 16711746
-0.0874650 -0.7556858 0.2014717 16711746
0.7056633 -0.8200305 0.1112961 16711746
1.5973182 1.1497016 -1.1155659 16711746
-0.6456677 -0.6523111 0.5925081 16711746
0.2820030 -1.1014704 0.3854377 16711746
0.2249421 -1.0268147 0.3490087 16711746
-0.1100677 -1.1088825 0.2767569 16711746
-0.1482170 -1.1057909 0.2575611 16711746
0.2689506 -1.0323222 0.2697809 16711746
1.1804446 -1.0588259 0.2902378 16711746
-0.2241181 -0.9817579 0.1039179 16711746
-0.2204389 -0.9846734 0.0955636 16711746
-0.5667698 -0.6185516 0.5040193 16711746
0.3629974 -0.8860324 0.7062781 16711746
1.0452623 -1.0332648 0.1949619 16711746
0.8730273 -0.8643020 0.1531721 16711746
-0.2995185 -0.9573919 0.1444027 16711746
0.7560156 1.3916159 -1.2855445 16711746
0.7581078 1.3378557 -1.2202731 16711746
0.2270803 -0.9750910 0.5504191 16711746
0.2177829 -0.9660694 0.5561166 16711746
0.2123191 -0.9544430 0.5242888 16711746
1.2369354 1.2227304 -1.1929457 16711746
-0.4344763 -1.0826278 0.2536466 16711746
-0.3387995 -0.8986933 0.1930879 16711746
-0.2695824 -1.2296392 0.2696999 16711746
0.5261449 -0.9566429 0.5131273 16711746
0.1544722 -0.9871225 0.6729863 16711746
0.1092646 -0.8639009 0.5670658 16711746
-0.0657605 -0.8433477 0.3652651 16711746
-0.0450264 -1.0079014 0.4119333 16711746
-0.0584675 -1.0118598 0.4205374 16711746
0.3498193 -0.8942922 0.5145872 16711746
-0.0131608 -0.9130347 0.3306779 16711746
0.2927296 -0.8532449 0.3598220 16711746
0.2419969 -0.6985955 0.2771468 16711746
0.3884146 -0.8557019 0.7009864 16711746
0.3224865 -0.7691829 0.6367512 16711746
0.6864851 -1.0423884 0.0568989 16711746
-0.1589716 -0.8961347 0.2886408 16711746
-0.2226696 -1.0467496 0.3213744 16711746
-0.1534427 -0.7273718 0.2173082 16711746
0.2568175 -0.9713602 0.8640890 16711746
0.0670651 -1.0960829 0.5643589 16711746
-0.2783718 -0.9067407 0.2118096 16711746
-0.0533658 -1.0021287 0.5871534 16711746
-0.1249307 -1.1713476 0.4089770 16711746
-0.0817523 -0.9054320 0.3079580 16711746
-0.2752709 -0.9343222 0.1964381 16711746
0.1699031 -0.7899196 0.6712015 16711746
1.2920529 -1.0780534 0.4115504 16711746
0.2428424 -0.8674917 0.2466525 16711746
1.4493341 -1.0000783 0.4928983 16711746
0.5245590 -0.9537191 0.2750166 16711746
-0.1091461 -0.9895644 0.4134656 16711746
-0.3753878 -0.9945637 0.3395692 16711746
-0.5088963 -0.9600185 0.3441471 16711746
-0.4734954 -1.0556409 0.1871035 16711746
0.1505377 -1.0729333 0.5676544 16711746
0.1798853 -0.9971954 0.5046885 16711746
0.1182344 -0.9862289 0.4922204 16711746
0.4587079 -0.9941614 0.3704795 16711746
0.4853598 -1.1264224 0.4153723 16711746
1.0633109 -0.9211853 0.6029800 16711746
0.8552092 1.2454525 -1.3294557 16711746
0.1894047 -1.0683669 0.4593299 16711746
0.3381614 -0.9420056 0.4263633 16711746
-0.0530340 -1.0054449 0.1425292 16711746
0.8107396 -0.8219292 -0.0198520 16711746
0.7047249 -1.0378559 0.3358775 16711746
1.3466516 1.1480349 -1.1982585 16711746
0.8896434 -1.0219530 0.7517868 16711746
0.7236684 -0.9311307 0.7884300 16711746
1.0626385 -0.9479946 0.6286670 16711746
0.6360833 -0.8827509 0.4437086 16711746
-0.4707186 1.3327421 -1.4941599 16711746
-0.7451916 1.2405802 -1.5141207 16711746
-0.8309516 1.4825070 -1.6660981 16711746
0.1946036 1.3834308 -1.4339337 16711746
0.1610107 1.2408283 -1.4778030 16711746
0.3398166 -0.6213461 0.5622448 16711746
0.4329618 -0.9432529 0.8033020 16711746
-0.4323505 1.4671775 -1.4190707 16711746
-0.8494315 1.5370511 -1.4960083 16711746
-0.6229495 1.4843069 -1.4429976 16711746
-0.0331571 -0.8003665 0.6995733 16711746
-0.0530609 -0.8444443 0.6757215 16711746
-0.0412432 1.5914927 -1.5702785 16711746
-0.3189984 1.5838788 -1.4592704 16711746
0.2174663 -1.0240973 0.6672867 16711746
0.5115891 -1.0015856 0.6527492 16711746
0.2343835 -0.9346918 0.7463553 16711746
-0.0312277 -0.8638701 0.5198325 16711746
-0.0385155 -0.8762469 0.6672797 16711746
-0.1013324 -0.9222696 0.6330644 16711746
0.3472028 -1.1299088 0.6060033 16711746
0.2465781 -1.0966327 0.5716372 16711746
0.2953304 -1.0400902 0.4967963 16711746
0.3201870 -0.9661022 0.6038077 16711746
0.2242040 -0.9569063 0.5687178 16711746
0.4680067 -0.9328883 0.5242646 16711746
-0.0545971 -0.6781558 0.3124286 16711746
0.1425359 -1.0570689 0.6075701 16711746
0.7464380 -1.0019847 0.7682831 16711746
0.5767614 -1.0468134 0.7858654 16711746
0.7319462 -1.0396073 0.7043555 16711746
0.9069993 -1.0193496 0.7685381 16711746
0.4714756 -1.8768474 0.8553203 16711746
5.1615577 -13.5507078 7.9571137 16711746
0.8171312 -1.1578444 0.7812442 16711746
7.3925586 -15.2382660 12.8425703 16711746
0.1243107 -1.7075230 0.5582410 16711746
1.3609902 -2.5003014 2.5356758 16711746
-7.3265901 -22.6194592 10.0552769 16711746
-3.1854782 -18.4048996 3.0371842 16711746
-5.5490088 -3.6570253 4.0837712 16711746
4.3356280 -7.1376238 8.7693644 16711746
-1.2023538 -6.6313305 0.7939203 16711746
