# .PCD v.7 - Point Cloud Data file format
VERSION .7
FIELDS x y z rgb
SIZE 4 4 4 4
TYPE F F F F
COUNT 1 1 1 1
WIDTH 219
HEIGHT 1
VIEWPOINT 0 0 0 1 0 0 0
POINTS 219
DATA ascii

-0.4086226 -0.9849340 0.4717928 16711746
-0.4523358 -0.9855423 0.4602105 16711746
0.4290996 0.5864486 -0.5560681 16711746
0.7104791 0.7480099 -0.6971132 16711746
-0.2982522 -1.3157971 0.0166184 16711746
0.3078679 -1.0903567 0.2013365 16711746
0.5808772 -0.8403129 0.4696519 16711746
0.5759161 -0.9011954 0.4953487 16711746
-0.0628738 -0.9729046 0.4254325 16711746
-0.0056996 -1.1751598 0.1970413 16711746
-0.0535040 -1.6263307 0.0353315 16711746
1.2211771 0.9019377 -0.7397206 16711746
0.8425170 -1.0918303 0.0141173 16711746
0.7752117 -1.0633565 0.0176737 16711746
0.3148670 -0.7734692 0.6244804 16711746
-0.3348966 -1.2375221 0.3333665 16711746
0.8797206 -1.0972897 0.0451609 16711746
0.8281986 -0.9508364 0.0231701 16711746
0.8744392 -1.0892147 0.0333265 16711746
0.9707617 -0.9514308 0.4853305 16711746
0.9418868 -0.9565842 0.4512586 16711746
1.0060244 -1.0789155 0.0580028 16711746
0.0074477 -1.0946114 0.1132862 16711746
0.4740993 -1.0308160 0.3739635 16711746
0.7257227 -0.9722824 0.3712780 16711746
0.2675681 -1.0205246 0.1815417 16711746
0.0723349 -1.1281055 0.0343393 16711746
0.0361387 -1.0975777 0.0236405 16711746
0.4537911 -1.1632904 0.2562627 16711746
0.3565711 -1.0027750 0.2379336 16711746
0.0725716 -1.2594934 0.2990784 16711746
-0.2351191 -1.1775568 0.0217365 16711746
0.6307092 -0.7022542 0.6182815 16711746
0.5776991 -0.7084447 0.6147985 16711746
0.5525575 -0.7450879 0.5370078 16711746
0.7262395 -0.7943800 0.5653284 16711746
-0.1446964 0.5328189 -0.5630760 16711746
-0.3195233 0.5714980 -0.7066124 16711746
0.0723125 0.4522551 -0.5048894 16711746
-0.0291959 0.4583066 -0.5409557 16711746
-0.0185990 0.1509150 -0.1004332 16711746
-0.3091846 0.6354841 -0.5755463 16711746
0.6469564 -0.9048718 0.4011792 16711746
0.8148259 -0.9726256 0.4025651 16711746
0.7183177 -0.9065645 0.4714436 16711746
0.8938608 -0.9548544 0.3475771 16711746
0.4866444 -0.9317847 0.2979594 16711746
0.7261202 -0.9212794 0.3282414 16711746
-0.2963158 -1.1177706 0.1276035 16711746
-0.6694758 -1.0749842 0.2782893 16711746
-0.4838544 -1.0464969 0.3252143 16711746
-0.4569976 -1.2358084 0.3401200 16711746
-0.5404881 -1.1672944 0.3013194 16711746
-0.5065066 -1.1305940 0.3812620 16711746
-0.3201827 -1.1163394 0.2289698 16711746
0.0605571 0.4680237 -0.4969493 16711746
0.0759467 -1.1521357 0.0735209 16711746
0.5859036 -0.9790039 0.2747180 16711746
0.4703536 -1.0378804 0.2854487 16711746
-0.0473190 -0.9245859 0.4766189 16711746
-0.0633494 -0.9425927 0.4793723 16711746
-0.2463093 -1.2241722 0.1424098 16711746
0.4722207 0.6230202 -0.5715179 16711746
0.0103930 -1.2467813 0.0252558 16711746
-0.4859979 -1.2301133 0.1808526 16711746
0.6458403 0.6545541 -0.7119177 16711746
0.2676388 -1.0204678 0.2217682 16711746
0.2319535 -1.0473057 0.2211564 16711746
0.9746149 -0.9518869 0.4246165 16711746
-1.4670062 -1.2724923 0.5481390 16711746
0.1445970 -1.0706552 0.1251018 16711746
0.3456760 -0.9955533 0.2822417 16711746
0.3584360 -1.0350363 0.2671706 16711746
0.0842041 -0.8251156 0.5532774 16711746
0.0325778 -0.8405514 0.5467344 16711746
0.0816981 -0.8498881 0.5408879 16711746
1.0202785 -0.9511753 0.4016401 16711746
-0.0704204 -1.1572133 0.1103576 16711746
0.2914322 -0.9537646 0.3948990 16711746
0.2533884 -0.8883303 0.5241073 16711746
0.3077593 -0.8916224 0.5312479 16711746
-0.0932863 -1.0191324 0.3922074 16711746
1.3312757 1.0643106 -0.9409723 16711746
0.3640054 -0.8960781 0.5066857 16711746
1.1122124 -0.9452894 0.4321838 16711746
0.0499538 -1.8100421 0.0738309 16711746
0.0785079 -1.1262428 0.0427317 16711746
-0.4999156 -0.9290908 0.5658856 16711746
-0.6411087 -0.9108036 0.6645318 16711746
-0.6174818 -0.9387165 0.6165419 16711746
-0.6979909 -0.9037157 0.6231290 16711746
-0.5712641 -0.8937353 0.6437097 16711746
-0.3749188 -0.9809073 0.4513438 16711746
-0.5852363 -1.0554262 0.4785857 16711746
-0.6669876 -1.2383448 0.4887969 16711746
-0.6310846 -1.0694202 0.5259016 16711746
-0.4702276 -0.9800439 0.5240201 16711746
-0.5540100 -0.9678874 0.5146136 16711746
0.2048781 -1.0584692 0.1497748 16711746
0.1623882 -1.0976804 0.1463602 16711746
0.1651482 -1.0648866 0.1269267 16711746
0.2057519 -1.0488623 0.3119134 16711746
0.0924970 -1.3822794 -0.0132400 16711746
0.1033061 -1.0832596 -0.0279061 16711746
0.2396739 -0.7356666 0.5616421 16711746
0.2608710 -0.7983173 0.5411842 16711746
0.3502907 -0.7356703 0.5889981 16711746
0.1278984 -0.9795313 0.4657401 16711746
0.1338459 -0.9400974 0.4226755 16711746
0.1056353 -1.0848777 0.1767141 16711746
0.0180772 -1.1560129 -0.0280234 16711746
-0.0457202 -0.9838094 0.4032767 16711746
-0.2727432 -1.1551718 0.1490897 16711746
0.0599866 -1.0746212 0.3211845 16711746
0.0043877 -1.0304990 0.2983353 16711746
0.1385547 -0.7109600 0.5734314 16711746
0.2530224 -0.7543648 0.5975722 16711746
0.1728414 -0.7497158 0.5826295 16711746
0.3283022 -0.7105230 0.6058008 16711746
0.2689204 -0.7175841 0.6003193 16711746
0.0240776 -0.8402479 0.5337132 16711746
-0.0292779 -0.7566143 0.6025981 16711746
0.1192819 -0.7490780 0.5768291 16711746
0.4947324 -0.7191995 0.6037464 16711746
-0.3638072 -1.0770724 0.2880680 16711746
-0.0421019 -0.9495572 0.4397500 16711746
0.0903877 -0.9136184 0.5339657 16711746
-0.0338217 -1.0274664 0.3179114 16711746
-0.0510672 -1.0301174 0.3137616 16711746
0.1247794 -1.2660950 0.0097603 16711746
-0.3425338 -1.4184343 0.0442653 16711746
-0.4660380 -1.6332560 0.0393456 16711746
0.3552826 -0.9556988 0.2955572 16711746
-0.4953072 -1.2210550 0.2043201 16711746
0.3758308 -0.7949994 0.5926381 16711746
0.3962125 -0.7726362 0.5654112 16711746
0.2871630 -1.0609177 0.2826127 16711746
0.2563758 -0.9142032 0.4508967 16711746
0.2763159 -0.9456342 0.4505897 16711746
0.6044672 -0.8970277 0.4726971 16711746
0.5618927 -0.8967468 0.4726964 16711746
-0.3459774 -1.1165713 0.3372272 16711746
0.2634595 -0.9918700 0.3240259 16711746
0.6405779 -1.0333258 0.3276441 16711746
-0.0788613 -1.3363810 -0.0897505 16711746
-0.0685206 -1.1000683 -0.0776544 16711746
0.4321443 -0.9872367 0.3170744 16711746
-0.4111048 -1.0359871 0.3687758 16711746
0.2731986 -0.9000819 0.5087920 16711746
0.0497575 -0.7840248 0.5851207 16711746
0.0744991 -0.7856889 0.5748883 16711746
0.1489931 -1.0965894 0.1027141 16711746
0.1489987 -1.0229753 0.2637163 16711746
0.2164561 -1.1911528 0.2904210 16711746
0.3568364 -0.8942899 0.4791251 16711746
0.9325179 -0.9645272 0.3809398 16711746
-0.3730985 -1.2295196 0.0311299 16711746
-0.0372740 -1.2179066 0.2910810 16711746
0.2885909 -1.0564017 0.2469106 16711746
0.2961635 -1.0518603 0.2320636 16711746
-0.6206070 -1.1812536 0.0290844 16711746
0.4585352 -1.0007274 0.4251475 16711746
-0.4589419 -1.0332971 0.4116085 16711746
0.3193476 -0.9112962 0.4755918 16711746
-0.4294809 -1.3069185 0.0458257 16711746
0.0173743 -0.8968810 0.4784433 16711746
0.6000001 -0.8248787 0.5102566 16711746
0.0853344 -0.9011315 0.4907128 16711746
0.0666991 -0.9065777 0.4793003 16711746
-0.4676160 -0.8718674 0.6161770 16711746
0.6012876 -0.9024176 0.4557464 16711746
-0.1408719 0.5703370 -0.5399403 16711746
-0.1186897 0.5857469 -0.5328588 16711746
-0.2943001 0.6070985 -0.5917979 16711746
0.0167833 0.0259231 0.0075385 16711746
-0.0372213 0.5340227 -0.4430917 16711746
-0.0355291 0.4988894 -0.4596379 16711746
-0.3704556 0.6734427 -0.5966082 16711746
-1.7234352 -1.2606249 0.6842434 16711746
-0.1049117 -0.7795324 0.5999874 16711746
-0.4609618 -0.9072316 0.5760438 16711746
-0.3571501 -1.1399833 0.2529460 16711746
0.4789516 -0.9807090 0.2475664 16711746
0.4407841 -1.0372307 0.2700372 16711746
0.5019638 -1.0644433 0.2463113 16711746
0.0664508 -0.8102348 0.5717862 16711746
0.0641668 -0.8317765 0.5696939 16711746
0.0294003 -0.8349890 0.5753985 16711746
0.1537706 -1.0095493 0.3019060 16711746
0.1903724 -1.0538619 0.2863172 16711746
0.4243270 0.6408224 -0.5248440 16711746
0.4935742 0.6793568 -0.5406531 16711746
0.9310293 -0.8678899 0.4254217 16711746
0.5716202 0.5120323 -0.3751044 16711746
1.1011299 0.8637480 -0.7893101 16711746
0.1373626 0.4446264 -0.4400724 16711746
0.1644577 0.4787636 -0.4743387 16711746
0.1550189 0.5780195 -0.5393217 16711746
0.1381893 0.4574967 -0.4990949 16711746
0.5249361 0.5816162 -0.6548892 16711746
0.7724993 0.6907475 -0.7982475 16711746
-0.5717328 -0.9350173 0.7238455 16711746
0.6301767 0.7546197 -0.6089619 16711746
0.7507089 0.7961116 -0.6773493 16711746
0.2526614 -1.1068449 0.1323563 16711746
0.0653553 -1.2201424 0.1234128 16711746
0.0898268 -1.2174964 0.1840067 16711746
0.1936606 -1.2663947 0.1689391 16711746
0.1792011 -1.1730617 0.0686924 16711746
0.1368444 -1.0915728 0.0494842 16711746
0.5576490 -1.0927948 0.1647736 16711746
0.7047508 -1.0343302 0.2164666 16711746
0.2874062 -0.9317788 0.4305227 16711746
0.3196855 -0.9178815 0.4620555 16711746
0.1223131 -0.9891159 0.3790946 16711746
0.1627388 -1.0041828 0.3512765 16711746
0.1593704 -1.0057751 0.3112570 16711746
0.9564405 -0.8647375 0.4651392 16711746
0.7685921 -0.9582629 0.4586785 16711746
