# .PCD v.7 - Point Cloud Data file format
VERSION .7
FIELDS x y z rgb
SIZE 4 4 4 4
TYPE F F F F
COUNT 1 1 1 1
WIDTH 213
HEIGHT 1
VIEWPOINT 0 0 0 1 0 0 0
POINTS 213
DATA ascii

0.2369090 -1.8427972 0.0991276 16711746
0.2043170 -2.3284283 0.1211139 16711746
0.9326830 -1.8534887 0.8222175 16711746
0.6516357 -1.4371525 0.6461108 16711746
0.0303049 -1.8087044 0.2468247 16711746
0.4258993 -1.2339666 0.6195481 16711746
-0.0687539 -0.1981749 0.0054005 16711746
-0.0128504 -1.4969742 0.4859831 16711746
-0.0900687 -1.8613955 0.6128126 16711746
-0.1410391 -0.3189270 -0.0121371 16711746
-0.7157657 -1.4124000 -0.1303983 16711746
0.0812641 -0.8062249 0.3446504 16711746
-0.1223382 -0.8731880 0.2207635 16711746
-0.2278364 -0.4063139 -0.0033362 16711746
-0.1347691 -0.2434832 0.0007485 16711746
0.1876781 -1.7179163 0.2241971 16711746
-0.0622249 -0.4062315 0.0989810 16711746
-0.0825148 -0.5964903 0.1367604 16711746
0.3156005 -0.8046938 -0.0348780 16711746
-0.1378405 -0.8546230 0.1199757 16711746
-0.1323080 -0.9451821 0.1110705 16711746
0.0466414 -0.2432171 0.0331404 16711746
0.1248534 -0.6914932 0.0461816 16711746
0.0386444 -0.1166699 0.0057240 16711746
0.3489063 -1.6107332 0.6012153 16711746
-0.6567840 -0.6798717 -0.0059102 16711746
-0.3377812 -1.1975219 -0.1225798 16711746
0.5812114 -1.4265749 1.1560632 16711746
-0.3506381 -0.8259888 -0.1097703 16711746
0.4032871 -1.2872605 0.4035652 16711746
0.0160209 -0.3750441 0.0885425 16711746
-0.4437578 -0.6380550 -0.0257871 16711746
-0.0154313 -1.6870779 0.9439638 16711746
-0.0085967 -1.3333033 0.7016677 16711746
-0.1251992 -0.9265832 0.1731066 16711746
0.1254701 -1.2283863 0.3241542 16711746
0.4478309 -1.7661085 1.1730601 16711746
0.6614211 -1.5981010 1.0615263 16711746
-0.0790642 -1.4106014 0.8920155 16711746
-0.0579283 -1.7954719 1.0758837 16711746
0.2136525 -1.6260320 1.0642793 16711746
-0.0231077 -1.7101845 1.2223953 16711746
-0.0541569 -1.7411201 1.1460946 16711746
0.2679104 -1.9104221 1.3642780 16711746
0.2601805 -1.6158172 1.1345984 16711746
0.3524506 -1.4034749 0.6080998 16711746
0.4231006 -1.0623901 0.5366473 16711746
-0.4673245 -1.8754457 0.2226495 16711746
1.5615200 1.5003771 -1.5429364 16711746
0.0791482 -1.3350437 0.1541736 16711746
-0.4847538 -1.3743520 -0.1053729 16711746
0.5391068 1.1452587 -1.1741568 16711746
-0.2823987 -1.8446672 0.2911537 16711746
-0.1392674 -0.7912153 0.1276481 16711746
-0.3679750 -1.2253351 0.3475382 16711746
-0.1161475 -0.3746474 0.1182519 16711746
-0.0731169 -0.2600441 0.0832854 16711746
0.9029659 -1.7694802 1.3737043 16711746
0.0221953 -0.4575007 0.0459657 16711746
0.0143916 -0.2687176 0.0338161 16711746
0.0230153 -0.4667212 0.0361773 16711746
0.0127800 -0.4051608 0.0376591 16711746
-0.1404453 -0.6812043 0.1151176 16711746
-0.1390630 -0.6078128 0.1003968 16711746
-0.2067536 1.3461803 -1.1398758 16711746
-0.0046483 -0.1300506 0.0152067 16711746
-1.1401560 -1.9915653 -0.2813060 16711746
-0.0790885 -0.3496452 -0.0155883 16711746
-0.2199598 -0.7900483 -0.0536462 16711746
1.1821799 1.0057225 -1.3525692 16711746
0.2869596 0.7384971 -0.8163851 16711746
0.1168930 0.6026977 -0.6537389 16711746
-0.1581896 -1.2328389 0.9282275 16711746
0.3670633 1.1241965 -0.9479381 16711746
0.6840612 1.2784414 -1.0638957 16711746
0.0641481 -1.3693557 0.0372858 16711746
0.7854621 -1.4720635 0.1857973 16711746
0.7093944 -1.3824886 -0.1023522 16711746
0.2305632 -1.7629063 0.5814773 16711746
0.7895443 -1.4692627 0.5035771 16711746
0.8333522 -1.4906158 0.2914174 16711746
-0.8102047 -0.9338295 0.0082942 16711746
-0.8275406 -0.9900581 0.0357994 16711746
-0.1942843 -0.3030683 -0.0098258 16711746
-0.1825420 -0.2599513 -0.0103855 16711746
-0.1353646 -0.2698506 -0.0335412 16711746
-0.1292243 -0.2274215 -0.0241419 16711746
-0.0257510 -0.8299642 0.3068098 16711746
-0.0595494 -1.1279359 0.4104002 16711746
0.1029107 -0.7765442 0.1183535 16711746
0.1430096 -0.8995799 0.1169348 16711746
-0.1750820 -1.1861748 0.3854202 16711746
-0.0438714 -0.2933558 0.0993897 16711746
0.6376070 -1.5592988 1.0814166 16711746
0.1110183 -0.9811730 0.2234406 16711746
0.1026447 -0.6566162 0.1579350 16711746
-0.1939845 -0.2007030 0.0085221 16711746
-0.2819002 -0.2971002 -0.0292826 16711746
0.5702491 -1.6328440 0.9120100 16711746
0.2669263 -1.2517706 0.6603613 16711746
0.5924568 -1.6686155 0.8886753 16711746
-0.3699020 1.1834489 -1.1602212 16711746
-0.4511790 0.8750473 -0.9537774 16711746
0.0342255 0.7504775 -0.8854102 16711746
0.4175790 -1.6474288 1.2731248 16711746
0.1057120 0.9330999 -0.7731430 16711746
-0.2222732 -1.6168958 1.0588075 16711746
-0.6617479 -1.0152496 0.5782410 16711746
-0.4032125 -1.2017870 0.5606649 16711746
-0.2129603 -0.9288073 0.3935334 16711746
-0.1774694 -1.0018960 0.5237405 16711746
1.3573024 1.1096876 -1.1870054 16711746
1.1703384 1.0824164 -1.2015114 16711746
0.9153937 0.8885355 -0.9286240 16711746
1.2193925 1.1021442 -1.1756454 16711746
-0.1187714 -1.1455244 0.6160629 16711746
-0.2663677 -1.6942859 0.9032915 16711746
1.7005080 1.1283525 -1.4678100 16711746
-0.0379759 -1.5185245 0.8302264 16711746
-0.0856451 -1.4887383 0.7823575 16711746
-0.6484996 -0.6205507 -0.0570762 16711746
-0.1667688 -1.2418292 0.3613901 16711746
0.5645165 -1.8880432 0.7025240 16711746
-0.1778744 -1.0124191 0.5148954 16711746
0.0582375 -0.1450344 0.0132245 16711746
-0.1930123 -0.3064542 0.0131207 16711746
-0.1856068 -0.2726437 0.0093602 16711746
0.8800104 -1.5731351 -0.0826121 16711746
-0.0963994 -1.0703627 0.2204716 16711746
-0.1190183 -0.9829897 0.1723409 16711746
-0.6926634 -0.5770938 -0.0633674 16711746
0.3034392 -1.4127659 0.4900525 16711746
0.2036911 -0.8500956 0.2817934 16711746
-0.0786059 -1.2272902 0.1295451 16711746
-0.1220667 -1.8781027 0.1540057 16711746
-0.0382482 -0.4208088 0.0485565 16711746
0.3329837 -1.0344826 0.3638161 16711746
0.1791072 -0.6356170 0.2250412 16711746
0.1051768 -1.1604275 0.3814547 16711746
0.9604962 -1.6162207 0.2642059 16711746
0.5970541 -1.5504192 0.5398985 16711746
0.1816293 -0.4544735 0.1575885 16711746
0.0869623 -0.8839781 0.2709794 16711746
0.1540442 -1.2590934 0.3658336 16711746
0.1578695 -1.7265117 0.1231454 16711746
0.5425324 -1.6935143 0.7787992 16711746
0.5284761 -1.5464685 0.6894024 16711746
0.5456706 -1.8676411 0.7940225 16711746
0.1693653 -1.2132105 0.4949556 16711746
0.3035184 -1.5553768 0.6229718 16711746
0.2100527 -1.3365991 0.3893785 16711746
-0.0344718 -1.3514966 0.6210611 16711746
-0.0552280 -1.0896460 0.4892482 16711746
0.3698953 0.8023119 -0.8851064 16711746
0.3228177 -1.6043015 1.2199757 16711746
0.5898580 -1.4642067 0.8704629 16711746
-0.0079405 -1.3453823 0.6891391 16711746
-0.0067336 -1.3670703 0.6662548 16711746
1.0983795 -1.7547189 0.7256644 16711746
-0.0603739 -1.0454053 0.5317947 16711746
1.2297951 1.0671604 -1.2501227 16711746
0.7473227 0.9811457 -1.1254473 16711746
0.2073393 -1.1883674 0.2341353 16711746
-0.1374005 -0.6562520 0.1357472 16711746
-0.1381694 -0.6342569 0.1209139 16711746
0.4992058 -1.1153477 -0.0700512 16711746
0.7996700 -1.9413465 -0.1501635 16711746
0.2049547 -1.7083105 0.6179236 16711746
-0.3242344 -0.6627756 -0.0162471 16711746
-0.1394278 -0.2858917 -0.0010666 16711746
0.2696509 -0.5850377 0.2163475 16711746
0.1036884 -0.2315974 0.0874919 16711746
0.6361289 -2.0846477 0.8015711 16711746
1.1749388 0.9435595 -0.9832454 16711746
-0.0089646 -1.2632657 0.3548477 16711746
-0.0175879 -0.4623151 0.1403206 16711746
0.0485312 -0.2171920 -0.0004708 16711746
0.1713033 -1.4418111 0.5581740 16711746
0.0037169 -0.3461783 0.0410279 16711746
0.0874828 -0.1861067 0.0106788 16711746
0.1103451 -0.6458801 0.0812415 16711746
0.2955969 -1.8795283 0.1824843 16711746
-0.1159496 -0.9086798 0.2405660 16711746
-0.1863858 -1.8285543 0.0714705 16711746
-0.0920146 -0.2552585 -0.0040261 16711746
-0.3985451 -0.8891219 -0.0535200 16711746
0.0779043 -0.2205494 0.0094333 16711746
0.0811172 -0.2299931 0.0053950 16711746
1.0047520 -1.7010982 -0.0830573 16711746
-0.0857558 -0.3140574 -0.0045449 16711746
-0.0417474 -1.2554718 0.2513985 16711746
0.2947066 -1.4238988 0.4477253 16711746
0.2220111 -0.8898456 0.2599150 16711746
-0.1343165 -1.7914124 0.2435619 16711746
-0.0655352 -0.6618823 0.0948438 16711746
0.0105530 -1.5370680 -0.0043434 16711746
0.0462433 -0.1676948 0.0573070 16711746
0.9701201 -1.5618447 0.6207253 16711746
0.9365235 -1.4524361 0.5352384 16711746
0.3874153 -1.4642812 0.5776104 16711746
0.0276056 -0.0755205 0.0345900 16711746
-0.2539386 -0.2573951 0.0100162 16711746
0.0784669 -0.4384516 0.0242495 16711746
0.2314709 -1.3799900 0.3626358 16711746
0.1384710 -1.5902700 0.3161206 16711746
0.1098856 -0.9938563 0.1916820 16711746
-0.0312729 -0.4322252 0.0763354 16711746
-0.4899616 -1.3919272 -0.1235718 16711746
-0.3864652 -0.3251720 0.0133288 16711746
-0.1393761 -1.2283431 0.4681529 16711746
-0.1317080 -0.2868701 0.0986085 16711746
-0.0337524 -0.3848449 0.0912666 16711746
0.0800534 0.5831635 -0.5720198 16711746
