# .PCD v.7 - Point Cloud Data file format
VERSION .7
FIELDS x y z rgb
SIZE 4 4 4 4
TYPE F F F F
COUNT 1 1 1 1
WIDTH 65
HEIGHT 1
VIEWPOINT 0 0 0 1 0 0 0
POINTS 65
DATA ascii

0.1226090 -0.8533037 0.1337362 16711746
-3.2020237 -9.7812395 0.9604320 16711746
-0.2623855 -0.8594937 0.1020076 16711746
0.0186893 -0.8017635 0.0364694 16711746
-0.1512802 -1.0757583 -0.0313842 16711746
-0.2739786 -2.0519195 -0.1081925 16711746
0.1376845 -0.5692366 0.1117545 16711746
0.0420616 -0.6856078 0.1143776 16711746
0.4260338 -0.9792178 0.0010304 16711746
0.0079041 -0.6478009 -0.0138574 16711746
-0.0183554 -0.9034404 -0.0693789 16711746
-0.9534008 -1.3630981 -0.3422921 16711746
-0.8284656 -1.6867924 0.0345299 16711746
-0.1398601 -1.3653889 -0.1294762 16711746
-0.1701989 -0.8477445 -0.0262249 16711746
-0.4050000 -0.9109821 -0.1676712 16711746
-2.3646462 -3.3068097 0.4962509 16711746
0.0023387 -1.7425064 0.3657781 16711746
-0.7167013 -1.9818916 -0.0481314 16711746
-2.4608896 -6.8768482 -0.3014644 16711746
0.0575251 -0.7326993 0.2775816 16711746
-2.6781011 -5.3217592 0.1785941 16711746
0.0455461 -0.5905218 0.0272711 16711746
-0.5233461 -1.4316584 0.3693771 16711746
-0.2602814 -1.0676396 0.2041789 16711746
0.2473414 -1.1357315 0.1481279 16711746
-0.2224459 -1.1798937 -0.0208261 16711746
-0.3627577 -1.5609292 -0.0651275 16711746
0.0352488 -0.7939076 0.0118546 16711746
-0.2013049 -1.2432349 -0.0083006 16711746
-0.1903723 -1.6295582 -0.0413225 16711746
-0.5044405 -1.2563206 0.0639504 16711746
-0.6474339 -2.1038594 -0.0471527 16711746
-0.0450935 -0.9282288 -0.0420751 16711746
0.2686298 -0.9567336 0.1924639 16711746
-0.0320218 -0.6163148 0.0865306 16711746
0.0502840 -0.7923242 -0.0202705 16711746
0.0177251 -0.9060434 -0.0327890 16711746
-0.1590519 -0.8209497 0.0299937 16711746
-0.6220539 -2.5556610 0.0648517 16711746
-0.1154048 -0.9538291 0.1291781 16711746
-0.1228981 -1.3797729 0.1518869 16711746
-0.0149042 -0.9005883 0.0180020 16711746
-0.0629425 -1.4591329 -0.0124068 16711746
-0.1894909 -0.9671865 0.1882743 16711746
-0.0973832 -0.9763055 0.0216402 16711746
-0.2887641 -1.7540377 0.1677993 16711746
-0.0635618 -1.3287160 0.0264176 16711746
0.6838366 -2.3411427 -0.1471332 16711746
0.0193585 -0.7452039 0.1149735 16711746
-0.2283221 -1.2767907 0.0396150 16711746
0.2443771 -0.9548230 0.2253871 16711746
-0.0892063 -0.7650277 0.0667845 16711746
-1.5041318 -3.3108461 0.3047939 16711746
-0.0029035 -0.8540946 -0.0049355 16711746
-0.0177891 -0.6721122 -0.0072135 16711746
-0.1109497 -1.0277345 -0.0628401 16711746
-0.2239297 -1.0422138 0.3258647 16711746
0.1078904 -1.0522707 -0.0396228 16711746
-0.2283215 -1.1541529 0.0929107 16711746
0.1110439 -0.9426133 0.0759495 16711746
-0.0489303 -0.9097119 0.0125508 16711746
-0.4883530 -2.1959503 0.2473020 16711746
-0.4944400 -2.2214301 0.2083529 16711746
-0.6761600 -2.6412115 0.2450948 16711746
