# .PCD v.7 - Point Cloud Data file format
VERSION .7
FIELDS x y z rgb
SIZE 4 4 4 4
TYPE F F F F
COUNT 1 1 1 1
WIDTH 202
HEIGHT 1
VIEWPOINT 0 0 0 1 0 0 0
POINTS 202
DATA ascii

0.8873198 -1.1800588 0.1401167 16711746
1.0277714 -1.0548297 0.0316495 16711746
0.9047643 -1.0046904 0.3419495 16711746
6.3617353 -53.7427635 13.5306883 16711746
27.7841301 -34.7401085 4.4536381 16711746
14.8278170 -38.1832848 14.0502825 16711746
13.7255535 -39.2214127 14.6981812 16711746
14.1382809 -45.0591660 20.1300259 16711746
13.7499552 -47.0780754 19.0843487 16711746
15.8354769 -14.4677753 15.4964447 16711746
21.5860958 -26.3916798 23.6462460 16711746
21.4528084 -18.8316002 12.6910324 16711746
2.3294847 -41.3758163 -0.5961273 16711746
14.2831850 -20.4450455 16.8013420 16711746
8.0567780 -40.4552193 18.1936207 16711746
9.5402212 -58.1701355 9.7913418 16711746
14.6415586 -45.5694695 5.3317943 16711746
32.2942581 -32.8794785 12.5494375 16711746
10.9528055 -19.7376232 15.4530172 16711746
16.1617374 -29.3776398 21.5942192 16711746
10.6256809 -51.3481598 21.8131142 16711746
6.6052299 -43.3461723 17.6362190 16711746
5.3424563 -28.9143982 21.2143917 16711746
14.9192371 -50.2235069 11.6681423 16711746
20.8545837 -50.0001488 7.4353132 16711746
10.4709940 -47.5094376 26.4293251 16711746
14.2960529 -40.4862251 22.7920990 16711746
24.6921597 -27.3588448 9.9209862 16711746
20.6102352 -30.5084686 13.6751328 16711746
22.5764313 -34.4219017 9.2450457 16711746
17.6005516 -40.2329292 18.3782902 16711746
15.2011032 -46.7406731 18.2201328 16711746
11.8317366 -47.0886993 10.7608318 16711746
14.4122868 -42.3059120 12.7728004 16711746
6.7413349 -58.0427589 14.5461903 16711746
27.1392365 -25.6093502 11.2436867 16711746
27.2987251 -22.4398289 11.7174435 16711746
28.8207302 -33.7381668 4.6974678 16711746
0.9268645 -58.8287354 5.8301587 16711746
13.3787146 -41.3465271 0.5861398 16711746
32.2854156 -30.4346104 8.3914919 16711746
29.0068169 -32.0677185 1.9449710 16711746
31.6745052 -32.3963776 0.9706125 16711746
11.7740250 -53.5437813 13.5220842 16711746
12.4480858 -44.2300797 13.9660444 16711746
20.4528942 -34.3280106 3.9822044 16711746
27.7147846 -45.2620430 4.4568973 16711746
29.4430389 -25.5841370 9.9074097 16711746
28.5271549 -24.3052940 8.9291611 16711746
12.3065071 -37.3168030 18.7446995 16711746
4.0904450 -10.3143454 6.8015628 16711746
11.8113451 -32.3897934 17.3837395 16711746
15.0134468 -26.9555492 20.9998264 16711746
13.6362467 -17.6097202 14.5227299 16711746
28.6557045 -24.3236160 8.9463167 16711746
19.0007401 -36.3334351 19.3154850 16711746
12.6010799 -20.5948009 18.2797394 16711746
0.8177621 -54.2998924 4.3314266 16711746
6.1557641 -43.8797836 7.7963257 16711746
21.4643917 -51.4615059 -2.0902181 16711746
15.2897825 -41.9901009 1.7338738 16711746
0.4887285 -58.6502762 -2.4162493 16711746
1.5805585 -58.3384933 0.8503447 16711746
29.2593803 -31.6115417 4.1949477 16711746
20.6733456 -32.0746002 -0.8006024 16711746
17.5733490 -50.7502594 18.2288532 16711746
13.6100769 -46.8985367 19.4648743 16711746
15.1497746 -48.9198723 21.6903591 16711746
18.5250893 -43.9186935 16.9929371 16711746
13.6327248 -49.6337280 11.7968740 16711746
14.7247066 -49.2415428 14.6435442 16711746
7.1790800 -59.1743317 16.3063259 16711746
23.4715881 -27.5431900 10.6010370 16711746
25.5715389 -25.9776154 10.0420504 16711746
31.3799553 -27.5572052 11.0432863 16711746
18.0406647 -31.0510521 14.6312904 16711746
24.8029900 -29.8576717 10.0491858 16711746
27.2534676 -31.2915401 10.1282225 16711746
26.7945995 -31.6765022 10.4184723 16711746
24.0815277 -49.4112129 0.7674369 16711746
17.9320164 -32.5784264 11.7619600 16711746
27.8034821 -43.1523666 -1.5478233 16711746
22.5508041 -33.3960533 4.6464028 16711746
8.2032728 -12.5963182 2.3810065 16711746
0.1981376 -51.7941589 25.1514606 16711746
5.0462852 -52.6398163 3.7975864 16711746
16.1073513 -40.6606102 14.9147453 16711746
20.0284004 -36.0384789 12.2301140 16711746
26.7904739 -38.3814888 -0.3365490 16711746
5.2710595 -43.7760468 -1.3385284 16711746
4.2350168 -52.1776772 -3.8545628 16711746
6.8219614 -54.3262558 -0.8938561 16711746
29.3513947 -34.8538055 1.6455448 16711746
23.5052662 -42.2263947 3.1629233 16711746
14.9082022 -43.5427170 13.1211414 16711746
30.5990582 -29.5351810 9.9983206 16711746
23.8842621 -23.1748753 11.5756960 16711746
30.0535355 -21.1762276 10.7923927 16711746
27.6379032 -18.3879833 9.0073853 16711746
20.6814461 -18.4488144 14.9852438 16711746
27.6587601 -25.8554955 11.3263111 16711746
25.7373486 -23.3178596 12.7754946 16711746
9.9512482 -42.2946663 16.6577377 16711746
13.1287336 -17.0424786 16.5059204 16711746
21.5464630 -23.9894028 15.6619339 16711746
19.4796677 -48.0853004 8.7707348 16711746
1.1825076 -5.3860641 4.7737708 16711746
23.3707714 -30.2593307 14.1282425 16711746
18.5951061 -28.4415703 12.6252184 16711746
22.9773293 -49.9784775 8.5977736 16711746
9.5975599 -24.4412689 12.5902510 16711746
6.0505428 -17.0824871 9.1013327 16711746
17.1437893 -52.6979103 5.9299984 16711746
12.1922350 -27.1676674 20.2308006 16711746
15.4901829 -48.4042320 16.5578804 16711746
21.0336761 -38.2881470 -1.4939647 16711746
17.1127510 -23.9775848 2.3078966 16711746
18.1484852 -29.2718525 15.4817991 16711746
5.9772878 -42.3624115 7.5121593 16711746
14.2418232 -41.3814125 -0.9409115 16711746
-4.2364998 -54.2961617 19.1424427 16711746
26.7879944 -48.3936310 1.5256541 16711746
27.7241325 -34.5950165 3.1991925 16711746
7.8502898 -55.3009720 23.9327183 16711746
19.6367626 -24.6066399 16.5514603 16711746
15.1921673 -25.2482986 4.8389688 16711746
-21.8753128 -50.3808098 -1.9019489 16711746
5.7016349 -39.5246315 3.2202532 16711746
7.3252554 -57.8103867 3.3031914 16711746
38.3497124 -38.8767509 1.5302651 16711746
16.3223839 -30.9631882 17.8500881 16711746
20.3459206 -39.6790504 12.2756023 16711746
33.5522385 -29.3209782 1.9527128 16711746
13.0433769 -58.9693871 -3.8512952 16711746
20.6427269 -45.0882263 -1.6728158 16711746
30.7155933 -23.4818611 10.1904221 16711746
0.8909821 -2.2684977 1.5658574 16711746
23.4810562 -33.8750153 -1.2818573 16711746
30.8476868 -27.9102211 15.2642517 16711746
21.1510925 -19.4911423 10.8411398 16711746
26.3847275 -25.6999245 13.3316202 16711746
27.3714485 -26.4485073 8.9816332 16711746
25.2679424 -46.9524918 -2.1004696 16711746
5.5462470 -17.4153175 7.4660645 16711746
13.7196007 -44.2343597 15.9309101 16711746
28.0371532 -27.5231380 8.7794304 16711746
28.5422497 -27.3117828 8.1193342 16711746
9.5976439 -26.3777046 9.9254026 16711746
17.9204636 -20.1363583 15.6368313 16711746
26.2807369 -41.0443039 -3.2610621 16711746
29.0769043 -27.7310047 7.2575836 16711746
13.6267328 -50.9093552 17.0336189 16711746
5.3547211 -55.4259033 3.8579681 16711746
13.2699175 -58.3878212 6.7133188 16711746
10.4266729 -53.7135735 6.8255196 16711746
-2.7721457 -73.9197159 1.1646715 16711746
30.7178459 -31.3977718 1.5686992 16711746
9.6635284 -22.5674648 16.1647568 16711746
5.0648131 -14.3478117 7.8330183 16711746
14.5663080 -15.4583578 13.4566221 16711746
18.5810223 -20.1336498 14.0417328 16711746
20.4674625 -30.8094769 19.6341267 16711746
18.5867119 -33.7679749 18.9386024 16711746
16.2747841 -13.7438641 13.4798040 16711746
7.2520285 -53.1779671 8.1346903 16711746
11.4533739 -60.2085457 -2.9683433 16711746
19.7096958 -47.2947235 -1.7636362 16711746
16.5966797 -42.3841057 1.7742829 16711746
21.0747604 -54.5536194 0.2990680 16711746
2.8368788 -48.7826881 -0.8559055 16711746
4.1652789 -43.1502228 -2.4897938 16711746
25.6802692 -31.7599907 4.4780059 16711746
19.0879021 -35.4686203 -1.3679197 16711746
23.0186157 -47.0537415 -0.8280247 16711746
12.3486729 -52.4409752 18.0029945 16711746
12.7890301 -57.4522781 -3.6840563 16711746
36.5843506 -34.9571686 2.4690642 16711746
34.5469856 -35.2527847 1.8119137 16711746
2.2482271 -5.5190153 3.6247625 16711746
16.5966797 -42.3841057 1.7742829 16711746
25.2474289 -37.7241440 4.4105344 16711746
-1.5819632 -59.8142662 -0.6191690 16711746
7.6946549 -56.4533310 10.1386261 16711746
12.4002171 -52.9253654 5.4909086 16711746
14.9339752 -32.3773613 15.2134075 16711746
14.2657156 -29.3852711 16.8802052 16711746
17.2691956 -14.0247526 13.1161871 16711746
2.9945018 -53.0794106 -3.1162014 16711746
18.0984955 -38.3187485 16.7161083 16711746
33.3608742 -33.7561493 6.5741878 16711746
21.4108181 -31.8891411 7.9623036 16711746
25.4649677 -27.8017330 7.4170837 16711746
10.9202671 -47.4255600 12.4137011 16711746
11.4354010 -28.1581841 18.1178188 16711746
15.9346647 -54.8538895 -2.4337845 16711746
27.8694286 -33.0849266 1.5908452 16711746
25.6305161 -32.2256279 4.1772094 16711746
13.1506748 -43.8218346 13.0117331 16711746
12.5926104 -47.6020622 13.6002398 16711746
16.0870590 -46.4110794 16.7785320 16711746
15.3044329 -22.3046417 13.2627497 16711746
12.1078053 -24.0026455 24.1700687 16711746
