# .PCD v.7 - Point Cloud Data file format
VERSION .7
FIELDS x y z rgb
SIZE 4 4 4 4
TYPE F F F F
COUNT 1 1 1 1
WIDTH 231
HEIGHT 1
VIEWPOINT 0 0 0 1 0 0 0
POINTS 231
DATA ascii

 0.3714058 -0.1151349 0.6890318 16777215
 0.0122216 -0.0047798 0.0232760 16777215
-0.0657927 -0.9093489 0.1192861 16711746
-0.2811850 -0.6781958 0.2699007 16711746
-0.8730245 -2.2731948 0.8158947 16711746
0.6945506 -0.8847314 0.4066681 16711746
0.1632347 -0.6789631 0.4161606 16711746
0.0058596 -0.8408136 -0.0208300 16711746
0.0085932 -0.8457031 0.0399833 16711746
-0.0086814 -0.6759539 0.0423076 16711746
-0.0030911 -1.0244499 0.0295542 16711746
0.0367666 -1.1860107 0.4381849 16711746
0.0608823 -0.4016562 0.0433225 16711746
0.1870315 -1.2350761 0.0829555 16711746
0.1372745 -0.9779525 0.1473753 16711746
0.1494736 -0.4187836 0.0730244 16711746
0.4270023 -1.2202976 0.1431186 16711746
-0.0325389 -0.9578945 0.1394569 16711746
0.0065590 -0.3668129 0.0605342 16711746
-0.0782628 -1.9255891 0.2130992 16711746
0.1610256 -0.5938501 0.2411657 16711746
0.7271703 -1.1476109 0.2782410 16711746
0.7227820 -1.1777549 0.2825261 16711746
-1.1825994 -3.0646431 0.6118110 16711746
-0.0562466 -0.8150976 0.2234408 16711746
-0.2156345 -1.7233062 0.4491650 16711746
-0.3114329 -2.1673300 0.3526324 16711746
-0.3161612 -1.9436611 0.2935789 16711746
0.0606998 -0.6050937 0.2207507 16711746
-0.2364286 -0.7730869 -0.0162935 16711746
-0.3502585 -0.8578679 0.1199652 16711746
0.1620731 -1.3718874 0.4674710 16711746
0.8095797 -7.7498837 2.3448291 16711746
0.1220716 -1.3522860 0.4367477 16711746
0.5191166 -0.7223276 -0.0048968 16711746
0.4085463 -0.4176923 0.0726183 16711746
-0.3492572 -1.2888784 0.0255844 16711746
-1.8439856 -5.9175067 0.0641191 16711746
-0.5281515 -6.2400780 0.9837099 16711746
-0.2136486 -1.8000307 0.2970164 16711746
-0.0706701 -1.2486837 0.0531528 16711746
-0.3309930 -1.6440165 0.1447689 16711746
-0.1425300 -0.7705402 0.0701186 16711746
-0.3431084 -1.4070680 0.0986800 16711746
-0.0012467 -0.8115248 0.0842440 16711746
-0.2611657 -6.9872489 0.5615335 16711746
0.0705489 -1.0275655 0.2484439 16711746
1.6797971 -9.3234797 2.6568780 16711746
0.0935709 -0.6370535 0.0439044 16711746
1.2582606 -7.6151743 0.0796706 16711746
0.0001006 -0.5860425 0.0529554 16711746
-0.0208670 -0.7841968 0.0706484 16711746
-0.2319911 -0.5374374 0.1235313 16711746
-0.8633622 -1.9802336 0.3495129 16711746
-0.2416852 -0.7164679 0.0189089 16711746
-2.2998209 -1.5379419 0.6898430 16711746
-1.8331844 -5.2742581 3.1278942 16711746
-1.0340985 -6.6538205 4.9716387 16711746
-0.8702240 -7.2760482 5.1883984 16711746
-0.0366031 -0.4737975 0.2367219 16711746
-1.8535110 -6.0949998 3.5373769 16711746
-0.4473407 -2.6799757 1.4032232 16711746
-0.5136768 -0.6705596 0.4178708 16711746
-1.6977847 -4.1367602 2.4326460 16711746
-1.6358656 -3.4539349 1.7710794 16711746
14.7437792 6.7294316 -7.0738177 16711746
8.7668486 4.8032918 -5.5504827 16711746
-2.5528316 -5.0709162 4.0623188 16711746
0.1596132 -0.6528221 0.0455125 16711746
0.0907262 -0.3974451 0.0682644 16711746
0.2357914 -1.5331523 0.1636101 16711746
0.1291200 -1.1824478 0.0559193 16711746
0.1508199 -1.1839747 -0.0026174 16711746
-0.1021927 -0.7585493 0.1872026 16711746
0.3494085 -0.5264054 0.1435116 16711746
-1.1011219 -2.6933985 0.1871641 16711746
0.1991246 -1.1197690 0.3010336 16711746
2.5517406 3.5683396 -3.9682553 16711746
0.2306306 -0.7107574 0.2517007 16711746
0.1196283 -0.3939407 0.1449406 16711746
0.7870296 -1.3025070 0.0907446 16711746
0.1437470 -1.1918098 0.1314780 16711746
0.5495294 -6.6399484 0.6527096 16711746
0.1839202 -1.0245444 0.3487192 16711746
1.1952841 -7.9432001 2.5692422 16711746
-0.1183182 -1.0955225 0.2783513 16711746
-0.3026058 -0.8567777 0.2694049 16711746
-0.1438291 -0.3946515 0.1340421 16711746
0.7705612 -6.8751884 3.1671638 16711746
0.6958215 -6.8955607 3.0628555 16711746
1.7116832 -8.4163980 2.3035519 16711746
-0.1061119 -0.6275364 -0.0083927 16711746
-1.0743389 -1.1793126 0.7359232 16711746
0.0185412 -0.5929931 0.0726498 16711746
0.0155422 -0.3776808 0.0502703 16711746
3.3586640 4.2117610 -4.3347831 16711746
0.9239222 -8.0226164 2.0834377 16711746
-0.0760289 -0.5729402 0.1571813 16711746
-0.1028528 -1.2101247 0.1729350 16711746
0.0338381 -0.5419408 0.0470011 16711746
-0.2500591 -0.5146495 0.0202656 16711746
0.0981943 -0.6764277 0.3872539 16711746
1.1268076 -6.7671466 3.6029599 16711746
0.0989360 -0.7055342 0.3869096 16711746
0.4107993 -4.8229403 2.0436835 16711746
-0.0101735 -0.7589010 0.1292506 16711746
-0.0649396 -0.6147222 0.1301932 16711746
-0.7626811 -5.1132383 0.8375620 16711746
0.4414136 -1.3481760 0.0151942 16711746
0.4545820 -1.4739509 0.6149375 16711746
0.2991045 -0.6136359 0.0710063 16711746
0.1795254 -0.4189655 0.0552775 16711746
0.6521683 -1.0645758 0.0693535 16711746
0.2936023 -0.6383048 0.0141367 16711746
0.6977816 -1.2793067 0.2713375 16711746
0.0488940 -0.5347917 0.1664390 16711746
0.1617297 -1.1851035 0.1901882 16711746
0.4264341 -1.4301795 0.6231093 16711746
0.1808167 -0.4132615 0.2672437 16711746
0.1630616 -1.1809199 -0.0266824 16711746
0.1784250 -0.3536722 0.1426665 16711746
0.1610733 -0.6626338 0.1881550 16711746
0.2525908 -1.1526369 0.0286610 16711746
-0.1084037 -0.4738036 -0.0061622 16711746
-0.2333873 -0.8012741 -0.0254811 16711746
-0.2284736 -0.5023235 0.0467681 16711746
-0.6109189 -6.0477009 0.5767763 16711746
-0.0207363 -0.4252228 0.0516590 16711746
-3.9527116 -7.2270236 6.4005475 16711746
13.3630486 8.2659960 -8.4478130 16711746
0.7357629 -1.2764636 -0.0456401 16711746
-0.3550915 -0.6190464 0.0771163 16711746
0.3108657 -0.5869393 0.0428703 16711746
4.7714701 4.1062202 -4.3025951 16711746
1.3055245 -2.2560852 1.8534576 16711746
0.2774567 0.4509888 -0.5066552 16711746
-0.5504268 -1.0840299 0.2517911 16711746
-0.2080457 -2.3980577 0.7920491 16711746
0.2444132 -3.8859193 0.7689849 16711746
0.0313039 -0.5140867 0.1712333 16711746
0.2507168 -0.6507764 0.0374728 16711746
0.8734853 -4.8993316 3.8173637 16711746
0.0942070 -0.5796744 0.1512900 16711746
1.6060106 -9.5024261 1.9177741 16711746
0.4409702 -6.1716886 3.1548846 16711746
0.7199130 -5.4350424 2.3394430 16711746
-0.0540384 -0.7043509 0.2688103 16711746
1.2030528 -7.5499673 1.0225854 16711746
-0.4621072 -4.8296747 1.9124693 16711746
-0.5947658 -3.7157438 1.4666580 16711746
-3.0018592 -6.9956613 1.1025299 16711746
-0.2017753 -0.5145435 0.1342548 16711746
-0.3298019 -0.8154927 0.1932676 16711746
0.5057535 -0.5634246 -0.0087939 16711746
0.3425812 -0.6131869 -0.0324879 16711746
0.1945728 -0.5412973 0.1928923 16711746
0.1260189 -0.3363090 0.1689494 16711746
0.1051583 -3.7869406 1.6299202 16711746
0.0289274 -0.7875113 0.3254831 16711746
0.1104670 -0.4272565 0.1171502 16711746
0.3195663 -1.1799403 0.3294000 16711746
0.1632343 -0.3801918 0.1131783 16711746
0.7308629 -0.9619144 0.3572789 16711746
-0.3258646 -1.9072523 0.1476813 16711746
-1.7277886 -5.2109179 0.3906026 16711746
-0.4249044 -0.9811009 0.0323718 16711746
-0.2444014 -0.6547822 -0.0173691 16711746
-0.6229019 -0.4723295 0.1510879 16711746
-1.8582697 -1.3565390 0.4838456 16711746
-0.0891681 -0.6851242 0.2367436 16711746
-0.1055336 -0.4002197 0.1787246 16711746
-0.5074492 -1.5502477 -0.0079561 16711746
-0.4394859 -1.1150186 0.1126873 16711746
0.2111350 -0.6550160 0.0365258 16711746
-0.2976292 -0.9784596 0.3002840 16711746
0.5660007 -1.3862870 0.1566317 16711746
0.2382936 -0.5927404 0.1154840 16711746
0.2423907 -0.6327873 0.1115808 16711746
-0.3030467 -2.2145166 0.0079604 16711746
-0.1972522 -1.1383958 0.0079159 16711746
0.1264146 -0.9133986 0.3617202 16711746
0.0713179 -0.3788173 0.0840292 16711746
0.1530491 -0.5062168 0.2064784 16711746
-0.4703780 -5.7268214 1.6557584 16711746
-0.0509002 -0.8092560 0.2336830 16711746
-0.1272481 -0.8078368 0.0615109 16711746
-0.1620115 -1.3048247 0.0767359 16711746
-0.3283109 -1.6147557 0.1867854 16711746
-2.0891075 -3.9412129 1.0456702 16711746
-0.5389333 -1.0695667 0.2793883 16711746
-0.1535741 -0.7452080 -0.0402619 16711746
-0.0449724 -0.7825821 0.2530080 16711746
-0.2885550 -0.8233582 0.2912866 16711746
-0.1318510 -2.5263038 1.0141652 16711746
0.2454969 -1.0308745 0.3729705 16711746
0.1468101 -1.1626043 0.2026495 16711746
0.0408519 -0.5121629 0.1021269 16711746
0.1323186 -1.4858140 0.2349916 16711746
0.1828866 -0.9724614 0.3708711 16711746
0.0873565 -0.5962202 0.2334871 16711746
1.4493468 -9.0836668 3.1400008 16711746
0.1799508 -1.3685262 -0.0219714 16711746
0.0847342 -1.1019484 -0.0365847 16711746
-0.1289238 -0.8060263 0.0502688 16711746
1.4463429 -7.7806520 -0.0271216 16711746
-0.6240605 -5.9223967 0.3357368 16711746
0.1487132 -0.3816667 0.2681943 16711746
0.5861124 -5.4585466 3.5288677 16711746
0.8307433 -5.8123693 3.7137365 16711746
0.1625419 -0.4414857 0.2724587 16711746
1.5388546 -6.9295559 3.8302298 16711746
0.2743518 -0.3802579 0.2641518 16711746
0.6496923 -0.8156269 0.5773493 16711746
0.6886101 -1.1283163 0.8527842 16711746
0.6561710 -0.9179390 0.4596446 16711746
0.5247161 -0.9699048 0.5852661 16711746
1.6133559 -6.4163632 5.4929557 16711746
-1.1697482 -1.3788633 0.9277012 16711746
-1.0212731 -0.6367459 0.5164612 16711746
-0.3460582 -0.3165146 0.1908749 16711746
-19.1498089 -34.0409393 2.3383257 16711746
1.0134838 -1.8220419 1.7873319 16711746
-12.2598648 -35.6926422 -0.7317998 16711746
-4.0261035 -10.6296062 13.4051237 16711746
7.4846048 -19.1639748 11.1667719 16711746
21.6916351 -46.3264847 7.8476233 16711746
-0.7979456 -2.2291913 0.8286171 16711746
-0.8660993 -2.4789896 0.7691189 16711746
1.2652888 -2.2246819 2.4415169 16711746
10.8827372 -33.2626572 1.7928773 16711746
3.2477498 -18.6528854 14.5401602 16711746
