# .PCD v.7 - Point Cloud Data file format
VERSION .7
FIELDS x y z rgb
SIZE 4 4 4 4
TYPE F F F F
COUNT 1 1 1 1
WIDTH 135
HEIGHT 1
VIEWPOINT 0 0 0 1 0 0 0
POINTS 135
DATA ascii

 0.4462863 -0.1730348 0.9351293 16777215
 0.0021238 -0.0022219 0.0112902 16777215
-0.2378591 -0.9963529 -0.0252693 16711746
-0.0041048 -1.2003208 0.0290138 16711746
-0.4401504 -0.9249380 0.0435766 16711746
0.1569071 -1.1651573 0.0974803 16711746
-0.1899784 -1.0207250 -0.0436963 16711746
-0.6943511 -0.7691116 0.5410547 16711746
-0.7122453 -0.7384085 0.5769159 16711746
-0.7512387 -0.5894930 0.2713194 16711746
-0.8134699 -0.5876144 0.3232995 16711746
-0.3773733 -1.0024545 0.6015115 16711746
-0.5297830 -0.8904008 0.5482492 16711746
-0.5923997 -0.8044542 0.6464356 16711746
-0.5748908 -0.8331357 0.5988918 16711746
-0.4953111 -0.9156734 0.7166443 16711746
-0.4910716 -0.9809587 0.4885310 16711746
-0.3783270 -1.0094767 0.4570905 16711746
-0.4742088 -0.9378502 0.4330476 16711746
-0.5821491 -0.8932578 0.4644202 16711746
0.8005744 0.5762395 -0.8269762 16711746
0.8316321 0.7178429 -0.6982427 16711746
1.2253590 0.5930197 -0.6384360 16711746
0.4882000 0.6952304 -0.8112427 16711746
-0.5364543 -0.8683576 0.7084903 16711746
0.3196166 -1.3211856 0.1855552 16711746
-0.3554243 -1.0059981 0.1540258 16711746
-0.3835391 -1.0255740 0.1522978 16711746
-0.2424562 -1.0080839 0.0464322 16711746
-0.1961531 -0.9922203 0.0307287 16711746
-0.2220622 -1.0168189 0.0303278 16711746
0.1566749 -1.3036023 0.4626296 16711746
0.1163440 -1.2675592 0.4486259 16711746
0.4122155 -1.4432297 -0.0425567 16711746
0.3265537 -1.2664009 0.5231465 16711746
-0.5189816 -0.7323011 -0.1133578 16711746
0.1659716 -1.3378128 0.3674025 16711746
0.6752607 0.7251679 -0.8044073 16711746
0.6672016 0.7597942 -0.7798672 16711746
0.6798168 0.8021441 -0.8036336 16711746
-0.6830473 -0.5275344 0.0465029 16711746
0.0173154 -1.1986566 0.2082920 16711746
0.8325976 0.7536756 -0.6916664 16711746
0.1752030 -1.3863372 0.2990152 16711746
-0.1774775 -1.0643193 0.1702997 16711746
0.0524924 -1.2196407 0.4025294 16711746
-0.0374940 -1.1498775 0.1325120 16711746
-0.3035761 -1.2904295 0.2249056 16711746
-0.2663839 -1.1119242 0.1882297 16711746
-0.4344184 -1.0695539 0.2536035 16711746
0.1937758 -1.3330681 0.5009670 16711746
-0.2083105 -1.1423284 0.1557659 16711746
-0.6539287 -0.8456846 0.7080833 16711746
-0.3131838 -0.9568866 0.0102996 16711746
-0.3325505 -0.9371799 -0.0155167 16711746
0.1568757 -1.3553370 0.2018525 16711746
-0.3003802 -0.9865318 -0.0801696 16711746
0.7492889 0.6288664 -0.8126609 16711746
-0.6342931 -0.7287711 0.0780609 16711746
-0.2733397 -1.0083801 0.1488634 16711746
-0.2956532 -1.0532781 0.1405598 16711746
-0.3135520 -1.0379164 0.1341284 16711746
0.0371903 -1.1508601 0.1243140 16711746
0.2199049 -1.2364430 0.0528964 16711746
0.1528357 -1.3091011 0.4224536 16711746
-0.5225956 -0.8076491 0.0821176 16711746
-0.2041886 -1.1481980 0.0361747 16711746
-0.4351875 -0.8053606 -0.0062650 16711746
-0.3118419 -0.9140813 0.0215890 16711746
-0.5052840 -0.8859507 0.0734625 16711746
-0.4872310 -0.8202468 -0.1149376 16711746
-0.2949272 -0.9445570 -0.0956389 16711746
-0.3274830 -0.9820766 -0.0300841 16711746
-0.6853528 -0.6374853 0.2433955 16711746
-0.4948944 -0.9127539 0.0017362 16711746
-0.1905326 -1.0142202 -0.0717982 16711746
-0.3738010 -0.9029883 -0.0702681 16711746
0.3476474 -1.3273348 0.3745657 16711746
0.0569194 -1.1778995 0.0032809 16711746
0.1564960 -1.1968119 0.0538821 16711746
-0.3054628 -1.0434886 0.1136869 16711746
-0.3732348 -0.9484576 -0.0350821 16711746
-0.4203143 -0.9340646 -0.0489463 16711746
-0.3857707 -0.9361393 -0.0464470 16711746
-0.4001870 -0.9506156 -0.0615751 16711746
0.6143997 0.7030420 -0.7474506 16711746
-0.2017230 -1.0483675 0.0755904 16711746
-0.0064572 -1.1759183 0.4801722 16711746
-0.4497934 -0.7994109 -0.0266850 16711746
-0.5117627 -0.8429810 -0.0510670 16711746
0.2011299 -1.4115272 0.2364827 16711746
-0.2772905 -0.9293404 -0.0289019 16711746
-0.2776566 -0.9681607 -0.0438214 16711746
-0.7076715 -0.7026421 0.6402338 16711746
-0.3626277 -0.9923071 0.0560323 16711746
0.7096421 0.8081206 -0.7593369 16711746
-0.3851491 -0.9892150 0.2181815 16711746
0.3606656 -1.2798917 -0.0184998 16711746
-0.4016572 -0.9540265 -0.0128556 16711746
-0.3882498 -0.9813867 0.1332879 16711746
0.2543373 -1.2721714 0.1758557 16711746
0.2834952 -1.2521744 0.1360788 16711746
-0.0295155 -1.1838664 0.0726860 16711746
-0.0622903 -1.1926404 0.0579483 16711746
0.1678323 -1.4030720 0.0944572 16711746
-0.1577387 -1.0808028 0.2168428 16711746
-0.1971448 -1.0608361 -0.0237493 16711746
-0.6481643 -0.7264094 0.2552198 16711746
-0.6822914 -0.4250521 0.0892968 16711746
-0.7553830 -0.4136216 0.1440911 16711746
-0.7528111 -0.5406443 0.1954438 16711746
-0.7534097 -0.5298838 0.1871543 16711746
-0.6443614 -0.8544303 0.1463008 16711746
-0.7132943 -0.6043472 0.0796435 16711746
-0.4932162 -0.9767737 0.4074338 16711746
-0.5489455 -0.8996788 0.1384084 16711746
-0.4414515 -1.0332382 0.2644027 16711746
-0.4468494 -0.9118389 -0.0176665 16711746
-0.5206646 -0.9876813 -0.0425092 16711746
-0.0344609 -1.1608335 0.3714141 16711746
-0.0694942 -1.1400964 0.3633109 16711746
0.1047279 -1.2875445 0.2291670 16711746
-0.1125921 -1.0267739 0.0229602 16711746
-0.3905265 -1.0377541 0.3152035 16711746
-0.3960421 -0.9527876 0.2744119 16711746
0.1532541 -1.3269386 0.1286796 16711746
-0.1413393 -1.1411324 0.0347977 16711746
-0.1407489 -1.0123404 0.0134879 16711746
0.5097529 -1.2368129 0.1759519 16711746
-0.4029528 -0.9731857 0.1935018 16711746
-0.4432899 -0.9895564 0.1910569 16711746
-0.3097955 -1.0008079 0.2281203 16711746
-0.1564981 -1.0305749 0.1284639 16711746
-0.1794873 -1.0562438 0.1203277 16711746
-0.1609340 -1.2124772 0.1331284 16711746
