# .PCD v.7 - Point Cloud Data file format
VERSION .7
FIELDS x y z rgb
SIZE 4 4 4 4
TYPE F F F F
COUNT 1 1 1 1
WIDTH 46
HEIGHT 1
VIEWPOINT 0 0 0 1 0 0 0
POINTS 46
DATA ascii

 -0.1601934 -0.0879923 -0.2192212 16777215
 -0.0003668 0.0119496 -0.0061548 16777215
1.2374911 -0.5570632 1.5258104 16711746
0.0102055 -0.3975109 0.8939599 16711746
0.0923432 -0.3837125 0.9975004 16711746
-9.3288889 -2.1399469 7.5866413 16711746
-8.4912128 -3.1162190 10.4238520 16711746
-8.2663584 -0.3527139 3.5139313 16711746
0.0800006 -0.1093596 7.0431724 16711746
1.2825617 -3.8659406 8.8818274 16711746
-8.6117306 -2.9973981 10.7891064 16711746
-9.4699984 -1.3280267 7.3986483 16711746
-1.6110361 -2.1942971 13.5624266 16711746
-7.7129116 2.3061585 3.6025105 16711746
-8.6010475 2.1467552 5.6337023 16711746
-7.4472890 -1.2336823 5.6203747 16711746
-7.8635511 2.6043866 8.9267302 16711746
-6.6646190 0.1791245 4.6086950 16711746
0.1634754 -0.0804803 0.7467552 16711746
-10.3753948 2.1225326 3.8559265 16711746
-1.1377109 0.3370414 8.2555132 16711746
-0.0058994 -0.0082916 0.1681881 16711746
-7.3415141 -2.5519559 9.1959610 16711746
-6.4942818 -3.3367054 7.6499319 16711746
-0.6559267 0.3194531 8.8637571 16711746
-0.5259376 -1.1438527 8.6518764 16711746
-2.8738859 0.6907802 2.1733735 16711746
-9.5095396 -0.1923971 5.0455127 16711746
-8.1913376 -0.3461452 3.4817729 16711746
-0.0223299 -0.0227423 0.1100120 16711746
0.0042049 0.0075650 0.1800916 16711746
0.0033067 0.0085488 0.1771963 16711746
0.0789185 -0.0933002 8.6633158 16711746
-9.6566067 0.8080008 5.7595954 16711746
-7.9231963 -2.7647758 9.9300079 16711746
-0.0031921 -0.0078739 0.1568118 16711746
-7.4136152 -0.2577264 3.7054563 16711746
-8.3243647 -3.0656180 10.2243605 16711746
-1.2407886 0.2716729 0.9432093 16711746
-7.6579647 0.5029218 4.6687961 16711746
-5.4220681 -0.2921881 3.2416346 16711746
-7.4094925 1.3856823 3.9515817 16711746
-8.3419275 -0.5358589 6.0824566 16711746
-1.7675886 0.3799012 1.4523906 16711746
-6.3370433 -4.0000172 9.2605953 16711746
-0.0891024 0.0378556 0.5004591 16711746
