# .PCD v.7 - Point Cloud Data file format
VERSION .7
FIELDS x y z rgb
SIZE 4 4 4 4
TYPE F F F F
COUNT 1 1 1 1
WIDTH 116
HEIGHT 1
VIEWPOINT 0 0 0 1 0 0 0
POINTS 116
DATA ascii

0.1686630 -0.7260327 0.9244325 16711746
0.2506087 -0.6924900 0.9326305 16711746
0.1343637 -0.6887097 0.9619796 16711746
0.1136754 -0.6242220 0.9101760 16711746
0.0917073 -0.6352055 0.8893068 16711746
0.0983376 1.2499342 -0.2933205 16711746
-0.0463057 -0.6749795 0.8052866 16711746
-0.0334346 -0.7225475 0.8397809 16711746
-0.1039048 1.1273330 -0.1216408 16711746
-0.0593807 1.1353137 -0.1594088 16711746
-0.0595255 -0.6470332 0.8690866 16711746
-0.2914884 -0.7978736 0.8870353 16711746
0.2517679 -0.7866616 0.7642831 16711746
0.3079823 -0.7022733 0.9156003 16711746
0.6016090 -0.7938967 0.8359047 16711746
-0.0626343 -0.7821226 0.8115743 16711746
-0.0838042 1.2072915 -0.1039121 16711746
-0.0887309 1.2205104 -0.0888066 16711746
0.2627568 -0.7640456 0.8224449 16711746
0.2389095 -0.7710310 0.8194308 16711746
-0.0426770 -0.7830558 0.7762604 16711746
-0.0216393 -0.7469939 0.7709980 16711746
0.4757271 -0.7118140 0.8768666 16711746
0.0894872 -0.7250575 0.7757030 16711746
-0.1251884 -0.8623986 0.6215412 16711746
-0.0709347 1.1506784 -0.1273044 16711746
0.2743424 -0.7748278 0.7850848 16711746
0.2605817 -0.7812551 0.7736369 16711746
-0.0919993 1.2329872 -0.0611141 16711746
-0.0874696 1.2133616 -0.0652759 16711746
-0.0892717 1.2228752 -0.0605731 16711746
-0.0745120 1.1613194 -0.1151440 16711746
-0.0171182 -0.7486294 0.7253357 16711746
0.0874820 -0.6616004 0.8614518 16711746
-0.0891420 1.1700640 -0.0884361 16711746
-0.0955284 1.1932414 -0.0617613 16711746
0.2131117 -0.8009871 0.7634078 16711746
-0.0102328 -0.8011049 0.6938818 16711746
-0.0092033 -0.8250012 0.6168554 16711746
-0.0350943 -0.8046534 0.7169202 16711746
-0.0271736 -0.7864175 0.7084478 16711746
0.2731008 -0.7225431 0.9125015 16711746
-0.0931619 1.2332748 -0.0720263 16711746
-0.1090963 1.2611147 -0.0581737 16711746
-0.0782393 -0.8072967 0.8005643 16711746
-0.0652948 1.1401918 -0.1430594 16711746
-0.1667109 -0.7727481 0.9274454 16711746
-0.0935946 -0.8222750 0.6537323 16711746
-0.0961505 -0.8088815 0.7354258 16711746
-0.1090588 -0.7915788 0.7268752 16711746
-0.1198127 -0.8091279 0.7714275 16711746
-0.0670915 -0.7968447 0.7239119 16711746
0.0631506 -0.7821965 0.6875245 16711746
0.0155207 -0.7851530 0.7055116 16711746
-0.0227876 -0.7977339 0.6830196 16711746
-0.0216221 -0.8008453 0.6758844 16711746
-0.0497802 -0.8409020 0.6008747 16711746
0.2582871 -0.7721397 0.8025875 16711746
0.2379088 -0.7799059 0.7960811 16711746
-0.0472942 -0.7898500 0.7709548 16711746
0.2235406 -0.7481411 0.8812364 16711746
0.3407370 -0.7126750 0.8954099 16711746
0.2126732 -0.7305561 0.9161153 16711746
0.1222612 -0.6613889 0.8737397 16711746
0.1902996 -0.6797192 0.8744197 16711746
0.0316320 -0.6895544 0.8310122 16711746
0.0838716 -0.6928160 0.8221174 16711746
-0.0015074 -0.6930850 0.8410307 16711746
0.1804492 -0.7260151 0.7889144 16711746
0.2417363 -0.7308363 0.7977558 16711746
0.2517825 -0.7485775 0.8654786 16711746
0.2809011 -0.7433310 0.8673584 16711746
0.1904101 -0.8053157 0.7932342 16711746
0.0466308 -0.7095905 0.8046502 16711746
-0.6923346 -0.0237674 -0.2460621 16711746
0.4190429 -0.7145719 0.9104778 16711746
0.4192994 -0.6919612 0.9236531 16711746
0.5966582 -0.7920888 0.8583834 16711746
-0.1258104 1.0011331 -0.2305683 16711746
-0.1113393 1.0595983 -0.1774281 16711746
0.0510258 -0.7556331 0.7209920 16711746
0.2765153 -0.7141088 0.9273804 16711746
0.0239880 -0.7377340 0.7781311 16711746
0.0372302 -0.7345756 0.7756026 16711746
0.0876640 -0.6495839 0.8732643 16711746
-0.0693021 -0.8360073 0.6302413 16711746
-0.0850886 -0.8300691 0.6305322 16711746
-0.0789118 1.1934333 -0.1211599 16711746
-0.0843615 1.2039689 -0.1164083 16711746
-0.0009303 -0.6737308 0.8546745 16711746
0.1442568 -0.6966473 0.8298317 16711746
0.2019988 -0.7682244 0.8497198 16711746
0.1816095 -0.7990009 0.8294956 16711746
-0.0982938 1.2294381 -0.0734324 16711746
-0.1005352 1.1841195 -0.0639802 16711746
0.2621453 -0.6776338 0.9020507 16711746
0.2913337 -0.7746497 0.7772220 16711746
-0.0798849 1.1968865 -0.0937120 16711746
-0.0944444 1.2114776 -0.1282116 16711746
-0.1112042 1.2773045 -0.0258745 16711746
0.3231986 -0.7095208 0.9320260 16711746
-0.0223176 -0.7544520 0.7944331 16711746
0.9600532 -1.6484144 1.3316185 16711746
0.5194734 -1.4511091 0.5552809 16711746
0.9424330 -1.6247164 1.3206466 16711746
0.5314198 -1.4231819 0.5353192 16711746
2.5885165 -5.4406357 3.3795111 16711746
0.5189073 -1.4516639 0.5549626 16711746
3.8429363 -29.6684399 2.3023205 16711746
-0.2115132 -2.1435790 0.7317321 16711746
0.7750463 -1.4999697 0.9709377 16711746
2.8925641 -6.0523496 3.8657479 16711746
0.8766801 -3.6183076 0.5495926 16711746
0.8852297 -3.6364374 0.5498458 16711746
1.1184155 -6.0088987 0.4838025 16711746
2.3290246 -4.5978355 0.2342865 16711746
