# .PCD v.7 - Point Cloud Data file format
VERSION .7
FIELDS x y z rgb
SIZE 4 4 4 4
TYPE F F F F
COUNT 1 1 1 1
WIDTH 55
HEIGHT 1
VIEWPOINT 0 0 0 1 0 0 0
POINTS 55
DATA ascii

0.2800251 0.9498830 -1.0319748 16711746
0.2907517 0.7792646 -0.8911019 16711746
0.8056590 0.8938305 -1.1639311 16711746
0.6349128 0.8561018 -1.0247552 16711746
0.2334439 1.0927285 -0.9841850 16711746
0.3464893 0.9946759 -0.9194782 16711746
0.3626860 -0.8472376 0.3414577 16711746
-0.1379715 -0.9727562 -0.0275664 16711746
-0.4481829 -1.2168618 0.3432994 16711746
0.3665704 0.8517231 -1.0403401 16711746
0.1564994 -1.0832171 0.8022678 16711746
0.5021676 -1.0498548 0.8482108 16711746
0.1588730 -1.2148643 0.8499635 16711746
0.2922651 -0.6396865 0.0769864 16711746
-0.4951889 -1.2200657 0.2726411 16711746
0.5972508 0.7710295 -0.7621912 16711746
0.8664134 1.0379074 -0.9384184 16711746
0.0128250 -1.0290534 0.5272707 16711746
1.1529093 0.7523504 -0.7227700 16711746
-0.4063952 -1.4654373 0.1254282 16711746
0.0561915 -0.6519354 -0.0004017 16711746
0.0029674 -1.2292279 0.3491743 16711746
0.4782385 -1.2146491 0.9220019 16711746
-0.2677902 -1.3798525 0.4991519 16711746
-0.2045477 -1.3672041 0.2785842 16711746
0.0335985 -1.0477241 0.0830521 16711746
0.2438328 -0.9326485 0.2015223 16711746
0.0256721 -0.4133548 0.0856053 16711746
0.7052529 0.8130476 -0.9731233 16711746
0.6960317 0.8285704 -0.9632158 16711746
-1.3480061 -0.8987159 0.8014788 16711746
-1.4376521 -0.9615745 0.8340769 16711746
-0.1572420 -1.0031090 0.0221798 16711746
-0.2167172 -1.3697888 0.3005956 16711746
-1.4061137 -1.0866846 0.9514396 16711746
-1.4717484 -0.9311902 0.6368000 16711746
-0.4373727 -1.1852099 0.1682708 16711746
-0.0068145 -1.2429206 0.5150223 16711746
0.4756612 -1.2198479 0.8024739 16711746
-0.6062109 -1.2720301 1.0400192 16711746
1.6043359 0.7764055 -0.8784985 16711746
0.2818879 -0.7480750 0.0691851 16711746
0.9920442 0.6271409 -0.5682487 16711746
-0.2975613 -1.4312841 0.1407289 16711746
-0.0509244 -0.9156553 0.0861098 16711746
0.2510557 -0.9865245 0.3600251 16711746
-0.1579326 -1.1590059 0.0300294 16711746
0.4371535 -1.2309599 0.9624644 16711746
-0.4081964 1.1099709 -1.0257987 16711746
-0.8817292 1.1593852 -1.0732799 16711746
-1.0782039 1.0482688 -1.0444975 16711746
-1.4223884 -0.9239439 0.4499085 16711746
-0.4715171 -0.9425756 0.4206346 16711746
-0.8375477 -1.2130409 0.5818408 16711746
1.3101246 0.6771402 -0.8821237 16711746
