# .PCD v.7 - Point Cloud Data file format
VERSION .7
FIELDS x y z rgb
SIZE 4 4 4 4
TYPE F F F F
COUNT 1 1 1 1
WIDTH 98
HEIGHT 1
VIEWPOINT 0 0 0 1 0 0 0
POINTS 98
DATA ascii

 0.4165318 -0.1359587 0.7639956 16777215
 0.0027313 -0.0018574 0.0070966 16777215
-0.2680011 -1.0030142 -0.0527341 16711746
0.5609500 0.6504992 -0.7157503 16711746
0.5728290 0.6245801 -0.7017878 16711746
0.6311356 0.6863098 -0.6432775 16711746
-0.3296594 -0.9999967 0.3742276 16711746
0.3365215 -1.1183295 0.4406465 16711746
-0.8081215 -0.8158079 0.5021219 16711746
0.0841518 -1.0998957 0.3258844 16711746
0.0720705 -1.0940915 0.3286961 16711746
-0.1170475 -1.0394211 0.0503865 16711746
-0.1185680 -1.0527120 0.0318728 16711746
-0.1294003 -1.0879112 0.1606740 16711746
-0.4445303 -1.0192575 0.1066247 16711746
1.0715293 0.8509845 -0.7667962 16711746
-0.2468452 -1.1356598 0.0974319 16711746
0.1747129 -1.1821550 0.1485418 16711746
0.1463080 -1.1495239 0.1487495 16711746
0.6157419 0.8369718 -0.7895584 16711746
-0.0213057 -1.1742163 -0.0666952 16711746
0.0253712 -1.0481601 0.2293642 16711746
-0.3392034 -0.9924210 0.3291509 16711746
-0.2359515 -1.0177745 0.2961575 16711746
-0.4886918 -0.9584616 -0.0178763 16711746
-0.5046745 -0.9003033 -0.0172672 16711746
-0.7471312 -0.8341864 0.1007276 16711746
-0.4259692 -0.9967492 0.3149340 16711746
-0.3926228 -1.0123277 0.3045905 16711746
-0.2694482 -0.9094975 -0.0742625 16711746
-0.2711329 -1.0625321 -0.0944010 16711746
-0.2437330 -1.0127313 0.2654459 16711746
-0.4930429 -0.9117697 -0.0001366 16711746
-0.4081499 -0.9362649 0.0217332 16711746
0.5457715 0.7324115 -0.7623006 16711746
-0.3244067 -0.9982964 0.0588327 16711746
0.1725974 -1.1525753 0.3632911 16711746
0.1215471 -1.0606831 0.3311607 16711746
-0.4538381 -0.8830334 -0.0300582 16711746
-0.4879114 -0.8968845 -0.0371626 16711746
-0.1823482 -0.9353269 -0.0541108 16711746
-0.1960837 -0.9566609 -0.0246091 16711746
-0.3063962 -1.1931932 -0.0465736 16711746
-0.1139183 -1.0803230 0.2946400 16711746
0.0942744 -1.1116910 0.1516739 16711746
-0.3388979 -0.9010662 -0.0581832 16711746
-0.3356777 -0.9415577 -0.0679410 16711746
-0.5445564 -0.9383935 0.0180110 16711746
-0.5153734 -0.8616397 -0.0126555 16711746
-0.2461206 -1.0254507 0.3450711 16711746
-0.0578653 -0.9778354 0.0096615 16711746
-0.5144695 -0.9141234 0.7821160 16711746
0.4802316 0.7331860 -0.6534548 16711746
0.1933062 -1.0575563 0.1242090 16711746
-0.0110114 -1.1923331 -0.1024910 16711746
-0.1275865 -1.0856937 -0.0494618 16711746
-0.3086531 -0.9804509 -0.0101261 16711746
-0.3784332 -0.9170773 -0.0645710 16711746
-0.7051696 -0.9028597 0.2032586 16711746
-0.3175068 -1.0193822 0.3772484 16711746
-0.1158723 -1.0931038 0.4028143 16711746
-0.4017074 -1.0046114 0.2475689 16711746
-0.4941779 -0.8789074 -0.0668051 16711746
-0.5421590 -0.8625501 -0.0806057 16711746
0.8695193 0.6442363 -0.6342136 16711746
-0.5357182 -0.9070045 0.0240895 16711746
-0.3896613 -0.9431109 -0.0135908 16711746
-0.0812652 -1.0516230 -0.0939085 16711746
0.2290648 -1.0546151 0.6028212 16711746
0.0421902 -1.0189971 -0.0817574 16711746
0.1241503 -1.0534075 0.4101750 16711746
-0.0939701 -1.1492904 0.1678478 16711746
0.2819099 -1.1022923 0.0202166 16711746
-0.3428695 -1.0183730 0.1601222 16711746
0.8783889 0.6583289 -0.6123730 16711746
-0.1691852 -1.0103199 0.2049674 16711746
-0.1603649 -1.0471827 0.1903353 16711746
-0.4461971 -1.0855596 0.1593441 16711746
0.4610150 0.7170277 -0.7173986 16711746
-0.2555156 -1.0360346 0.3559522 16711746
-0.2959755 -1.0711509 0.3778563 16711746
-0.2183819 -0.9922871 0.1280806 16711746
0.8420150 0.6323203 -0.6372403 16711746
-0.1793040 -1.0548306 0.2521290 16711746
0.3915265 -1.1561408 0.4105875 16711746
-0.1212268 -1.0935761 0.2613164 16711746
-0.5268381 -0.9144000 0.0830900 16711746
-0.4893790 -0.9842191 0.0822160 16711746
-0.3443288 -0.9833258 0.1190369 16711746
-0.1891223 -1.1827739 -0.0291500 16711746
-0.2100026 -1.1217108 -0.0234229 16711746
0.3371017 -1.1235447 0.4137073 16711746
0.1759794 -1.1136556 0.6449566 16711746
-0.8726697 -0.7625368 0.3559186 16711746
-0.8834928 -0.7503963 0.3613375 16711746
-0.4696957 -0.9867207 0.4903078 16711746
0.5527965 0.6119606 -0.7171742 16711746
-0.6891499 -0.9169158 0.7352234 16711746
