# .PCD v.7 - Point Cloud Data file format
VERSION .7
FIELDS x y z rgb
SIZE 4 4 4 4
TYPE F F F F
COUNT 1 1 1 1
WIDTH 1157
HEIGHT 1
VIEWPOINT 0 0 0 1 0 0 0
POINTS 1157
DATA ascii
4.0229712 -10.4570522 9.9442072 16711746
8.7180319 -10.4151182 12.5653906 16711746
2.9431090 -6.8969536 12.1850443 16711746
1.8837169 -3.7116141 11.4475098 16711746
1.8838736 -4.5310030 10.4020128 16711746
-0.0544990 -3.0494540 10.7160769 16711746
2.6604559 -3.9783709 9.1687193 16711746
2.0178034 -6.2491560 9.8101234 16711746
-0.0751252 -2.6038091 10.3523655 16711746
-1.0172969 -2.8458290 10.1113081 16711746
5.3660874 -10.5350237 13.7949333 16711746
5.5944624 -9.7505550 13.8856010 16711746
-0.0335206 -1.8791207 9.6918583 16711746
-0.0673417 -1.9142027 9.7292376 16711746
-0.6398926 -1.7944487 9.8008919 16711746
0.9202223 -2.2997544 9.6120834 16711746
-0.0605832 -2.1936369 9.8698940 16711746
1.9728006 -8.6834478 10.1792021 16711746
1.7814456 -9.5966549 8.9911585 16711746
2.6293781 -6.5695200 10.3559446 16711746
-0.3147996 -1.6268699 9.8618536 16711746
3.0162623 -11.2604313 11.0133238 16711746
2.6168740 -6.3103294 10.3834610 16711746
1.2394338 -7.1201777 10.1091366 16711746
1.7723999 -13.2096682 17.5530205 16711746
-6.1874614 -16.6614037 15.0170355 16711746
-10.5558662 -14.7317610 11.2985601 16711746
0.0913956 -2.1362135 9.8538847 16711746
5.2210259 -6.7984104 12.2381296 16711746
-0.5325629 -2.1031628 10.0273781 16711746
3.4286122 -5.2714291 10.5075874 16711746
2.3557174 -4.6212707 10.3800478 16711746
-0.5731723 -2.2158883 10.0908718 16711746
-0.3863550 -2.2313969 10.2912121 16711746
-0.3071866 -1.8701137 9.8554173 16711746
-0.3003862 -1.9815905 9.8469667 16711746
-0.1856052 -1.7561762 9.7990685 16711746
-0.5423892 -2.1230137 10.0674582 16711746
-0.3178334 -2.4352973 10.1525059 16711746
-0.3744333 -2.0844538 9.8525496 16711746
-0.1187169 -1.9557952 9.8151875 16711746
-0.3244568 -1.9787445 9.8418922 16711746
-0.4214487 -2.2222326 10.0675220 16711746
-0.3098205 -2.0016732 9.9501877 16711746
0.7215708 -4.0672808 10.1952467 16711746
-0.3940847 -2.2811642 10.3314619 16711746
-0.3884300 -1.8452429 10.0336599 16711746
0.5789268 -2.3655128 9.8861828 16711746
0.9347506 -2.7953463 10.2735128 16711746
3.2195861 -5.3003831 10.5838289 16711746
0.9391353 -4.4984655 10.4871836 16711746
0.4318588 -2.3926237 9.8665752 16711746
-0.2879184 -1.9791197 9.9945021 16711746
-0.1664007 -2.4630020 9.8830643 16711746
-0.8467304 -2.2366619 10.0018253 16711746
-0.3879666 -3.1043110 10.2857342 16711746
-0.5981755 -2.0373702 9.9517488 16711746
-0.2442257 -2.0351477 9.9241552 16711746
-1.3174963 -4.3667040 10.9535761 16711746
-0.3519777 -1.9681423 10.1437302 16711746
-0.2112350 -2.4316323 9.9496717 16711746
-0.4012333 -2.4221339 10.4287758 16711746
-1.9871353 -6.1668849 10.7160130 16711746
0.9205579 -3.0987518 9.9664850 16711746
-1.9558465 -5.2252998 10.8734417 16711746
2.1602116 -7.5248370 11.1671648 16711746
-0.6780849 -4.3225274 10.9025488 16711746
0.5622075 -4.2868552 9.6590738 16711746
-1.9073985 -5.9508386 10.6736135 16711746
1.2080178 -5.3693004 10.3950529 16711746
-1.9668949 -5.5310717 10.3026466 16711746
0.1633444 -5.3360972 10.1157951 16711746
-2.0420408 -5.4623713 10.7586651 16711746
-0.9270855 -5.3402162 10.1499786 16711746
-2.0876172 -3.8695891 10.2856054 16711746
1.4504349 -6.6289062 9.2505569 16711746
-2.9054692 -5.5693216 10.9501657 16711746
-1.4222190 -5.4497333 10.6220579 16711746
-0.0045105 -3.9115868 9.8230858 16711746
-0.9628406 -4.0878687 12.7274380 16711746
-1.0212870 -6.0644460 10.2183914 16711746
2.0481398 -4.6786680 10.4691658 16711746
-0.5746025 -10.0908337 11.9589787 16711746
-0.7056617 -4.5376258 10.9699211 16711746
0.2174812 -4.9638648 9.9883766 16711746
0.2059340 -5.7342281 10.1349840 16711746
2.2142668 -6.5152102 10.4026642 16711746
0.8871092 -5.8941302 10.0628824 16711746
1.7344966 -6.3129196 9.5409679 16711746
1.7007602 -6.0240092 10.2100439 16711746
1.0221764 -4.7927103 9.9693069 16711746
1.8788249 -5.0241227 9.5010118 16711746
-0.1534674 -4.8124633 10.0401211 16711746
-1.9808884 -5.2570558 10.8951740 16711746
1.6614356 -7.2618599 9.2047606 16711746
-0.1780648 -4.4167924 10.6574612 16711746
-1.7854544 -5.0399055 10.5132561 16711746
-2.4632244 -5.5121241 10.6344748 16711746
-0.5283405 -3.8400812 10.4302197 16711746
0.0462414 -4.9769301 10.6813478 16711746
0.9107341 -5.1252799 9.3924475 16711746
0.8924334 -5.8548236 10.4182348 16711746
-0.2476275 -1.6571251 10.0177994 16711746
-1.3451284 -4.2869153 10.7494650 16711746
1.2849206 -6.0865049 11.9164782 16711746
-0.0697432 -4.8777132 10.1710310 16711746
2.4547000 -9.4190636 10.6386280 16711746
-0.7204782 -4.5315571 10.9628735 16711746
-2.7985308 -4.7546263 11.5878363 16711746
-2.4662623 -4.8961277 10.7598143 16711746
1.3159813 -3.7574656 10.2336931 16711746
0.0164750 -4.0219808 9.8210897 16711746
-0.5806084 -4.2680039 12.7371712 16711746
-3.1741514 -4.3697100 11.8520222 16711746
-1.7675247 -4.3515801 10.4971104 16711746
-0.1716466 -5.7516108 9.8488379 16711746
0.0080135 -3.8502364 10.2868547 16711746
-2.2907455 -3.4061589 11.1934566 16711746
-0.8954225 -5.5698137 11.3094177 16711746
-3.0816245 -8.6804295 11.7052155 16711746
-1.3696418 -4.1199198 10.3793039 16711746
-0.1709470 -4.6705351 10.7205257 16711746
-1.9308815 -4.7929564 11.0875978 16711746
-1.3161023 -4.8968301 10.0232830 16711746
-3.9865043 -6.5743418 10.7521763 16711746
-0.0416334 -3.5809028 9.8198833 16711746
-1.8080792 -4.7587323 11.2522030 16711746
-2.2964594 -5.0753245 10.3535957 16711746
1.9105917 -6.6168146 10.2797432 16711746
-1.6957315 -4.1963062 10.3973036 16711746
0.9004015 -2.5547240 9.6031322 16711746
-0.3013017 -3.6836305 10.3936501 16711746
-0.3299772 -3.8054786 10.7887964 16711746
-1.9267981 -5.6045084 10.3044481 16711746
2.8978341 -4.6356792 9.9036150 16711746
-0.5860029 -4.4621768 12.9117651 16711746
-0.5766891 -3.3193636 10.9284382 16711746
-0.5353980 -3.0436125 10.7834225 16711746
-11.3766689 -17.3558998 11.1399355 16711746
0.5589849 -3.8084292 10.1930685 16711746
-1.7315599 -3.7382278 10.4151831 16711746
-1.6185875 -4.1889796 10.2256165 16711746
-0.2556974 -5.0284286 10.2526808 16711746
0.2829819 -2.8598666 10.0507946 16711746
-0.1709735 -3.6652625 10.6368694 16711746
-0.8125724 -3.6079443 10.3478794 16711746
-2.4609945 -4.3894219 10.3784943 16711746
-1.6921457 -6.0888357 11.0553122 16711746
1.0347400 -3.5880482 10.2009058 16711746
-2.1777890 -3.6408558 10.8195810 16711746
-0.2273765 -5.0214639 10.4924021 16711746
0.6936536 -8.0546312 10.1007357 16711746
-0.1538521 -2.4577005 10.3329210 16711746
-1.2636740 -4.6327848 11.1325483 16711746
-0.0826212 -3.3059437 9.8272390 16711746
-0.5743357 -5.2122941 10.4894428 16711746
-1.0804616 -3.1984422 10.3624926 16711746
-3.3029206 -6.3443351 11.3028460 16711746
-2.5728517 -5.0743542 10.8022118 16711746
-0.0716406 -3.3135505 10.3210974 16711746
-0.5198221 -2.3784418 10.5692616 16711746
0.9656749 -3.6030881 11.5335560 16711746
-1.1653168 -6.1660681 11.3571730 16711746
-0.1537332 -7.1214337 9.6789150 16711746
-1.5606030 -5.9634051 10.6907606 16711746
0.0792196 -6.1716032 10.2514534 16711746
-2.2283287 -4.4384427 10.6474009 16711746
1.9676479 -7.1656008 11.0931416 16711746
-0.6127777 -5.6544685 10.7036514 16711746
0.8111903 -5.8536549 10.0476446 16711746
-1.9125737 -5.7683859 10.7029905 16711746
-2.0193191 -5.0669703 10.5840425 16711746
-1.1447777 -2.6801469 11.3839188 16711746
0.5140045 -4.5944090 10.3896284 16711746
-0.6233625 -2.7637789 10.1485720 16711746
-1.7141172 -4.1982818 12.6055737 16711746
-1.4050616 -4.0702133 10.5280037 16711746
-1.2493901 -2.7636888 10.0480623 16711746
-0.1212497 -5.1137552 10.8212681 16711746
-2.9182522 -4.5119567 11.2066250 16711746
3.5815630 -10.4194498 12.4414577 16711746
0.6877544 -4.7626915 9.6746397 16711746
-0.5147576 -6.0127311 10.6760149 16711746
-2.9735720 -4.5037951 11.3960295 16711746
2.2182074 -6.1937933 9.9953279 16711746
-0.4720462 -6.0895338 11.5130739 16711746
-0.3036749 -7.2592368 10.8455219 16711746
-1.9707749 -3.1145911 10.9916763 16711746
-2.5906391 -6.7465715 10.8487711 16711746
-0.1861401 -5.6053982 10.4324913 16711746
-0.3583999 -5.2762928 10.3451691 16711746
0.0313228 -5.8003926 10.2708759 16711746
-1.2712519 -4.6543498 14.0628853 16711746
-1.6279795 -3.9959238 10.1886854 16711746
-0.6300473 -2.4511817 11.0822268 16711746
-0.1816963 -1.5298735 9.8657598 16711746
2.1535296 -6.4881468 11.0208588 16711746
2.2003279 -7.8964357 10.1619539 16711746
0.2676129 -7.3424644 15.5143929 16711746
-0.4458956 -4.1149268 10.4187145 16711746
2.1131005 -5.8824034 11.3147907 16711746
-1.6220862 -3.8609006 11.5862370 16711746
-1.5191361 -3.1992450 11.0657158 16711746
2.1924241 -7.4444060 10.5468988 16711746
1.1255174 -5.6810198 10.1313000 16711746
-0.2361720 -1.6485000 9.9933004 16711746
-0.2959648 -1.6843271 9.9974470 16711746
2.0445113 -4.2681074 10.2431631 16711746
-1.7694135 -4.3775101 10.6059322 16711746
-0.2626984 -1.9343691 10.2086535 16711746
-0.2032066 -1.8064597 10.1294518 16711746
-0.1700738 -1.8946998 10.1909828 16711746
-2.5955136 -4.2213721 11.5372438 16711746
-0.8506062 -2.7939932 11.2557945 16711746
-0.0689561 -4.1279607 10.2199020 16711746
5.1156983 -9.4804916 13.9790545 16711746
-1.7798917 -5.5327616 10.7897062 16711746
-2.1542017 -4.8740683 10.5116472 16711746
-0.4643576 -6.6879401 11.3533859 16711746
1.5998504 -6.1635151 10.2381020 16711746
-0.2946953 -4.4440112 10.0140448 16711746
2.7029293 -4.9670033 10.7269745 16711746
-0.5753691 -2.7310178 11.1672421 16711746
-1.9407353 -4.8181915 10.3053684 16711746
-1.6653417 -3.1721458 11.6587267 16711746
0.9805514 -2.8687148 10.4784594 16711746
-0.5291061 -3.9624789 10.4603958 16711746
-1.4011649 -4.2671270 10.0861826 16711746
-0.4885852 -5.9581032 10.0539293 16711746
-0.5377148 -5.9948993 10.8862467 16711746
-2.6281102 -4.2902761 11.5781717 16711746
-0.0366224 -3.6888535 9.8236618 16711746
0.2732974 -5.9278755 10.1140385 16711746
-0.3282005 -3.3178849 10.4043417 16711746
-0.9783440 -7.1403165 11.2501144 16711746
-0.8215281 -2.8649895 10.3338385 16711746
-0.2747107 -3.9966753 10.6684361 16711746
-0.2193662 -5.4163194 10.5272226 16711746
-0.3304831 -3.4426508 10.8465424 16711746
-0.9559416 -2.7294190 11.4097309 16711746
-1.4937829 -4.3183503 10.3938122 16711746
-0.8605841 -3.5104117 10.6138811 16711746
0.6517237 -5.0929613 9.8635263 16711746
-0.2405988 -2.6833835 10.8556108 16711746
-1.3149941 -4.0949950 10.4770384 16711746
-0.3564141 -3.8977015 10.3553705 16711746
-0.4428139 -3.0018213 10.0703487 16711746
0.5277420 -5.2733521 10.6327009 16711746
1.6929579 -5.3600507 9.9417515 16711746
-1.3988088 -2.9461339 11.3831139 16711746
-0.6510463 -4.7574878 10.5552902 16711746
-0.8018044 -2.9308336 10.5579357 16711746
-0.1541176 -5.4639559 10.1141844 16711746
-1.9310442 -4.8614769 10.2936859 16711746
-0.9429811 -6.9561419 11.4881945 16711746
-0.4513911 -4.0328794 10.2177887 16711746
2.2931201 -7.3858471 10.4051132 16711746
-0.5049800 -4.2453060 11.2422218 16711746
-1.6076186 -5.2134881 11.0951490 16711746
-0.3358657 -3.3956382 10.4212446 16711746
-1.8606263 -4.8085132 11.2248116 16711746
0.2767633 -6.6763482 10.2067652 16711746
-0.1018874 -3.6805105 10.9546328 16711746
0.6422106 -6.4834695 9.3082914 16711746
-2.5696225 -5.5659928 10.7502499 16711746
1.2632636 -6.0730066 10.6292686 16711746
3.3176515 -5.2750177 10.0708399 16711746
3.3293433 -5.7454276 10.3684530 16711746
-2.2207069 -4.3074861 10.2049379 16711746
-2.1352148 -5.4350791 10.7151461 16711746
3.7330701 -5.9920664 9.5185366 16711746
17.5947075 -23.3885536 25.4350433 16711746
-1.0319537 -3.0274522 10.0392189 16711746
-0.1956618 -5.3279972 9.8502951 16711746
1.6208649 -5.9292722 11.0650759 16711746
-1.4921670 -4.8832464 10.1488400 16711746
-1.5800717 -6.6458864 11.6409740 16711746
-2.1160603 -4.0516815 10.2696781 16711746
-0.7719461 -2.9268582 10.4873514 16711746
-0.7672745 -4.4063444 10.9506769 16711746
2.2388697 -8.8866787 9.8909512 16711746
1.0442823 -6.4933815 9.7091570 16711746
1.5860152 -5.4054146 9.6033792 16711746
3.1263912 -5.2067547 11.1624842 16711746
2.7127502 -5.0858340 9.9331322 16711746
2.8182662 -5.1777568 9.9245806 16711746
-0.7245964 -5.5980330 10.9815207 16711746
2.1538939 -5.3297830 9.7863226 16711746
2.6343830 -6.7660327 9.3646107 16711746
2.8291140 -4.6449261 9.9153261 16711746
3.2537823 -4.0521178 10.1440401 16711746
3.1368375 -6.0964851 11.8922138 16711746
5.4257112 -8.4531145 14.5118980 16711746
2.5061390 -4.6169548 9.8326941 16711746
2.1692882 -3.8751822 9.8749743 16711746
3.8753428 -5.4066396 10.2007236 16711746
1.0466846 -6.4419718 9.7051611 16711746
3.2247894 -5.0275927 11.0631266 16711746
3.8693395 -4.3091917 9.7889948 16711746
3.7642539 -5.3758655 10.8911982 16711746
1.2964338 -5.1924243 9.7532930 16711746
2.6274219 -6.9901481 9.9133368 16711746
5.4010963 -5.0989442 10.7203436 16711746
4.7872033 -9.0191946 13.7853098 16711746
-0.6237120 -5.9381380 10.8589287 16711746
-1.2373682 -4.6138773 10.4829254 16711746
-1.0374923 -5.1540284 11.7809410 16711746
-2.0537748 -3.7249770 11.0954123 16711746
-2.5405266 -5.4492965 10.5240259 16711746
2.2573459 -5.0264249 10.6407223 16711746
3.2287476 -3.8367276 9.8129072 16711746
2.1371927 -6.2347913 9.4609251 16711746
1.4594687 -5.5464811 9.7029591 16711746
3.9245176 -5.2556782 12.6470881 16711746
2.4205289 -4.8098755 9.2133846 16711746
3.8170955 -4.3388209 9.6549215 16711746
0.8869938 -5.8675938 9.7363825 16711746
1.4374342 -5.8936706 9.8005352 16711746
-1.2818588 -5.0777631 11.3791122 16711746
-2.8462775 -5.2725501 10.2792177 16711746
1.2471030 -4.8304014 9.6328526 16711746
1.8076867 -6.5035119 11.2151499 16711746
-1.8315512 -8.2761421 11.8574047 16711746
2.9421902 -4.4861450 10.1232004 16711746
1.9207941 -4.9780569 9.8379307 16711746
-2.5621338 -4.0536127 10.4741707 16711746
-1.9658259 -4.6309762 10.9122334 16711746
1.0916454 -5.0556841 9.8380442 16711746
2.7590737 -4.6362314 9.7697868 16711746
3.8540432 -3.6713805 12.8505392 16711746
1.4114133 -5.4137654 9.7346630 16711746
3.0406461 -4.9452200 9.5347080 16711746
3.0931075 -5.3644705 9.5553312 16711746
1.2273028 -3.7317874 9.6702013 16711746
-1.7130359 -4.5268025 10.5310555 16711746
-1.8775706 -4.0323906 10.2636080 16711746
2.4036038 -3.0754137 10.1588850 16711746
-0.3202895 -5.0158768 10.3213825 16711746
4.0605202 -6.4887152 9.6900978 16711746
2.7792506 -6.6744652 9.4553280 16711746
3.0652311 -8.8508453 11.7306986 16711746
0.8134488 -5.5408916 10.0765705 16711746
-2.5606935 -6.4772792 10.5958967 16711746
2.7665827 -5.9265847 9.3413095 16711746
-2.0402350 -5.1888742 10.7210016 16711746
1.6359038 -6.3680754 10.7229786 16711746
-1.1656197 -4.3983006 10.5565243 16711746
-2.8018088 -4.9902816 10.9285173 16711746
-2.0601172 -4.6977725 10.4767122 16711746
1.2580595 -6.1027856 10.1317320 16711746
-0.5549518 -4.7503252 9.9463911 16711746
-0.5013661 -5.8502369 9.8439941 16711746
3.5182481 -6.0572305 10.9642878 16711746
-2.9565630 -5.6399894 10.3556013 16711746
1.1755291 -4.8584676 10.2867842 16711746
-1.5436029 -6.5197530 11.6486893 16711746
3.2312789 -4.3149457 9.9456968 16711746
1.3511035 -6.3243313 10.1522150 16711746
3.1408410 -4.5099473 9.4178734 16711746
1.9995112 -6.6764474 9.8424263 16711746
1.4663163 -5.9393969 10.6821747 16711746
3.3685186 -4.9801912 10.7411222 16711746
1.7739222 -5.8296971 10.1983194 16711746
2.5786872 -5.5086174 11.3392906 16711746
0.9749094 -5.9182343 10.4041367 16711746
-0.6509632 -3.8008745 10.3483324 16711746
-3.0110199 -4.3708181 10.9349670 16711746
3.9303885 -5.1398063 9.4997530 16711746
1.2908777 -5.4857836 10.1151962 16711746
-0.7470715 -4.7843227 10.5956535 16711746
3.4100802 -6.4120140 10.5228548 16711746
2.6206551 -7.3665214 13.3317041 16711746
2.5332253 -4.3850522 9.8072605 16711746
-2.1815052 -6.2702341 12.0862951 16711746
1.1718947 -3.3994052 10.2462673 16711746
-1.5001587 -3.6720111 10.6620903 16711746
-1.5275750 -4.4628911 11.3190250 16711746
-0.5229440 -4.0953012 10.0839186 16711746
1.5789524 -4.6547098 9.6341391 16711746
0.5579741 -3.4352341 10.9951429 16711746
-0.3042699 -6.4687786 10.3234787 16711746
-0.1997867 -1.6041073 9.9482746 16711746
-1.1826384 -4.3924932 11.1720839 16711746
1.8294647 -5.6715107 10.2925596 16711746
-1.5628994 -4.7427487 10.3513565 16711746
4.0646348 -8.6777964 13.1333694 16711746
2.5009594 -7.6529913 11.7756758 16711746
4.2958150 -8.3520164 13.4142780 16711746
-1.7390387 -5.3377271 10.7735052 16711746
2.1890736 -7.0154004 11.2223825 16711746
3.1397710 -8.9863348 13.8068476 16711746
1.2278087 -2.9942465 9.9815369 16711746
2.5019391 -6.5264802 11.4871979 16711746
2.6131849 -5.9347749 11.1780577 16711746
0.8648047 -5.8903484 9.7774143 16711746
2.9324191 -6.7356710 12.0811443 16711746
3.2196627 -5.5643973 9.5572977 16711746
2.3400893 -6.0427332 11.6080370 16711746
2.3569884 -7.3338704 11.6829987 16711746
6.3012676 -9.6392155 15.2377205 16711746
4.7960696 -7.3517933 12.0305262 16711746
2.7464185 -5.6622577 11.0047731 16711746
-1.9099948 -3.3865683 10.7092991 16711746
-1.8652519 -4.8977966 10.4087553 16711746
-3.3845003 -4.6036611 10.8158140 16711746
2.9625826 -5.9351501 11.0716858 16711746
0.3046197 -4.8190145 10.0843678 16711746
-1.8646979 -4.5339823 10.5518646 16711746
3.1822584 -3.8667889 9.8175182 16711746
-2.0023322 -5.7897315 11.1232615 16711746
3.3338735 -4.9530535 10.1552391 16711746
-1.6638395 -4.9584723 10.0619144 16711746
1.1098922 -6.3829279 10.4327269 16711746
1.9735918 -6.9387050 11.2774200 16711746
-4.2886572 -5.6155601 11.0205097 16711746
1.1201074 -6.3797021 10.4361763 16711746
-1.4307594 -4.8389797 11.0084095 16711746
3.9489784 -8.3607845 12.7967119 16711746
1.1580880 -2.9484086 10.6801491 16711746
1.0012784 -2.6207180 10.5201006 16711746
2.1921377 -4.4379015 9.8499861 16711746
-1.3170117 -5.7727475 10.4201117 16711746
1.5182383 -5.8918324 10.6542826 16711746
-0.1928958 -1.6255543 10.0969276 16711746
5.7809181 -10.3287449 16.6818047 16711746
2.4076469 -4.2551298 9.2221527 16711746
4.5379848 -7.9656057 14.0287952 16711746
3.0721831 -5.7667389 9.6420059 16711746
-2.0430686 -4.1760964 10.2133055 16711746
-0.2517815 -1.6328671 10.0805140 16711746
2.7143481 -5.3566351 9.4158974 16711746
3.0302246 -4.6194787 9.9805908 16711746
2.9026353 -5.3966312 9.1477385 16711746
-1.6834825 -4.4477720 10.4506769 16711746
-1.5883104 -4.1643176 10.4359283 16711746
-1.5017918 -4.0201216 10.3689823 16711746
1.5683266 -3.2136285 10.9538698 16711746
1.4480432 -5.6006999 10.8357716 16711746
5.9180107 -8.6012697 15.4894056 16711746
2.9831302 -8.4679880 12.0064392 16711746
-2.8625302 -4.9545155 10.1478300 16711746
1.7026811 -6.8301196 11.2837181 16711746
2.5526845 -8.0922403 11.3241634 16711746
6.0199337 -8.2362537 15.7803469 16711746
-2.4959760 -4.9924130 10.3051701 16711746
3.4358344 -9.5083694 12.0445108 16711746
37.3672485 -93.6846390 14.5087070 16711746
3.1959705 -7.1300507 12.8441734 16711746
1.8324912 -4.4698715 10.5376406 16711746
6.5442896 -9.8860741 15.8815861 16711746
6.9176378 -10.4505968 16.2722759 16711746
-0.0457706 -5.7687631 12.4108171 16711746
1.1946872 -4.4522076 12.4096527 16711746
1.6397933 -5.5869961 9.7768898 16711746
0.3443407 -3.4661350 10.3319101 16711746
-0.2187411 -3.6884189 10.8102980 16711746
-0.1630170 -3.8537536 11.3783264 16711746
0.5155841 -6.1837301 12.3509111 16711746
-0.7167969 -5.1515613 12.2962160 16711746
1.4477178 -5.9422226 13.1170158 16711746
0.2019248 -4.4638810 11.5180874 16711746
-0.1130381 -2.9200292 10.6341887 16711746
0.0024545 -3.5406730 11.7418041 16711746
-0.1067850 -3.5447676 11.4285765 16711746
0.2871284 -4.1993961 12.0188723 16711746
3.6823368 -7.8212957 15.3686829 16711746
2.6545370 -5.6051831 11.3940315 16711746
1.2010694 -4.9370890 10.4510527 16711746
0.2139827 -2.7509317 10.1435814 16711746
2.2276342 -7.0786037 10.7254324 16711746
5.2992392 -9.7362614 14.0477934 16711746
7.9875674 -12.6480637 17.0405655 16711746
-2.5945241 -4.6002021 10.3947401 16711746
-1.6822590 -4.2504802 10.2609758 16711746
-0.5004010 -3.4467549 11.8074961 16711746
1.0089079 -4.0473256 11.0021248 16711746
-0.3340266 -4.1339812 10.9803391 16711746
6.1147895 -10.1201220 15.4104128 16711746
1.3613867 -2.6593652 9.8483009 16711746
1.7220706 -3.8351104 11.3176565 16711746
0.4678852 -2.7312326 10.0972319 16711746
-0.3672086 -1.6408724 10.1260195 16711746
2.5980129 -4.6985955 12.3493433 16711746
0.6693213 -5.3723707 10.2333136 16711746
1.8197216 -3.8662083 9.2487688 16711746
1.5878069 -3.8872344 10.4169350 16711746
0.7145307 -6.0921817 10.1201658 16711746
1.8864782 -4.4512200 11.9092207 16711746
2.4339256 -4.6269665 12.4752588 16711746
2.9650788 -5.0307879 12.5866766 16711746
-0.0470673 -3.8982582 10.0261154 16711746
1.2324367 -3.6040661 9.7239828 16711746
2.2507060 -3.9174876 9.1207361 16711746
2.3418579 -5.4406610 10.6085205 16711746
1.8465743 -4.9426603 9.6555386 16711746
0.9437291 -4.1056194 9.7753477 16711746
3.4075849 -3.8496835 9.8470402 16711746
1.1739396 -5.2682419 9.7613420 16711746
2.9285407 -4.3771544 11.6036367 16711746
0.5835915 -4.2662520 10.9589243 16711746
1.1931223 -3.8782270 9.8024702 16711746
1.8546752 -6.1113610 12.0406513 16711746
0.2611135 -3.7273283 11.1872320 16711746
3.4243300 -5.0502229 11.7179461 16711746
1.5351477 -4.6268721 9.5938873 16711746
1.7420477 -3.9584398 10.5377674 16711746
-0.3511834 -4.9354253 13.5842180 16711746
1.0456643 -3.9235868 11.8715916 16711746
2.4927316 -4.2587624 11.0848284 16711746
2.8751111 -5.1275554 9.4116716 16711746
-0.0309777 -4.0544267 10.0176516 16711746
0.2576194 -4.2241249 10.1295128 16711746
1.7558599 -3.6560872 10.4232635 16711746
1.0292314 -3.3397682 9.7745218 16711746
0.0201080 -4.4576674 10.0013990 16711746
-0.2155273 -4.1331391 10.1359529 16711746
0.4964697 -4.7356124 9.8202000 16711746
1.9587123 -4.0714087 10.3998337 16711746
1.6699935 -3.6956859 12.0917587 16711746
-1.2413343 -4.2474284 10.5191317 16711746
0.1392390 -6.4630127 10.0971241 16711746
-0.6702556 -3.8466623 10.9691353 16711746
1.6545072 -6.4416065 9.5385761 16711746
0.6546387 -6.4677339 10.0289698 16711746
-0.0878405 -3.4465935 10.1332407 16711746
1.3008333 -4.8815637 9.6742563 16711746
0.7276599 -3.8060579 10.7226439 16711746
-0.6193866 -3.7306263 11.4918699 16711746
1.3448085 -4.9691734 10.8122005 16711746
2.8228881 -3.6060922 11.1436138 16711746
-1.1154230 -3.8356569 10.4666262 16711746
-1.0977824 -5.0801148 10.7525883 16711746
1.7554090 -4.4845824 9.7796783 16711746
0.3992157 -5.2618532 10.0701265 16711746
2.2287705 -4.6977692 9.5174217 16711746
1.6624097 -3.8785932 10.5002184 16711746
1.3315592 -3.9371591 10.2455444 16711746
1.5074840 -5.6097736 11.1945457 16711746
1.4584194 -3.9002023 11.6108770 16711746
-0.3369971 -3.8711052 10.5866470 16711746
-0.4605935 -3.5230856 10.5422964 16711746
1.1371915 -3.6394577 10.0373516 16711746
-0.2529897 -3.6558368 10.7038288 16711746
-0.0745064 -4.4190598 10.7034626 16711746
-0.6352436 -4.2658238 11.3485508 16711746
-1.0017600 -3.3702614 10.6297531 16711746
-0.0892018 -3.6035850 10.3945961 16711746
2.4934390 -4.3446007 10.8304968 16711746
3.0471745 -4.6863933 10.3617306 16711746
1.4156801 -3.2468133 10.7125435 16711746
0.2757433 -5.5143971 11.7192707 16711746
-1.1182739 -5.0593953 11.1684685 16711746
-0.4951836 -3.3164077 10.6365452 16711746
-0.1207154 -4.0610704 10.6322861 16711746
-0.4529539 -3.3900285 10.5118837 16711746
1.8290671 -4.6997519 10.5918522 16711746
1.2281712 -3.6732457 10.6382666 16711746
-1.0218890 -5.2025509 13.0613813 16711746
-0.2386194 -5.3672476 12.8734322 16711746
2.0654051 -6.0820727 11.7357597 16711746
-0.7494611 -3.4115202 10.5564823 16711746
-0.1956513 -3.9142597 10.7019987 16711746
0.9206607 -2.8953309 10.0378304 16711746
0.6876486 -3.5082684 10.0014439 16711746
-0.8559503 -6.1577125 12.4605169 16711746
-0.5070789 -4.5240149 12.1321087 16711746
-1.1234885 -6.1237760 13.4339361 16711746
0.8092933 -3.7635686 10.1432295 16711746
0.7663534 -3.2298543 10.1809654 16711746
0.0374801 -4.5040936 11.6693230 16711746
-0.4666302 -2.9082658 10.9449682 16711746
1.3893139 -3.7590611 9.6413431 16711746
1.7934355 -3.9094832 10.7317352 16711746
-1.2324382 -5.4230914 13.8935680 16711746
2.5811336 -6.2641726 12.2915068 16711746
3.7889504 -7.2489123 12.7957153 16711746
3.9220362 -6.6318607 13.3819962 16711746
2.3491771 -4.5524902 10.3119011 16711746
2.8384790 -4.4300327 11.6886911 16711746
3.1083193 -4.7108130 11.5283155 16711746
0.5602436 -5.3217587 9.8190670 16711746
2.0141194 -2.9173744 10.4674444 16711746
-1.5248200 -4.1056466 10.8585892 16711746
1.2451363 -5.0329113 11.0772667 16711746
2.9625041 -4.8438168 11.4315157 16711746
-0.3270105 -4.0555773 10.2559710 16711746
-0.0508105 -4.2042060 10.1293869 16711746
0.3688119 -4.2187214 10.1474705 16711746
1.0876398 -4.6814990 10.9949551 16711746
1.1348964 -3.5604255 9.8404779 16711746
-0.6233086 -4.0446277 10.8203888 16711746
1.2155653 -3.7014720 10.7377853 16711746
-0.0388863 -4.2744150 10.1247587 16711746
-0.8061760 -5.0110908 11.6626062 16711746
0.7995001 -4.7582912 10.9139757 16711746
0.6248140 -4.0467267 9.8786936 16711746
1.5535629 -5.0788317 11.4330521 16711746
-0.9290515 -5.7409816 12.4731064 16711746
0.6200538 -4.7955976 10.0006819 16711746
2.1442299 -3.8296325 10.3272591 16711746
3.0411103 -4.9879084 11.3755932 16711746
2.5154095 -4.3248930 10.9920444 16711746
-0.8361002 -6.3496404 11.7090273 16711746
-1.0636463 -7.3337116 12.1470947 16711746
2.0293324 -5.5566988 11.4627514 16711746
2.0991025 -3.9248309 10.8778906 16711746
2.3986018 -3.5863326 10.5831957 16711746
2.4673266 -4.3713889 10.5192308 16711746
1.0257931 -4.2031150 10.3150568 16711746
2.0881343 -7.3976994 12.0093546 16711746
2.3969290 -6.6763525 11.6864958 16711746
2.0521975 -4.1860690 10.4074402 16711746
-0.8747232 -6.8180103 10.3964758 16711746
-0.7051996 -7.9906940 14.1992016 16711746
3.1677873 -6.0866408 12.7902441 16711746
1.0540577 -4.2773581 10.3212614 16711746
1.4683727 -5.3864956 10.2771873 16711746
2.1698151 -5.0326104 10.6580963 16711746
-0.5207837 -3.5955915 10.8161650 16711746
1.4647634 -3.8856089 9.7568617 16711746
-0.7156333 -5.5201578 13.6818933 16711746
0.4134018 -6.5423689 14.1981173 16711746
-0.7710467 -4.6073570 11.8634214 16711746
5.3590460 -8.9435530 15.1728001 16711746
2.3667386 -5.9576216 12.0230036 16711746
-0.5945649 -5.5844393 11.7203150 16711746
1.5483024 -5.7045121 11.2132406 16711746
2.1889174 -4.3382168 10.4191971 16711746
-1.6727513 -9.8225889 11.7372255 16711746
1.5838799 -5.0685525 9.9678221 16711746
-1.1241096 -6.2031765 12.3064013 16711746
2.4281781 -5.6524515 10.1038103 16711746
-1.4460081 -5.4988055 14.7876301 16711746
-2.8842762 -4.7992196 14.4990139 16711746
-1.0392345 -5.7470651 12.2654819 16711746
3.9609683 -5.2295952 12.8141642 16711746
3.8628180 -5.8569479 13.3767300 16711746
2.3992653 -5.3711791 13.0545416 16711746
1.7099824 -3.4760613 10.8360796 16711746
1.7816771 -4.3270812 11.0727634 16711746
2.1706946 -6.1940060 11.7729006 16711746
-2.3471873 -3.9646268 12.1198950 16711746
-0.8443910 -4.4360018 10.6399488 16711746
-2.3327494 -4.0603437 11.7689581 16711746
-0.6609802 -7.4228821 11.9443130 16711746
-1.7425756 -3.9722035 12.6950655 16711746
-0.7322724 -4.0883265 10.4157190 16711746
-1.4944468 -5.5986810 10.9534264 16711746
1.3058704 -3.1003089 10.3941917 16711746
0.9118213 -4.3434777 10.8538694 16711746
2.3747213 -4.7594604 9.5098324 16711746
2.5242023 -4.4908700 9.6314802 16711746
-0.6770187 -5.0364194 13.2693863 16711746
-1.7522824 -5.3410039 10.9178734 16711746
0.1848853 -7.6984129 12.5670176 16711746
-1.4209093 -8.4130144 11.1236000 16711746
2.9836667 -3.9218900 10.3129845 16711746
3.2685628 -3.6129928 10.6347752 16711746
-2.0521259 -3.6084039 11.8397312 16711746
1.9035841 -3.6051683 10.2587061 16711746
0.3871384 -8.2386160 10.9580364 16711746
1.1604265 -3.1701674 9.9133444 16711746
-1.0170479 -6.7664385 11.9086819 16711746
-0.7007778 -6.9097085 11.3468056 16711746
-0.4414690 -4.9642763 10.8539820 16711746
-2.4022112 -5.2908826 11.1147118 16711746
2.6601684 -3.8647907 9.3351202 16711746
-1.0686846 -6.1871948 12.4684963 16711746
-0.0503492 -7.4707680 13.2647705 16711746
0.0419713 -5.5773387 12.6684361 16711746
1.6514919 -4.4822807 10.3653717 16711746
1.7164803 -3.2914937 9.8597565 16711746
1.8768947 -3.4290326 9.8388472 16711746
2.6246483 -4.5665917 11.2150021 16711746
3.5629790 -5.1618352 11.7415152 16711746
2.8636560 -4.1397228 11.3206959 16711746
-0.1867731 -1.6609480 10.2234364 16711746
0.4715178 -5.1045904 10.0450153 16711746
-0.2814050 -1.7316623 10.2942734 16711746
1.6985105 -3.2769070 9.8470821 16711746
0.6480957 -4.3284068 10.2327652 16711746
4.7284021 -8.9311256 13.6710215 16711746
-1.5586703 -4.1988339 10.8800173 16711746
-0.6518669 -5.1714826 12.2182541 16711746
0.9573771 -3.2573655 9.9434080 16711746
0.6255453 -2.9182911 10.1102514 16711746
0.7196739 -4.2310553 10.6733341 16711746
0.7028847 -2.7422612 9.9487371 16711746
-0.4225976 -4.1023030 12.2627296 16711746
-0.2559543 -4.1133928 11.3826523 16711746
-1.8749509 -5.7185831 11.2698879 16711746
-0.7447051 -4.1623964 11.1953087 16711746
-0.6764889 -3.2775116 10.5748920 16711746
0.3386588 -2.7009082 10.1837339 16711746
-0.7298636 -4.0643587 10.4100380 16711746
-0.9871694 -3.4116068 10.3378048 16711746
-1.4621245 -2.9658768 10.2777424 16711746
-1.4388847 -4.6204305 10.9130497 16711746
0.9728349 -3.9746857 9.7965355 16711746
1.5397816 -2.6960828 10.4423723 16711746
2.5787508 -4.1465497 11.8241329 16711746
1.0448858 -3.6759801 9.8565340 16711746
0.8792720 -3.3571088 10.2974586 16711746
-2.2200530 -4.1067252 12.8374062 16711746
-0.5447732 -3.1278899 10.4118061 16711746
-0.7482066 -4.6370111 11.5061197 16711746
-1.9962418 -5.6390963 10.7736359 16711746
-0.7233203 -2.8436503 10.5005817 16711746
0.5215647 -2.7996218 10.0860395 16711746
-0.6914583 -4.4921222 11.2024078 16711746
-0.8631414 -3.1851444 10.7177906 16711746
-1.4121447 -4.3251014 10.9634266 16711746
-2.0511744 -5.3268914 11.0343094 16711746
1.6522797 -4.1161418 10.4159298 16711746
2.0807264 -6.1071572 11.7516394 16711746
-0.0551215 -3.1682804 10.6066055 16711746
-0.7013003 -4.7979999 10.6421347 16711746
-1.1606358 -3.7659748 10.4496756 16711746
1.3386450 -3.8755608 10.6453037 16711746
-1.4744589 -4.4213548 11.6359329 16711746
4.3314734 -4.9791279 13.2690468 16711746
4.1084933 -6.1678057 14.4441309 16711746
1.7748694 -5.3043184 11.2816763 16711746
7.4766603 -9.8748045 17.7641106 16711746
-0.0649219 -2.6815972 10.4637003 16711746
1.1688688 -3.7204456 10.3435469 16711746
1.4520061 -3.8299313 10.8995018 16711746
1.9748926 -7.8710246 13.6137762 16711746
2.6265602 -8.8175926 14.5154324 16711746
2.1226947 -4.1100702 10.5168848 16711746
-1.7712147 -3.9769311 10.8770609 16711746
-0.3326922 -4.3450484 10.3319664 16711746
1.2818096 -3.0575180 10.2747383 16711746
-0.2254253 -3.0277648 10.2428455 16711746
2.6574728 -5.2042027 11.8489237 16711746
1.1201493 -2.9921284 10.7488451 16711746
1.1443743 -4.0225339 10.4945555 16711746
-0.7358437 -5.6084132 12.5845175 16711746
-1.9033520 -3.1713088 11.6180964 16711746
-0.7799798 -4.5879397 11.8503065 16711746
-0.7199966 -3.0701938 10.5725870 16711746
-0.8879441 -5.4964128 10.3841124 16711746
2.0177686 -4.4004297 11.5021305 16711746
1.0533359 -5.2788696 12.1128569 16711746
1.5453579 -3.9456844 10.9220362 16711746
2.6740160 -3.6413257 10.8719749 16711746
-0.5853792 -3.0151408 10.9995680 16711746
1.6701415 -4.2015014 11.1270304 16711746
1.2612463 -3.0467672 10.2782307 16711746
0.7727048 -2.7558200 10.1523476 16711746
1.1167098 -3.7604766 9.9978666 16711746
2.1340642 -5.8400974 11.5316706 16711746
4.3016577 -10.7898064 15.1987371 16711746
3.4169245 -8.9487906 15.9866171 16711746
-0.7522914 -4.8317275 11.9168806 16711746
-0.9495143 -6.0674682 12.6346054 16711746
-0.6706744 -4.2398949 11.5644884 16711746
0.5754246 -5.4319959 10.0074797 16711746
1.5111364 -6.3565693 13.1154356 16711746
1.2463427 -7.9614758 10.2466707 16711746
-0.2788420 -1.7283839 10.2905111 16711746
-0.4866282 -2.0652726 10.4114866 16711746
1.7184610 -3.1079166 10.1619701 16711746
1.3782339 -3.8370349 10.5180635 16711746
-0.3748107 -1.7477012 10.3672848 16711746
0.7221204 -3.3469157 10.2210636 16711746
-0.8880462 -4.7289238 10.5473452 16711746
0.9175172 -3.6766663 10.1368952 16711746
-0.5135946 -3.7722263 10.4529972 16711746
1.9824867 -3.9096830 10.1896296 16711746
-0.8329342 -4.7740974 10.4387445 16711746
-1.6783626 -4.6824393 10.7842846 16711746
-2.8567271 -5.5725760 10.8908167 16711746
4.2892852 -10.6298838 15.1643848 16711746
5.3559976 -12.8383808 16.3620358 16711746
1.8857358 -7.7668777 13.5101967 16711746
6.3631110 -11.6247683 15.1321201 16711746
2.4507606 -7.0611286 13.2638187 16711746
2.4618039 -4.5654025 9.1004639 16711746
-1.4736511 -3.2348547 10.7956209 16711746
-9.2042456 -16.0091648 13.6328249 16711746
1.3988794 -4.4575729 10.5411158 16711746
-0.0763455 -2.2135108 10.5244522 16711746
-0.4020001 -1.9212803 10.5207987 16711746
3.8542292 -10.8420496 14.5047112 16711746
2.1739438 -6.5471401 11.0582905 16711746
0.5574840 -2.7957613 10.4603014 16711746
1.1913465 -4.6028171 10.8402119 16711746
2.4891131 -3.8467004 10.4989138 16711746
1.0019124 -4.2077885 10.6998711 16711746
2.0127842 -3.0294080 10.5894852 16711746
1.0893166 -4.8963165 10.7893982 16711746
1.6932642 -4.1904149 10.0799704 16711746
2.8591824 -3.8793805 12.4109221 16711746
2.4353728 -6.0950656 12.1868849 16711746
1.3561933 -4.3665447 10.2300940 16711746
4.0432715 -4.7223215 13.1010914 16711746
2.6765366 -4.1746392 9.5365038 16711746
0.8808328 -4.8613720 10.7584419 16711746
-0.1294158 -2.0596550 10.5569172 16711746
-2.0470409 -6.1270843 11.9705915 16711746
2.5846560 -6.2717409 12.2296352 16711746
4.4861598 -9.2728090 15.0858793 16711746
0.5174052 -3.5938373 11.2994690 16711746
0.5822935 -3.6777952 11.3592730 16711746
0.2976105 -3.3087828 10.9177094 16711746
0.6777905 -3.0014517 10.5613852 16711746
1.6739599 -4.2985940 10.6877871 16711746
2.7823799 -4.4567032 10.0802298 16711746
-0.3642772 -2.5257337 10.9246283 16711746
-0.2886845 -3.0050468 10.8395929 16711746
-0.9158016 -3.1061597 10.7277594 16711746
-0.6113187 -3.2319429 10.5158587 16711746
-1.4735433 -3.4780552 10.5532179 16711746
1.7938209 -4.3617034 10.4739799 16711746
2.9368379 -5.5309381 12.0026712 16711746
2.6510818 -4.0418401 10.1267586 16711746
3.2845392 -6.7526107 13.0321350 16711746
0.5313991 -6.1424041 12.6703110 16711746
1.4743848 -6.9359102 13.0391922 16711746
-0.2817845 -3.3757851 10.9648247 16711746
2.3017900 -5.1414304 11.4235878 16711746
4.6353860 -6.9303937 15.1009846 16711746
0.2065557 -8.4060011 13.7291470 16711746
4.2370534 -9.2047386 15.8323259 16711746
0.8928005 -3.6632822 10.3087873 16711746
0.5527183 -3.2760243 10.3497229 16711746
0.1636903 -4.0546885 10.2776928 16711746
-1.2521118 -3.7848816 10.4369087 16711746
-0.8308452 -3.8637145 10.3553305 16711746
-0.0752373 -3.0546985 10.7889948 16711746
-1.0044811 -3.3965178 10.7907820 16711746
0.0079404 -3.4286549 10.2866135 16711746
0.8006392 -3.3901291 10.4936543 16711746
1.6093420 -3.6769309 10.1160717 16711746
-0.2774934 -3.2246118 10.5549593 16711746
0.5626598 -3.9251461 10.7051353 16711746
1.4063344 -3.0096281 10.2473888 16711746
2.8057404 -5.6877022 11.0306282 16711746
2.7476141 -5.2314987 11.5371475 16711746
4.2703462 -7.5593996 14.2985744 16711746
-1.4665464 -2.4538455 11.1120758 16711746
0.4216987 -3.1648483 10.8991499 16711746
-0.1332050 -9.6330595 12.5554962 16711746
5.4813666 -5.5289211 9.6061230 16711746
0.2657035 -3.2347608 10.5442095 16711746
0.3654581 -3.2134659 10.4714031 16711746
0.2582397 -3.2252510 10.3128357 16711746
-0.4643445 -3.4695294 10.9175234 16711746
-0.4649440 -3.2347782 10.8588963 16711746
0.3290175 -3.4142294 10.5489054 16711746
-0.3799875 -2.8040864 10.9189682 16711746
-0.3953517 -2.9630830 10.9213963 16711746
-0.3856550 -2.7739761 10.9632959 16711746
0.4530514 -3.3739357 10.7298441 16711746
0.2423285 -3.1972008 10.3150959 16711746
-0.6950186 -3.7884414 11.1109352 16711746
-0.1602613 -2.8934767 10.4622526 16711746
-0.6584309 -3.0526481 10.8090258 16711746
0.3964633 -3.3384604 10.5136738 16711746
0.3020402 -2.8041322 10.2935791 16711746
0.3488964 -3.0032125 10.5884228 16711746
-0.4707728 -3.4629006 10.9130840 16711746
-0.3802836 -2.8380313 10.9312239 16711746
-0.4075584 -2.8017235 10.9325056 16711746
-0.2801732 -3.8424797 10.6039181 16711746
0.1958948 -2.9582505 10.7269411 16711746
-0.0158108 -3.5369127 10.5882845 16711746
0.3619251 -2.5819178 10.6169596 16711746
0.4002863 -2.9756298 10.2677641 16711746
0.2862548 -2.7793214 10.7200089 16711746
0.4658989 -3.2601840 10.8032417 16711746
0.2331125 -2.3910987 10.5185976 16711746
-0.3750204 -2.2503247 10.6981630 16711746
0.3538818 -3.4222004 10.7434301 16711746
-0.2599618 -2.8086889 10.7614136 16711746
0.4060548 -3.1134253 10.5990019 16711746
-0.6657793 -3.0929029 10.8141546 16711746
-0.2748419 -3.1779299 10.6971951 16711746
-0.0832138 -3.6442060 10.7322741 16711746
-0.6756619 -3.2657881 10.8939695 16711746
-0.8810565 -3.1653209 11.1028862 16711746
-0.5449084 -3.5351770 10.7036686 16711746
0.3658245 -2.9601305 10.4795017 16711746
0.3403675 -3.4774148 10.0828514 16711746
0.1009917 -2.7486141 10.8607540 16711746
0.1240995 -3.1580305 10.7010918 16711746
0.2875221 -3.3180149 10.2201471 16711746
-0.5734483 -2.9750843 10.9134407 16711746
-0.3480642 -2.9483671 10.7590456 16711746
-0.2707391 -3.1859503 10.7112713 16711746
-0.4309382 -3.1019015 10.9624376 16711746
0.4036362 -3.4959483 10.2341366 16711746
0.7253236 -2.9881403 10.1576347 16711746
-0.2798247 -2.6682875 10.7292604 16711746
-0.7627738 -2.7854700 10.9482880 16711746
-0.4165502 -2.9403527 10.9856405 16711746
0.6298764 -2.3617246 10.2432365 16711746
-0.3418989 -2.7806482 10.9846592 16711746
0.8425252 -2.6965315 10.3593559 16711746
-0.4703969 -2.6618896 10.7810354 16711746
0.2592595 -2.4249697 10.4232426 16711746
-0.3252904 -2.7203383 10.8683167 16711746
-0.3588769 -2.8858955 10.9110823 16711746
-0.1208945 -2.9363914 10.5178614 16711746
-0.2433451 -3.0148048 10.8127861 16711746
-0.4165030 -2.9685385 10.7728176 16711746
-0.7286215 -3.0648725 11.0486536 16711746
-0.2647669 -2.6621482 10.7852983 16711746
0.3227542 -2.7751384 10.8437777 16711746
-0.3188236 -2.7554228 10.8711071 16711746
-0.4181250 -2.4439261 10.7930717 16711746
-0.3782414 -2.7274280 10.9211197 16711746
0.4491884 -3.1069188 10.4764719 16711746
-0.2140445 -2.8229713 10.7170649 16711746
0.7026232 -2.7345405 10.0942135 16711746
-0.6247737 -3.5096095 11.1160536 16711746
-0.3377228 -2.3760707 10.6283007 16711746
0.5067164 -3.4104359 10.6175385 16711746
-0.5103537 -2.9180081 10.5538502 16711746
0.5221545 -2.2582548 10.3889942 16711746
0.7726097 -2.6029272 10.5482855 16711746
0.1118800 -2.1455238 10.4299316 16711746
0.2050586 -2.5072165 10.8946810 16711746
0.2452521 -3.2036839 10.1264153 16711746
-1.0811468 -4.1740479 11.0541096 16711746
1.1349918 -3.4614079 9.9657602 16711746
-1.0770316 -4.1071911 11.0362549 16711746
-0.4154166 -2.7789414 11.2426901 16711746
-0.1003372 -1.9294295 10.5026560 16711746
2.3474553 -6.5607276 11.6651592 16711746
2.3871067 -3.7586749 10.0511885 16711746
-0.4714490 -2.0721006 10.6940527 16711746
-0.8448080 -3.1315150 11.0719767 16711746
-0.6311890 -2.9616849 10.8116512 16711746
-0.7384374 -3.0462813 11.0415668 16711746
-0.5225496 -2.6774659 11.0932436 16711746
-0.2561719 -1.7420218 10.5990276 16711746
-0.3387568 -3.8818045 10.6774206 16711746
-0.4883207 -2.2328951 11.0145473 16711746
-0.4660091 -2.1008418 11.0112486 16711746
-0.4701823 -2.1609845 11.0052614 16711746
0.1198997 -2.8353796 10.6644926 16711746
-0.3715358 -2.7886486 10.8180733 16711746
0.2513546 -2.9513621 10.5848284 16711746
-0.0340829 -3.6024997 10.2326422 16711746
-0.5915121 -2.1332128 10.9756165 16711746
-0.4269203 -3.2249787 10.6323891 16711746
0.2333035 -2.8843894 10.5270224 16711746
-0.5362167 -1.6536982 10.5506887 16711746
-0.0425278 -2.0894794 10.4781380 16711746
-0.5136965 -2.6917322 11.1007414 16711746
-0.7782906 -2.4815626 11.3521671 16711746
-0.5214015 -2.4623978 10.7428102 16711746
2.6873355 -5.1606331 9.1880465 16711746
-0.4881182 -1.9994730 10.5622263 16711746
2.8171036 -3.4571676 9.7250528 16711746
-1.4286954 -5.2200346 11.1912317 16711746
0.0458855 -2.1623945 10.8344355 16711746
-0.3007591 -2.0288100 10.6441755 16711746
0.1534474 -2.1942756 10.3111506 16711746
-0.5008215 -2.2036204 10.7688894 16711746
2.9327536 -3.8463511 9.7933445 16711746
0.0415958 -3.3999381 11.2229309 16711746
0.2418367 -2.1654408 10.3819513 16711746
1.2357311 -2.9061413 9.9122992 16711746
-0.5091716 -1.6323299 10.5416012 16711746
0.3830855 -2.4708481 10.1871910 16711746
-0.4678081 -1.5933785 10.5126448 16711746
-0.3921682 -1.7573180 10.5478401 16711746
-0.4562383 -1.5853657 10.5148954 16711746
-0.9202609 -2.3600082 11.0895586 16711746
0.7644060 -2.2985516 9.8868475 16711746
1.3890889 -5.3536558 11.0247002 16711746
1.2876800 -2.7250409 10.2087097 16711746
-0.1752164 -2.6227522 11.1739321 16711746
-0.2735739 -2.6850483 10.4505510 16711746
-0.5327840 -2.6394272 11.0233803 16711746
-0.5096655 -2.7386925 11.1397400 16711746
-0.2813356 -1.8746054 10.6463623 16711746
-0.4884384 -2.3621151 11.2011385 16711746
-0.7132484 -2.2769692 11.2909689 16711746
-0.4150753 -2.4046464 11.0083418 16711746
-0.4941851 -2.5762813 11.0495081 16711746
-0.3327084 -2.1748242 10.7003975 16711746
-0.5518723 -2.6212161 10.7670403 16711746
-1.2510052 -2.7426686 11.0916748 16711746
-0.3103881 -2.2523258 10.8668098 16711746
-0.9525412 -2.2847672 11.1120481 16711746
-0.6173474 -2.8649168 10.7643948 16711746
-0.7904640 -2.3243599 11.1555967 16711746
-0.8196611 -2.8133550 11.5753012 16711746
-0.3371528 -2.2505918 10.8633614 16711746
-0.6670129 -2.5831463 11.1717052 16711746
-0.7571541 -2.2015412 11.1948557 16711746
-0.4013149 -2.9281697 11.0059357 16711746
-0.3179445 -1.7646841 10.5561695 16711746
-0.2634552 -3.1705861 10.7734156 16711746
-0.1053522 -1.9476517 10.6973314 16711746
-0.5020177 -2.6989839 11.1174841 16711746
-0.1738353 -1.7983856 10.6230087 16711746
-0.4634474 -2.1209610 10.4562511 16711746
-0.3654207 -1.5915642 10.4685440 16711746
-0.3769512 -1.5860169 10.4701481 16711746
-0.0834676 -2.1446898 10.3475761 16711746
-0.2697802 -2.3654692 10.7947779 16711746
-0.3014015 -2.2853420 10.6804848 16711746
-0.4732487 -2.4304821 10.6670351 16711746
-0.6670433 -2.0974956 10.9417744 16711746
-0.2812637 -2.3178058 10.7796011 16711746
-0.2091691 -2.1595988 10.6669493 16711746
-0.6907512 -2.3070538 10.7229614 16711746
-0.0602919 -2.1297190 10.3621483 16711746
-0.1796885 -2.2956741 10.7066631 16711746
-0.3904751 -1.7341427 10.4645834 16711746
-0.3564752 -1.7564600 10.4620819 16711746
-0.9375339 -4.0493088 10.9846888 16711746
-0.4537477 -2.0805843 10.9933004 16711746
2.2819171 -3.5044503 9.8289003 16711746
0.4626779 -2.5467243 10.1811314 16711746
-0.1458796 -1.8687482 10.6888466 16711746
-0.1220791 -3.4834173 10.6363916 16711746
-0.5551511 -4.3480706 10.6241589 16711746
-0.1510577 -1.8622327 10.6837158 16711746
0.5215671 -2.7649789 10.1758184 16711746
1.0061457 -2.5300937 10.2501564 16711746
-0.1395138 -1.8775226 10.6934214 16711746
-0.0967295 -3.4832919 12.2255030 16711746
-0.6518954 -2.3157866 11.2900839 16711746
-0.9052782 -2.1301768 10.9671001 16711746
-1.0617807 -2.3410058 11.1188231 16711746
-0.4027144 -2.6165349 10.8652029 16711746
0.5324630 -2.3408298 10.0310059 16711746
-0.5464267 -2.4691954 10.8970613 16711746
-1.0669688 -2.4806094 11.4036274 16711746
-0.8664379 -2.1876032 11.1177082 16711746
-0.7720004 -2.0344007 11.1344242 16711746
-0.3505228 -2.2715185 10.6113615 16711746
-0.5726900 -2.7916560 10.4406424 16711746
-0.7855446 -2.1609170 11.1649351 16711746
-0.8837833 -3.1853871 11.1138086 16711746
1.0578297 -2.8162625 9.8857889 16711746
-0.2380199 -3.7045374 10.6229553 16711746
-0.3971526 -2.8536444 10.8816729 16711746
-0.8022661 -2.9538610 11.0094833 16711746
0.3228989 -3.1746867 10.5128088 16711746
-0.5760854 -2.0980515 11.0743866 16711746
-0.1355117 -1.8804370 10.6981916 16711746
-0.1591982 -1.9802717 10.6847935 16711746
-0.4475859 -3.0450535 10.9598379 16711746
-0.2509028 -2.7123110 10.6809273 16711746
-0.6213758 -2.9200420 10.9929752 16711746
-0.4908825 -2.2788718 11.0583982 16711746
-0.6085632 -2.5452230 11.1104813 16711746
-1.2610611 -2.6619632 10.9878931 16711746
-0.0100559 -2.0764589 10.5380306 16711746
0.9138375 -2.6344614 10.0390530 16711746
-0.6531443 -2.7216027 11.0230875 16711746
-0.6589392 -2.4904387 11.0326185 16711746
-0.1637234 -2.2662468 10.8798571 16711746
-0.4689426 -1.7476472 10.4890308 16711746
-0.2038712 -2.4803643 10.5306149 16711746
-2.3794479 -5.7569389 10.6325998 16711746
-0.0889837 -2.2861767 10.7286997 16711746
5.7046366 -4.5722599 11.7386122 16711746
-3.8152387 -4.8198662 10.8331900 16711746
0.2041369 -2.7257729 10.2079582 16711746
-0.7887273 -4.0028739 13.1948328 16711746
0.2318568 -2.7994018 10.1914797 16711746
0.7741761 -0.6313475 0.3540437 16711746
3.4418421 -3.9078720 2.1728969 16711746
2.4169395 -1.6217039 0.5736755 16711746
1.3091717 -1.1177168 0.4460658 16711746
0.8220273 -0.6132780 0.2401426 16711746
-0.4677027 -0.9472964 0.1405903 16711746
1.0755343 -1.6768576 0.3112838 16711746
1.8795625 -1.7395482 0.8393124 16711746
2.4658844 -3.6126015 1.1937736 16711746
2.2500391 -2.2398288 0.0876515 16711746
1.2170234 -1.3831382 0.3570879 16711746
1.4990393 -1.7309095 0.3916380 16711746
1.0604030 -2.5417037 0.3683919 16711746
0.8146677 -1.3836300 0.0404393 16711746
1.2592356 -1.5860646 0.7005618 16711746
2.1714768 -2.0954123 0.6252090 16711746
0.7820833 -1.1961170 0.4129718 16711746
7.6654081 -7.0062799 0.9758922 16711746
1.3993948 -1.8853233 -0.3210882 16711746
0.7941264 -1.2707636 -0.3145078 16711746
0.3951677 -0.9475569 -0.0325603 16711746
1.9561079 -1.3292414 0.4832539 16711746
1.2254057 -0.8862332 0.3102746 16711746
0.9976946 -1.9263483 1.2703699 16711746
0.3733285 -0.8004245 -0.0397359 16711746
0.7666410 -0.8544342 0.2933775 16711746
1.0073282 -1.2751353 0.0757888 16711746
1.3983338 -1.7313064 0.3212453 16711746
1.4730479 -1.5803068 0.4250661 16711746
-0.4957983 -0.8972009 0.2000997 16711746
0.6024462 -1.1956395 0.4346155 16711746
0.2780419 -0.8922814 0.0439227 16711746
1.2192248 -1.9689628 0.0925125 16711746
0.9720547 -1.8611583 -0.0214641 16711746
1.4077199 -1.6297839 0.1540787 16711746
1.2550317 -1.5379031 0.1263033 16711746
-0.0647288 -0.7685981 0.2113966 16711746
0.6423393 -1.5719070 -0.2739480 16711746
1.9755358 -5.5683131 -1.1362436 16711746
0.3104534 -1.1658877 -0.0099929 16711746
0.3028699 -0.7916101 0.1576273 16711746
1.8303293 -1.1562951 0.5133132 16711746
0.7541121 -1.0415469 0.3498657 16711746
1.6493270 -2.6241241 0.6845587 16711746
1.7347876 -1.3287283 0.2188003 16711746
-0.0370021 -0.9082364 0.2494038 16711746
1.0660530 -1.3494717 0.4516814 16711746
-0.0329317 -0.8603782 0.2003195 16711746
1.1075546 -1.6156019 0.0772310 16711746
1.5713415 -1.2603266 0.2043494 16711746
0.9791163 -1.0292822 0.3573076 16711746
0.7363316 -1.2524762 0.0465122 16711746
1.1855583 -2.2638135 0.0167865 16711746
0.7173299 -0.8413631 0.3621885 16711746
1.8885088 -2.2447903 -0.3681398 16711746
0.4927230 -0.8436382 0.2510445 16711746
-0.4509316 -0.7652723 0.2206199 16711746
-0.4686576 -0.8425702 0.1874010 16711746
1.9692172 -3.1888285 1.0082916 16711746
1.1809812 -2.8589258 -0.5549880 16711746
1.2087972 -2.1566763 0.3147073 16711746
0.9078682 -3.3533151 0.4203293 16711746
3.1253965 -4.8813763 0.7147265 16711746
0.7042785 -1.8125418 -0.0533527 16711746
-0.7884234 -1.6861576 0.2504615 16711746
0.6003584 -1.3171688 0.1615260 16711746
0.0761755 -0.6819351 0.1157957 16711746
0.9645321 -1.1686385 -0.1635182 16711746
2.2518876 -3.3072526 1.0894024 16711746
-0.2337667 -2.1995673 0.2975968 16711746
1.7464982 -1.5839287 0.3035271 16711746
6.9458899 -6.3303332 0.9106851 16711746
2.1704140 -2.1595743 0.5316170 16711746
3.8370039 -1.4475403 1.0051080 16711746
1.2350371 -0.5731933 0.3750565 16711746
2.2100444 -2.5002067 0.0353999 16711746
1.4109766 -1.5355883 0.1877967 16711746
2.0015566 -2.9904106 -0.2644269 16711746
1.6634783 -3.8459671 0.6944075 16711746
3.6275191 -4.5229807 1.8401603 16711746
-0.0958052 -0.9805268 0.2489787 16711746
-0.0631564 -0.7413799 0.1997923 16711746
1.6736487 -1.9467790 -0.5993518 16711746
0.8883785 -1.1756223 -0.2567970 16711746
2.3330030 -2.3049507 0.0976238 16711746
0.5215457 -0.5953999 0.1031873 16711746
-0.3799767 -1.5486513 0.2529344 16711746
-0.4467038 -0.7750114 0.1645071 16711746
