# .PCD v.7 - Point Cloud Data file format
VERSION .7
FIELDS x y z rgb
SIZE 4 4 4 4
TYPE F F F F
COUNT 1 1 1 1
WIDTH 1205
HEIGHT 1
VIEWPOINT 0 0 0 1 0 0 0
POINTS 1205
DATA ascii
0.3035333 0.0469031 0.9923949 16711746
-0.3026230 0.0712481 0.6788011 16711746
-0.2435566 0.0926892 0.6784635 16711746
0.5409977 0.0974882 0.9514518 16711746
0.6761093 0.0972546 1.0794550 16711746
0.2908621 -0.0081292 1.4789593 16711746
-0.1098764 0.0101338 1.2599769 16711746
-0.2806556 0.0843631 0.8465228 16711746
0.9825851 0.0970220 0.9693143 16711746
0.7212370 0.1555421 0.8172952 16711746
0.2912381 0.1128601 0.7590298 16711746
0.4285312 0.0482329 1.2150519 16711746
-0.1667986 -0.1039732 1.7641813 16711746
0.0914975 0.1122065 0.7186207 16711746
0.2939867 0.1167203 0.7674367 16711746
-0.3070258 0.0975769 0.7360080 16711746
-0.2403097 0.1115651 0.7170171 16711746
0.4528142 0.0574126 1.2829043 16711746
0.0794227 0.0495198 1.0955838 16711746
0.3867499 0.0940849 0.7823859 16711746
0.3176595 0.1118604 0.8141888 16711746
-0.2446732 0.1134385 0.7194400 16711746
0.1514685 -0.0066827 1.2816005 16711746
-0.2218032 -0.2370594 2.1166368 16711746
-0.0831952 0.0548671 1.0742407 16711746
0.2819088 0.0891115 0.8765202 16711746
0.7688134 0.1518654 0.6958541 16711746
0.2708252 0.1169103 0.8349791 16711746
0.0671690 0.1104815 0.8806933 16711746
-0.2745538 -1.1488570 2.3420889 16711746
0.6124777 0.1708040 0.8237428 16711746
0.7892909 0.1356051 0.7611949 16711746
0.1611791 -0.0343525 1.3251309 16711746
0.5568906 -0.3271632 0.7015446 16711746
0.5446332 -0.7114712 1.4429246 16711746
0.7331628 -0.5956385 1.2910104 16711746
0.6557159 0.1076642 0.9780182 16711746
0.5222539 -0.9522151 1.8358804 16711746
0.6676534 -0.7007538 1.3660141 16711746
1.3853550 -0.5214124 1.1937246 16711746
1.0693896 -0.5873287 1.0622882 16711746
0.5357786 -0.1010560 0.6993574 16711746
0.7196469 0.0589461 1.3013209 16711746
0.4561734 0.1307901 0.7714462 16711746
0.5241196 -0.5947453 1.4717619 16711746
0.6074619 -0.7044427 1.5757543 16711746
0.4677304 0.0110580 1.5396402 16711746
0.0976132 0.0598821 0.9676912 16711746
0.2910227 0.0262596 1.4073685 16711746
0.7496058 0.1398719 0.8379530 16711746
0.6666827 0.1580028 0.7812673 16711746
0.4044703 -0.6248347 1.2098851 16711746
0.1933050 0.1039652 0.8006554 16711746
1.3937681 -0.1953275 0.9991536 16711746
0.0297618 0.0326555 1.0672851 16711746
-0.0121518 0.0617617 0.9799806 16711746
-0.0200322 0.1011177 0.8097101 16711746
0.7046163 -0.7955513 1.5087206 16711746
0.7384055 -0.8410847 1.5970492 16711746
0.0832988 0.0622871 0.8226488 16711746
1.0840901 -1.3335568 2.1883912 16711746
0.4951725 0.1371958 0.7834930 16711746
1.1820035 -1.0455855 1.6648711 16711746
2.7401919 -1.5874414 2.4048872 16711746
0.0491124 -1.7976087 3.8495820 16711746
0.6756373 0.1211228 0.8717437 16711746
0.7859994 0.0739715 1.1440157 16711746
-1.9078104 -1.1446537 2.1185703 16711746
0.6194842 -0.5571628 1.3425503 16711746
0.7073311 -0.8999740 1.9708869 16711746
1.6116856 -1.2973582 2.3604143 16711746
1.6252978 -0.7922097 1.9392741 16711746
1.2016699 -1.1774948 1.9929522 16711746
-0.9147870 -2.8236387 6.0258060 16711746
2.0082691 -0.9127570 2.2984393 16711746
0.8329977 -0.3387973 3.7633073 16711746
2.2104568 -1.3404372 2.6841455 16711746
1.0924085 -1.1424962 2.3059733 16711746
0.6742572 -0.3065109 3.6007624 16711746
0.0988072 0.0903482 0.8653305 16711746
-0.3722102 0.0468824 0.7674873 16711746
-0.3011733 -0.0549226 1.4661577 16711746
-0.2734863 0.0833228 0.6996492 16711746
-0.2310425 0.1075315 0.7050065 16711746
0.5022432 0.0466258 0.9532210 16711746
-0.0194729 0.1097784 0.7061443 16711746
0.2826873 0.0738353 0.9422383 16711746
0.6428566 0.1564015 0.8686277 16711746
0.3019869 0.0151585 1.2460610 16711746
0.0333480 0.0546796 1.0139682 16711746
0.3483289 0.0613009 0.9809800 16711746
-0.0369546 0.0627186 0.8965244 16711746
-0.9496195 -0.0931072 1.4289480 16711746
0.0764293 0.0597887 0.9291350 16711746
-0.0498753 0.0767521 0.8531898 16711746
0.1357705 0.0234649 1.1621060 16711746
-0.3071175 -0.1475212 1.5957149 16711746
0.1206479 0.1122217 0.7522035 16711746
-0.1996507 -0.0900197 1.6777765 16711746
-0.1065430 -0.1660634 1.5125718 16711746
-0.2824020 -0.0560604 1.4265310 16711746
-0.1311742 -0.1347998 1.7128735 16711746
-0.1319277 0.0287040 1.0682061 16711746
-0.1622742 0.0417920 1.0179634 16711746
-0.2072867 0.0919052 0.7940925 16711746
0.4726975 0.0880376 0.9381619 16711746
0.5361761 0.0919631 1.0299639 16711746
0.3797800 0.0735397 0.9641225 16711746
-0.7512956 -0.0721164 1.4086169 16711746
0.1212091 0.0763090 0.8558611 16711746
0.0144757 0.0168875 1.2219502 16711746
0.5307033 0.1429098 0.7892040 16711746
0.3139070 0.0547375 1.0163814 16711746
-0.2872267 -0.0994682 1.7507741 16711746
0.5264831 0.0087263 1.3933637 16711746
-0.1896015 -0.0158798 1.3344344 16711746
0.5918075 0.1158915 0.9473290 16711746
-0.1687787 0.0061686 1.1977438 16711746
-0.2668308 0.0926185 0.7934549 16711746
-0.0218805 0.1069710 0.8193193 16711746
-0.5061255 0.0503116 0.9801686 16711746
-0.2221951 0.0875936 0.6534365 16711746
0.0286677 0.0913662 0.7822245 16711746
-0.0576421 0.0631968 0.8932627 16711746
-0.0371421 0.0167452 0.6955930 16711746
-0.1550496 0.0256972 1.1240265 16711746
-0.0187148 0.0870558 0.8789735 16711746
0.0082879 0.0908073 0.8910442 16711746
0.1501226 -0.1967828 1.4266590 16711746
-0.0041997 0.0690515 0.8852852 16711746
-0.1408568 0.0933252 0.6362680 16711746
0.5256414 0.0555704 1.0041671 16711746
-0.1008579 0.0572899 0.8426641 16711746
0.2991920 0.0914821 0.7608509 16711746
0.0656743 0.1078437 1.0001403 16711746
-0.2257369 0.0657829 0.5588559 16711746
0.4689103 -0.0062882 1.4057051 16711746
-0.5194691 0.0320958 1.0845145 16711746
0.3897255 0.0059885 1.3245351 16711746
0.3690813 0.0797736 0.9168870 16711746
-0.6528730 -0.0334172 1.3246715 16711746
0.1093534 0.0643254 0.9260883 16711746
0.9447476 0.1800999 0.9042910 16711746
-0.1691452 -0.0214206 1.2659248 16711746
0.4685107 0.0132236 1.4550794 16711746
0.2148475 0.0646221 0.9323716 16711746
0.8578988 0.1142133 1.0847729 16711746
0.5970110 -0.0744533 1.7130527 16711746
0.0875998 0.1151451 0.7390920 16711746
0.1556535 -0.0227888 1.3590541 16711746
0.1886514 0.0632125 0.9908132 16711746
-0.7413993 -0.0202107 1.1670332 16711746
0.7026535 -0.0230860 0.6872439 16711746
0.8946844 0.1540480 0.8583865 16711746
-0.2757162 0.0954813 0.7263665 16711746
0.2957942 0.1206074 0.7770273 16711746
-0.4338797 -0.2749702 2.3751345 16711746
-0.4822737 0.0164094 0.8173865 16711746
0.5585704 -0.2424171 2.6647074 16711746
0.2974863 0.0116809 1.2047608 16711746
-0.0446404 0.0953196 0.7096706 16711746
0.3858723 0.0757900 0.9976832 16711746
-1.0510035 -0.1775707 1.5120177 16711746
0.1228233 0.1161554 0.7258223 16711746
0.1730002 0.0738399 0.9159946 16711746
0.8444375 0.0856748 1.0632542 16711746
0.9478644 0.0638182 1.2359756 16711746
0.9749606 0.1144854 0.9515221 16711746
0.5773370 0.0403085 1.9240634 16711746
0.9182440 0.0594957 1.1923207 16711746
0.4485919 0.1150314 0.8373203 16711746
0.2665368 0.0983115 0.8297199 16711746
1.8136716 -1.0967730 1.3545228 16711746
0.6761398 0.0268279 1.5483207 16711746
0.5661731 -0.3762362 0.7552374 16711746
0.0222565 0.1012262 0.8073188 16711746
-0.1817285 -0.3302987 1.9762573 16711746
0.8666188 0.0577529 1.1181095 16711746
0.5153344 -0.0537932 1.8661661 16711746
0.1688589 -0.2047154 1.4329470 16711746
-0.0344989 -0.0768984 1.5843730 16711746
0.7598283 0.0355787 1.4276642 16711746
1.9249316 -1.0132861 1.5320234 16711746
0.0973138 0.0825516 0.8423725 16711746
2.3561735 -1.1298693 1.5415263 16711746
2.0531371 -0.8780567 1.5385942 16711746
0.5169150 -0.3255039 0.7093463 16711746
-0.3324308 -1.4822302 2.9162714 16711746
-0.2913236 -1.3614153 2.6766977 16711746
0.9042879 -1.0362768 1.9627779 16711746
0.6583161 -0.7997532 2.0100055 16711746
0.3145200 0.0564768 1.0334291 16711746
-0.2729576 -1.2849019 2.5315301 16711746
0.8055335 -0.8615409 1.7628468 16711746
0.7173470 0.1445461 0.7764722 16711746
0.9950825 -0.9843229 2.0114341 16711746
1.1757671 -0.0877348 1.6258922 16711746
0.8570133 -0.9317473 1.9193535 16711746
0.9438931 -0.5913220 1.0059900 16711746
0.8994123 -0.6145908 1.0733669 16711746
1.5879434 -0.2559592 3.4034646 16711746
1.4553399 -0.8297244 1.3503926 16711746
1.5199481 -0.9492704 1.6944799 16711746
0.8234589 -0.7501001 1.7244102 16711746
0.9923231 -0.9829110 2.0381668 16711746
0.7626244 -1.2947931 2.5587924 16711746
0.9220308 -0.9779998 2.6182060 16711746
1.0056874 -1.2906834 3.2533028 16711746
1.3065052 -1.3620422 3.0224962 16711746
1.3188006 -1.2129096 2.2518675 16711746
0.8713551 -1.4326833 2.9659815 16711746
-0.0929748 0.0822704 0.6322635 16711746
-0.0675772 0.0869136 0.7239321 16711746
-0.0319074 0.0719934 0.7400623 16711746
0.0031979 0.0632033 0.7779154 16711746
-0.0503234 0.0693415 0.6825795 16711746
-0.1220781 0.1100477 0.7003204 16711746
-0.1076546 0.0430293 0.7782931 16711746
-0.0157294 0.0632738 0.6772369 16711746
-0.1101500 -0.0597033 1.4474123 16711746
0.3235869 0.1383643 0.7362312 16711746
-0.4200335 -0.1583596 1.9059418 16711746
-0.5881361 0.0057062 0.9783241 16711746
0.4793715 0.1176640 0.8254771 16711746
0.1459862 0.0457375 1.0085974 16711746
0.3361818 0.0828116 0.9164926 16711746
0.3033482 0.0869646 0.9304166 16711746
-0.1089084 -0.1331452 1.5836775 16711746
0.9043609 0.1494291 0.9212607 16711746
0.0206140 0.1191224 0.7266272 16711746
-0.0142028 0.0920114 0.7825335 16711746
-0.0543143 0.0702237 0.7233117 16711746
0.1659545 0.0770919 0.8683696 16711746
0.3700118 0.0929117 0.8981957 16711746
0.2447197 0.0771426 0.8899044 16711746
0.0693290 0.0917884 0.8201904 16711746
0.4394274 0.1554173 0.7861711 16711746
0.1710143 0.0652615 0.9739163 16711746
0.1306358 0.0364713 1.0418257 16711746
0.5738716 0.0742284 1.0854269 16711746
-0.0233942 0.0794148 0.8712076 16711746
-0.1667409 -0.1852956 1.7951031 16711746
0.1150106 0.0936243 0.8105250 16711746
0.1874674 0.0955273 0.7759064 16711746
0.8681056 0.1522536 0.8451175 16711746
0.4831838 0.1016944 0.8765669 16711746
-0.7172241 -0.1203439 1.7064734 16711746
-0.0552335 0.0385958 0.9804953 16711746
0.1769691 0.0501258 1.2262549 16711746
0.0622743 0.1182034 0.7919796 16711746
-0.0122471 0.0814056 0.8321826 16711746
0.4529129 0.0820016 0.8214455 16711746
0.1306179 -0.2405360 1.5658664 16711746
0.9275156 0.0858235 1.0712664 16711746
0.1339814 0.0217255 1.1436396 16711746
0.7131586 0.1098931 1.2249781 16711746
0.3261384 0.0504916 1.0814734 16711746
1.5402920 -0.6458964 1.0145537 16711746
1.1066214 -0.3860305 1.0118519 16711746
0.7513517 -0.8883709 2.0980611 16711746
1.1898899 -1.4550182 2.4784598 16711746
0.9584707 -0.9926890 2.2194381 16711746
1.8558407 -0.8918244 2.1755157 16711746
0.8485361 -0.8296840 2.0100620 16711746
0.1347609 -0.0075238 1.3371305 16711746
0.7345354 0.1618040 0.6592007 16711746
0.6041666 0.0485073 1.1549809 16711746
0.6665238 0.1338667 0.9447212 16711746
0.2366103 0.0269866 1.1601514 16711746
0.0747802 0.1047067 0.7646003 16711746
0.7581704 0.1130280 1.0598475 16711746
0.3323370 -0.0085429 1.3825175 16711746
0.9514561 0.1542185 0.9654267 16711746
0.6832344 0.0888559 1.0954276 16711746
-0.0364275 0.0893239 0.8224821 16711746
0.1355848 0.0620763 0.9950125 16711746
0.6327146 0.0324492 1.2393121 16711746
0.4937554 0.1536411 0.9459050 16711746
0.0362120 0.0997947 0.7846463 16711746
0.9664952 -1.2641488 2.3523164 16711746
-0.5148705 0.0604871 0.9126074 16711746
0.3381162 0.1083861 0.8391349 16711746
1.0591693 -1.0990853 2.0332625 16711746
1.3753059 -0.6756279 0.9599167 16711746
0.9687588 0.0424032 1.2526350 16711746
3.2251248 -1.1685120 2.6075354 16711746
2.9246724 -1.1412537 2.2154663 16711746
1.5866841 -0.6937270 1.8137667 16711746
1.0161126 -0.7261485 4.5300913 16711746
1.1729118 -0.7846870 1.3224263 16711746
1.0319700 -1.4047445 3.3456457 16711746
-0.9453911 -2.5219285 5.4791374 16711746
1.0240581 -1.2552965 2.9910939 16711746
1.0917113 -1.0022060 1.9584163 16711746
0.8729091 -1.0909823 2.9213593 16711746
0.9949839 -1.0020097 1.9120222 16711746
0.6965019 0.1186289 0.6718218 16711746
0.4727341 0.0942731 0.8572990 16711746
0.1550987 0.0896657 0.8297453 16711746
-0.1423651 0.0204694 1.0916731 16711746
-0.1963359 0.0226505 1.0694259 16711746
0.3289354 0.0996797 0.8771209 16711746
0.2814021 0.0816871 0.8518913 16711746
-0.1166974 0.0704292 0.8867154 16711746
-0.0177603 0.0403760 0.9813362 16711746
-0.0902366 0.0992142 0.8042998 16711746
0.6902170 0.1109966 1.0274054 16711746
-0.0867107 0.1070349 0.7700710 16711746
0.4943390 0.1248957 0.8123720 16711746
1.0887823 -0.5631588 0.8173144 16711746
0.3303150 0.1290668 0.8555348 16711746
0.2026602 0.0788834 0.8778545 16711746
0.7270848 0.1303380 0.6973734 16711746
-0.0417380 0.0739559 0.9142818 16711746
0.7399883 0.1352882 0.7060771 16711746
-0.2038148 -0.0138837 1.2988577 16711746
-0.2811173 0.0129111 1.1257838 16711746
0.1926346 0.1077521 0.7813776 16711746
0.4871331 0.1030516 0.8825892 16711746
0.7377919 0.1502226 0.9120457 16711746
0.0411736 0.0458053 0.9713165 16711746
0.4495332 0.1150396 0.8377819 16711746
0.3494447 0.0610395 0.9782142 16711746
0.2035182 0.0770449 0.8720641 16711746
0.8924769 0.0087117 1.2689216 16711746
-0.1856979 0.0386614 1.2086574 16711746
0.4346948 0.1379120 0.8402596 16711746
-0.0300421 0.0484811 1.0177845 16711746
-0.1178467 0.0698913 0.8851258 16711746
0.2783862 0.0812175 0.8545837 16711746
-0.1931658 0.0905765 0.9391345 16711746
-0.2197090 -0.0032120 1.1729048 16711746
-0.0518434 0.1035380 0.7804388 16711746
-0.0741153 0.0943310 0.7410830 16711746
0.0384323 0.0952679 0.7832056 16711746
0.0261371 0.0967134 0.8166203 16711746
0.2080779 0.0419069 0.9027731 16711746
0.5766902 0.0423437 0.8710345 16711746
-0.0437946 0.0732960 0.8462793 16711746
0.4854687 0.0862565 0.8475928 16711746
0.0567366 0.0727426 0.7884327 16711746
-0.0600361 0.0385743 0.9862618 16711746
-0.0562317 0.0779677 0.9889154 16711746
0.5408576 0.0462924 0.9396148 16711746
-0.4755975 0.0517658 0.8551290 16711746
0.1180396 0.0181388 1.1680084 16711746
0.5143246 0.1046107 0.9002911 16711746
0.4216086 0.1233442 0.8134887 16711746
0.8674763 0.1111907 1.0330189 16711746
0.2537657 0.0903924 0.8274931 16711746
0.1244824 0.1029275 0.8176414 16711746
0.0889875 0.1033916 0.7868434 16711746
0.6671839 0.1579927 0.7829354 16711746
0.2477447 0.0862970 0.9285659 16711746
0.6795351 0.1641104 0.7709742 16711746
-0.0530405 0.0559999 0.8980203 16711746
0.7323332 0.1558791 0.7380134 16711746
0.0086368 0.0938421 0.8962704 16711746
-0.1041181 -0.0027539 1.2075642 16711746
0.6365493 -0.5339013 1.1091460 16711746
0.0657667 -0.0780078 1.1931317 16711746
0.8137600 0.0834754 1.0800475 16711746
0.0717578 -0.0676648 1.0770954 16711746
0.2847153 0.0848337 1.0858116 16711746
0.0774118 0.0020302 1.0087956 16711746
0.6200256 0.0732587 1.0713222 16711746
0.0191966 0.0007379 1.1286922 16711746
0.6187928 0.0739457 0.9971805 16711746
0.3979664 0.0873280 0.8613961 16711746
0.3586832 0.0181747 1.1918314 16711746
0.6171536 -0.0294042 1.8467990 16711746
0.7734712 0.0695958 1.1102517 16711746
0.3081100 0.1127079 0.7814490 16711746
0.2518647 0.0414182 1.1008126 16711746
0.2149759 0.0580654 1.0145779 16711746
0.2649306 0.0256794 1.2183856 16711746
0.6397313 0.1046424 1.0054622 16711746
0.1945818 -0.0938602 1.4000996 16711746
0.3185583 0.0427243 1.0734640 16711746
0.0450738 0.1001921 0.7893236 16711746
0.4106993 0.1186553 0.8539691 16711746
0.9956713 0.0741691 1.2831558 16711746
0.1812521 0.0966789 0.8101652 16711746
0.3369105 -0.0210079 1.5507826 16711746
0.5541633 0.0412647 1.1696396 16711746
0.3162016 0.0874012 0.8435829 16711746
0.5387162 0.0987056 1.0403812 16711746
0.0952315 0.0730556 1.0400826 16711746
-0.0325664 0.0891090 0.8215443 16711746
0.8458828 -0.0502030 1.0607431 16711746
0.9817561 0.0212489 1.3866105 16711746
0.5504024 -0.5724055 1.4241623 16711746
-0.5212584 -1.6509686 3.7093842 16711746
-0.6907954 -2.1436305 4.7808599 16711746
0.9498343 -0.0979743 1.3492256 16711746
0.8260304 0.0027181 1.1167389 16711746
-0.2967431 -1.6285052 3.3161356 16711746
1.0953478 0.0910125 1.1472566 16711746
0.7807558 -1.2702229 2.4484665 16711746
2.4779632 -1.2720810 2.0901427 16711746
-0.4816864 -0.0563126 1.3998575 16711746
2.3227394 -0.9162207 1.7789234 16711746
0.6695931 -0.2300111 2.8261013 16711746
2.2622726 -0.7408749 2.1280618 16711746
0.3768242 0.0571607 1.0255121 16711746
1.0183676 -0.0050993 1.5583775 16711746
1.8930151 -1.5631071 2.6147470 16711746
0.9020315 -1.2105896 2.9025335 16711746
0.8100498 -0.9343073 2.4010348 16711746
0.8598928 -0.9704925 2.4852166 16711746
1.6143609 -0.6477913 2.2765448 16711746
1.6428525 -1.0359826 1.8055102 16711746
3.7919290 -1.9344606 3.0840268 16711746
0.6859602 0.1437960 0.5992718 16711746
1.7810162 -1.1601522 2.1914604 16711746
2.6300657 -1.2259324 3.0754681 16711746
-1.0026010 -3.0341566 6.0140357 16711746
1.6723086 -0.9533603 1.6679765 16711746
1.5618099 -1.3068345 2.7561219 16711746
0.9542571 -1.0443951 2.0396619 16711746
0.8927420 -0.7120964 1.9921381 16711746
0.7522514 -0.5648834 1.7389293 16711746
0.8920730 -0.7079451 1.8515092 16711746
0.8448258 -0.6716127 1.7601410 16711746
0.0295326 0.0919047 0.8092343 16711746
-0.0144178 0.0397231 0.9742287 16711746
-0.6211246 -0.1685148 1.5658697 16711746
-0.1851067 0.0475892 0.9684544 16711746
-0.1567856 0.0400848 1.0060196 16711746
0.0138195 -0.0237615 1.1300864 16711746
-0.0971365 -0.0074382 1.1794600 16711746
-0.1537103 -0.0930125 1.5243090 16711746
0.2041502 0.0810912 0.8850715 16711746
0.4176700 0.1180381 0.8573498 16711746
0.0293715 0.0969178 0.8155532 16711746
0.1304781 0.0516713 0.9522947 16711746
0.0825725 0.0475519 0.9245380 16711746
0.1573967 -0.0034503 1.2857668 16711746
0.3432322 0.1093998 0.8253053 16711746
0.1198984 0.0711917 0.8981425 16711746
-0.1268866 -0.0936740 1.4333614 16711746
-0.3474765 -0.0714697 1.4415282 16711746
0.1687952 0.0306761 1.0886463 16711746
-0.1355052 0.0598364 0.8374786 16711746
0.0060471 0.0280863 1.0279748 16711746
-0.3362676 -0.0227171 1.2881088 16711746
-0.1011700 0.0123984 1.1226475 16711746
-0.0568268 0.0178047 1.0651406 16711746
-0.5364666 -0.0777282 1.3978127 16711746
-0.1555634 0.0350884 0.9186399 16711746
0.2597768 0.1036354 0.8582615 16711746
0.5490668 0.1008403 0.9609292 16711746
-0.0368686 0.0622957 0.8985754 16711746
-0.1060275 0.0507779 0.8823995 16711746
0.0700815 0.0118595 1.0941653 16711746
0.3252627 0.0460298 1.0557982 16711746
-0.4512250 -0.0577593 1.3576258 16711746
-0.2361270 0.0400982 1.0052750 16711746
0.0804011 -0.0119873 1.2925549 16711746
0.2337276 0.0227430 1.1441526 16711746
0.2699119 0.0568461 1.0011687 16711746
-0.3454902 -0.0679300 1.1840045 16711746
0.1466421 0.0570896 0.9476610 16711746
0.0617960 0.0222769 1.1476589 16711746
-0.0138262 0.0823780 0.8320236 16711746
-0.0501213 0.0667273 0.9452289 16711746
0.6953344 -0.0066185 0.7007696 16711746
0.0244279 -0.0002040 1.1339498 16711746
0.0724413 0.0612299 1.1098006 16711746
-0.3638572 -0.0059765 1.1906425 16711746
-0.1058154 0.0610605 0.8622966 16711746
-0.0596159 0.0908322 0.8169039 16711746
0.8179870 0.1094945 0.7296328 16711746
0.3942194 0.0794054 0.9590959 16711746
-0.0899657 0.0525583 0.8309933 16711746
0.0495997 -0.0195842 0.9635705 16711746
0.8719976 0.1286421 0.8832917 16711746
0.2437016 0.0839086 0.8579208 16711746
1.0684706 -0.1007061 1.4946648 16711746
-0.4695112 -0.0820116 1.4799399 16711746
0.8492050 0.1298003 0.9645806 16711746
0.7037008 0.0787464 1.1253147 16711746
0.9274400 0.0633691 1.1465182 16711746
0.1737995 0.0380037 1.0871004 16711746
-0.0094260 0.0839230 0.8332633 16711746
0.9571596 0.1261636 1.0505737 16711746
-0.1143574 0.0538102 0.8935941 16711746
0.8569865 0.1561199 0.8978222 16711746
0.2799817 0.0685518 0.9034090 16711746
0.1604551 -0.2121485 1.2677797 16711746
-0.0132071 0.0205992 1.1071615 16711746
0.9963116 -0.0957749 1.4010566 16711746
0.1298630 0.0455747 1.2997526 16711746
1.6002655 -0.9554732 1.5914274 16711746
0.3862047 -0.4257460 1.0759016 16711746
-0.0393815 0.0694701 0.8335714 16711746
0.2099040 0.0062068 1.2383300 16711746
0.2430552 0.0551790 0.9860073 16711746
-0.1049559 0.0626941 0.8646574 16711746
0.3148291 0.0767780 0.9245396 16711746
0.3546478 0.1193803 0.8553608 16711746
0.4336608 0.0743947 1.0839250 16711746
0.1991816 -0.0202078 1.3309326 16711746
0.9461816 0.1079684 0.9337633 16711746
-0.1793689 0.0147563 1.0388913 16711746
0.2089614 0.0842088 0.8598400 16711746
-0.1933642 -0.0178792 1.3241150 16711746
0.7323822 -0.5845442 1.3359039 16711746
0.8139712 0.0609674 0.7519184 16711746
0.4106752 0.0822015 1.1937760 16711746
0.2665843 0.0990773 0.8319218 16711746
2.0769041 -1.1243453 1.9528018 16711746
-0.7337120 -0.3553473 2.4760661 16711746
0.8462853 -0.0837997 1.3198286 16711746
-0.0690480 0.0722671 0.8413154 16711746
0.3193864 -0.1041066 1.7923445 16711746
1.0743326 -0.0464392 1.6188091 16711746
-0.3751458 -0.0982945 1.6015588 16711746
0.8801525 -0.0165431 1.5341362 16711746
2.3892140 -1.0376133 1.6775533 16711746
2.4781504 -1.0703940 1.7344793 16711746
0.3563340 -0.3350650 2.0402112 16711746
2.7137446 -1.0840948 1.9806314 16711746
0.9837837 -0.0242772 1.5033818 16711746
0.7586961 0.1216233 1.0066166 16711746
1.0549983 -0.0479721 1.5234919 16711746
0.3179806 0.0793772 0.9320482 16711746
0.6997870 -0.1891375 2.6221933 16711746
2.1017821 -1.2598476 1.5282811 16711746
-0.0480829 0.0759756 0.8506758 16711746
3.6400635 -0.4109636 2.4644878 16711746
2.8953447 -1.0052972 2.2682257 16711746
-0.0696877 0.0085961 1.1507688 16711746
0.7829790 0.0471926 0.7837085 16711746
0.8390725 -1.0504936 2.3891037 16711746
2.9587774 -1.2461952 2.1240299 16711746
2.4764395 -0.8158213 2.3617861 16711746
3.3407588 -0.9648541 2.6951220 16711746
0.3309522 0.0806793 0.9396791 16711746
4.0730491 -1.1374681 2.7418969 16711746
2.1303673 -0.9825194 1.6002530 16711746
1.1507242 -0.0646796 2.3649998 16711746
1.0819695 -0.9546472 1.9255475 16711746
0.8725559 -1.2220646 2.7639809 16711746
1.3896673 -1.4664415 2.9464660 16711746
0.9366794 -1.3375034 3.0115938 16711746
1.2152460 -1.0455772 2.5031869 16711746
1.6119281 -0.1638097 2.9932256 16711746
1.3370905 -1.0721731 2.2798321 16711746
0.2233170 0.0485617 0.8975112 16711746
0.0862902 0.0302311 1.0107960 16711746
0.7002377 0.0805444 1.0314819 16711746
-0.2326830 0.0374560 1.0061189 16711746
-0.2077973 0.0282135 0.9178097 16711746
0.0104273 0.0082212 1.0442557 16711746
0.4943816 0.0491627 1.0892079 16711746
0.0661826 0.0477442 0.9508092 16711746
0.0677418 0.0149447 1.1057103 16711746
-0.3580689 0.0408360 1.0184847 16711746
0.8770216 -0.0357968 1.0421060 16711746
-0.2145013 0.0311384 0.9268266 16711746
0.2048341 0.0533516 0.9205940 16711746
-0.3104536 0.0316335 0.9755799 16711746
0.7837878 0.0348081 1.1983579 16711746
-0.0265395 0.0898147 0.8506516 16711746
0.4017492 0.0943072 0.8696433 16711746
0.3526024 0.0870133 0.8447793 16711746
-0.4042294 -0.0346228 1.3294837 16711746
-0.2016496 0.0119426 1.1501331 16711746
-0.1918028 -0.0101467 1.0882312 16711746
0.2810389 0.0694642 0.9332805 16711746
0.2798398 0.0753105 0.8375080 16711746
0.2470245 0.0680988 0.8654563 16711746
0.0817138 0.0025289 0.9781888 16711746
0.6381053 0.0818708 1.0916708 16711746
0.3671152 0.0774854 0.9094536 16711746
0.1985693 0.0722295 0.8441572 16711746
-0.1943297 0.0206987 1.0912162 16711746
-0.2239723 -0.0014841 1.1489009 16711746
0.0734200 -0.0363445 0.8858542 16711746
0.2802258 0.0681198 0.9294286 16711746
0.4811227 0.0980462 0.8636116 16711746
0.6946189 0.0777986 1.1500112 16711746
0.4875341 0.0555009 1.1200181 16711746
-0.6334119 -0.0602364 1.3899186 16711746
-0.4074751 -0.1066589 1.4732599 16711746
0.0065731 0.0260756 1.0258532 16711746
0.6594700 0.1142785 0.7655359 16711746
0.6091564 0.1366518 0.8309603 16711746
0.3478006 0.0603855 0.9720957 16711746
0.0452423 0.0566434 0.9076650 16711746
0.7438536 0.1044651 0.8464037 16711746
0.6798991 0.0985145 1.0820807 16711746
0.5652128 -0.0173028 1.3455062 16711746
0.2899213 -0.0840787 1.5835207 16711746
0.6505703 0.0930792 0.9758508 16711746
-0.7256290 -0.0732454 1.4207022 16711746
-0.0240020 0.0473845 0.9517351 16711746
-0.1939287 0.0904055 0.9225792 16711746
-0.3787688 -0.0017441 1.2073147 16711746
0.0294262 0.0292546 1.0555344 16711746
-0.0220064 0.0453881 0.9197695 16711746
0.3319432 0.0441622 1.0058438 16711746
-0.4114731 0.0187194 1.1029615 16711746
0.7356891 0.0930075 1.0720109 16711746
-0.1626823 0.0694896 0.8795021 16711746
-0.1514911 0.0569737 0.8852819 16711746
-0.0668077 0.0952746 0.8315645 16711746
-0.0017826 0.0448325 0.9276648 16711746
0.6737118 0.1192511 0.8462442 16711746
0.7626743 -0.0073284 1.1881695 16711746
0.1897784 0.0043154 1.0048685 16711746
0.0039974 0.0298773 1.0372384 16711746
0.6670943 0.0948877 1.0705329 16711746
0.3695109 0.0937268 0.9047053 16711746
0.6405917 0.1159534 0.7579467 16711746
0.9819157 -0.0183102 1.1328743 16711746
0.9025056 0.0469481 1.1836308 16711746
0.7534660 0.1030595 1.1000779 16711746
-0.1989486 -0.1468244 1.3472314 16711746
0.6904683 0.0852196 0.8027806 16711746
0.7630802 0.0149513 0.9611816 16711746
0.0381449 -0.0563334 1.1850886 16711746
0.0853923 -0.0885540 1.0791817 16711746
0.1097844 0.0369678 0.9889026 16711746
0.6150916 -0.0595027 0.7853466 16711746
0.0011713 0.0632508 0.8730969 16711746
0.1629467 -0.1774157 1.1475166 16711746
0.5219019 -0.0153551 1.1778560 16711746
-0.1950203 0.0357510 0.9874730 16711746
0.3516155 0.0490814 1.0522856 16711746
0.2639765 0.0622700 0.9363270 16711746
0.4778339 0.1183849 0.8254142 16711746
0.6083549 0.0481198 1.1613611 16711746
0.3111508 0.0527450 1.0139431 16711746
0.4288920 0.0481209 1.1332204 16711746
0.0964525 0.0034522 1.2529160 16711746
1.1048124 -0.6588314 1.8350664 16711746
0.5792861 0.0100970 1.3996474 16711746
1.0027990 -0.0078033 1.5278628 16711746
0.1329385 0.0192794 1.1316228 16711746
0.1927268 -0.1153821 1.3416264 16711746
0.4507534 0.0544222 1.0928557 16711746
0.4828887 0.0925585 0.9140053 16711746
0.2152122 -0.0393412 1.3209783 16711746
0.3182620 0.0403709 1.0648773 16711746
0.3609753 0.0208252 1.2040043 16711746
0.3040138 0.0108752 1.2279621 16711746
0.9985085 0.0327587 1.3167061 16711746
-0.4574701 -0.0585896 1.3693155 16711746
-0.3465987 -0.0969486 1.5382156 16711746
0.2947670 0.0784268 0.8971439 16711746
0.1656714 0.0068032 1.2402548 16711746
0.3845261 0.0004141 1.2924292 16711746
-0.5149503 -0.0794956 1.3712419 16711746
0.1750185 0.0561589 0.9619688 16711746
0.1654663 0.0768567 0.8663099 16711746
0.7118900 0.0838980 1.0444578 16711746
0.8851603 -0.0163403 1.5393337 16711746
0.4174398 0.0415164 1.1643430 16711746
-0.5344045 -0.3087596 2.0480897 16711746
-0.4412548 -0.1376071 1.4376221 16711746
0.1863957 0.0303598 1.2064781 16711746
0.4065556 0.0247503 1.1593220 16711746
1.2943270 0.0756560 1.2942820 16711746
0.5818344 0.0120731 1.3257849 16711746
-0.1928057 -0.1220006 1.6701604 16711746
0.2707989 -0.0854699 1.6544451 16711746
0.5095695 0.0579031 1.1210885 16711746
2.3641300 -1.3525273 1.8398354 16711746
0.4780076 0.1244145 0.8325092 16711746
0.3796596 0.0707871 0.9879095 16711746
0.4902867 0.0376035 1.2767544 16711746
2.6185410 -1.3979712 2.3997767 16711746
0.8022061 0.0147645 1.4552028 16711746
1.9254104 -1.0493405 2.3128486 16711746
3.3125138 -1.2128346 2.7197049 16711746
0.6245857 -0.0709070 1.7991685 16711746
0.3961179 -0.5215430 2.0641644 16711746
2.2625556 -1.0550914 1.5525379 16711746
2.1377184 -0.9908921 1.4684424 16711746
0.1022628 0.0415686 1.0095390 16711746
0.8295555 -0.0267957 1.4519523 16711746
1.9548159 -0.8426244 2.2778273 16711746
0.6940329 0.1333976 0.8659802 16711746
0.9103107 0.0142769 1.3667608 16711746
3.3273673 -1.1705062 2.6292388 16711746
3.3455954 -1.0770086 3.0957170 16711746
4.0574546 -1.1309483 2.5019860 16711746
4.2868266 -1.4074079 3.2563505 16711746
0.4510950 -0.0422203 1.6139240 16711746
0.1975456 -0.1154464 1.4358534 16711746
3.1578827 -0.9901347 2.6833029 16711746
0.9728150 -0.9331271 2.7266257 16711746
0.7963709 0.1072491 0.9278729 16711746
-0.4270400 0.0384219 1.0297647 16711746
3.4321582 -1.1228679 2.7504721 16711746
0.8407542 -0.8300232 2.3621945 16711746
3.2934089 -0.9494314 3.5481274 16711746
1.7753567 -1.3735766 3.2208972 16711746
0.9914624 -1.2244521 3.2621071 16711746
-0.1050941 0.0744151 0.8314011 16711746
1.0745840 -1.0854475 2.1876504 16711746
1.0364623 -1.0306334 2.9505961 16711746
1.6086396 -0.2324779 3.1272187 16711746
3.4555852 -0.9737890 3.1816473 16711746
1.2400482 -1.3361681 3.3490481 16711746
4.1718240 -1.3335168 4.4440961 16711746
0.4979382 0.1068255 0.8419905 16711746
-0.4119584 0.0088905 1.0741283 16711746
0.0040865 0.0139948 1.0728600 16711746
0.1111769 0.0329293 1.0215031 16711746
0.2970693 0.0746886 0.8324071 16711746
-0.2008306 0.0250789 1.0753479 16711746
-0.4355098 0.0140977 1.1007056 16711746
0.2061057 0.0667027 0.9005527 16711746
0.0647208 0.0468758 0.9506719 16711746
0.0483132 0.0790402 0.8227101 16711746
-0.3611841 -0.0049408 1.1873240 16711746
0.1629438 0.0791253 0.9670756 16711746
0.7139615 0.0748403 0.7594008 16711746
-0.2743830 0.0370884 0.9021533 16711746
-0.0338183 0.0583379 0.8914142 16711746
0.7628898 0.0915441 0.8998169 16711746
-0.4718457 0.0080750 1.0992069 16711746
0.1076369 0.0560523 0.9093425 16711746
0.7374645 0.0992908 0.7900495 16711746
0.0408968 0.0446827 0.9679683 16711746
0.5340062 0.0480850 0.8772346 16711746
-0.2288715 0.0134854 0.8390723 16711746
0.7286385 0.0971832 0.7844146 16711746
-0.0148775 0.0541181 0.9551038 16711746
-0.2855676 0.0967653 1.0310743 16711746
-0.2233959 0.0089358 0.8644493 16711746
-0.0564155 0.0587329 0.8146263 16711746
0.9890277 -0.0568917 1.4306692 16711746
0.2715973 0.0510923 0.9566891 16711746
0.7851872 0.0041522 1.3828479 16711746
0.1235749 0.0732732 0.8495299 16711746
0.1722129 0.0593713 0.9435095 16711746
0.1893607 -0.0094605 1.3045161 16711746
-0.0252205 0.0487816 0.9550289 16711746
0.3762562 0.0561803 1.0212038 16711746
-0.0528668 0.0569283 0.8994877 16711746
0.7258313 0.0979641 0.8166796 16711746
0.6737013 0.1217895 0.7785596 16711746
0.6696263 0.1136843 0.9963417 16711746
0.2604002 0.0035467 1.2390805 16711746
0.1886500 -0.0139945 1.3143739 16711746
-0.4849486 -0.1416460 1.6283866 16711746
0.7984179 0.0890046 0.9680616 16711746
0.3051672 0.0651134 0.8899248 16711746
0.6964222 0.0919819 0.8115997 16711746
0.8498260 0.0092222 1.2977178 16711746
0.0992470 -0.0032814 1.2156990 16711746
-0.2804069 0.0103888 1.1302661 16711746
0.1179747 0.0696883 0.8977615 16711746
0.1645058 0.0069994 1.2350974 16711746
-0.1566783 0.0042190 1.1809626 16711746
0.9030460 0.0939771 0.8993310 16711746
0.9618850 0.1696971 1.0647846 16711746
0.7704844 0.0472551 1.1355193 16711746
0.1933751 -0.0988042 1.4568138 16711746
0.2137497 0.0761470 0.8922461 16711746
0.0028869 0.0350732 1.0660986 16711746
0.9320543 0.0253334 1.2863091 16711746
-1.1525203 -1.4414437 2.9845595 16711746
0.9546858 -0.0184847 1.4455397 16711746
0.2755885 0.0682727 1.0092695 16711746
2.5384619 -0.8234145 2.7592118 16711746
0.4597285 0.0595409 1.0331970 16711746
0.2599979 -0.0191658 1.3520221 16711746
0.4028405 0.0318924 1.1138203 16711746
0.1015886 0.0357041 0.9944763 16711746
0.2408771 0.0743153 0.8985127 16711746
0.6912128 0.0898509 0.9717771 16711746
0.5641239 0.0083197 1.3543848 16711746
0.9963397 -0.0156788 1.4928579 16711746
0.6775258 0.0749989 1.1557416 16711746
1.0304639 -0.0581369 1.6829236 16711746
0.4047362 0.0954974 0.8723688 16711746
1.0273088 -0.0594952 1.6855112 16711746
-0.9455550 -1.2354820 2.5659337 16711746
0.7638302 0.0243298 1.3337450 16711746
4.5581989 -1.2989416 3.0977888 16711746
0.5817260 -0.9472032 1.9747082 16711746
1.5897483 -0.7462367 1.8787057 16711746
3.2013516 -0.8611915 1.9499050 16711746
4.3469214 -1.1197032 3.3395641 16711746
0.3899128 -1.8215283 4.9027033 16711746
4.9764891 -1.2497704 3.7382889 16711746
0.8471539 -0.7836147 2.4319904 16711746
2.5748181 -0.8017381 1.5205752 16711746
2.2290311 -0.9452466 1.4065554 16711746
1.8921185 -1.5197086 3.0904303 16711746
3.5222590 -2.2685561 4.3004742 16711746
0.6544561 -0.5603833 1.2354417 16711746
0.6462043 -0.4881195 1.3892066 16711746
0.9063664 -0.1333536 2.7373536 16711746
1.9422264 -1.1931369 2.1350870 16711746
2.2353084 -1.2639425 2.0828094 16711746
1.5630521 -0.9317811 1.8020831 16711746
3.0048304 -0.9983171 2.5747733 16711746
1.3708110 -1.1678489 2.8294876 16711746
0.9851886 -1.0322865 2.1638649 16711746
1.5433517 -1.3109573 2.8025019 16711746
0.7292531 -0.7959799 1.9720485 16711746
1.1029724 -1.1661466 2.9720097 16711746
-0.0076539 0.0293586 1.0059278 16711746
-0.0114905 0.0693090 0.8577137 16711746
0.1753602 0.0343088 1.1375855 16711746
-0.1600920 0.0618982 0.8986267 16711746
-0.0338157 -0.1117913 1.6245775 16711746
-0.0778677 -0.0132783 1.1896435 16711746
-0.3253859 -0.0820527 1.6067142 16711746
-0.1376807 0.0348371 1.0236530 16711746
0.6950050 0.0684412 0.7459553 16711746
-0.0525430 0.0153592 1.0572881 16711746
0.5823869 0.1121949 0.9645296 16711746
0.0926844 0.0629550 0.8645287 16711746
-0.2989722 0.0261120 0.9514614 16711746
0.0814904 0.0349215 1.0096484 16711746
0.0002859 0.0631249 0.8720222 16711746
0.1023877 0.0217738 1.0941758 16711746
0.1332898 0.0165416 1.1187891 16711746
-0.0264208 0.0915919 0.8193302 16711746
0.2008162 -0.0218800 1.3253897 16711746
-0.3892077 0.0004468 1.2239405 16711746
0.3725187 0.0842941 0.9249390 16711746
-0.0784604 0.0130024 1.1743228 16711746
-0.1820844 -0.0104646 1.2491912 16711746
0.4146779 0.0665338 1.0164616 16711746
-0.3439303 -0.0800537 1.6482956 16711746
-0.1511971 0.0577208 0.8870654 16711746
0.3150285 0.0570942 1.0251434 16711746
0.1288120 -0.0331718 1.4465798 16711746
0.0012997 0.0180556 1.0876991 16711746
-0.1824017 0.0568115 0.9090201 16711746
-0.3863898 0.0151036 1.0749739 16711746
-0.4338298 0.0263728 1.1308776 16711746
-0.0073626 -0.1182777 1.4832183 16711746
-0.1514842 0.0370084 0.9978883 16711746
-0.4816006 -0.1045897 1.6108865 16711746
-0.1439421 0.0527880 0.8796727 16711746
0.1877353 0.0448212 1.0665834 16711746
0.3545204 0.0142752 1.1728328 16711746
0.1930295 0.0431459 0.9975799 16711746
0.0883177 0.0218536 1.0782815 16711746
0.2420449 0.0330155 1.1349677 16711746
0.1490264 -0.1126346 1.4474139 16711746
0.7135546 -0.0681192 0.9289470 16711746
-0.1989914 0.0392313 0.9956171 16711746
0.1045424 0.0218494 1.0929087 16711746
0.0264392 0.0329372 0.9754918 16711746
0.1395110 -0.1111531 1.5670871 16711746
0.1881288 -0.2161977 1.4847139 16711746
0.1102339 0.0339750 1.2549803 16711746
-0.9283226 -0.5653780 1.7148480 16711746
-0.0203113 0.0372897 0.9839694 16711746
-0.4165748 -0.0275002 1.2276953 16711746
-0.0005198 0.0706409 0.8773135 16711746
0.2259865 -0.0248560 1.1703652 16711746
-0.2850580 0.0257721 1.0368372 16711746
0.3544839 0.0458676 0.8914719 16711746
0.0923819 0.0258992 1.0561998 16711746
-0.3811067 0.0113471 1.0703764 16711746
0.3439233 0.1030608 1.1886914 16711746
-0.6443576 -0.1192708 1.5946006 16711746
0.2146155 -0.0106419 1.3144090 16711746
-0.6613678 -0.0805682 1.4157293 16711746
0.6413134 0.1049830 1.0814606 16711746
0.9567383 0.0272348 1.1955311 16711746
-0.0364957 0.0649723 0.8766098 16711746
0.0428847 0.0687978 0.8915040 16711746
0.3835153 0.0699125 0.9225662 16711746
0.6843206 -0.0856903 1.0885113 16711746
0.2134299 0.0367715 1.0250925 16711746
-0.3006410 0.0285083 1.0539498 16711746
0.8665581 0.0015453 1.2418827 16711746
0.5019917 0.0698570 1.0275373 16711746
0.3481790 0.0639055 1.0773145 16711746
-0.7346618 -0.9852909 2.2068522 16711746
0.6500800 0.0830254 1.0390676 16711746
0.3005611 -0.0032049 1.2060486 16711746
-0.0198319 0.0518014 0.9149877 16711746
0.1691588 0.0301259 1.1002624 16711746
-0.1989576 0.0578640 0.9183975 16711746
0.3109825 -0.2372637 1.3235317 16711746
-0.4497295 -0.0112937 1.2577931 16711746
0.8446511 -0.0533458 1.0450912 16711746
0.8522166 0.0450692 1.0686363 16711746
0.4336587 0.0782773 0.9166280 16711746
0.5391569 0.0615331 1.0143790 16711746
0.4982285 0.0582877 1.0300446 16711746
-0.4888682 -0.0176961 1.2036710 16711746
0.4614311 0.0196762 1.1782669 16711746
0.3742763 0.0645323 0.9757471 16711746
0.9110633 0.0024364 1.3055536 16711746
-0.5481912 -0.0823192 1.4924653 16711746
0.2532642 0.0394710 1.0930859 16711746
0.1553964 -0.0259431 1.3386769 16711746
0.2626279 0.0183927 1.1743540 16711746
0.2074500 0.0592816 0.9949973 16711746
0.1989290 -0.0521862 1.4953116 16711746
0.3270016 -0.0156506 1.3202729 16711746
0.3409439 0.0289352 1.1113365 16711746
0.1718264 0.0289834 1.0569093 16711746
0.0888330 -0.0112364 0.9652289 16711746
0.1638234 -0.0358456 1.3117667 16711746
0.1548126 -0.2377830 1.2077082 16711746
1.0451870 -0.5837141 1.3673749 16711746
0.0832558 -0.0079739 0.9841301 16711746
-0.1606825 0.0622652 0.9094099 16711746
-0.0554237 -0.2008511 2.0873232 16711746
0.4238302 -0.0029742 1.5424558 16711746
0.7297710 0.0273710 1.3561661 16711746
0.5350263 0.0541594 1.0185460 16711746
0.1552148 -0.0307932 1.2868625 16711746
-0.0683798 0.0499122 0.9204081 16711746
0.6120467 0.1331605 0.8105244 16711746
0.6041105 0.0862262 1.0326719 16711746
-0.6595744 -0.0667046 1.4119031 16711746
0.3528711 0.0132428 1.1674095 16711746
0.8695953 -0.0367788 1.0309814 16711746
0.0381443 0.0219688 1.0228112 16711746
-0.5787299 -0.1031466 1.5134755 16711746
0.5090537 -0.0684135 1.6864132 16711746
0.1034704 0.0692880 0.8669751 16711746
-0.3629608 -0.1012308 1.6728805 16711746
0.6722288 0.0737891 1.1478333 16711746
0.2729264 0.0585944 0.9862965 16711746
0.1189976 0.0491786 0.9589452 16711746
0.3034572 -0.1031614 1.7157761 16711746
0.7318162 0.0619998 1.1586598 16711746
0.7658018 0.0228044 1.3348322 16711746
0.3169988 0.0375206 1.0459374 16711746
0.1759701 0.0477671 0.9318635 16711746
0.6451103 -0.0155635 0.6454528 16711746
0.4905769 -0.1100061 2.0513322 16711746
0.3728037 -0.1599429 2.1751475 16711746
1.0740474 -0.1843224 2.1051369 16711746
0.4351915 0.0003075 1.3928478 16711746
4.1682439 -0.4594367 2.7527454 16711746
2.0700073 -1.0513419 1.4128243 16711746
0.5463948 -0.3838022 2.1488514 16711746
1.1206772 -0.8423591 2.5821369 16711746
1.1404012 -1.1215484 3.2464027 16711746
1.0238490 -0.7702564 2.3866291 16711746
1.1027184 -0.7312999 3.4978542 16711746
3.8222089 -2.4840515 4.6525273 16711746
1.7017003 -1.6037133 3.2832909 16711746
1.1939912 -0.7892327 3.7681966 16711746
0.1928363 -0.0433082 1.6090078 16711746
-0.7934025 -0.1128624 1.6996197 16711746
0.6647452 0.1179664 1.0674740 16711746
0.2974276 0.0390369 1.1020508 16711746
0.1687043 0.0515714 0.9571840 16711746
0.4360358 0.0388779 1.1134000 16711746
0.2256051 0.0608720 0.9214652 16711746
0.1526265 0.0453682 0.9989886 16711746
0.7866336 0.1199224 1.0610157 16711746
0.2218823 0.0081418 1.1888266 16711746
0.0635495 0.0476631 0.9533426 16711746
-1.0519109 -0.1757020 1.7527077 16711746
-0.8078752 -0.1840383 1.8459427 16711746
0.2077106 -0.0966681 1.5215331 16711746
0.2271106 0.0561456 0.9382409 16711746
0.0841551 0.0257895 1.0377616 16711746
0.0711142 0.0378841 0.9716185 16711746
0.4619054 0.0393477 1.0641391 16711746
0.3074860 0.0652316 0.9533069 16711746
-0.1693722 0.0469235 0.8918606 16711746
0.0024665 0.0610411 0.8688787 16711746
0.1164999 0.0608745 0.8988697 16711746
0.2818125 0.0748817 0.9458985 16711746
0.2251470 0.0584483 0.9141697 16711746
0.2756220 0.0624821 0.9441506 16711746
0.1694553 0.0510718 0.9562672 16711746
0.3502781 0.0484410 1.0354928 16711746
0.4245472 -0.0016243 1.3295368 16711746
0.3421657 -0.0228775 1.5640252 16711746
0.3034835 -0.0439512 1.4518796 16711746
0.1145123 0.0238491 1.1954579 16711746
0.6915860 0.1054886 1.0959896 16711746
0.0668266 0.0356196 0.9811006 16711746
0.2482965 0.0251298 1.1399045 16711746
0.1133732 0.0581663 0.9047088 16711746
-0.4644891 -0.0214776 1.2946432 16711746
0.1181293 0.0159179 1.1582100 16711746
0.4059409 0.0224320 1.1563752 16711746
0.1313711 -0.0011030 1.2623534 16711746
-0.7931541 -0.1824331 1.8270887 16711746
0.1255873 0.0041683 1.3032628 16711746
0.2579971 0.0259421 1.1348686 16711746
0.0235955 -0.0603750 1.6040314 16711746
0.2617823 0.0043406 1.2444057 16711746
0.2015295 -0.0569695 1.5637267 16711746
0.1893340 0.0471357 1.0695091 16711746
-0.0747375 0.0522602 0.9261497 16711746
0.1906472 0.0458747 1.1978356 16711746
0.2543541 0.0171669 1.0967811 16711746
-0.0762613 -0.0044624 1.1378562 16711746
0.3474691 0.0432662 1.0356536 16711746
0.5496962 0.0626590 1.0391322 16711746
0.1843020 -0.2275901 1.6397917 16711746
-0.0285199 0.0523510 0.9004911 16711746
-0.2877993 -0.0185838 1.2614410 16711746
0.9373570 -0.1054612 1.3327744 16711746
0.8343036 -0.0002007 1.2612820 16711746
0.4226626 -0.0031306 1.3254715 16711746
0.9232928 -0.0309290 1.4136319 16711746
0.3889157 -0.0734072 1.7352885 16711746
1.0285331 0.0402120 1.2705220 16711746
0.6094311 0.0524324 1.1095655 16711746
0.4221540 -0.0032608 1.3339902 16711746
0.7270463 0.0472053 1.2379702 16711746
0.1691902 0.0489664 0.9520217 16711746
0.0047050 0.0282669 1.0326248 16711746
0.4334101 -0.2411606 2.4813519 16711746
-0.0781491 0.0589931 0.7926980 16711746
-1.7168071 -2.0181398 4.1176128 16711746
0.5034700 0.0724112 0.9894258 16711746
-2.1624000 -1.4061728 2.6644421 16711746
1.6091193 -0.9167430 2.0097976 16711746
-0.0381999 0.0624664 0.9006288 16711746
0.1649861 0.0036367 1.2227644 16711746
0.7419421 0.0251408 0.9877952 16711746
0.3428416 0.0006511 1.1123331 16711746
0.2630575 0.0122787 1.1943017 16711746
0.0098057 -0.1215763 1.9848850 16711746
-0.2491858 0.0420888 0.9675296 16711746
0.3774758 -0.2221310 1.8620368 16711746
0.3498557 0.0421488 1.0815239 16711746
0.1288674 0.0520655 0.9562597 16711746
0.6489140 0.0885770 1.1005900 16711746
-0.6328992 -0.0419114 1.2554039 16711746
0.1440681 0.0576736 0.9154001 16711746
0.5134287 0.0079015 1.2801032 16711746
0.1926594 -0.0857051 1.6074917 16711746
0.1216321 0.0439665 0.9994122 16711746
0.1829161 0.0196565 1.1517942 16711746
0.1310961 0.0383368 1.0399836 16711746
-1.1688529 -0.5150462 2.6412759 16711746
0.0839827 0.0339040 1.0208184 16711746
-0.0223558 0.0470560 0.9499499 16711746
0.9011262 0.0829273 1.1094182 16711746
0.3730525 -0.1559081 2.2085824 16711746
0.5557840 0.0654430 1.0512682 16711746
1.2649484 -0.6054131 1.5473251 16711746
-0.0101245 0.0485995 0.9415370 16711746
1.0007598 -0.0118002 1.1487646 16711746
0.4683129 -0.0207842 1.4185449 16711746
0.7837435 -1.4234160 2.7750790 16711746
0.8662995 -0.6962037 1.8448079 16711746
1.0673761 -0.1205201 1.7335904 16711746
-0.1665634 0.0637160 0.9341374 16711746
-2.0833108 -2.0794420 4.1666346 16711746
0.0044316 -0.0746221 1.4650689 16711746
-0.6865968 -0.1187271 1.6443332 16711746
0.4184531 0.0543504 1.0594456 16711746
-0.0714992 0.0729455 0.8431429 16711746
0.1016688 0.0399000 1.0021251 16711746
0.9431525 -0.1190291 1.5389986 16711746
-0.0366524 0.0574056 0.9108732 16711746
-1.7900140 -2.0987744 4.2980781 16711746
-0.5662244 -1.9163535 4.5216146 16711746
0.4673010 0.0659136 1.0525255 16711746
2.6179998 -1.4326160 3.2103910 16711746
3.0800018 -1.5571053 2.7762668 16711746
0.9923443 -1.9957328 3.9943342 16711746
1.1165053 -0.5235474 0.8364942 16711746
0.1379596 -0.0107846 1.3028843 16711746
2.1816347 -1.2209128 1.8870245 16711746
0.7931596 -0.1889342 2.2743022 16711746
0.2861909 -0.0993667 1.7562128 16711746
1.1434580 -0.1586568 2.0994301 16711746
0.6925739 -0.1178170 2.1970224 16711746
2.4080710 -1.4377568 3.0104187 16711746
-3.0566831 -1.7374146 3.2185190 16711746
2.6501319 -1.6843426 2.6421356 16711746
-3.0751662 -1.7590460 3.2437704 16711746
0.1773014 -0.4292960 3.3791890 16711746
0.8488495 -1.5351807 3.0560489 16711746
1.6762023 -1.3311833 3.5248072 16711746
2.1479504 -1.1057627 2.5217621 16711746
1.6680946 -1.3217366 3.7207751 16711746
0.1656251 -0.1135201 2.5545146 16711746
1.8004450 -1.3843592 3.7465236 16711746
4.5129313 -0.6624078 5.1175051 16711746
0.2258813 0.0568565 0.9396935 16711746
-0.7476303 -0.0750083 1.5008818 16711746
0.3467853 0.0592439 0.9665428 16711746
-0.1702610 0.0776027 1.0004380 16711746
-0.1502698 0.0516277 0.9768914 16711746
0.2198951 0.0468617 1.0027356 16711746
0.7146701 0.0680896 1.1909132 16711746
0.7284082 0.1053466 1.0213342 16711746
0.6793388 0.1332201 1.0038019 16711746
0.2051769 0.0084778 1.1646292 16711746
-0.0444472 0.0674738 0.9104376 16711746
0.2416015 0.0306004 1.1265570 16711746
0.0130631 -0.0789651 1.4249778 16711746
0.1719777 0.0532747 0.9346676 16711746
0.1490872 0.0538985 0.9383743 16711746
-0.7730823 -0.0738252 1.5229088 16711746
-0.2083436 0.0563422 1.0303012 16711746
0.0895869 -0.0153038 1.2797421 16711746
0.7453826 0.0659294 1.1776669 16711746
-0.2536444 -0.0512342 1.4651979 16711746
-0.2276806 0.0003145 1.1638201 16711746
0.5697188 0.0326523 1.1550040 16711746
-0.0763939 0.0412848 0.9931990 16711746
-0.4027688 -0.0467657 1.4531263 16711746
0.5117393 0.0810991 0.9953640 16711746
-0.1602326 0.0421369 1.0122060 16711746
0.3741984 0.0642060 0.9772010 16711746
0.6839836 0.0776039 1.1624789 16711746
-0.0461832 0.0770015 0.8534289 16711746
-0.0248920 0.0379712 0.9906375 16711746
0.2628306 0.0487531 1.0433762 16711746
0.3019556 0.0042953 1.2056799 16711746
0.8510423 0.0675181 1.0907875 16711746
0.7416412 0.1012942 1.0901692 16711746
-0.0632248 0.0385525 0.9945077 16711746
-0.6872103 -0.1470398 1.9788651 16711746
-0.4148595 -0.0335152 1.3518862 16711746
-0.2242026 -0.2849097 2.8639295 16711746
0.5322388 0.0138766 1.3095574 16711746
0.9228952 0.0079502 1.1508961 16711746
-0.7064127 -0.0775311 1.3773756 16711746
0.1697385 0.0445375 1.0160277 16711746
0.0098996 0.0304499 1.0284911 16711746
0.0798871 -0.0061547 1.3318453 16711746
0.0789720 -0.0058933 0.9875152 16711746
0.0938579 0.0316052 1.1307416 16711746
-0.0527461 0.0350572 0.9784161 16711746
0.0679894 0.0288055 1.3988373 16711746
1.0277119 0.0409782 1.2724575 16711746
0.6337567 0.0848539 1.0720826 16711746
0.1549960 0.0581324 1.0345783 16711746
0.0528231 -0.0780880 1.2209486 16711746
0.2301268 0.0299388 1.0588713 16711746
0.1922487 -0.0482425 1.3350687 16711746
0.0877441 0.0277195 1.0062582 16711746
0.8097073 0.0312552 1.0853853 16711746
0.0662530 0.0429672 0.9860590 16711746
-0.0244765 0.0649911 1.0391917 16711746
0.0753627 0.0423223 0.9306942 16711746
0.0686626 0.0394059 1.0108981 16711746
-0.2181577 0.0449726 1.0142776 16711746
0.0323110 -0.0041274 1.1329101 16711746
0.9367046 0.0778051 1.1933705 16711746
0.3549940 0.0495060 1.0573167 16711746
-0.2846445 0.0243183 0.9524144 16711746
-0.0253311 0.0606623 0.8800149 16711746
0.1190169 0.0155228 1.1636242 16711746
0.2162220 0.0409973 0.9941190 16711746
-0.2406548 0.0402438 0.9658748 16711746
-0.5505508 -0.0821825 1.4905733 16711746
-0.0714123 -0.1863976 2.0295696 16711746
-0.2289915 0.0374602 1.0009898 16711746
0.4133570 -0.0115878 1.3063663 16711746
-0.0531009 0.0581527 0.9017162 16711746
0.6825693 -0.0448642 1.5564419 16711746
0.8265977 -0.1212890 1.2398647 16711746
0.1464418 0.0432092 1.0001837 16711746
0.9054755 -0.1189816 1.3382709 16711746
-0.3854426 0.0148240 1.0714303 16711746
-0.3453112 -0.0032830 0.9068509 16711746
0.2499884 0.0210304 1.1279308 16711746
0.2749956 -0.0788203 1.8014836 16711746
0.2612603 0.0045204 1.2492964 16711746
0.0031876 -0.0559957 1.4538406 16711746
-0.0637302 0.0443154 0.9697900 16711746
0.1401206 -0.0214274 1.2918726 16711746
0.5593311 0.0670178 1.0582654 16711746
0.4487354 0.0531582 1.0809041 16711746
-0.1171416 -0.2619610 2.1810536 16711746
0.3537541 0.0477260 1.0552489 16711746
-0.0505148 0.0783550 0.8568757 16711746
0.0951021 0.0435607 0.9731393 16711746
-0.9892226 -0.1725427 1.6924275 16711746
0.7185901 0.0252275 1.2952727 16711746
0.9576841 0.0059964 1.3712707 16711746
0.1315523 -0.0069997 1.2537094 16711746
-0.0394307 0.0463674 0.9809123 16711746
0.8378332 -0.0682287 1.4738616 16711746
0.3223675 -0.0107668 1.3481672 16711746
0.2738714 -0.0481399 1.5980276 16711746
2.1610208 -1.2219154 1.8482538 16711746
0.2130916 -0.0113218 1.3023331 16711746
0.5464938 -0.0144371 1.5004007 16711746
0.7858961 0.0661372 1.1311481 16711746
0.4377483 -0.1602688 2.2032044 16711746
1.0285662 -0.8090383 2.1084578 16711746
0.7478331 0.0820037 1.0787377 16711746
0.6360885 0.0818695 1.0869769 16711746
0.6700829 -0.5388352 1.2576652 16711746
0.9294786 -0.1194076 1.3799894 16711746
0.4538814 -0.3224210 0.9676074 16711746
3.0484869 -1.5215875 2.7288749 16711746
3.2075799 -1.4532415 3.6485164 16711746
3.6899164 -2.1997736 4.4664216 16711746
4.0712118 -1.5001616 3.3913403 16711746
1.3570424 -1.6337588 3.6656446 16711746
