# .PCD v.7 - Point Cloud Data file format
VERSION .7
FIELDS x y z rgb
SIZE 4 4 4 4
TYPE F F F F
COUNT 1 1 1 1
WIDTH 116
HEIGHT 1
VIEWPOINT 0 0 0 1 0 0 0
POINTS 116
DATA ascii

 0.0792426 0.0131539 0.0441575 16777215
 0.0884006 0.0115692 0.0472937 16777215
 0.0881713 0.0115722 0.0489561 16777215
 0.0878247 0.0080641 0.0524973 16777215
 0.0875600 0.0050907 0.0550460 16777215
 0.0894249 0.0042354 0.0588078 16777215
 0.0874286 0.0033145 0.0613782 16777215
 0.0903692 0.0022066 0.0641299 16777215
 0.0931140 -0.0015433 0.0690672 16777215
 0.0958265 -0.0036598 0.0735624 16777215
 0.0984654 -0.0031122 0.0816816 16777215
 0.1020016 -0.0073932 0.0895033 16777215
 0.1030597 0.0007440 0.1059886 16777215
 0.1090275 -0.0005656 0.1104723 16777215
 0.1148622 -0.0086969 0.1144663 16777215
 0.1138651 -0.0086865 0.1331004 16777215
 0.1180787 -0.0195830 0.1417332 16777215
 0.1222038 -0.0150842 0.1543915 16777215
 0.1284675 -0.0181053 0.1625378 16777215
 0.1346568 -0.0219152 0.1804996 16777215
 0.1407849 -0.0213484 0.1975375 16777215
 0.1507021 -0.0123245 0.2254224 16777215
 0.1528511 -0.0184528 0.2349031 16777215
 0.1589866 -0.0140149 0.2438775 16777215
 0.1597283 -0.0194430 0.2525201 16777215
 0.1665858 -0.0079014 0.2680348 16777215
 0.1783755 -0.0140727 0.2850443 16777215
 0.1789487 -0.0163046 0.2902104 16777215
 0.1816620 -0.0176016 0.2941549 16777215
 0.1856526 -0.0201000 0.2982291 16777215
 0.1904755 -0.0103254 0.3195904 16777215
 0.1957030 -0.0128027 0.3226691 16777215
 0.1952354 -0.0137440 0.3252977 16777215
 0.2041781 -0.0063173 0.3407869 16777215
 0.2115477 -0.0099064 0.3519208 16777215
 0.2132002 -0.0045431 0.3542023 16777215
 0.2156799 -0.0093201 0.3614007 16777215
 0.2168102 -0.0031617 0.3702445 16777215
 0.2225064 0.0064072 0.3827493 16777215
 0.2258824 0.0034244 0.3905962 16777215
 0.2293834 -0.0032280 0.3947171 16777215
 0.2341255 0.0001320 0.4038796 16777215
 0.2365024 -0.0004025 0.4138550 16777215
 0.2374432 0.0011271 0.4201543 16777215
 0.2371654 0.0033913 0.4245594 16777215
 0.2524217 0.0130773 0.4318678 16777215
 0.2575425 0.0158604 0.4403807 16777215
 0.2636841 0.0156070 0.4446740 16777215
 0.2625103 0.0105451 0.4495368 16777215
 0.2507342 0.0185513 0.4686123 16777215
 0.2617166 0.0176012 0.4668131 16777215
 0.2692830 0.0217105 0.4629314 16777215
 0.2672298 0.0479276 0.4756481 16777215
 0.2766406 0.0441299 0.4843454 16777215
 0.2777593 0.0308604 0.4966702 16777215
 0.2807392 0.0261231 0.5006924 16777215
 0.2722102 0.0303723 0.5072372 16777215
 0.2835751 0.0257470 0.5110832 16777215
 0.2858667 0.0307517 0.5190277 16777215
 0.2860368 0.0299096 0.5206630 16777215
 0.2899966 0.0307675 0.5219104 16777215
 0.2917594 0.0360776 0.5341018 16777215
 0.2930386 0.0337420 0.5383447 16777215
 0.2948685 0.0418689 0.5449993 16777215
 0.2938931 0.0368298 0.5500839 16777215
 0.2753569 0.0477840 0.5607359 16777215
 0.2792895 0.0474330 0.5612282 16777215
 0.2813429 0.0433769 0.5690340 16777215
 0.2692552 0.0508604 0.5661989 16777215
 0.2768905 0.0549188 0.5714704 16777215
 0.2793196 0.0494654 0.5779819 16777215
 0.2799402 0.0514851 0.5831209 16777215
 0.2782081 0.0536855 0.5835318 16777215
 0.2815865 0.0563472 0.5861113 16777215
 0.2842652 0.0587600 0.5883155 16777215
 0.2860853 0.0589276 0.5911809 16777215
 0.2898131 0.0582701 0.5980138 16777215
 0.2928040 0.0665477 0.6019208 16777215
 0.2970216 0.0654406 0.6079848 16777215
 0.3037162 0.0612343 0.6250910 16777215
 0.3044615 0.0616395 0.6240521 16777215
 0.3081916 0.0614856 0.6314056 16777215
 0.3110013 0.0624487 0.6369221 16777215
 0.3135054 0.0633582 0.6373585 16777215
 0.3147715 0.0677905 0.6488289 16777215
 0.3217789 0.0673169 0.6529088 16777215
 0.3240993 0.0667780 0.6596326 16777215
 0.3253277 0.0702772 0.6616750 16777215
 0.3276264 0.0709937 0.6646296 16777215
 0.3282723 0.0699961 0.6702315 16777215
 0.3295780 0.0705817 0.6718694 16777215
 0.3312139 0.0699373 0.6737683 16777215
 0.3255214 0.0821307 0.6745193 16777215
 0.3368569 0.0821877 0.6846738 16777215
 0.3364536 0.0787024 0.6871369 16777215
 0.3393160 0.0801362 0.6900340 16777215
 0.3415993 0.0784460 0.6933078 16777215
 0.3428611 0.0801165 0.6976783 16777215
 0.3422692 0.0812624 0.6994456 16777215
 0.3415656 0.0818020 0.7016188 16777215
 0.3373957 0.0861001 0.7029104 16777215
 0.3398320 0.0853502 0.7055382 16777215
 0.3414167 0.0851261 0.7091228 16777215
 0.3427366 0.0853694 0.7132016 16777215
 0.3397578 0.0891194 0.7208502 16777215
 0.3450373 0.0884190 0.7221978 16777215
 0.3479834 0.0857805 0.7236365 16777215
 0.3488156 0.0860454 0.7242030 16777215
 0.3421782 0.0837545 0.7315806 16777215
 0.3484817 0.0870283 0.7300308 16777215
 0.3499773 0.0876299 0.7356636 16777215
 0.3499883 0.0908408 0.7358264 16777215
 0.3489612 0.0929886 0.7357191 16777215
 0.3502854 0.0941376 0.7370355 16777215
 0.3503190 0.0939615 0.7391409 16777215
 0.3525333 0.0943970 0.7400835 16777215
