# .PCD v.7 - Point Cloud Data file format
VERSION .7
FIELDS x y z rgb
SIZE 4 4 4 4
TYPE F F F F
COUNT 1 1 1 1
WIDTH 245
HEIGHT 1
VIEWPOINT 0 0 0 1 0 0 0
POINTS 245
DATA ascii

 -2.6773837 -3.2203982 5.0513220 16777215
 -0.0428749 -0.0435430 0.0899745 16777215
-0.3664119 -0.2245481 0.5593445 16711746
-0.5710989 -0.2337033 0.5956346 16711746
-0.4650770 -0.2083217 0.4853237 16711746
-0.2687915 0.0543335 0.9868047 16711746
0.5840842 -0.0233195 1.2104573 16711746
-0.0119207 -0.2798228 0.7481141 16711746
-0.0312132 -0.3052171 0.8195230 16711746
0.2787612 -0.4365430 0.9501171 16711746
1.1860791 -0.5388932 1.6163036 16711746
0.7148377 0.5356802 2.4320803 16711746
0.9711049 0.3054219 1.9533718 16711746
0.8551764 0.3076459 2.2299407 16711746
-0.3999623 -0.2208993 0.5137009 16711746
0.0437904 -0.1434918 0.9055940 16711746
0.6380454 0.1673535 1.6439141 16711746
0.7808405 0.1421209 1.8128018 16711746
-0.4408690 0.2068511 0.8178939 16711746
-0.4395751 -0.2809145 0.5660558 16711746
0.3014028 -0.3614722 0.9962202 16711746
0.1834300 -0.3101925 0.8144638 16711746
1.5164642 -0.5581219 1.8621784 16711746
0.0103764 -0.2388730 0.9065644 16711746
-0.0121983 -0.2499004 0.8681924 16711746
-0.3496474 0.4323957 1.0749031 16711746
-0.2898600 0.3274814 0.8860691 16711746
-0.3667413 0.3970576 1.0049031 16711746
-0.4478225 0.2033388 0.7517340 16711746
-0.4723968 0.1849450 0.7417874 16711746
0.8935266 0.1586349 2.2873051 16711746
0.4851095 0.0475882 1.2587141 16711746
0.6287243 0.0733445 1.6393534 16711746
0.0751230 -0.2313715 0.8453668 16711746
-0.5137051 -0.1999824 0.5544012 16711746
0.6664942 0.0070841 1.4367496 16711746
0.3344457 -0.2263845 1.1907377 16711746
0.2912120 -0.2191250 1.0220937 16711746
-0.2103483 -0.0093883 0.8855166 16711746
0.9130859 0.0937582 2.3389771 16711746
0.4750224 0.0077451 1.3049152 16711746
1.2229601 -0.1917343 2.3268650 16711746
1.5159644 -0.6166613 1.8387811 16711746
0.2871979 -0.0658149 1.5391220 16711746
1.2884833 0.0990778 1.9898244 16711746
0.4786541 -0.1110047 1.5357567 16711746
-0.2156182 0.0000384 1.0564247 16711746
-0.1672908 -0.0763822 0.9696411 16711746
-0.1773510 -0.2112186 0.8111426 16711746
-0.3742697 -0.2514995 0.5743451 16711746
-0.4927747 0.2791710 0.8895599 16711746
-0.1937470 0.0698910 1.0410125 16711746
0.2152811 -0.3686645 1.2491997 16711746
0.3862213 -0.3112883 1.2380248 16711746
0.2436958 -0.0292674 0.9661505 16711746
0.2925607 -0.0346068 1.3216350 16711746
-0.1542111 0.0083763 0.8317302 16711746
0.0971411 -0.2775933 0.7587604 16711746
0.0622658 -0.3120211 0.7156698 16711746
0.0171899 -0.2560674 1.2356514 16711746
0.7747558 0.2616098 2.1396210 16711746
0.0827599 -0.3672462 0.8024807 16711746
-0.5399290 0.2753478 0.7702525 16711746
-0.5437341 0.2514603 0.7291929 16711746
-0.1220825 -0.1199452 0.7637677 16711746
0.6234475 -0.4300044 1.1165117 16711746
0.7831561 -0.5561495 1.3385035 16711746
0.6487583 -0.5184432 1.2741926 16711746
-0.0589197 -0.0100223 1.0746671 16711746
-0.0836108 -0.0320888 0.9022500 16711746
-0.1540927 -0.0202598 0.8229020 16711746
1.0917901 -0.0570789 2.1689920 16711746
0.5043786 -0.0579201 1.1624023 16711746
-0.4047799 -0.2200206 0.6178862 16711746
0.5443111 -0.1371036 1.3790382 16711746
0.5557092 -0.1660120 1.3858298 16711746
1.0096389 -0.6552954 1.2435212 16711746
-0.0814059 -0.0483311 0.9115180 16711746
0.2464030 -0.1848792 1.2875559 16711746
0.1868289 -0.1684452 1.2228655 16711746
0.2391174 -0.0929757 0.9895893 16711746
0.2697703 -0.1007503 1.2956851 16711746
0.6726837 -0.1688361 1.1337466 16711746
0.5539827 0.1404395 1.8899262 16711746
1.0077641 0.3621025 1.9649087 16711746
0.4047388 -0.5105119 1.0477169 16711746
0.2681206 -0.2388759 1.3297303 16711746
-0.0903695 -0.1536832 1.0872866 16711746
0.4071566 -0.0061857 1.4330114 16711746
0.3141601 -0.0237304 1.1565380 16711746
0.0251848 -0.0243154 1.0128195 16711746
-0.0387518 -0.0467049 0.9325055 16711746
0.0158865 -0.0615636 1.0416723 16711746
-0.0381523 -0.0528379 0.8402811 16711746
0.6928608 -0.1562302 1.5073881 16711746
1.1730911 -0.2254971 2.2730348 16711746
-0.4556435 -0.2512773 0.6710305 16711746
-0.4224987 -0.2293854 0.5873427 16711746
-0.0110168 -0.0056716 1.1330373 16711746
-0.1637727 -0.1071342 1.0216756 16711746
-0.1138646 -0.1152233 1.0484725 16711746
0.2483010 -0.0968009 1.4994380 16711746
-0.0998697 -0.1694954 0.8976612 16711746
0.3116710 -0.2567071 1.1756889 16711746
0.3472914 -0.2641969 1.2068886 16711746
0.4173809 -0.3134780 1.2663239 16711746
0.3117885 -0.0121943 1.5863034 16711746
1.1530113 -0.7306045 1.3009008 16711746
1.4325184 -0.7603705 1.5026742 16711746
-0.0924363 -0.2484036 1.0609589 16711746
0.3764502 -0.1392625 1.4341023 16711746
0.5312061 -0.4707488 1.1293522 16711746
-0.1776439 -0.0393378 0.9412162 16711746
1.0702873 -0.5736953 1.5745682 16711746
0.7015362 -0.4223121 1.1438942 16711746
0.2594150 -0.2179933 1.3045313 16711746
0.1930835 -0.2011171 1.2333513 16711746
0.5972446 -0.3575938 1.0917106 16711746
0.0879714 -0.3214241 0.8334370 16711746
0.6250117 0.3613214 1.8659303 16711746
0.4832501 0.4306876 1.5879222 16711746
0.0167437 0.2823642 1.6921064 16711746
-0.0327522 0.2836360 1.1358969 16711746
0.3626418 0.1092146 1.3318669 16711746
0.3580514 0.0321981 1.1732618 16711746
0.6078956 0.0979244 1.3655138 16711746
0.6419522 0.2631451 1.6466179 16711746
0.0227476 0.1453224 1.1479449 16711746
1.1030020 0.3672245 2.0727105 16711746
-0.0348438 0.5539537 1.1943219 16711746
0.1007263 1.1804641 2.0225341 16711746
0.2810016 0.3711131 1.2493232 16711746
0.3797392 0.6280904 1.7648220 16711746
-0.0068431 0.5836524 1.3869154 16711746
-0.4102014 0.1222561 0.6666541 16711746
-0.1891288 0.1967301 0.9608436 16711746
-0.2767848 0.2414840 1.0460427 16711746
-0.0736419 0.3877975 1.4263709 16711746
-0.1581458 0.3120149 1.2243810 16711746
-0.0773368 0.2025387 0.9354189 16711746
-0.1211600 0.2330582 1.0891806 16711746
-0.1443803 0.0773443 0.7665337 16711746
-0.4257279 0.0759491 0.9664375 16711746
-0.3408481 0.0353385 0.8472645 16711746
-0.7918930 0.5258287 0.8793613 16711746
-0.0786207 0.4934010 1.1885480 16711746
-0.0756244 0.5675920 1.0623536 16711746
-0.2666442 0.3675190 0.8114135 16711746
-0.3596308 0.4629367 0.8413347 16711746
-0.0783452 0.3358679 1.0043538 16711746
-0.3098178 0.2818542 0.8892866 16711746
-0.3831210 0.4070587 1.1420258 16711746
0.1444603 -0.2336493 1.0280201 16711746
0.1689632 -0.2834767 1.0451245 16711746
-0.0133987 -0.3385473 0.8269438 16711746
0.8000774 -0.1353010 1.8752906 16711746
0.4983299 -0.0384991 1.3212121 16711746
0.3419202 -0.1518680 1.1976360 16711746
0.0604947 -0.1779587 0.8365357 16711746
1.3123698 0.0546809 2.3764713 16711746
0.6793826 -0.0401553 1.2825906 16711746
-0.5247840 -0.1808347 0.5465000 16711746
-0.4849761 -0.2866884 0.5233669 16711746
-0.3949442 -0.3073303 0.5920913 16711746
-0.1070361 -0.2756226 0.8846704 16711746
-0.1420802 -0.2365708 0.8788178 16711746
-0.0763118 -0.3305861 0.9078586 16711746
-0.1075330 -0.0678349 0.8917444 16711746
-0.0789145 -0.1652917 0.9200462 16711746
-0.2389501 -0.1348965 0.7397661 16711746
22.6367416 -36.4323006 215.0170746 16711746
35.1785316 5.4326658 226.2922668 16711746
-61.4564705 75.3275757 170.7590942 16711746
-58.8220978 75.8579712 166.4570465 16711746
-118.7384567 81.9264984 137.6143646 16711746
-155.3499146 93.2006226 164.9580841 16711746
-48.4346771 52.4232140 133.1227112 16711746
-42.4575882 -2.8680670 175.9083405 16711746
-36.0565758 5.7671914 186.2576904 16711746
-9.3453646 -29.4313927 86.8756485 16711746
61.1128998 91.0011063 211.5900726 16711746
-39.4469032 39.0145950 109.8487167 16711746
22.5335617 -30.2645569 214.0442200 16711746
-25.0886192 -19.0634441 193.0427551 16711746
-29.7001896 -14.7070637 148.2814941 16711746
12.7940998 -45.5459862 183.5986176 16711746
-88.5397339 63.7864456 195.1207428 16711746
-53.6840096 -5.5612488 138.7382965 16711746
22.7474174 68.8513412 223.9464874 16711746
-43.1100502 104.2012177 209.7505951 16711746
-32.8944511 -14.9140587 40.5468712 16711746
-32.0628662 -28.7122269 183.2353516 16711746
-1.0201162 -28.2406960 91.7901688 16711746
-18.6101513 -19.5805454 55.9679222 16711746
-21.5390816 -26.8305759 165.3280334 16711746
-87.6298141 59.2204247 172.6871948 16711746
-39.6568031 110.0192566 226.1612549 16711746
-41.6730156 -8.1007948 152.8067322 16711746
33.7716904 -49.3014450 180.4511566 16711746
-47.8845024 20.4559879 180.1885986 16711746
47.1704102 19.5072823 128.3515320 16711746
-194.3722382 116.3654175 206.0940552 16711746
-34.5548935 -16.1632423 113.5526733 16711746
113.2773590 -67.1257477 209.7055664 16711746
-38.7768211 -15.0426207 124.8004303 16711746
-49.7451172 66.4391251 139.4316711 16711746
-62.9126244 80.6980591 175.0143890 16711746
-47.1854630 -5.6127739 146.2816925 16711746
18.9621086 65.9063568 232.4633179 16711746
-34.4022675 27.0426331 209.4692841 16711746
70.3111649 92.7804642 256.8891907 16711746
-29.3841763 -12.2076378 33.9917412 16711746
-25.2967396 1.3347431 95.5609131 16711746
7.3400636 -35.2656136 126.0069427 16711746
-1.4606231 -30.1001186 155.4587402 16711746
-2.8437717 -2.2175219 11.5255604 16711746
13.6848736 25.1376743 138.6176453 16711746
-35.0444107 -6.4786859 131.0232391 16711746
-16.5105171 -9.2158451 22.4520569 16711746
13.0679331 31.1252708 193.1451874 16711746
-21.7275734 4.0620461 99.0645370 16711746
-38.2410507 -7.2306151 194.2676544 16711746
106.4754028 74.5837021 212.9687958 16711746
-53.1871796 38.4343987 117.7207565 16711746
107.1563263 -56.6299286 206.7655029 16711746
-25.6403141 -12.3421564 32.4138756 16711746
43.8250961 59.2971077 156.0716705 16711746
-20.1162701 -19.1024361 151.1736145 16711746
-50.7062492 -2.7171452 217.0036163 16711746
18.5156155 -23.4888306 151.2820435 16711746
-16.7881718 3.2460110 267.6885071 16711746
-64.5142136 -18.8503399 352.5707397 16711746
8.2707758 35.3072701 219.2039337 16711746
61.0133553 -24.7728901 210.9196625 16711746
-4.9516273 -49.5918579 182.4824066 16711746
-23.7736206 -11.6138124 31.7197723 16711746
-14.5375443 -16.2585087 159.2807312 16711746
-75.8698502 54.5105705 166.7243347 16711746
0.6992972 -2.7225931 14.5369434 16711746
-44.7329407 -5.3808584 136.7595367 16711746
104.1976471 -43.9887428 158.4826660 16711746
-14.4629135 -15.1625662 43.3936729 16711746
-0.9555836 -27.8070774 90.1566010 16711746
-84.2059784 -23.2908878 75.9270477 16711746
79.0797958 -40.1604652 248.6367035 16711746
