# .PCD v0.7 - Point Cloud Data file format
VERSION 0.7
FIELDS x y z rgb
SIZE 4 4 4 4
TYPE F F F F
COUNT 1 1 1 1
WIDTH 1196
HEIGHT 1
VIEWPOINT 0 0 0 1 0 0 0
POINTS 1196
DATA ascii
-2.7965517 -13.597387 0.053185582 16711746
3.005003 -10.793775 3.0995805 16711746
-3.6084416 -8.082303 3.9208779 16711746
2.9507093 -10.189867 3.5897849 16711746
-2.2520573 -13.582977 -0.082919218 16711746
4.7021079 -11.718233 2.2859015 16711746
-1.8824017 -11.852914 3.3480403 16711746
5.2746201 -11.790601 3.2418053 16711746
-5.7982302 -7.5480633 1.1071836 16711746
-0.0058299419 -12.918471 0.94311476 16711746
2.6181438 -12.919364 0.40159652 16711746
-1.8296803 -7.7430553 2.8499024 16711746
6.9363594 -6.7493329 4.7471704 16711746
1.0249679 -10.156663 6.83811 16711746
1.2551892 -11.416434 8.7484894 16711746
3.1874573 -7.6124043 2.7928095 16711746
5.7210121 -20.855474 0.58812433 16711746
0.2395369 -0.33044294 -0.48836145 16711746
1.5813783 -4.5180106 -0.025008569 16711746
-0.71428454 -4.9880433 1.8334435 16711746
-0.74450564 -4.8448091 -0.17444029 16711746
-2.1168263 -3.1197326 2.0868113 16711746
1.6067461 -4.2213469 2.106689 16711746
-3.4967847 -3.8468659 0.22376931 16711746
2.4035704 -2.4667349 1.1290867 16711746
0.73946261 -4.738255 3.0232067 16711746
0.7483933 -5.4365053 2.3800693 16711746
-0.25395936 -4.4495859 3.5318327 16711746
-0.72435117 -4.4911256 3.1588354 16711746
1.9318753 -4.7663507 3.2191145 16711746
1.6635534 -4.9986477 3.1316562 16711746
0.97112304 -5.7721691 0.71780825 16711746
-0.60406685 -3.9734638 0.69696963 16711746
2.1664236 -2.615592 0.74941343 16711746
-1.3881987 -5.6122217 0.30144018 16711746
-0.46282724 -4.733098 1.3125308 16711746
0.61234993 -2.1581662 0.65110606 16711746
2.495306 -9.0962019 -1.151275 16711746
2.1747448 -7.7104487 0.4376142 16711746
-8.2703018 -12.099239 -0.10365602 16711746
2.1376822 -12.869554 0.52069199 16711746
-2.4165256 -8.6457739 1.0028759 16711746
-4.02104 -11.463969 2.3841236 16711746
-1.1259369 -15.126169 0.89255184 16711746
-7.0418324 -8.9863939 -0.29571596 16711746
-2.4850907 -10.492496 -1.3172379 16711746
-5.5500164 -13.061941 2.1128407 16711746
-0.33874309 -4.6313925 0.57982105 16711746
1.4775108 -6.0253682 0.055585828 16711746
2.4812272 -5.2617059 1.9860904 16711746
-6.7495551 -10.680153 2.9011276 16711746
1.7388691 -7.2139449 0.17621151 16711746
-4.9847379 -10.625994 1.7767856 16711746
-6.6529274 -8.4290581 0.13328625 16711746
-2.9998138 -7.1002188 1.2123767 16711746
4.5430083 -7.1135216 0.34466478 16711746
-2.7774401 -11.297479 -1.1097556 16711746
-11.239534 -8.1516838 0.68543333 16711746
-7.7442727 -11.824602 0.61645371 16711746
-1.2991843 -10.502643 1.0216596 16711746
3.8469367 -6.6310062 0.24206388 16711746
1.6493572 -7.3024178 -0.87463897 16711746
2.3154316 -8.6413088 0.24522299 16711746
2.2957857 -7.9183097 -0.94660044 16711746
-4.8933897 -5.4497523 -0.18772678 16711746
2.0179932 -8.4583054 0.49230739 16711746
-9.1922464 -8.2058764 4.5707793 16711746
10.197175 -10.810729 -1.5939922 16711746
-2.3404238 -8.3048391 0.94419163 16711746
8.2715969 -8.6944304 -1.2672379 16711746
-2.5067823 -18.042189 3.3985441 16711746
-7.7459784 -14.590359 0.74049276 16711746
-0.91449302 -7.8033981 1.377185 16711746
1.1961823 -4.0120163 0.22639659 16711746
-1.5248042 -8.3676767 0.50348675 16711746
-11.579504 -7.8548574 0.14399832 16711746
0.80453897 -17.310091 1.9922827 16711746
7.080925 -11.255035 0.87897372 16711746
14.981483 -14.256836 2.0003371 16711746
12.015793 -16.379736 2.333838 16711746
9.8499002 -10.845545 -1.3991783 16711746
-4.9248776 -8.6908474 0.045215871 16711746
7.0240374 -9.2575378 3.1847842 16711746
5.9902382 -9.7377148 0.86556518 16711746
5.7967401 -11.083617 -0.50575793 16711746
10.698322 -12.825285 -0.99653286 16711746
9.3975163 -11.509878 1.0855883 16711746
-2.2515068 -13.402846 2.125891 16711746
10.03134 -13.23088 5.5974698 16711746
1.4173422 -15.456996 -0.41589379 16711746
5.3187985 -13.645819 -0.99722409 16711746
8.5086231 -12.304359 -1.3356702 16711746
2.8894734 -7.0407739 2.9795675 16711746
8.8696318 -11.930937 5.4628773 16711746
12.063977 -12.524816 2.077487 16711746
11.141846 -12.796271 1.910022 16711746
9.0181751 -12.183966 1.8476857 16711746
5.5410557 -9.88064 0.87823039 16711746
9.6351233 -13.355959 1.3432363 16711746
10.529504 -10.69689 1.3319442 16711746
9.2150049 -11.085618 5.3803015 16711746
10.924555 -14.65922 2.6305492 16711746
-7.8458886 -14.131867 0.38856506 16711746
-7.5784783 -12.540903 0.4885667 16711746
11.437028 -11.096599 1.0775417 16711746
9.9216604 -10.107852 1.8961244 16711746
11.28406 -14.410446 4.3889718 16711746
13.694275 -13.199914 2.3488111 16711746
11.75854 -12.081642 5.8534694 16711746
14.449052 -13.592232 6.0857148 16711746
11.759389 -12.797516 4.4746475 16711746
3.1377971 -12.031508 7.9395328 16711746
3.8701842 -13.086405 9.4121342 16711746
13.823468 -17.668694 7.2360706 16711746
10.877213 -11.310438 1.9548864 16711746
10.163103 -10.337631 1.2911112 16711746
7.4507122 -14.861198 6.589179 16711746
-0.80305308 -11.796565 9.385005 16711746
-9.4632616 -14.304936 0.45595309 16711746
1.7653433 -11.676898 4.2880921 16711746
-18.628433 -19.651665 8.625576 16711746
-8.7308683 -15.072201 2.4640415 16711746
12.573032 -16.276821 10.210564 16711746
16.637079 -16.901855 11.150989 16711746
6.7056866 -13.95777 5.7411313 16711746
12.297778 -10.992667 3.1019931 16711746
11.205093 -12.851556 6.0699601 16711746
6.4866524 -12.955393 2.0263426 16711746
8.8394318 -16.933445 8.8068647 16711746
8.5160847 -12.261702 10.135226 16711746
11.780076 -11.903055 0.61446947 16711746
13.960044 -26.647192 9.2292223 16711746
14.607368 -13.400477 1.5919855 16711746
11.219182 -15.015595 2.45 16711746
5.7743773 -11.910611 2.4571664 16711746
11.007256 -12.013029 4.1539268 16711746
12.381868 -12.23587 9.224268 16711746
12.179211 -12.5479 2.0411763 16711746
13.426198 -13.721022 9.6231852 16711746
8.744772 -21.951595 17.045263 16711746
14.70154 -14.692225 11.132361 16711746
12.560954 -11.884696 5.9940338 16711746
10.779653 -16.664076 13.650521 16711746
15.27955 -12.763328 0.31392035 16711746
10.886607 -13.545093 9.4432669 16711746
8.7810783 -20.234442 10.679049 16711746
10.124763 -10.906501 -0.7578668 16711746
7.2004285 -11.508591 4.1130109 16711746
9.227314 -17.011717 11.299386 16711746
5.9741259 -14.39106 7.9328489 16711746
10.471163 -10.204727 4.7019849 16711746
13.57198 -14.526245 9.0914736 16711746
7.2360516 -15.701474 3.1946509 16711746
13.159089 -17.666683 14.471144 16711746
3.0645573 -2.8632376 0.85643232 16711746
0.70888376 -14.803937 7.054987 16711746
-2.467912 -24.379395 20.847145 16711746
10.580272 -13.892599 10.524224 16711746
11.840623 -12.773065 -1.2489465 16711746
14.220838 -13.962529 10.674053 16711746
11.11382 -15.635328 11.563292 16711746
10.342049 -11.101939 5.9169679 16711746
-1.8123654 -23.091366 17.608444 16711746
17.862717 -18.536879 10.13711 16711746
17.074581 -16.445293 9.5368366 16711746
12.521591 -14.795995 -1.8477557 16711746
-1.6162833 -18.032816 13.435804 16711746
11.994927 -23.891323 11.010077 16711746
14.002337 -13.941747 5.1794753 16711746
12.098619 -11.983329 5.476851 16711746
13.066659 -17.006596 3.0481002 16711746
5.5794644 -13.466119 4.4364462 16711746
12.496037 -23.713509 12.558735 16711746
22.861324 -25.217712 10.777015 16711746
4.0102963 -20.776047 12.27002 16711746
15.718926 -29.771919 21.466362 16711746
9.2031879 -24.013132 18.448158 16711746
26.584637 -40.652397 34.062344 16711746
21.976179 -28.882607 13.742272 16711746
-6.105361 -21.655764 12.605772 16711746
-5.2051172 -18.111837 6.2808809 16711746
-5.9593024 -22.306597 10.641567 16711746
4.0851865 -20.060581 11.903857 16711746
13.795627 -25.540611 11.927642 16711746
11.849258 -27.384926 12.027652 16711746
6.7695937 -20.844007 13.277364 16711746
19.58256 -24.464172 20.106741 16711746
19.768356 -24.799376 20.531244 16711746
24.302109 -29.850128 20.452991 16711746
19.207119 -27.01877 19.811329 16711746
13.339884 -21.75515 6.5010266 16711746
10.897573 -24.083384 15.57711 16711746
10.139704 -17.335596 5.5918775 16711746
-5.1036296 -21.492315 10.26066 16711746
-6.8562183 -24.025192 15.784982 16711746
-7.3041902 -18.614244 7.8870993 16711746
24.922451 -24.342905 9.9995365 16711746
15.286012 -28.570929 12.983704 16711746
22.086384 -26.45541 14.982614 16711746
19.588003 -18.885649 14.717942 16711746
23.524593 -22.787621 14.796981 16711746
14.053908 -26.591625 13.935422 16711746
9.7432413 -26.205566 21.156525 16711746
9.4534674 -20.278189 12.863158 16711746
12.533843 -25.425518 17.750999 16711746
12.980185 -19.787224 6.9628382 16711746
5.8065643 -21.387075 14.53505 16711746
12.467307 -28.652481 20.899904 16711746
25.117836 -22.738323 18.725758 16711746
12.515706 -24.233196 12.615063 16711746
16.376741 -19.475292 8.9661179 16711746
18.657721 -25.692667 19.477146 16711746
26.238605 -34.382469 35.434143 16711746
2.7492788 -15.381983 12.611317 16711746
13.031052 -28.190506 17.053894 16711746
17.30603 -22.197504 12.040198 16711746
11.386251 -26.786869 13.598814 16711746
18.403009 -31.494745 23.485332 16711746
20.820559 -26.777176 16.521032 16711746
23.997416 -35.079369 32.056164 16711746
0.2682955 -23.934851 13.546823 16711746
12.239518 -26.280512 20.936966 16711746
13.803489 -29.837534 18.077698 16711746
7.6257772 -27.192232 18.765221 16711746
-3.0122542 -20.205193 10.40712 16711746
17.972837 -23.330423 13.225161 16711746
-3.8907757 -21.582996 12.071425 16711746
11.211375 -24.259325 14.984367 16711746
10.837411 -26.376558 11.018803 16711746
0.43315503 -22.442297 9.9823503 16711746
14.272902 -36.511765 31.260553 16711746
-6.6964536 -19.76099 10.943074 16711746
0.83416998 -19.646006 10.012272 16711746
-1.3671432 -25.585892 16.287737 16711746
-7.1144094 -24.527775 10.597137 16711746
9.2176809 -20.813276 5.9159832 16711746
12.648932 -25.383537 12.802379 16711746
14.702346 -26.552181 11.725998 16711746
17.361361 -26.649925 15.421994 16711746
-4.6382499 -23.429905 11.866819 16711746
10.585669 -18.819807 8.0572577 16711746
11.862907 -24.668568 13.945926 16711746
4.0360785 -23.339916 9.0862808 16711746
13.846255 -33.151546 23.436226 16711746
-9.4826298 -31.889849 19.843082 16711746
13.984686 -28.223629 12.312716 16711746
8.9016266 -24.303244 10.510321 16711746
-8.4307909 -22.804684 17.426405 16711746
15.278916 -19.229765 10.863079 16711746
11.445848 -25.937529 11.688578 16711746
10.801154 -26.298681 11.071979 16711746
11.566107 -25.941568 12.260585 16711746
10.942196 -31.782129 25.019979 16711746
9.3280125 -26.381472 11.595391 16711746
9.2023258 -22.598072 18.177563 16711746
8.4677858 -22.317608 10.71351 16711746
15.090589 -29.299749 14.808846 16711746
10.914405 -19.52486 8.5598898 16711746
19.551584 -27.813181 6.7453475 16711746
11.506948 -23.375448 16.819107 16711746
-2.209244 -18.055025 11.270855 16711746
-1.9731251 -18.990538 13.712757 16711746
13.060402 -27.287357 16.971642 16711746
-2.9088018 -21.684597 13.39725 16711746
-1.9802932 -16.47051 10.38637 16711746
10.873554 -27.06192 23.024546 16711746
11.303567 -29.311785 24.273798 16711746
-8.8926477 -22.070866 11.827447 16711746
13.531995 -26.923754 12.456279 16711746
16.446295 -22.857809 15.203228 16711746
-0.037155963 -20.548275 11.501079 16711746
12.918197 -25.343273 17.470718 16711746
20.876608 -24.621252 14.799555 16711746
10.89707 -19.445848 8.5527649 16711746
14.758614 -27.280998 12.990788 16711746
10.852296 -19.258736 8.5175781 16711746
22.604334 -30.497128 25.692171 16711746
11.015875 -17.433161 9.174366 16711746
17.432375 -20.021721 15.934369 16711746
-5.5604634 -22.174898 7.9953303 16711746
13.063111 -28.351204 15.622926 16711746
13.636395 -26.207592 14.125645 16711746
-9.1069775 -23.081804 17.121799 16711746
18.087336 -17.241774 14.222668 16711746
21.922644 -27.147329 19.848932 16711746
10.532721 -24.786964 11.951617 16711746
9.1881876 -20.85951 13.671593 16711746
0.37222755 -19.243402 11.185441 16711746
-19.216085 -22.823065 17.693613 16711746
17.11001 -27.44199 21.035685 16711746
22.024572 -25.810436 15.058106 16711746
23.521002 -33.169971 19.445152 16711746
14.218946 -24.692204 18.130983 16711746
22.773979 -26.713842 21.334551 16711746
16.196524 -18.573141 12.844935 16711746
17.869419 -22.745941 20.828335 16711746
10.114454 -19.768814 14.393005 16711746
18.809433 -32.673569 24.231377 16711746
-0.95499933 -21.812433 10.892251 16711746
10.49159 -27.644978 24.1443 16711746
18.509846 -24.384359 16.928276 16711746
14.117573 -27.903934 14.056723 16711746
9.8436871 -21.52079 15.438174 16711746
23.14188 -29.004324 16.622007 16711746
17.268923 -27.69891 21.240751 16711746
14.33135 -21.474108 9.7379475 16711746
11.873384 -24.429277 12.178673 16711746
16.353977 -24.719671 10.555202 16711746
17.421967 -21.493891 15.077387 16711746
18.667196 -21.961441 13.103105 16711746
10.642118 -20.394054 13.724412 16711746
12.539342 -22.715727 12.734149 16711746
-4.4798489 -20.575064 10.811562 16711746
10.752625 -22.432922 11.549745 16711746
14.458934 -23.727835 10.021381 16711746
15.592005 -26.606258 20.786051 16711746
21.747044 -19.744877 15.453866 16711746
2.5216939 -18.607052 17.941978 16711746
26.435648 -24.883352 18.222565 16711746
12.529971 -31.871078 30.257509 16711746
14.427362 -22.923092 18.97393 16711746
14.837431 -26.4804 21.01804 16711746
14.66064 -25.64822 19.587851 16711746
14.108888 -20.570677 10.377448 16711746
11.055976 -24.050652 12.19315 16711746
14.905259 -23.963488 20.727707 16711746
13.171575 -24.194601 12.031977 16711746
9.6221571 -20.467554 15.096234 16711746
6.9425716 -23.63418 19.589037 16711746
22.39057 -21.152849 14.267175 16711746
15.980143 -23.945717 16.497252 16711746
13.478483 -25.468241 14.053759 16711746
2.1809185 -23.515808 18.673059 16711746
9.0753098 -19.368839 15.410283 16711746
2.7585461 -25.429035 22.14876 16711746
-9.3534079 -23.415733 16.926544 16711746
8.7290525 -23.64274 17.792501 16711746
10.15508 -20.071993 14.403706 16711746
8.8400841 -24.095757 21.918743 16711746
12.221539 -22.398592 17.368135 16711746
18.227718 -27.128263 23.549278 16711746
15.379362 -20.175138 13.138371 16711746
12.566189 -23.336634 18.570248 16711746
6.9708376 -19.903839 19.871134 16711746
20.829407 -25.129047 21.790764 16711746
24.087967 -27.798597 22.923075 16711746
19.577404 -24.40292 22.743416 16711746
18.773123 -25.124344 22.46747 16711746
20.291975 -19.970825 14.636432 16711746
15.129825 -25.101624 31.801479 16711746
12.674603 -24.446379 13.228597 16711746
25.583445 -27.768661 23.755848 16711746
11.341388 -18.782032 19.666649 16711746
12.023648 -25.095165 12.881012 16711746
14.250712 -24.417353 28.249226 16711746
33.087364 -28.672531 21.916773 16711746
15.163263 -22.522009 16.012575 16711746
14.985184 -23.84914 19.577568 16711746
24.298393 -28.464344 27.854828 16711746
28.662716 -33.863594 31.456631 16711746
14.635256 -22.423697 19.950365 16711746
16.543812 -25.552202 17.731537 16711746
9.9004755 -21.497248 20.903269 16711746
8.3433762 -21.884848 12.280654 16711746
12.33961 -30.850334 29.949715 16711746
9.9688177 -18.757484 14.693444 16711746
9.2749739 -18.49548 13.993963 16711746
7.0864305 -26.716627 22.047762 16711746
7.3405018 -19.140673 13.705694 16711746
7.4519973 -22.181335 20.080908 16711746
24.429716 -20.937059 14.551448 16711746
8.9446993 -21.949162 19.250153 16711746
6.7605686 -21.276978 12.326704 16711746
31.920563 -38.860691 33.151554 16711746
4.9627285 -24.365969 19.494078 16711746
9.6781521 -20.692173 20.681372 16711746
9.9849424 -23.618 20.847378 16711746
9.4352798 -23.186543 18.414276 16711746
10.671542 -19.724407 18.845776 16711746
5.1455998 -19.744604 12.824334 16711746
15.601748 -21.543997 17.546171 16711746
18.600195 -19.951513 13.731429 16711746
18.308659 -24.355614 13.172442 16711746
-0.72652984 -19.686998 16.528913 16711746
6.7729321 -22.699776 18.79756 16711746
18.351049 -34.370342 33.399757 16711746
14.680868 -25.346081 28.874468 16711746
19.329206 -25.464214 25.909302 16711746
9.199892 -18.875618 14.1066 16711746
17.314257 -27.87709 25.505451 16711746
13.969551 -24.031013 17.8682 16711746
5.9628906 -25.901234 28.085339 16711746
12.935166 -24.501511 17.827427 16711746
12.960678 -22.326847 23.049856 16711746
9.6142359 -18.647018 15.643981 16711746
9.1577139 -18.173613 13.983171 16711746
17.256475 -24.069786 20.755768 16711746
22.219444 -24.906002 14.063184 16711746
-14.220104 -22.19969 26.165474 16711746
17.094316 -24.871485 22.309986 16711746
9.2941113 -20.965092 14.949088 16711746
7.5737367 -20.601559 16.023016 16711746
27.233759 -24.227858 16.140396 16711746
9.1870775 -27.128237 31.325773 16711746
13.646665 -21.405777 21.756407 16711746
5.3804197 -23.848398 27.157192 16711746
8.4124317 -20.41873 18.569885 16711746
9.6846685 -18.731251 16.724535 16711746
8.4300508 -20.592966 14.527122 16711746
15.054788 -22.338747 22.99358 16711746
14.482639 -22.948648 19.674921 16711746
13.08377 -24.189901 24.94915 16711746
15.532391 -23.293291 20.493723 16711746
10.05212 -19.408136 16.808462 16711746
13.589609 -27.63279 19.335701 16711746
29.678659 -25.194607 21.593109 16711746
7.3346643 -18.048416 13.631709 16711746
10.026661 -22.350201 18.689903 16711746
28.335375 -35.21616 34.945423 16711746
17.008718 -23.993397 20.75527 16711746
9.3486414 -24.569092 27.787884 16711746
17.585804 -25.014303 25.944881 16711746
-1.4108825 -19.579071 17.254332 16711746
19.603031 -23.827589 18.8873 16711746
17.629761 -25.98292 14.328388 16711746
33.009369 -41.158134 37.696484 16711746
27.697664 -23.578377 20.86937 16711746
27.351301 -32.589691 29.329144 16711746
21.81881 -33.281471 34.000053 16711746
17.837599 -24.178633 23.746433 16711746
12.263433 -24.202169 12.474005 16711746
4.5546741 -21.355225 23.209455 16711746
13.71068 -18.998646 21.258333 16711746
17.089451 -22.030001 18.809389 16711746
18.488081 -18.812563 12.191955 16711746
8.3945589 -22.994995 12.213956 16711746
7.2807932 -21.435274 17.998194 16711746
13.481991 -22.235083 19.074692 16711746
4.3754396 -26.375486 20.721231 16711746
6.7619433 -23.898649 20.673779 16711746
9.8028774 -19.391306 15.593679 16711746
4.9802513 -21.897636 22.915089 16711746
16.881729 -23.55278 19.630718 16711746
10.554454 -18.348646 17.554117 16711746
-6.0677571 -22.272406 15.134812 16711746
15.028859 -18.633659 15.18104 16711746
4.0064273 -24.683445 25.339859 16711746
10.022909 -18.993128 14.827152 16711746
6.7558031 -23.881392 18.983568 16711746
5.0051541 -20.9928 18.1915 16711746
20.611902 -18.196877 15.275358 16711746
16.560923 -21.19622 13.595528 16711746
9.1378326 -20.47654 14.841092 16711746
22.354311 -30.779474 31.809494 16711746
9.9639797 -27.565498 30.489914 16711746
12.65501 -22.786392 24.048361 16711746
30.916378 -38.142937 37.365604 16711746
13.184614 -19.265728 17.83639 16711746
0.34621131 -16.367819 16.874002 16711746
13.233948 -26.509558 11.816986 16711746
15.269748 -19.797062 20.981277 16711746
-4.0875244 -20.087738 15.256534 16711746
3.3578365 -27.687307 21.707432 16711746
14.859508 -19.046162 13.162154 16711746
-4.8633456 -23.065168 24.936398 16711746
12.580031 -22.093508 23.621294 16711746
10.137204 -18.747398 14.26888 16711746
1.6393418 -26.090494 26.671038 16711746
4.7097063 -30.188662 31.781076 16711746
8.8957233 -24.121729 16.985579 16711746
7.862926 -21.089481 16.833616 16711746
15.915544 -19.506794 17.62579 16711746
11.122311 -17.552179 18.287445 16711746
32.000938 -30.700329 26.438234 16711746
22.37047 -29.472366 36.196289 16711746
7.7824717 -14.580628 15.411315 16711746
13.6804 -19.16601 20.859076 16711746
16.259949 -24.928457 24.596308 16711746
25.584427 -23.554529 32.926941 16711746
21.614782 -19.508348 16.783529 16711746
-1.4377221 -27.754732 29.665667 16711746
3.1510665 -24.129997 21.435558 16711746
2.7017434 -23.423761 22.24654 16711746
8.9307823 -20.445406 17.826403 16711746
3.2683604 -23.218887 20.922253 16711746
41.449177 -40.472507 47.888767 16711746
11.153172 -20.391146 17.83452 16711746
22.209108 -29.354189 19.419037 16711746
10.049467 -21.007753 18.372841 16711746
13.266205 -20.35211 21.156328 16711746
2.6196413 -23.563614 25.392092 16711746
6.4955568 -17.491903 14.11141 16711746
16.276979 -21.155573 16.798523 16711746
17.765234 -21.747351 19.120142 16711746
10.605251 -19.876783 19.816807 16711746
11.844691 -21.203428 17.387131 16711746
16.226311 -21.175182 16.797686 16711746
5.3135538 -17.686846 14.595988 16711746
17.669897 -23.349005 15.973449 16711746
4.0701313 -24.270039 19.496117 16711746
7.9485755 -20.600657 18.635727 16711746
-0.22591141 -25.742966 21.492443 16711746
-1.5556771 -22.272684 23.141607 16711746
12.793097 -21.325022 21.702291 16711746
14.070679 -18.332375 20.940695 16711746
-7.5062566 -19.18001 12.317106 16711746
-1.6281897 -29.430218 28.800123 16711746
-0.92877084 -26.562458 29.062916 16711746
16.069582 -22.001852 21.016766 16711746
1.9310815 -22.479462 18.987598 16711746
8.4450455 -21.182194 16.824976 16711746
10.863585 -26.914898 26.580408 16711746
2.1332338 -23.335039 19.784443 16711746
-4.7704358 -22.217808 11.255298 16711746
5.0755749 -11.061521 14.801294 16711746
11.489712 -28.560884 25.067139 16711746
9.2943621 -27.000109 32.437145 16711746
10.455277 -18.989017 16.813967 16711746
10.098885 -22.040071 23.704288 16711746
23.062267 -28.27714 37.06385 16711746
23.471283 -22.403164 16.597002 16711746
9.398963 -21.309368 22.2264 16711746
22.652308 -20.908049 16.617458 16711746
-5.5096359 -23.640436 25.387907 16711746
26.684559 -34.183998 37.794071 16711746
10.104582 -27.752541 30.741085 16711746
13.337009 -24.255758 12.725224 16711746
15.04825 -21.24682 20.684286 16711746
17.39642 -20.978392 18.371801 16711746
18.341085 -21.973175 20.965334 16711746
19.437311 -28.479027 30.655779 16711746
10.658027 -22.550953 22.072468 16711746
10.282069 -18.799845 14.373813 16711746
15.579911 -19.839827 21.55505 16711746
9.0768805 -21.453165 24.477442 16711746
15.871161 -20.628838 17.883566 16711746
6.0685205 -17.174379 14.624621 16711746
12.888671 -24.478579 17.764732 16711746
14.312594 -21.787889 19.245955 16711746
9.6767464 -27.254284 30.044027 16711746
10.154779 -19.405779 17.313854 16711746
11.513795 -19.273798 19.867981 16711746
13.734404 -25.8951 27.494385 16711746
12.968323 -22.380329 16.262987 16711746
13.361539 -24.547768 25.220205 16711746
11.270028 -22.439274 23.616348 16711746
17.681507 -21.390087 18.464245 16711746
13.528237 -21.827816 21.050842 16711746
9.1413813 -25.894461 26.577271 16711746
10.348781 -21.449617 22.603373 16711746
10.893883 -19.60531 17.958523 16711746
1.0381153 -22.548521 19.654589 16711746
2.908211 -23.779978 20.95335 16711746
2.3690588 -24.35191 21.159349 16711746
2.7484708 -22.687832 21.776766 16711746
-3.5845993 -17.600279 14.804543 16711746
9.2236395 -19.156561 18.45307 16711746
0.89580268 -22.698069 19.825535 16711746
8.0533552 -25.158112 21.911085 16711746
3.1880753 -24.457567 21.643459 16711746
8.9203587 -19.56595 17.766172 16711746
1.2365339 -17.57098 16.99267 16711746
-13.096546 -22.308239 26.012552 16711746
17.055506 -19.915672 17.436937 16711746
10.310189 -17.903774 20.802696 16711746
15.186222 -31.126402 35.774799 16711746
25.35078 -30.837185 39.50404 16711746
29.165161 -26.033192 19.937874 16711746
-23.646814 -21.537022 19.976904 16711746
-6.0887136 -19.355291 17.173637 16711746
20.245539 -26.309835 33.336418 16711746
19.67415 -28.622807 30.733959 16711746
17.696917 -20.702747 19.635643 16711746
11.393483 -20.694601 21.740416 16711746
2.9649265 -23.439283 19.662706 16711746
15.27316 -24.26399 18.351374 16711746
2.3885112 -19.89352 19.981197 16711746
0.13702151 -19.944675 20.968863 16711746
-0.68505156 -19.546906 19.896667 16711746
8.4292841 -22.062016 18.793821 16711746
-0.6582337 -22.609198 16.886425 16711746
14.925858 -21.106438 20.024776 16711746
11.651175 -19.779251 20.355581 16711746
-0.22523263 -21.922556 16.67646 16711746
19.925558 -20.683237 16.565735 16711746
9.8388977 -21.781683 27.449467 16711746
10.174273 -18.990561 15.446923 16711746
11.504263 -22.299648 16.793322 16711746
14.80645 -23.918083 28.577059 16711746
10.265957 -19.598124 20.611927 16711746
14.064239 -18.772018 20.513756 16711746
-7.5035067 -23.299225 22.739769 16711746
0.61070776 -26.358994 18.250891 16711746
11.685274 -25.883715 27.385679 16711746
9.4810305 -29.285696 32.725769 16711746
15.970654 -20.465994 17.888836 16711746
12.335491 -21.515062 23.344856 16711746
-5.8363428 -21.835819 16.631403 16711746
22.455065 -22.60335 15.61588 16711746
50.241413 -47.865841 60.856514 16711746
15.005122 -22.553638 16.769548 16711746
-20.913673 -21.335602 20.975306 16711746
-0.69936985 -20.66646 20.137838 16711746
43.540127 -56.624043 63.941994 16711746
17.658304 -21.427824 20.785004 16711746
15.88641 -20.406466 19.882433 16711746
-15.32095 -25.430918 18.364883 16711746
-1.8842756 -22.861137 20.377136 16711746
10.343396 -20.046122 17.022676 16711746
-12.516739 -23.085718 17.996241 16711746
10.496846 -21.490852 21.64275 16711746
15.378892 -22.989719 20.61569 16711746
-7.2979345 -22.382174 15.519994 16711746
17.712675 -19.57761 17.762451 16711746
-17.279222 -29.996084 21.615376 16711746
-2.6973331 -20.306366 17.900339 16711746
16.600285 -19.24917 19.722105 16711746
8.9832726 -21.825539 24.535412 16711746
24.26668 -20.616138 13.333802 16711746
29.735136 -23.295948 23.628374 16711746
9.7320604 -23.635038 28.105234 16711746
-14.859904 -24.427094 24.076057 16711746
9.9250412 -19.713745 18.098568 16711746
6.218905 -22.666651 27.314587 16711746
-18.125206 -22.082081 23.289417 16711746
-10.349328 -21.848513 23.693396 16711746
-9.8262787 -22.414097 10.960821 16711746
15.835679 -22.324896 24.658966 16711746
14.968027 -28.891047 16.775738 16711746
0.47704053 -24.11624 18.915291 16711746
-0.78170592 -23.64875 17.461449 16711746
1.397208 -22.078802 16.660069 16711746
1.4596866 -19.880375 19.595135 16711746
1.1062357 -22.364992 19.632595 16711746
1.2894334 -22.417572 19.031902 16711746
16.407679 -19.639273 18.485514 16711746
13.149728 -24.262482 15.313751 16711746
12.977768 -18.512745 19.350618 16711746
-0.64582425 -23.598993 17.378485 16711746
11.122437 -19.842731 15.734007 16711746
13.002904 -22.881624 15.320023 16711746
0.79302138 -22.240011 18.620464 16711746
1.464802 -19.739832 19.492437 16711746
7.8539953 -20.307398 19.054859 16711746
0.06455934 -23.872236 18.098255 16711746
14.290218 -19.615913 19.295223 16711746
14.420804 -21.152452 21.518316 16711746
-2.8061297 -18.391867 17.541445 16711746
-4.56499 -22.871334 19.08757 16711746
-5.786262 -20.224796 15.140873 16711746
9.5944633 -24.937328 31.7967 16711746
11.988771 -24.279308 25.473232 16711746
14.054948 -21.599407 19.223118 16711746
14.057578 -20.566061 18.467464 16711746
10.373267 -23.446548 24.548674 16711746
10.573469 -21.985083 21.911964 16711746
14.201274 -23.660618 15.630445 16711746
13.244106 -23.312771 25.109024 16711746
-5.2766633 -24.633627 23.688755 16711746
14.145988 -18.222145 20.961287 16711746
8.9860687 -21.37509 21.639174 16711746
7.9045701 -23.123915 21.106661 16711746
25.238285 -28.863039 25.466614 16711746
5.9346232 -22.207918 25.324986 16711746
-5.2990384 -21.210045 16.654301 16711746
4.0475383 -16.299982 14.466391 16711746
-2.7004697 -23.328348 22.057493 16711746
12.937496 -22.278593 23.117434 16711746
14.634541 -30.384535 32.812176 16711746
17.63899 -19.710485 16.761377 16711746
2.61361 -24.874376 29.684916 16711746
16.151251 -20.907858 20.038649 16711746
5.2439394 -28.20405 31.018641 16711746
2.853549 -25.043365 28.219191 16711746
-16.912989 -24.987623 28.005642 16711746
5.7003317 -21.926645 23.290789 16711746
-11.657019 -27.450119 15.674026 16711746
16.359838 -42.809856 38.839279 16711746
16.191853 -28.387865 31.642214 16711746
13.679502 -22.044493 17.610058 16711746
13.944016 -23.446041 17.978287 16711746
-6.149466 -16.82221 12.965836 16711746
-3.413322 -19.426098 15.91009 16711746
8.2247934 -19.732981 20.076992 16711746
-3.8742342 -15.107413 16.343849 16711746
-1.8492633 -26.434217 15.124755 16711746
-1.8147501 -21.294369 17.800669 16711746
12.877025 -23.035648 16.019573 16711746
9.88696 -18.337214 17.85788 16711746
7.2428045 -20.864933 20.003759 16711746
17.466951 -20.327335 20.083729 16711746
20.153334 -21.563641 19.772282 16711746
-7.2115207 -23.28861 18.476488 16711746
-14.783354 -24.95562 18.239086 16711746
14.921601 -17.58143 20.538149 16711746
9.2086945 -21.458502 20.030565 16711746
9.4231224 -20.592468 17.540339 16711746
10.108082 -19.164961 17.928957 16711746
17.674847 -21.566967 20.306789 16711746
9.4899473 -18.930138 15.346719 16711746
9.7072544 -20.870651 22.636934 16711746
13.710945 -16.98621 19.612925 16711746
15.592095 -18.515442 21.6682 16711746
13.730974 -19.573303 21.419779 16711746
9.0672216 -20.150898 20.400455 16711746
0.077828713 -23.589468 16.734541 16711746
9.0290632 -19.388929 17.55518 16711746
11.374886 -18.481415 19.564192 16711746
11.971889 -19.069782 20.874706 16711746
-3.3127482 -21.922329 14.385883 16711746
14.466579 -18.591965 20.270704 16711746
24.818262 -25.71476 24.165207 16711746
8.9658623 -24.103674 29.177258 16711746
6.6132417 -18.591732 20.18137 16711746
5.996707 -21.304941 22.947977 16711746
15.27301 -29.380556 34.910633 16711746
6.1490169 -19.830366 20.587378 16711746
16.120705 -17.744938 26.94655 16711746
10.99466 -20.56428 21.902679 16711746
17.184437 -20.749794 17.825884 16711746
33.274872 -43.171673 51.932697 16711746
-9.9597168 -23.843744 13.935391 16711746
35.424465 -33.19482 44.333107 16711746
6.8719177 -24.811539 19.757164 16711746
-13.483201 -23.550762 25.709049 16711746
9.7139797 -18.919437 15.690061 16711746
9.5210791 -24.15531 31.281448 16711746
-17.128546 -26.227375 26.96018 16711746
15.724707 -20.715918 20.394825 16711746
23.993761 -21.728355 18.790874 16711746
7.9806023 -20.075274 17.944973 16711746
10.179544 -17.384808 18.837675 16711746
9.6615086 -21.380472 17.175798 16711746
11.597853 -18.662962 18.933914 16711746
11.34155 -17.889666 18.789839 16711746
16.36339 -19.732895 22.284733 16711746
14.374992 -19.605616 22.491013 16711746
5.3206024 -20.750046 22.584776 16711746
15.301266 -21.17034 24.003601 16711746
-3.6565936 -24.108688 24.894886 16711746
-9.7607031 -26.464279 28.745893 16711746
7.8658752 -27.926466 31.00008 16711746
7.3202729 -20.450712 19.763462 16711746
7.8343806 -18.730173 18.094927 16711746
15.643678 -21.02066 19.748287 16711746
-1.1739044 -21.643461 22.989527 16711746
16.716558 -29.964396 25.640041 16711746
-3.0552495 -35.784576 25.989744 16711746
6.2146378 -22.141693 26.676134 16711746
13.679406 -22.602667 30.856436 16711746
13.109686 -21.964396 23.01133 16711746
2.9269845 -32.455181 32.741192 16711746
8.8617496 -19.64399 22.175301 16711746
14.253514 -20.6287 21.416422 16711746
16.894211 -19.441368 19.317036 16711746
6.9651709 -23.391878 25.539522 16711746
8.0121927 -19.183044 18.667797 16711746
9.2093315 -23.641529 17.15494 16711746
4.8770161 -23.962364 25.342684 16711746
-3.1805348 -25.508795 24.619225 16711746
5.6234465 -19.286367 24.63541 16711746
11.962934 -18.28178 20.047821 16711746
10.998936 -20.887094 20.592329 16711746
15.301736 -18.974524 21.677008 16711746
4.5839844 -23.08119 23.067726 16711746
13.280605 -21.581167 18.198078 16711746
16.269861 -22.21806 19.081305 16711746
12.681116 -20.740303 22.458511 16711746
10.40327 -17.881365 17.511099 16711746
11.70343 -21.868166 22.500547 16711746
9.3149853 -20.556644 16.87277 16711746
-0.77642798 -23.407175 21.308321 16711746
15.098857 -19.31534 22.764345 16711746
23.452549 -25.872772 21.525408 16711746
4.1973186 -27.327963 27.550934 16711746
15.091694 -19.737394 18.837641 16711746
7.0238523 -21.808043 17.655619 16711746
1.6672949 -24.538599 22.272505 16711746
10.076138 -17.679756 18.491163 16711746
9.0019293 -19.928921 20.75709 16711746
13.739984 -19.160769 20.89822 16711746
14.64275 -21.693161 16.584435 16711746
8.4300938 -19.088692 18.573275 16711746
-20.155365 -26.21637 28.592676 16711746
15.080629 -19.15218 22.548483 16711746
16.688839 -18.950666 22.178394 16711746
8.3664751 -21.828497 19.834143 16711746
-6.7501655 -28.237007 31.208891 16711746
-5.2151432 -26.061583 23.845217 16711746
13.502084 -28.609938 30.157787 16711746
10.784122 -17.915228 19.207767 16711746
12.337194 -16.809544 25.497215 16711746
15.946382 -19.587151 19.168947 16711746
9.6787548 -20.584169 20.391542 16711746
-7.4191494 -32.793777 35.693707 16711746
-9.424304 -30.588001 36.170921 16711746
16.841835 -19.447405 19.387505 16711746
12.866686 -18.355042 20.324369 16711746
12.005175 -17.826374 18.895437 16711746
15.736561 -24.971199 21.71386 16711746
4.6976957 -22.342106 27.427111 16711746
14.193511 -19.335651 19.324772 16711746
15.357909 -16.613684 22.675188 16711746
7.9625721 -20.087091 17.49679 16711746
16.553305 -20.815918 24.657007 16711746
12.543929 -21.717361 23.281675 16711746
14.687112 -20.010517 22.812222 16711746
11.596653 -18.134884 19.778008 16711746
13.745928 -19.430086 22.045195 16711746
15.079539 -15.893113 16.812208 16711746
20.358858 -25.431759 19.637644 16711746
12.731875 -17.446705 22.330429 16711746
7.2521605 -22.015711 18.030006 16711746
5.7682648 -21.873762 25.807451 16711746
-1.4156246 -22.569551 21.981804 16711746
12.020067 -19.314463 19.537703 16711746
3.256964 -23.581699 19.541088 16711746
12.472156 -25.641554 26.845669 16711746
14.662558 -23.356146 30.363621 16711746
18.928967 -24.319696 27.844145 16711746
3.2980335 -26.773781 25.147266 16711746
6.7594504 -24.143951 26.66803 16711746
3.3548346 -23.281061 19.467482 16711746
6.1595774 -23.336838 26.85121 16711746
14.22799 -18.33198 20.953676 16711746
-6.6298862 -25.500732 24.008738 16711746
-9.7869902 -27.566271 27.769075 16711746
8.3422747 -20.107479 23.00416 16711746
-6.0586724 -28.943792 25.084009 16711746
20.075914 -25.950094 32.967457 16711746
19.454967 -15.506638 18.240751 16711746
3.7154069 -23.122881 21.409662 16711746
18.491945 -26.196312 28.320992 16711746
3.9059823 -22.375137 21.201433 16711746
14.557965 -24.187489 17.787455 16711746
14.308477 -20.49482 24.454077 16711746
15.539684 -20.277534 23.309475 16711746
5.6461105 -22.350431 24.70689 16711746
11.839826 -18.102079 24.020281 16711746
14.433308 -21.507269 21.673708 16711746
12.100767 -19.893473 21.151762 16711746
13.996052 -22.961445 28.075165 16711746
14.868055 -19.867859 23.82443 16711746
16.236143 -19.361858 19.95647 16711746
10.717224 -19.09355 17.589205 16711746
12.066217 -17.321798 20.79001 16711746
10.734817 -17.877338 17.053276 16711746
7.9972334 -20.45882 17.20138 16711746
6.1785603 -21.611147 25.470648 16711746
11.917962 -19.290972 23.841593 16711746
4.3770542 -21.664513 24.540354 16711746
11.889799 -18.071898 19.997683 16711746
9.671999 -17.415796 18.451931 16711746
14.374952 -17.701632 21.436819 16711746
11.39352 -18.412292 18.868938 16711746
12.685138 -21.207645 24.047579 16711746
16.055124 -21.466753 34.577019 16711746
10.009346 -17.64115 19.110056 16711746
10.38873 -21.100033 22.315163 16711746
13.454993 -19.526411 18.412786 16711746
21.107452 -24.651011 18.849804 16711746
15.647646 -21.236502 33.098282 16711746
12.009441 -28.085335 27.420294 16711746
12.798846 -18.342358 20.392868 16711746
7.1425667 -20.157263 18.724764 16711746
12.257156 -18.902601 18.878275 16711746
16.559368 -32.782307 40.984791 16711746
19.181475 -21.434935 32.486996 16711746
-11.238366 -25.701885 14.637712 16711746
27.466944 -23.716505 19.392492 16711746
2.6069248 -28.909178 34.329079 16711746
-11.254958 -34.372017 34.263004 16711746
-12.637277 -25.050423 18.428995 16711746
24.510368 -28.108791 20.634756 16711746
1.400448 -17.694033 19.295568 16711746
3.1329236 -27.419413 36.205643 16711746
10.97967 -20.426472 21.862837 16711746
5.7460961 -22.813366 25.698799 16711746
7.2036548 -20.813993 18.442495 16711746
6.7259431 -21.700169 25.168354 16711746
14.442513 -17.331491 20.554943 16711746
0.31788656 -29.343372 28.776768 16711746
8.3711834 -23.399948 21.735004 16711746
3.6258607 -23.608828 25.905334 16711746
14.644646 -20.48539 22.646463 16711746
-1.8662461 -21.60968 21.255049 16711746
7.5862179 -21.682306 18.68362 16711746
14.571144 -17.818827 19.333097 16711746
12.462755 -19.988987 20.851673 16711746
-3.3781409 -25.796053 20.672075 16711746
5.3280277 -25.150648 29.274559 16711746
10.151381 -30.223595 34.331619 16711746
6.6118259 -20.687422 18.171833 16711746
9.8082323 -16.172562 18.182909 16711746
13.84927 -18.978033 19.308552 16711746
12.888031 -17.528521 18.809191 16711746
5.0678515 -14.894418 17.34915 16711746
8.081728 -17.556915 20.249928 16711746
-8.6183205 -22.185133 19.190426 16711746
-0.10922938 -32.227558 27.552452 16711746
2.9219625 -24.169073 23.646904 16711746
-13.977443 -22.902365 17.16876 16711746
-0.39933157 -14.754365 16.176937 16711746
11.014752 -9.7083645 20.682178 16711746
22.181168 -19.339819 18.425539 16711746
3.2278495 -21.23435 19.526917 16711746
2.6508484 -22.622 19.731123 16711746
1.2034639 -30.389767 32.765026 16711746
0.59578693 -28.714302 26.431965 16711746
8.4398565 -19.556759 19.741186 16711746
10.544969 -18.302202 17.253901 16711746
9.7299433 -18.179012 17.809082 16711746
13.41521 -15.800743 21.214495 16711746
15.260531 -16.900345 21.109587 16711746
8.2420902 -20.190145 18.265875 16711746
12.509844 -17.045195 21.111149 16711746
6.7839851 -20.662842 19.920225 16711746
12.171984 -18.286238 20.275465 16711746
1.5130713 -26.289324 34.935478 16711746
7.2500563 -20.787361 18.27479 16711746
9.6684465 -18.853783 17.777769 16711746
6.7223363 -20.404556 20.140583 16711746
8.9659262 -21.105116 20.830931 16711746
10.556896 -18.539618 18.925756 16711746
14.754209 -16.227715 20.899702 16711746
10.247355 -16.694984 18.821398 16711746
10.775401 -18.362015 19.082731 16711746
5.6153307 -23.109787 18.697094 16711746
12.5594 -17.555784 21.252806 16711746
12.119246 -20.126478 22.82976 16711746
13.311142 -21.766201 18.10413 16711746
9.4946966 -18.986122 19.549952 16711746
10.888984 -11.87696 22.041679 16711746
25.440088 -30.050823 29.592806 16711746
14.826949 -18.064817 19.703424 16711746
4.3106766 -23.847078 25.607529 16711746
24.305229 -27.11631 28.753881 16711746
12.63678 -17.766432 21.304577 16711746
19.660303 -26.071747 31.275606 16711746
2.6195512 -22.373034 20.671766 16711746
14.844268 -17.80415 21.327158 16711746
5.6746998 -21.815742 23.944302 16711746
16.285223 -22.982023 19.418238 16711746
-20.35656 -27.101715 22.656311 16711746
16.720695 -18.998066 19.772213 16711746
-5.3406734 -28.973455 24.707598 16711746
-11.565428 -25.049564 15.776384 16711746
5.4444122 -22.087484 24.761126 16711746
10.237065 -33.831841 38.746197 16711746
13.782125 -28.322578 31.107311 16711746
-18.452106 -24.344778 17.211613 16711746
-7.4574013 -26.590963 26.188169 16711746
36.873802 -35.000904 42.065842 16711746
4.004909 -23.450943 20.204647 16711746
11.644944 -21.035458 24.194412 16711746
2.6553192 -24.467594 22.66641 16711746
5.7757907 -22.172365 19.81337 16711746
2.3529539 -25.015842 21.845972 16711746
-12.613073 -25.610355 18.456223 16711746
4.4868383 -22.258343 23.630091 16711746
14.86451 -18.51008 22.318035 16711746
6.5663872 -21.189512 23.37112 16711746
7.8809152 -19.908512 18.800768 16711746
15.077879 -21.3613 18.616703 16711746
-2.8084567 -21.524899 15.383721 16711746
6.0683131 -20.84852 18.715229 16711746
14.636162 -17.925877 22.148226 16711746
12.86224 -16.886206 21.300661 16711746
8.1367569 -20.15037 17.232677 16711746
22.800638 -25.056128 24.323992 16711746
12.912666 -26.674829 27.77524 16711746
-0.87273949 -28.229607 25.710371 16711746
14.562941 -17.838612 22.105768 16711746
17.37534 -19.9529 26.804964 16711746
14.830287 -17.31612 23.10202 16711746
11.782965 -15.766244 26.40766 16711746
19.733603 -19.211334 21.125662 16711746
5.3399768 -22.881964 19.598103 16711746
11.371689 -16.406874 22.08338 16711746
13.651191 -15.881835 21.647417 16711746
8.4607992 -19.943424 18.534758 16711746
4.6013737 -23.545452 23.360153 16711746
15.602412 -19.056683 23.731848 16711746
12.10348 -14.82131 25.268246 16711746
14.302873 -17.689051 23.522703 16711746
13.218984 -27.521322 29.162394 16711746
14.304077 -16.627745 22.78816 16711746
14.696047 -16.226538 21.107506 16711746
10.408839 -20.195778 22.115498 16711746
13.361218 -17.116655 20.583832 16711746
2.9832258 -17.513636 21.147682 16711746
10.653728 -17.487759 19.879576 16711746
19.508444 -18.977879 21.043514 16711746
16.040104 -20.202049 26.872644 16711746
18.455915 -21.645943 27.807947 16711746
11.563162 -17.704136 23.521336 16711746
14.296495 -16.146687 21.045137 16711746
10.487425 -19.400545 19.862032 16711746
7.0853076 -18.923296 20.329821 16711746
7.2013845 -19.321829 18.643364 16711746
14.887315 -17.690773 20.581367 16711746
20.180315 -18.850742 22.215117 16711746
14.381444 -16.770931 22.867094 16711746
10.855702 -20.585548 24.48077 16711746
4.8440642 -21.618723 23.470655 16711746
-0.71083844 -24.864164 22.8887 16711746
20.013119 -18.399343 18.712875 16711746
9.5503674 -19.341618 23.500256 16711746
11.556722 -19.294258 19.748749 16711746
1.2376155 -22.174534 19.695066 16711746
9.9926348 -20.557854 23.267691 16711746
14.440769 -18.124573 30.135178 16711746
13.991158 -19.08156 23.888422 16711746
14.886065 -16.397314 21.111029 16711746
9.3159685 -19.661411 17.227085 16711746
6.0285439 -19.906832 23.511278 16711746
16.795574 -19.566994 26.026888 16711746
18.106081 -21.084574 27.500696 16711746
11.142222 -17.955564 21.589661 16711746
7.1680551 -20.927965 25.325882 16711746
-12.53296 -33.100559 29.860706 16711746
22.772087 -25.285261 24.337362 16711746
10.511746 -17.541811 19.274416 16711746
6.0207934 -23.192787 27.554247 16711746
3.2888353 -24.882473 29.055653 16711746
-4.2578363 -24.968542 20.301277 16711746
13.861 -16.449791 20.416309 16711746
11.394917 -19.155626 20.697895 16711746
-9.6665792 -23.761457 26.69351 16711746
8.9054928 -19.330215 22.607489 16711746
-14.349557 -32.141438 31.114882 16711746
14.898912 -27.351564 28.807732 16711746
4.0108442 -27.879589 29.985899 16711746
2.177866 -23.272234 20.850847 16711746
-3.4766381 -18.061441 24.295286 16711746
-14.605593 -26.058111 17.15885 16711746
0.32386267 -25.599474 16.884396 16711746
3.2781386 -19.860964 22.075468 16711746
2.3634512 -26.254383 30.490782 16711746
-2.7438676 -33.216606 32.082127 16711746
3.8745213 -21.473364 24.70853 16711746
-1.9609995 -24.982199 25.22471 16711746
-1.0939002 -22.977633 26.035063 16711746
8.5630159 -18.193327 20.710577 16711746
9.7884369 -18.896498 21.160194 16711746
12.22103 -14.954108 21.228447 16711746
3.8465447 -17.714344 19.201275 16711746
11.593905 -16.17421 20.642054 16711746
12.88545 -14.960922 20.506485 16711746
6.9106269 -20.532759 20.503378 16711746
10.942589 -15.738369 19.485931 16711746
10.688821 -17.696848 19.392303 16711746
9.6814556 -18.52474 22.428715 16711746
8.2395449 -16.466505 19.741699 16711746
4.4335938 -21.321968 24.612286 16711746
9.1015482 -17.761803 18.646465 16711746
3.8282547 -19.671255 20.368822 16711746
6.515079 -22.7826 19.910196 16711746
0.0044910298 -26.757278 27.789938 16711746
20.631636 -23.895891 27.68453 16711746
3.6970494 -22.359234 25.217436 16711746
9.8334599 -17.216213 21.271677 16711746
3.4507113 -23.471786 26.986843 16711746
11.303469 -19.835611 25.007195 16711746
-32.49892 -34.488335 33.773518 16711746
3.0813708 -22.020529 19.536484 16711746
1.2023116 -21.288559 18.294502 16711746
-0.50219762 -34.3675 31.687445 16711746
-1.3013786 -27.735397 29.012388 16711746
12.611467 -19.209555 22.345833 16711746
0.29280257 -20.714174 25.085867 16711746
-3.6934073 -28.028381 31.638731 16711746
11.84614 -16.92758 21.813478 16711746
-20.100658 -22.150263 22.595602 16711746
13.557673 -15.558761 21.621696 16711746
10.574191 -17.729002 22.214151 16711746
5.2754412 -18.417007 23.611256 16711746
11.706621 -18.075211 22.863428 16711746
4.6091647 -18.825108 21.64122 16711746
13.543962 -16.216555 20.527533 16711746
3.1292441 -20.521057 19.848097 16711746
4.5361319 -15.433287 19.715359 16711746
1.9031494 -22.143789 17.844921 16711746
8.8542747 -23.386435 28.171944 16711746
16.669729 -16.311543 23.482523 16711746
3.3039925 -25.54817 29.56592 16711746
-22.988707 -27.780331 29.587969 16711746
17.088848 -20.291367 19.168188 16711746
8.0445795 -25.524199 21.218506 16711746
3.8431704 -19.312223 20.180185 16711746
-0.39109981 -19.47554 22.941034 16711746
5.5166011 -19.177155 21.849771 16711746
2.5663283 -18.741261 18.540495 16711746
11.318413 -17.068497 21.64386 16711746
9.7755022 -17.980772 21.117451 16711746
9.4208984 -16.454512 21.674868 16711746
1.644304 -18.881037 20.621773 16711746
-2.4916806 -18.689537 18.928938 16711746
0.13364391 -20.323034 20.236759 16711746
2.6984529 -17.192257 19.816191 16711746
10.482256 -14.545421 19.581568 16711746
-0.40689698 -17.846399 22.985928 16711746
8.9362249 -15.136246 19.284088 16711746
12.697034 -15.514058 21.714918 16711746
8.2570877 -16.838821 19.546452 16711746
2.480376 -15.505938 21.203344 16711746
10.643856 -16.869612 21.054403 16711746
13.998559 -15.980328 22.56587 16711746
12.803937 -16.476437 21.439125 16711746
0.89822239 -17.547085 19.347376 16711746
-2.3831973 -29.466413 30.496693 16711746
2.297291 -22.112793 20.966347 16711746
10.788238 -15.627409 22.054386 16711746
9.7546549 -14.895158 20.717554 16711746
9.9865026 -18.457237 23.665873 16711746
-8.2333279 -32.539841 34.582787 16711746
-15.46314 -24.696341 18.399225 16711746
11.539714 -14.974668 19.817343 16711746
13.737411 -16.11305 22.939878 16711746
0.60212696 -16.758846 22.499506 16711746
11.86359 -24.279713 25.071453 16711746
-10.072168 -21.906399 18.650362 16711746
12.040427 -13.728078 25.587523 16711746
3.5317879 -22.627396 19.565491 16711746
11.947263 -15.964895 23.873598 16711746
-5.4871168 -25.590834 24.267927 16711746
11.023129 -16.731792 22.272575 16711746
9.8634539 -15.549924 20.062286 16711746
11.800052 -17.777319 22.835415 16711746
9.8545609 -16.546772 22.69611 16711746
12.040156 -16.18906 23.464287 16711746
10.355329 -17.906397 21.497887 16711746
13.399791 -15.82832 21.918135 16711746
12.257587 -16.885578 23.404703 16711746
7.2718568 -17.52585 18.772354 16711746
12.09204 -16.844217 22.36245 16711746
20.590532 -19.313471 22.226784 16711746
-3.4991329 -20.298119 26.346527 16711746
13.589475 -14.426375 19.907211 16711746
15.282745 -17.403877 26.244278 16711746
14.014588 -14.14365 22.787971 16711746
-2.3302164 -22.59639 24.554659 16711746
-3.5674882 -21.190426 20.006401 16711746
15.580577 -19.02846 24.499012 16711746
12.572579 -16.221504 22.529146 16711746
-1.3919985 -23.610535 26.141909 16711746
13.043526 -14.611237 22.499142 16711746
13.259508 -15.892469 22.566366 16711746
13.442836 -14.71264 22.202497 16711746
3.167546 -19.049187 18.701569 16711746
12.959867 -15.33415 21.4252 16711746
10.348227 -15.871207 21.785885 16711746
12.164903 -15.570807 21.873484 16711746
6.5501795 -16.846607 19.524977 16711746
13.723079 -15.029547 22.483156 16711746
13.041651 -15.713533 22.036829 16711746
11.6176 -17.586351 22.329388 16711746
-0.083770618 -19.365854 20.679834 16711746
5.9894471 -18.531141 19.504032 16711746
12.860592 -14.394757 20.19849 16711746
17.890167 -16.109066 21.60478 16711746
13.654675 -14.489488 20.557575 16711746
12.719705 -13.754066 19.995079 16711746
12.075712 -16.01895 20.130516 16711746
11.980441 -16.404591 22.287508 16711746
12.435908 -17.388676 23.578165 16711746
15.878459 -16.991867 23.758108 16711746
11.47954 -16.22541 20.623844 16711746
-0.97198147 -20.016966 16.739752 16711746
3.1742508 -16.886295 20.026203 16711746
13.542486 -15.882138 21.867722 16711746
1.3342706 -20.040762 22.134748 16711746
16.194984 -18.20154 25.439922 16711746
17.016775 -18.085173 25.465132 16711746
2.4313548 -21.1584 21.275795 16711746
10.580528 -18.825754 22.435944 16711746
3.5583491 -25.368908 22.643173 16711746
-8.44625 -28.818171 27.562809 16711746
1.6857916 -26.009039 22.131256 16711746
-1.8723016 -24.743011 22.936148 16711746
14.068338 -15.814718 22.490513 16711746
-3.1143389 -21.856617 25.526531 16711746
10.640656 -17.987253 20.633261 16711746
13.417825 -14.497811 22.163816 16711746
13.064353 -17.928169 27.841059 16711746
15.532524 -16.517027 23.603531 16711746
13.451403 -14.662443 22.183441 16711746
12.964767 -15.377941 22.247244 16711746
14.332038 -13.39281 22.440742 16711746
14.244708 -19.161943 29.998766 16711746
12.287616 -16.475546 21.438393 16711746
15.219346 -15.561534 26.507822 16711746
12.648248 -16.298061 26.872459 16711746
16.242241 -16.357155 29.334768 16711746
16.403242 -17.039198 24.095541 16711746
13.705372 -14.702799 22.427492 16711746
