# .PCD v.7 - Point Cloud Data file format
VERSION .7
FIELDS x y z rgb
SIZE 4 4 4 4
TYPE F F F F
COUNT 1 1 1 1
WIDTH 160
HEIGHT 1
VIEWPOINT 0 0 0 1 0 0 0
POINTS 160
DATA ascii

 0.0524852 0.0081993 -0.1079620 16777215
 0.0525084 0.0082620 -0.1079866 16777215
 0.0531509 0.0089926 -0.1080229 16777215
 0.0532122 0.0090646 -0.1080232 16777215
 0.0527893 0.0093969 -0.1087651 16777215
 0.0525423 0.0103608 -0.1084784 16777215
 0.0517026 0.0098031 -0.1091922 16777215
 0.0508015 0.0089759 -0.1090628 16777215
 0.0512077 0.0089632 -0.1087912 16777215
 0.0492425 0.0084287 -0.1096107 16777215
 0.0477313 0.0086301 -0.1097547 16777215
 0.0475419 0.0106924 -0.1102601 16777215
 0.0482318 0.0106880 -0.1110677 16777215
 0.0496710 0.0127475 -0.1135362 16777215
 0.0502552 0.0174987 -0.1153785 16777215
 0.0497431 0.0189539 -0.1189339 16777215
 0.0471390 0.0192269 -0.1182527 16777215
 0.0434098 0.0217199 -0.1201446 16777215
 0.0434908 0.0244748 -0.1213934 16777215
 0.0364982 0.0261935 -0.1306477 16777215
 0.0330045 0.0301296 -0.1567467 16777215
 0.0247955 0.0284637 -0.1881980 16777215
 0.0294990 0.0278026 -0.1653982 16777215
 0.0335479 0.0203625 -0.1444264 16777215
 0.0457815 0.0149806 -0.1165124 16777215
 0.0513140 0.0088562 -0.1091891 16777215
 0.0548663 0.0019537 -0.1021574 16777215
 0.0607709 -0.0108249 -0.0686615 16777215
 0.0767678 -0.0089829 -0.0128109 16777215
 0.0871057 -0.0021015 0.0389716 16777215
 0.1029702 -0.0367115 0.0675739 16777215
 0.1038156 -0.0520468 0.0956900 16777215
 0.1169606 -0.0482297 0.1359128 16777215
 0.1427069 -0.0590347 0.1674046 16777215
 0.1517318 -0.0730224 0.1971649 16777215
 0.1614030 -0.1008393 0.2245099 16777215
 0.1861468 -0.1175614 0.2538202 16777215
 0.2224294 -0.1359468 0.3100769 16777215
 0.2207109 -0.1521090 0.3529420 16777215
 0.2492465 -0.1687840 0.3889729 16777215
 0.2778805 -0.1918296 0.4217740 16777215
 0.2979775 -0.2173024 0.4636684 16777215
 0.3077207 -0.2407431 0.4941794 16777215
 0.3100768 -0.2606232 0.5187587 16777215
 0.3414149 -0.2729166 0.5515513 16777215
 0.3600490 -0.2804733 0.6094893 16777215
 0.3939469 -0.3127056 0.6321830 16777215
 0.3925737 -0.3556143 0.6629859 16777215
 0.4113159 -0.3587787 0.7033043 16777215
 0.4412993 -0.3621252 0.7528672 16777215
 0.4714553 -0.3849665 0.7928952 16777215
 0.4974772 -0.3899974 0.8541404 16777215
 0.5215207 -0.4026162 0.8971075 16777215
 0.5450828 -0.4181298 0.9461142 16777215
 0.5832785 -0.4246059 1.0043200 16777215
 0.5931610 -0.4598349 1.0479933 16777215
 0.5952943 -0.4758574 1.0796052 16777215
 0.6131178 -0.4889132 1.1100705 16777215
 0.6393388 -0.5157139 1.1369052 16777215
 0.6667526 -0.5298105 1.1665454 16777215
 0.6648647 -0.5114077 1.1947181 16777215
 0.6956351 -0.5166966 1.2409990 16777215
 0.6771864 -0.4987120 1.2677299 16777215
 0.6874064 -0.4791201 1.2939686 16777215
 0.7150757 -0.4793712 1.3191028 16777215
 0.7403053 -0.4757835 1.3409212 16777215
 0.7544539 -0.4837149 1.3724465 16777215
 0.7679407 -0.4910707 1.4122293 16777215
 0.7839310 -0.5071658 1.4426323 16777215
 0.8433200 -0.5042909 1.4759004 16777215
 0.8408359 -0.5028940 1.5279624 16777215
 0.8627084 -0.5297595 1.5907806 16777215
 0.8891801 -0.5358726 1.6290810 16777215
 0.9088205 -0.5383599 1.6678274 16777215
 0.9231133 -0.5330669 1.7234762 16777215
 0.9265331 -0.5457173 1.7669282 16777215
 0.9314796 -0.5459805 1.8143591 16777215
 0.9303620 -0.5701421 1.8484831 16777215
 0.9601375 -0.5540355 1.8912778 16777215
 0.9702659 -0.5704181 1.9179109 16777215
 0.9773110 -0.5682190 1.9571736 16777215
 0.9912101 -0.5792618 1.9892410 16777215
 0.9998710 -0.5747038 2.0394053 16777215
 1.0129728 -0.5895709 2.0577664 16777215
 1.0247715 -0.6039619 2.1012182 16777215
 1.0208150 -0.5826245 2.1789892 16777215
 1.0518023 -0.6205547 2.2015214 16777215
 1.0460223 -0.6120405 2.2046278 16777215
 1.0666279 -0.6210938 2.2509010 16777215
 1.0497690 -0.6015359 2.3288732 16777215
 1.0314783 -0.5790042 2.3804452 16777215
 1.0192504 -0.5818180 2.4164033 16777215
 1.0341401 -0.5898550 2.4394834 16777215
 1.0611428 -0.4689074 2.5089631 16777215
 1.0620477 -0.4369770 2.6153085 16777215
 1.0892863 -0.4766067 2.6502814 16777215
 1.0990458 -0.5103597 2.6721942 16777215
 1.0461066 -0.5365651 2.6684277 16777215
 1.0423814 -0.5425708 2.7057281 16777215
 1.0776983 -0.5209830 2.7392721 16777215
 1.0884585 -0.5153194 2.7614486 16777215
 1.1002949 -0.5239857 2.7964129 16777215
 1.1040900 -0.5373383 2.8192220 16777215
 1.1198447 -0.5597814 2.8412342 16777215
 1.1017398 -0.5457288 2.8833914 16777215
 1.0809795 -0.5801712 2.9112473 16777215
 1.1021242 -0.5856789 2.9696422 16777215
 1.0774459 -0.6009325 2.9800687 16777215
 1.0631475 -0.6190039 2.9997694 16777215
 1.0819921 -0.6304899 3.0378296 16777215
 1.1058140 -0.6529101 3.0707765 16777215
 1.1276672 -0.6537218 3.1177993 16777215
 1.1460544 -0.6767098 3.1450622 16777215
 1.1407175 -0.7083435 3.1776521 16777215
 1.1463633 -0.7260399 3.2054706 16777215
 1.1858982 -0.7262475 3.2434733 16777215
 1.1991676 -0.7402670 3.2737229 16777215
 1.2188849 -0.7560746 3.2993741 16777215
 1.2365003 -0.7589273 3.3181858 16777215
 1.2574253 -0.7614197 3.3407815 16777215
 1.2616416 -0.7656449 3.3621361 16777215
 1.2625955 -0.7688271 3.3929570 16777215
 1.2698567 -0.7793976 3.4090624 16777215
 1.2923470 -0.7256799 3.4593663 16777215
 1.2892853 -0.7416936 3.4865661 16777215
 1.2946366 -0.7498146 3.5096340 16777215
 1.2943132 -0.7553576 3.5340691 16777215
 1.3153719 -0.7418256 3.5618758 16777215
 1.3228309 -0.7331602 3.6102087 16777215
 1.3355470 -0.7440656 3.6394782 16777215
 1.3446491 -0.7497371 3.6796069 16777215
 1.3806694 -0.7461209 3.7218184 16777215
 1.3676115 -0.7477523 3.7762718 16777215
 1.3610802 -0.7627317 3.8035166 16777215
 1.3612070 -0.7691242 3.8351533 16777215
 1.3524727 -0.7700742 3.8914144 16777215
 1.3666321 -0.7852187 3.9200547 16777215
 1.3840052 -0.7748188 3.9662461 16777215
 1.4025453 -0.7806842 4.0176764 16777215
 1.3828771 -0.7875490 4.0856471 16777215
 1.3954275 -0.7813448 4.1277728 16777215
 1.4196318 -0.7639149 4.1655526 16777215
 1.4251447 -0.7809354 4.2042866 16777215
 1.4389709 -0.7813485 4.2335954 16777215
 1.4606757 -0.7511468 4.2700930 16777215
 1.4725183 -0.7736366 4.2921524 16777215
 1.4692779 -0.7811768 4.3150558 16777215
 1.4764955 -0.7688140 4.3438158 16777215
 1.4923493 -0.7636800 4.3690081 16777215
 1.4981291 -0.7641131 4.3894243 16777215
 1.5141131 -0.7835045 4.4108596 16777215
 1.5206630 -0.7563033 4.4513316 16777215
 1.5430830 -0.7756717 4.4720993 16777215
 1.5515966 -0.7801806 4.4834862 16777215
 1.5529585 -0.7933377 4.5070486 16777215
 1.5552771 -0.7914708 4.5197930 16777215
 1.5689263 -0.7812579 4.5320644 16777215
 1.5700009 -0.7906066 4.5429626 16777215
 1.5548120 -0.7996364 4.5455241 16777215
 1.5544685 -0.7954009 4.5571098 16777215
