# .PCD v.7 - Point Cloud Data file format
VERSION .7
FIELDS x y z rgb
SIZE 4 4 4 4
TYPE F F F F
COUNT 1 1 1 1
WIDTH 145
HEIGHT 1
VIEWPOINT 0 0 0 1 0 0 0
POINTS 145
DATA ascii

0.8768413 -0.7993883 0.1375540 16711746
0.9272522 -0.8160340 0.2417985 16711746
0.8483699 -0.8015456 0.2120627 16711746
0.6063043 -0.9166279 -0.0159686 16711746
0.0198501 -1.3553420 0.2099507 16711746
0.3877278 -0.8178548 0.7657592 16711746
0.8971776 -0.7798405 0.0290857 16711746
0.6598340 -1.0329566 0.1890098 16711746
0.7701802 -0.9270771 0.1356874 16711746
0.7746028 -0.9289177 0.1171211 16711746
0.6556447 -0.8838446 -0.0576490 16711746
0.6770834 -0.9543276 -0.0444447 16711746
0.8440230 -0.7437918 0.3153280 16711746
0.5136473 -0.9796728 0.0290851 16711746
0.6314331 -1.1250976 0.0069175 16711746
0.5369520 -1.1666894 0.2565125 16711746
0.5745442 -0.9342401 0.0315088 16711746
0.0692286 -1.2653657 0.0326978 16711746
0.8180335 -0.8918644 0.0861027 16711746
0.8200933 -0.8984000 0.0584717 16711746
0.4054728 -1.0118614 0.2760600 16711746
0.5538265 -0.9520788 0.0141006 16711746
0.7778246 -0.9131173 0.1501438 16711746
0.2970163 -0.9570006 0.5477855 16711746
0.5914007 -1.0614965 -0.0196592 16711746
0.2082108 -1.1539896 0.2771928 16711746
0.7476299 -0.9704525 0.0777730 16711746
0.7996964 -0.8394281 0.2532870 16711746
0.7312311 -1.0243993 0.2178072 16711746
0.4133201 -1.0486572 0.0274455 16711746
0.8133516 -0.8067110 0.2805156 16711746
0.8765942 -0.8432162 0.2645433 16711746
0.3785278 -1.0733452 0.0086952 16711746
-0.1487321 -1.2079029 0.0411024 16711746
0.5802970 -1.1175408 0.2281434 16711746
0.5752929 -1.1294448 0.2166724 16711746
0.6126994 -1.0912905 0.1887340 16711746
0.5932074 -1.1227064 0.1737077 16711746
0.7418586 -0.9994063 -0.0007624 16711746
0.7061942 -1.0384872 0.0030511 16711746
0.6291699 -0.8823048 0.5007908 16711746
0.8481059 -0.8778451 0.0095368 16711746
0.8296148 -0.9034982 -0.0019866 16711746
0.7201454 -1.0093081 0.0496115 16711746
0.5664082 -1.2137156 -0.0090559 16711746
0.5075378 -1.0292130 -0.0250204 16711746
0.7882231 -0.7027097 0.4648526 16711746
0.5565159 -0.9141569 0.2570093 16711746
0.2572297 -1.0435876 0.4539644 16711746
0.1086826 -1.0804324 0.1489416 16711746
0.0684057 -1.3193491 0.0541046 16711746
0.8687007 -0.7580261 0.2399881 16711746
0.6770373 -0.8586420 -0.0015268 16711746
0.7012773 -0.8423818 -0.0260875 16711746
0.3561577 -1.0440110 0.2756255 16711746
0.9145354 -0.9310915 0.1214422 16711746
0.8162669 -0.8860468 0.1084892 16711746
0.0862193 -1.2976688 0.1277864 16711746
0.3336059 -1.0880919 0.1865621 16711746
0.5818951 -1.1824530 0.0348655 16711746
0.3134276 -1.1003598 0.1601660 16711746
0.7007354 -0.8179211 0.4724910 16711746
0.6884480 -0.8438946 0.4686787 16711746
0.3743547 -1.0665307 0.1732548 16711746
0.1715595 -1.1539155 0.3194014 16711746
0.8408691 -0.7595733 0.2983104 16711746
0.3878008 -1.0891784 0.1213922 16711746
0.4392655 -0.7397006 0.6437509 16711746
0.0551005 -1.1169239 0.6500366 16711746
0.8578368 -0.4956364 0.5369014 16711746
0.8373154 -0.6824779 0.4079960 16711746
0.7823007 -0.7415546 0.4306026 16711746
0.8682336 -0.6212087 0.4656048 16711746
0.7832751 -0.6863970 0.4993586 16711746
-0.3548425 0.5111722 -0.6522933 16711746
-0.3885820 0.4815481 -0.6243677 16711746
-0.0189767 -1.2057005 0.5591492 16711746
-0.4266106 0.5401604 -0.6193971 16711746
-0.0189411 -1.2048745 0.5587658 16711746
-0.0143114 -1.1961031 0.5549011 16711746
-0.0189310 -1.2056811 0.5591131 16711746
-0.0188628 -1.2056502 0.5590476 16711746
-0.0189712 -1.2054628 0.5590415 16711746
0.3038104 -1.1110705 0.1703562 16711746
0.2881050 -1.1291783 0.1362787 16711746
0.4380617 -1.0321954 0.1559828 16711746
0.2964059 -1.1092628 0.1779049 16711746
0.3525132 -1.0903238 0.0191925 16711746
0.0806208 -1.3333340 -0.0066280 16711746
0.0109677 -1.3740977 -0.0080242 16711746
0.1132394 -1.2771066 0.0208072 16711746
0.2423993 -1.1721487 0.0582376 16711746
0.8580743 -0.8618825 0.0208819 16711746
0.8424291 -0.8455191 0.1350060 16711746
0.6048437 -1.1215035 0.1352865 16711746
0.7123680 -0.9837767 0.1568477 16711746
-0.0224534 -1.0976441 0.5126217 16711746
0.6966252 -0.8500971 -0.0481717 16711746
0.7325149 -1.0268229 -0.0763167 16711746
0.5196459 -1.0477560 0.4915966 16711746
0.2658800 -1.1093005 0.2587904 16711746
0.2595817 -1.0701790 0.3511675 16711746
0.0462948 -1.2354462 0.3749471 16711746
0.8510921 -0.7001565 0.3615694 16711746
0.5596297 -1.0271882 0.4408938 16711746
0.5628095 -1.0466149 0.4043520 16711746
0.6787466 -0.8022079 0.2907857 16711746
0.6254888 -0.9313094 0.4580930 16711746
0.6344280 -1.0375921 0.2503386 16711746
0.7449532 -0.9328470 0.1925560 16711746
0.6622058 -0.9576158 0.3408223 16711746
0.5878795 -1.0639633 0.3168577 16711746
-0.3220975 -1.2905214 -0.0480348 16711746
0.6364236 -1.0117755 0.2986734 16711746
0.7865821 -0.9462999 0.2480994 16711746
0.5764602 -1.1654506 0.1185387 16711746
0.5345330 -1.2253692 0.1212498 16711746
0.5569859 -1.1995621 0.0982215 16711746
0.5762933 -1.1788890 0.0763169 16711746
0.3282067 -1.1171609 0.0749442 16711746
0.7087901 -0.9371184 0.2742423 16711746
1.9523866 -1.6200799 0.1763493 16711746
1.2829278 -3.9249108 1.3386623 16711746
1.0233423 -2.3958111 1.2081583 16711746
-2.9929769 -4.0247393 0.6179956 16711746
-0.1552022 -0.6525340 0.0633313 16711746
-0.0329971 -5.6191339 0.4076099 16711746
2.4629276 -2.0435963 0.2237524 16711746
-1.6760750 -6.6285405 1.1806453 16711746
3.0237348 -5.0375423 2.9958715 16711746
-0.5841629 -4.5926337 1.4738839 16711746
3.6794701 -3.0557642 0.3350972 16711746
-0.9775463 -5.2197318 2.3973706 16711746
-0.7328364 -4.9618449 2.1428599 16711746
-0.7643334 -4.8704610 2.1009512 16711746
-0.1560336 -0.6633619 0.0642251 16711746
6.3916516 -30.4893322 16.8140240 16711746
1.9661186 -4.2697806 2.3698075 16711746
-3.8084748 -5.4309282 0.8839769 16711746
4.4276762 -3.6743307 0.6442817 16711746
1.0807925 -2.7334971 1.4622973 16711746
1.8665590 -3.9215355 2.2014108 16711746
0.9439620 -3.0671177 0.4447720 16711746
-2.6306386 -4.1079550 0.6084997 16711746
2.5223951 -5.6924677 2.7768970 16711746
