# .PCD v.7 - Point Cloud Data file format
VERSION .7
FIELDS x y z rgb
SIZE 4 4 4 4
TYPE F F F F
COUNT 1 1 1 1
WIDTH 265
HEIGHT 1
VIEWPOINT 0 0 0 1 0 0 0
POINTS 265
DATA ascii

-0.4482864 -1.0184222 0.2425929 16711746
-0.5064077 -0.9517885 0.2668221 16711746
-0.5290411 -0.9079608 0.2658403 16711746
-0.6997566 -0.7669041 0.1728554 16711746
-0.7761286 -0.7896031 0.1736780 16711746
-0.3497937 -1.0100684 0.0707439 16711746
0.0215595 -1.1039041 0.0654677 16711746
0.0176768 -1.0985433 0.0403529 16711746
-0.3089138 -1.0267084 0.6243957 16711746
-0.7355774 -0.7987996 0.5641323 16711746
-0.7195976 -0.8156255 0.5515171 16711746
-0.7981247 -0.7659264 0.2087378 16711746
-0.8497849 -0.8237569 0.2649569 16711746
-0.2131055 -1.0950955 0.5469745 16711746
-0.7301186 -0.8060835 0.7674844 16711746
-0.7545619 -0.7900707 0.7517014 16711746
-0.6970094 -0.7665066 0.6971138 16711746
-0.7192932 -0.7720114 0.7640162 16711746
-0.5813767 -0.9375030 0.4690435 16711746
-0.6068134 -0.9200917 0.4526228 16711746
-0.6450586 -0.9076357 0.2718783 16711746
-0.5558721 -0.8438866 0.2335490 16711746
-0.6879171 -0.9522923 0.2510176 16711746
-0.0720506 -1.2525014 0.0505316 16711746
0.2267507 -1.1128435 0.8072518 16711746
-0.2899067 -1.1367686 0.1162062 16711746
-0.2681543 -1.0761956 0.0952540 16711746
0.1865704 -1.2328439 0.2786151 16711746
-0.1049861 -1.2541230 0.2389959 16711746
-0.1593483 -1.1242888 0.4374954 16711746
-0.1914543 -1.1022658 0.4092015 16711746
-0.5328645 -1.0682487 0.4636837 16711746
-0.2005250 -1.1180198 0.2987810 16711746
-0.2909297 -1.0422411 0.5855561 16711746
-0.4603364 -1.0081490 0.6181135 16711746
-0.4809721 -1.0811136 0.3182027 16711746
-0.0033933 -1.0910714 0.1291373 16711746
-0.1487676 -1.1953609 0.2244397 16711746
-0.8341785 -0.7156703 0.1490564 16711746
-0.5282830 -1.0005240 0.3807870 16711746
-0.5854259 -1.0496352 0.3699880 16711746
-0.3315911 -1.0196016 0.0031262 16711746
-0.3584896 -0.9995956 0.0045021 16711746
-0.4081572 -1.0988729 -0.0109178 16711746
-0.2456290 -1.0830777 0.5053782 16711746
-0.6516207 -0.9016219 0.2747246 16711746
-0.0927826 -1.2454599 0.3250052 16711746
-0.2397481 -1.0699682 0.3779824 16711746
-0.2641180 -1.0442340 0.6528737 16711746
-0.2676331 -1.0048015 0.0198828 16711746
0.5309212 -1.1677651 0.6237196 16711746
-0.7104006 -0.8535565 0.1655115 16711746
-0.6128017 -0.9461939 0.1702096 16711746
-0.5380873 -0.9885123 0.3898165 16711746
-0.1557969 -1.1966544 0.1693167 16711746
-0.1523270 -1.2021161 0.1646621 16711746
-0.6596400 -0.9543027 0.4174614 16711746
-0.2318188 -1.1075487 0.1618140 16711746
-0.5550879 -0.9872357 0.3073303 16711746
-0.2041007 -1.0679083 0.0655747 16711746
-0.1792669 -1.1742508 0.4092932 16711746
-0.2042068 -1.0252630 0.1085463 16711746
-0.2291936 -0.9881433 0.0973996 16711746
-0.2319350 -1.1066513 0.1693960 16711746
-0.2544370 -1.0841504 0.1776062 16711746
-0.1723378 -1.1852944 0.0669639 16711746
-0.2514779 -1.0927472 0.0422023 16711746
-0.2265882 -1.1193806 0.0347005 16711746
-0.6729673 -0.8884126 0.1507511 16711746
-0.6832467 -0.8711385 0.1247123 16711746
-0.6981962 -0.8651398 0.1352018 16711746
-0.6127679 -0.8522674 0.1853436 16711746
-0.6367194 -0.9213542 0.1797124 16711746
-0.1922048 -1.0687521 0.5761060 16711746
-0.1873615 -1.0768244 0.5465665 16711746
-0.5781125 -0.9605101 0.3321104 16711746
-0.2339355 -1.0988551 0.4769090 16711746
-0.1824848 -1.1708812 0.0897804 16711746
-0.1657704 -1.1929284 0.0866996 16711746
-0.0177134 -1.1682861 0.5308019 16711746
-0.8072042 -0.7168850 0.6070827 16711746
-0.7325277 -0.7981833 0.5851465 16711746
-0.8896247 -0.6026806 0.6167029 16711746
-0.8738750 -0.7055172 0.6523320 16711746
-0.9447491 -0.6324504 0.6059727 16711746
-0.7988726 -0.7596880 0.7214408 16711746
-0.7044567 -0.8416973 0.7251400 16711746
-0.9604005 -0.5967353 0.5235274 16711746
-0.9925706 -0.5857514 0.5112274 16711746
-0.9917664 -0.5588408 0.5971272 16711746
-0.7271752 -0.8378707 0.1304533 16711746
-0.8644925 -0.5466192 0.1989241 16711746
-0.8731123 -0.6438003 0.2120673 16711746
-0.4638251 -1.0896440 0.3696032 16711746
-0.4669674 -1.0942143 0.3453723 16711746
0.4381278 -1.1508549 0.6309660 16711746
-0.6357345 -0.9183520 0.2398078 16711746
-0.6251347 -0.9286289 0.2256253 16711746
-0.6662439 -0.8924214 0.2072937 16711746
-0.8197725 -0.7381701 0.3105406 16711746
-0.7227688 -0.8157893 0.5307472 16711746
-0.4009412 -0.9648103 0.7040944 16711746
-0.4478439 -1.0005021 0.6889750 16711746
-0.3211628 -1.0245683 -0.0322032 16711746
-0.3684103 -0.9885973 -0.0327678 16711746
-0.1626630 -1.1646696 0.2784872 16711746
-0.1598240 -1.0215189 0.2281603 16711746
-0.5602527 -0.9552416 0.4627780 16711746
0.1600718 -1.1116160 0.7247091 16711746
-0.7142922 -0.8368204 0.4207237 16711746
-0.6806166 -0.8259408 0.8285808 16711746
-0.6414839 -0.8361802 0.7880661 16711746
-0.6914399 -0.8293816 0.7946380 16711746
0.6264220 0.5814024 -0.7438359 16711746
0.7267932 0.7495096 -0.8941382 16711746
-0.6024340 -0.9361309 0.3546384 16711746
-0.5664236 -0.9695832 0.3437825 16711746
-0.6163639 -0.9270397 0.3321452 16711746
-0.4390647 -0.9336237 0.4917767 16711746
-0.4770453 -0.9643668 0.4927436 16711746
0.7059726 0.5086557 -0.7736125 16711746
-0.7718747 -0.7916145 0.3022613 16711746
-0.6898358 -0.8695092 0.2518583 16711746
-0.6881004 -0.8716860 0.2374284 16711746
-0.2757392 -1.0826674 0.4185762 16711746
-0.2366943 -1.1147846 0.4138260 16711746
-0.6883435 -0.8688025 0.2901626 16711746
-0.6864816 -0.8712353 0.2756296 16711746
-0.7220104 -0.8406745 0.2582744 16711746
-0.7027113 -0.8529651 0.3465495 16711746
-0.7371656 -0.8230141 0.3390672 16711746
0.1268082 -1.2195169 0.1031531 16711746
-0.3827388 -0.9550046 0.5356373 16711746
-0.2696975 -1.0722029 0.1547895 16711746
-0.2784248 -1.0658262 0.1309150 16711746
-0.3132922 -1.0334404 -0.0069333 16711746
-0.2387519 -1.1057307 0.0232019 16711746
-0.2160495 -0.9353557 0.0022476 16711746
-0.3137391 -1.0257006 0.3484962 16711746
-0.2899112 -1.0399522 0.3483984 16711746
-0.4607067 -1.1325555 0.2830679 16711746
-0.8286552 -0.7166488 0.7516000 16711746
-0.2408136 -1.0372628 0.7390343 16711746
-0.2295045 -1.0289276 0.7017064 16711746
-0.2877609 -1.0212288 0.7126735 16711746
-0.2782573 -1.0075401 0.2293377 16711746
0.0941414 -1.1610522 0.2023125 16711746
-0.2313929 -1.0662042 0.4400766 16711746
-0.8586654 -0.6728182 0.1758970 16711746
-0.6945146 -0.8669127 0.2128512 16711746
-0.7012880 -0.8606724 0.2180191 16711746
-0.7383469 -0.8270104 0.1976534 16711746
-0.7637957 -0.8023747 0.1882755 16711746
-0.7307913 -0.7411947 0.4410995 16711746
-0.7861301 -0.7697583 0.4413988 16711746
-0.6965683 -0.8482475 0.4566535 16711746
-0.7770017 -0.8458059 0.4792357 16711746
-0.8678073 -0.6639407 0.4329173 16711746
-0.8289255 -0.6394582 0.3810700 16711746
-0.9545476 -0.6538436 0.4898992 16711746
-0.3521949 -0.9736927 0.6736770 16711746
-0.1211063 -1.1036738 0.7415762 16711746
-0.1194019 -1.0546573 0.9031157 16711746
-0.1318779 -1.0621443 0.8614284 16711746
-0.5663408 -0.9433345 0.7183645 16711746
-0.5307112 -0.9090987 0.6332117 16711746
-0.4460472 -0.8977508 0.6366823 16711746
-0.6221638 -0.8888118 0.7786185 16711746
-0.6467730 -0.8406925 0.7519112 16711746
-0.4580201 -0.9131593 0.7722170 16711746
-0.2805732 -1.0147614 0.6416778 16711746
-0.5473406 -0.9533771 0.5349215 16711746
-0.4245403 -0.9877065 0.5177881 16711746
-0.5652569 -0.9632995 0.6427365 16711746
-0.6153146 -0.8633723 0.5981376 16711746
0.8185687 0.4836782 -0.7911170 16711746
0.8075881 0.4963474 -0.7579885 16711746
0.7689491 0.4416554 -0.8389553 16711746
0.7513645 0.4583913 -0.8013014 16711746
0.6487107 0.4731338 -0.8099786 16711746
0.6143680 0.5105365 -0.8137157 16711746
0.6703490 0.4709964 -0.8077510 16711746
-0.8892754 -0.6325154 0.7049718 16711746
0.9682741 0.6501549 -0.7953110 16711746
0.7466704 0.5359538 -0.7443001 16711746
0.8459758 0.5231220 -0.7261750 16711746
0.8953711 0.6725339 -0.8082911 16711746
0.6724361 0.5750412 -0.7359784 16711746
1.1422992 0.5990665 -0.8382667 16711746
0.1489722 0.6209135 -0.8162647 16711746
0.5088450 0.6032739 -0.7709863 16711746
0.5425290 0.5839956 -0.7667500 16711746
0.4649235 0.5142110 -0.7990096 16711746
0.4951565 0.5502837 -0.7978895 16711746
0.4321943 0.5700813 -0.8189449 16711746
-0.2676132 -0.9504901 0.9517984 16711746
-0.3192776 -0.9141005 0.9690376 16711746
-0.2139875 -0.9484717 1.0168372 16711746
-0.5107048 -0.9266266 0.9177686 16711746
-0.4403269 -0.8995879 0.8375523 16711746
-0.6169305 -0.8280017 0.9517150 16711746
-0.6002325 -0.8594388 0.9131927 16711746
-0.4929585 -0.9021466 1.0210961 16711746
-0.5323766 -0.8785852 0.9993075 16711746
-0.5682952 -0.8696582 0.9517495 16711746
-0.0155615 -1.0409428 0.0219051 16711746
-0.7860240 -0.7690215 0.0364977 16711746
-0.7250625 -0.8342844 0.0098965 16711746
-0.7997611 -0.7603412 0.1128166 16711746
-0.6439500 -0.8049266 -0.0166001 16711746
-0.8016857 -0.8042375 0.0527563 16711746
-0.8841519 -0.7613142 -0.0885033 16711746
-0.2939127 -1.0483866 0.2171201 16711746
-0.5050358 -0.9502631 0.0832088 16711746
-0.5737438 -0.9863694 0.1906731 16711746
-0.2313091 -1.1106441 -0.0328043 16711746
-0.1144404 -1.1832252 0.0038500 16711746
-0.3921466 -0.9722193 -0.0311454 16711746
-0.5949900 -0.9826969 0.0115197 16711746
-0.3793987 -0.9890000 0.0565557 16711746
-0.7600182 -0.8033209 0.3045829 16711746
-0.8366572 -0.7176707 0.2365543 16711746
-0.6740130 -0.8785264 0.3281670 16711746
-0.8541967 -0.7978394 0.3746626 16711746
-0.8781214 -0.7930706 0.3742505 16711746
-0.6261679 -0.8427102 0.4013428 16711746
-0.8775463 -0.5599269 0.2271478 16711746
-0.9207745 -0.7173930 0.3133698 16711746
-0.8062490 -0.7558126 0.1732185 16711746
-0.7527190 -0.8131497 0.2146766 16711746
-0.8443095 -0.7060068 0.2245592 16711746
-0.1483850 -1.1315968 0.4490499 16711746
-0.1221685 -1.1349331 0.5189874 16711746
-0.4491972 -1.0959976 0.4127201 16711746
-0.4307167 -1.0827100 0.5089378 16711746
-0.2597642 -1.0706732 0.2615838 16711746
-0.1044364 -1.2334088 0.3101059 16711746
-0.6113748 -0.9409077 0.2403222 16711746
-0.5834875 -0.9708226 0.2221712 16711746
-0.3708903 -1.1539873 0.2694832 16711746
1.3115321 -5.5257740 1.6430701 16711746
-2.6429131 -2.5353494 0.6603502 16711746
1.4295143 -7.8005657 1.3418378 16711746
2.3124249 -6.1140800 0.9631580 16711746
-0.4507584 -0.8887594 0.2261437 16711746
-2.6023331 -4.0007935 0.5924718 16711746
-0.8582427 -4.9105115 2.2282367 16711746
2.1336153 -1.9739300 0.1916692 16711746
4.3716497 -4.1126776 0.5347122 16711746
-3.0340149 -10.0797462 1.9861063 16711746
-0.0039942 -8.6820135 0.7461891 16711746
-2.9249091 -9.2594900 1.9469658 16711746
1.0703447 -3.2256515 1.3647097 16711746
1.3842118 -3.2332792 0.2891924 16711746
-0.6116534 -2.8196290 1.5719216 16711746
-0.5772788 -1.1291366 0.2857853 16711746
1.1443964 -6.3311920 1.7196999 16711746
-3.0389612 -4.6813064 0.8503633 16711746
-1.8165808 -3.6481714 0.9330108 16711746
6.1321692 -5.9613705 0.9956186 16711746
-1.6978686 -3.4607964 0.8830379 16711746
0.1047392 -3.9721396 0.5259179 16711746
-1.7116644 -6.5976353 0.6136265 16711746
-0.7224936 -3.7251234 1.7788686 16711746
-2.0210929 -8.7184410 1.3493279 16711746
