# .PCD v.7 - Point Cloud Data file format
VERSION .7
FIELDS x y z rgb
SIZE 4 4 4 4
TYPE F F F F
COUNT 1 1 1 1
WIDTH 1193
HEIGHT 1
VIEWPOINT 0 0 0 1 0 0 0
POINTS 1193
DATA ascii
1.0893741 -1.9734498 1.9260589 16711746
1.5828458 -2.0806429 1.4121662 16711746
1.5102620 -2.0279005 1.9765583 16711746
1.3323128 -2.3360600 1.8198771 16711746
1.2620869 -2.3525500 1.4357476 16711746
1.6252341 -2.1711130 2.0650868 16711746
1.4043986 -2.1721277 2.2813485 16711746
0.2296332 -2.6028862 2.2653179 16711746
1.3388002 -2.1077595 1.9989475 16711746
1.3059249 -2.0365703 1.4343971 16711746
1.0348043 -1.9977881 1.9812560 16711746
0.9967752 -2.1220856 2.4524012 16711746
1.5891639 -2.0281887 2.2793422 16711746
2.6259687 -2.3009424 1.9806949 16711746
1.0989152 -2.8223011 2.9233925 16711746
0.9739100 -2.5776589 3.0622408 16711746
2.1962082 -2.6053822 3.7293711 16711746
1.0567111 -2.0923653 2.0096831 16711746
1.3740091 -2.3296402 3.2658024 16711746
1.1355273 -1.9055085 1.9594826 16711746
1.2583306 -1.8370810 1.8503070 16711746
1.8025767 -1.9481490 1.8327637 16711746
1.5821023 -3.3858387 3.8441606 16711746
1.1501018 -2.2516754 1.5199014 16711746
1.1938785 -2.2173247 1.9998765 16711746
2.7871125 -4.1675396 3.2727575 16711746
1.7543175 -1.6345840 1.6218032 16711746
2.4105082 -2.8888481 2.9604475 16711746
1.5439290 -2.0088518 2.5444880 16711746
1.6323601 -2.3094156 2.3417370 16711746
1.0963932 -2.7030795 2.5767896 16711746
1.1063213 -1.9818789 1.8844016 16711746
1.2960583 -1.9066916 1.9777632 16711746
1.0666505 -1.9146787 2.0273993 16711746
1.3225044 -3.6742494 3.5256603 16711746
0.4579486 -2.6647158 2.2658887 16711746
-0.1016669 -3.0690811 3.8255484 16711746
1.0184655 -1.8017809 1.7293468 16711746
-0.3562977 -3.1237512 3.4660604 16711746
2.4190302 -3.0857167 3.6892173 16711746
1.6700971 -2.2141929 2.2676985 16711746
1.3232795 -2.3205049 2.6107221 16711746
1.5903546 -1.6483184 1.6721748 16711746
1.6928065 -3.0985668 3.5459018 16711746
1.1373698 -1.8906770 2.0377488 16711746
2.3797915 -1.9862368 1.6172513 16711746
1.0872974 -1.9194771 2.0724566 16711746
1.6426460 -2.3164752 2.6668065 16711746
1.5435042 -2.1440835 2.0860302 16711746
1.3923365 -2.3410909 2.5657647 16711746
1.2090248 -2.4470410 2.6647158 16711746
1.5149263 -2.1347444 2.3697538 16711746
1.7784923 -1.9523871 1.8127199 16711746
1.8505265 -2.1615262 2.1528430 16711746
0.9001340 -2.3690116 2.7051470 16711746
1.1296334 -2.3506792 2.5443735 16711746
1.7900058 -2.0197787 1.7508246 16711746
1.0186357 -1.8908926 1.9131005 16711746
1.3828017 -1.9941448 2.0745926 16711746
1.2805458 -2.2538824 1.5224397 16711746
1.0768340 -1.8992411 1.8595879 16711746
0.0653957 -2.8618424 2.6905596 16711746
1.2211201 -1.9581913 2.1912782 16711746
2.2563434 -1.7234350 1.7766917 16711746
0.8993888 -2.8323898 2.9871891 16711746
1.2583475 -2.0971942 2.2399962 16711746
1.6147245 -1.8505001 2.3166075 16711746
0.2881311 -2.2704804 2.2145693 16711746
1.0111794 -1.8633807 2.0999005 16711746
-0.4663201 -2.7627416 2.8225906 16711746
1.8175210 -2.1981797 2.2916133 16711746
1.8176104 -1.7488619 1.6060406 16711746
1.2351323 -1.7572757 1.8736284 16711746
1.3006945 -2.3258085 2.0143898 16711746
1.6328015 -2.1324465 1.4503601 16711746
-0.6976243 -2.2953715 2.9644532 16711746
0.7300805 -2.1969035 2.0321999 16711746
1.2472875 -1.9782966 2.2328572 16711746
1.0689343 -1.8227118 2.0998297 16711746
1.8563753 -1.9675375 1.9991032 16711746
0.8648676 -1.9949212 1.5663074 16711746
-0.0963860 -3.1565850 2.9689925 16711746
0.6708301 -2.2265286 2.1515722 16711746
-0.6485876 -1.8738126 1.3826853 16711746
1.5619544 -2.1226742 1.6753634 16711746
1.2401736 -2.0140765 1.7720231 16711746
-0.0019891 -2.4808826 2.3799114 16711746
1.7280810 -3.2519693 3.9215264 16711746
0.1701550 -2.1966677 1.8869145 16711746
2.2406383 -2.7293544 2.9993970 16711746
1.3029932 -1.0227971 1.6208801 16711746
1.1976423 -2.7958584 1.5402750 16711746
6.5561786 -5.6969490 4.6542983 16711746
-0.0764621 -2.3889565 1.8374498 16711746
1.1991019 -2.0447824 2.1947303 16711746
1.5310143 -1.9952036 1.8717357 16711746
1.7797385 -1.6746457 1.6495509 16711746
1.1918240 -1.7983572 2.3333185 16711746
0.9485792 -1.7968535 2.0266907 16711746
1.1542928 -2.3094022 2.2789962 16711746
0.1614763 -1.8877896 2.0003324 16711746
1.0295173 -1.6952484 1.6544952 16711746
1.0600129 -1.9858843 1.6577187 16711746
0.6675380 -2.0661719 1.6324484 16711746
1.4028908 -2.3530560 1.9630506 16711746
1.5129997 -2.1450393 2.3258028 16711746
1.3782358 -2.3857582 2.7424102 16711746
1.4458852 -2.2346764 1.9058089 16711746
1.0717247 -3.1546848 3.6414971 16711746
1.5001764 -3.0040247 3.0252795 16711746
1.0660968 -3.1835938 3.6560936 16711746
1.2757779 -2.1457210 1.7734162 16711746
-0.4655297 -2.6018708 2.6329653 16711746
0.0780194 -2.5291007 2.5007143 16711746
1.1898199 -2.0313513 2.0137215 16711746
1.3577050 -1.9717631 1.7960687 16711746
1.8042737 -2.0356624 1.7547820 16711746
1.1729969 -1.9644438 1.9555142 16711746
1.2833296 -2.2519853 1.7255142 16711746
1.6999885 -2.1170466 1.8421507 16711746
-0.2724911 -1.9146930 1.4729073 16711746
1.5619984 -2.5730717 3.3977914 16711746
1.3868996 -2.0252059 2.1728184 16711746
2.1975849 -2.5668762 3.0096784 16711746
3.3056071 -3.3917263 2.5627711 16711746
1.6416639 -3.1323004 4.0944629 16711746
1.3512635 -1.8507737 1.9520495 16711746
2.3513935 -2.4090905 2.5647476 16711746
1.0085571 -1.4347831 2.1730199 16711746
1.3957690 -1.7642708 1.6315510 16711746
0.9758213 -2.1594243 2.0127430 16711746
1.4315938 -2.1635685 2.1160493 16711746
1.7575320 -1.9975531 1.8751343 16711746
1.8230373 -2.0922787 1.7309284 16711746
1.2659868 -2.4143345 1.8409827 16711746
1.4928385 -2.1917603 1.8835554 16711746
1.1677656 -1.9638883 2.1599696 16711746
1.2785965 -1.8587389 1.9640737 16711746
1.7706221 -2.0490651 1.9522653 16711746
1.1269428 -2.0239389 1.7154614 16711746
1.1588665 -1.9524695 2.1553679 16711746
0.3349863 -1.6719944 1.8293965 16711746
1.4264561 -2.1683471 1.6886740 16711746
0.9156654 -2.0928602 2.0441842 16711746
0.6919985 -2.3972483 2.3250465 16711746
1.1760019 -1.9873029 1.9990820 16711746
1.3515234 -1.6909060 1.7545418 16711746
1.3650330 -2.3326097 1.5933951 16711746
1.0494264 -2.0449843 1.8662997 16711746
1.3344941 -2.0630434 2.3902507 16711746
1.2704179 -2.0451832 1.9956237 16711746
0.7937807 -2.2228873 2.4877169 16711746
1.3352520 -2.0253079 1.7665112 16711746
1.0033180 -1.9556901 2.1096020 16711746
1.0471135 -1.9697274 1.8617802 16711746
1.3143648 -1.9695616 1.9895637 16711746
1.6453732 -2.2002084 1.8040003 16711746
1.7649614 -2.0628150 1.6713872 16711746
1.0552617 -2.1510417 2.2846327 16711746
1.1869838 -2.2117941 2.3651919 16711746
1.6658577 -2.0956013 1.7344104 16711746
1.6112049 -2.0881622 2.1519003 16711746
0.6040693 -1.5211437 1.6477344 16711746
0.6875117 -1.9192024 1.6201679 16711746
1.0334707 -1.9367745 1.9182122 16711746
1.3363727 -2.2578161 1.6480603 16711746
1.0829099 -1.9319053 1.6501358 16711746
1.6761225 -2.0826771 1.8411001 16711746
0.0336298 -1.7585336 2.0446196 16711746
1.7234550 -2.0711055 1.9492843 16711746
1.8236712 -2.0360022 1.6967663 16711746
1.6621377 -2.0951757 1.7353345 16711746
0.3237863 -1.8490440 1.6980147 16711746
0.0728568 -1.6195574 1.9655032 16711746
0.1921818 -1.8245648 1.7767831 16711746
1.6615189 -2.2837284 1.9722090 16711746
1.8312308 -2.0499232 1.6932034 16711746
0.0938785 -1.9506295 1.8830587 16711746
1.4704069 -2.2070704 2.3792920 16711746
0.3596916 -1.5104595 2.0028515 16711746
1.6404318 -2.0398102 1.7344357 16711746
-0.1509716 -1.7193800 2.2253032 16711746
1.5107541 -2.1122899 1.8314289 16711746
1.2722943 -2.9183784 3.0087469 16711746
1.5827705 -2.3972504 2.5365076 16711746
1.7363206 -2.0580935 1.8465978 16711746
1.6707265 -2.1304109 1.9651293 16711746
1.1284965 -2.2894168 2.5155728 16711746
1.3663878 -2.1449816 1.7681788 16711746
0.9308824 -2.8343585 3.0050416 16711746
1.0185337 -2.0108471 1.6542025 16711746
0.3683870 -1.8718880 1.6285927 16711746
1.7595863 -1.9644606 1.9068363 16711746
-0.3114432 -2.4165866 2.6453400 16711746
0.9377800 -1.9109396 2.1441317 16711746
1.1301908 -2.3313682 2.4386835 16711746
1.0743536 -2.7137349 2.8237758 16711746
0.2843309 -1.9975450 2.1350303 16711746
1.1719580 -2.0580993 2.2381191 16711746
2.1081233 -2.5806839 3.2719579 16711746
2.3201468 -2.8672664 3.8214164 16711746
1.6477745 -2.7020016 3.6972239 16711746
1.1304021 -2.4940584 2.4985054 16711746
1.5385971 -2.2119963 1.8348490 16711746
0.9815131 -3.1978905 3.8034260 16711746
2.9315572 -2.4985976 2.6464531 16711746
1.7954043 -2.4802401 2.9633515 16711746
0.2019472 -1.6947387 1.8624642 16711746
4.0956931 -3.4875753 3.1785219 16711746
-0.0593254 -2.2649784 2.0608068 16711746
1.5147367 -2.4251330 3.2501607 16711746
1.5060886 -2.2631640 1.6988424 16711746
1.1767316 -1.9826759 1.9605588 16711746
1.1051559 -2.3242261 2.4759028 16711746
1.5090756 -2.0906448 2.3519211 16711746
-0.4565386 -2.0770693 2.3892522 16711746
0.5410705 -2.4272585 3.0097382 16711746
1.4713812 -2.3009002 3.1670716 16711746
-0.9848862 -2.0705957 1.9058464 16711746
-0.6687834 -2.0373452 2.1188891 16711746
1.9550272 -2.1072404 1.8032919 16711746
1.1682378 -2.1247067 2.3334546 16711746
1.0760696 -1.7708082 2.0582020 16711746
1.1925021 -1.8889719 1.9191276 16711746
1.1085479 -1.9996417 2.0629020 16711746
1.3589096 -2.2432704 3.3261278 16711746
1.7240657 -2.1533642 1.8422601 16711746
1.3821079 -2.3173385 3.3966353 16711746
1.6586798 -2.0898716 1.7272159 16711746
1.0313096 -2.3831899 2.5787327 16711746
1.8543162 -2.1448276 1.7324879 16711746
0.7260110 -2.0309126 2.1789062 16711746
1.6510843 -2.1453812 1.8923113 16711746
1.2405663 -1.9646319 2.2337396 16711746
1.3751233 -2.1976113 1.7351166 16711746
1.1914554 -2.2151515 2.3708372 16711746
-0.5193502 -2.1527219 2.4287434 16711746
1.4461838 -2.1817136 2.3686259 16711746
-0.1105215 -1.8764822 1.9738941 16711746
2.0209072 -2.2568829 1.9812651 16711746
-0.8341150 -2.3839052 2.7390957 16711746
1.2658955 -2.6138186 2.8461967 16711746
0.1317675 -1.9770101 2.0161409 16711746
0.1922900 -1.7268987 1.8834604 16711746
0.4660129 -2.7998481 3.1326084 16711746
-0.1699026 -2.3536074 2.4156346 16711746
-0.5952042 -2.0996161 1.9123160 16711746
1.1214844 -1.7930049 1.7763023 16711746
0.9483626 -2.4574740 3.1382158 16711746
1.5550090 -2.2712216 2.1032493 16711746
1.7951813 -2.2408378 2.1655023 16711746
1.1768281 -2.2355843 1.8911229 16711746
1.1739879 -2.4330802 2.7004085 16711746
1.2274039 -2.1742496 2.4176564 16711746
0.7915452 -2.0491567 2.0923343 16711746
1.3315121 -2.3743250 1.8315607 16711746
1.0621217 -2.4416189 2.7136347 16711746
1.3181820 -2.0797138 1.9657201 16711746
1.8568294 -2.5069048 2.3183856 16711746
1.6352625 -2.1203086 2.3033321 16711746
1.3715116 -2.1754012 1.7740890 16711746
1.6569631 -2.2216296 1.8045825 16711746
1.1692718 -2.1702440 2.2695849 16711746
1.1515225 -2.4845562 2.4962192 16711746
0.7772251 -2.0872531 2.1306505 16711746
1.5190574 -2.3549991 2.0651126 16711746
1.2670838 -2.3078275 1.9500742 16711746
-0.3312747 -2.2715743 1.9829427 16711746
1.3696187 -2.2414713 2.4026861 16711746
1.8438377 -2.4876957 2.3170247 16711746
0.7865181 -1.9684525 2.0926685 16711746
1.5010164 -2.2600088 1.6987652 16711746
1.2610377 -2.6048479 2.8460553 16711746
1.9983739 -2.2608621 1.7718189 16711746
1.6839297 -1.9054220 1.7655025 16711746
1.3289024 -2.1290545 3.2103407 16711746
-0.3845342 -2.1610065 2.6818864 16711746
1.6406019 -2.2326918 1.9841830 16711746
1.5077071 -1.9074489 1.9021610 16711746
-0.0005214 -1.8157616 2.0590823 16711746
2.4497039 -2.4249156 2.9220507 16711746
0.7889395 -2.1080685 2.1280713 16711746
0.8868725 -2.2196991 2.3902571 16711746
1.2534658 -2.2353349 1.9369280 16711746
0.3367759 -1.7759969 1.8290832 16711746
1.5615017 -2.0069361 2.3654244 16711746
1.5384905 -1.9593667 2.2239995 16711746
1.0275084 -2.0730979 1.9608200 16711746
1.1226515 -1.9999290 1.8763809 16711746
1.3654025 -2.2179792 2.5050528 16711746
0.6170343 -2.4734378 2.9404335 16711746
-0.7182921 -2.0100298 2.0223629 16711746
0.4235018 -1.7085800 1.6321391 16711746
0.9814949 -2.3945339 2.2961991 16711746
0.8190244 -2.2951033 2.5008323 16711746
0.2566279 -1.9640023 1.8629287 16711746
1.2627162 -2.2771609 1.9463829 16711746
1.4072998 -2.0763443 2.0948792 16711746
1.6797024 -1.3528441 1.7581763 16711746
1.1306196 -2.0120537 1.8814343 16711746
0.8670816 -2.0546515 2.3155684 16711746
1.5390718 -2.1125729 2.0733180 16711746
-0.0333722 -2.1283340 2.3638167 16711746
1.4817804 -2.0567214 1.8221008 16711746
-0.0378035 -2.0860357 1.9507209 16711746
-1.4221947 -2.2862029 2.0963986 16711746
0.5132545 -1.8862745 1.6671005 16711746
1.2538146 -2.1885428 2.0474849 16711746
1.3588635 -2.2962594 1.6522847 16711746
1.2605345 -2.4831557 1.8106302 16711746
-0.8029318 -1.9146435 2.6027963 16711746
1.5561463 -2.2072744 2.4667389 16711746
-0.3575319 -2.1489773 2.2047133 16711746
0.4955360 -1.4496632 1.7726790 16711746
0.1478416 -2.0404601 1.7883327 16711746
0.9134077 -2.0912235 2.2916133 16711746
-0.7291310 -1.7130274 1.3466014 16711746
1.4845320 -2.3860159 3.3213952 16711746
1.8530568 -2.0025897 1.7716711 16711746
2.8851728 -2.9866748 2.8029904 16711746
1.9012811 -2.7890007 3.6572073 16711746
0.2176303 -2.5166914 2.5571296 16711746
2.2988234 -2.7293007 3.9402406 16711746
-0.9535765 -2.2519183 1.7948964 16711746
2.3371823 -2.9165332 3.8612320 16711746
1.5685691 -2.1811337 1.7321271 16711746
1.2117289 -2.3877435 2.7655067 16711746
3.2515013 -4.3656788 5.2691793 16711746
1.9461805 -1.7742150 1.7427940 16711746
3.7843029 -5.1056280 4.4391432 16711746
4.5447831 -6.3576484 5.4733796 16711746
1.4560024 -2.3082359 1.9761910 16711746
1.6605569 -2.1781976 2.0077164 16711746
1.7811221 -2.0781405 1.7179456 16711746
1.1469581 -1.8574607 2.0602434 16711746
1.1130100 -2.1014040 2.2062635 16711746
1.7210997 -2.0875895 2.0250673 16711746
1.7990143 -1.9919026 1.9127012 16711746
1.5773532 -1.9534153 1.8884859 16711746
1.2330326 -2.2489128 1.6330360 16711746
0.9330429 -1.7059972 1.9939859 16711746
1.7173274 -1.7529249 1.9802616 16711746
0.6733352 -1.8620900 2.3523917 16711746
1.7803694 -2.0022883 1.9089938 16711746
0.0734643 -2.0076439 1.6430000 16711746
0.0284832 -1.8367696 1.6887976 16711746
1.5449042 -2.2394450 1.7609304 16711746
0.1685854 -1.7542909 1.7268354 16711746
1.6829290 -1.8466201 2.0519454 16711746
0.9226874 -2.1664507 1.9213344 16711746
1.8489337 -2.4650185 3.6350987 16711746
1.1284571 -2.2980599 2.5236459 16711746
1.1077266 -2.3253293 2.5414376 16711746
1.8359302 -1.9907229 1.7941742 16711746
1.4260063 -2.4568899 1.8664507 16711746
1.3852963 -2.3894722 1.5959902 16711746
1.6698558 -1.8743101 1.7671655 16711746
1.0745116 -1.8911055 1.8568232 16711746
1.5523546 -2.5724115 3.1775699 16711746
1.9083328 -3.3683956 4.1430864 16711746
0.4762171 -2.4757066 2.8722472 16711746
-0.7098925 -2.0954797 1.7702110 16711746
1.4249120 -2.1765952 2.9045517 16711746
1.1952733 -2.8247228 3.0985231 16711746
-0.1746071 -2.0917523 2.0334792 16711746
-1.3608114 -2.3894305 2.0411413 16711746
1.4407004 -2.6683853 2.8952332 16711746
1.5276269 -3.1000519 3.7965066 16711746
1.4254211 -2.0763271 2.0060480 16711746
0.9117863 -2.2093542 2.3992591 16711746
1.1547753 -2.0140769 1.8378216 16711746
0.9100537 -2.3366668 2.7825427 16711746
-1.3151169 -2.1269808 1.9715852 16711746
1.5997487 -3.5368516 4.1041822 16711746
0.8851069 -2.5147800 2.3805487 16711746
1.6429976 -1.8997722 2.0296714 16711746
1.6547477 -2.0577860 2.0101006 16711746
3.9675820 -6.3614912 5.3645449 16711746
2.1804888 -2.0919356 1.6847379 16711746
4.0018029 -5.3830380 3.9958246 16711746
1.4194043 -1.9401631 2.0578535 16711746
1.2418779 -2.4228978 2.7555797 16711746
0.9616755 -2.1378431 1.6830152 16711746
1.2621440 -2.2243519 2.4857366 16711746
1.7525579 -2.0840201 2.0910928 16711746
1.1525996 -2.3309205 2.3859158 16711746
1.2072152 -2.3500056 2.3388627 16711746
1.6131455 -1.9733232 2.1625609 16711746
1.7512424 -2.3587875 2.6853812 16711746
1.6813607 -2.0156801 2.0220652 16711746
2.1833413 -2.2261851 2.0200360 16711746
1.8488837 -2.1424711 2.1527531 16711746
1.5319661 -2.2606502 2.1225250 16711746
1.6516249 -1.9975942 2.4116433 16711746
0.8173516 -2.0334063 2.2831299 16711746
1.5931560 -2.0163834 2.0885024 16711746
1.2878056 -1.9274724 2.2832706 16711746
1.2481811 -1.9619366 2.2734227 16711746
1.2049564 -2.3314319 2.3321812 16711746
2.4553523 -2.0116746 2.4875953 16711746
1.7655023 -2.0322764 1.8750983 16711746
1.7399896 -2.4373291 2.7647343 16711746
0.8745240 -2.1987658 2.1917770 16711746
0.2038346 -2.1149499 1.6846062 16711746
1.2176750 -1.8977573 2.2454865 16711746
0.9267801 -2.0998833 2.3781281 16711746
2.2410691 -2.2836323 2.0244172 16711746
1.9843440 -2.0569322 2.1808596 16711746
1.5569528 -2.0365553 2.6200480 16711746
1.6824210 -2.2214680 2.0100074 16711746
1.6637682 -2.0966842 1.7274131 16711746
1.0995389 -2.0390043 2.0116320 16711746
1.7193849 -2.0448329 2.0786183 16711746
1.1761720 -2.0992718 1.8707880 16711746
1.5020208 -1.9701313 2.4149601 16711746
1.2375451 -2.2330503 2.4320171 16711746
1.1962466 -2.2795861 2.4746819 16711746
2.2856624 -2.4547694 3.1278565 16711746
1.7010385 -2.1037905 2.4606142 16711746
1.6178576 -2.1311414 2.6071229 16711746
1.9878187 -1.8622916 2.6780190 16711746
1.3234780 -2.0834026 2.3421690 16711746
1.5262728 -2.1616242 2.3793528 16711746
1.6069376 -2.0947671 2.1583986 16711746
2.1934032 -2.2117627 2.0163977 16711746
1.8186278 -1.5683335 2.2807918 16711746
2.0015497 -2.0383577 2.4031281 16711746
1.3814801 -2.4066770 2.7513146 16711746
1.8071634 -2.2453778 2.7463682 16711746
1.1468548 -2.4333811 2.6293943 16711746
1.9187636 -2.4849603 2.9621978 16711746
1.7742230 -2.0442152 2.4940956 16711746
1.9964018 -2.0469761 2.1728313 16711746
1.4430012 -2.0009873 3.1244545 16711746
1.7699966 -1.8307070 1.6652304 16711746
-0.6291868 -2.3904395 1.6462740 16711746
0.6466117 -2.6524518 3.0501955 16711746
1.1777997 -1.9831572 1.9587110 16711746
2.1621029 -2.0863030 1.6946028 16711746
1.1885763 -1.9242870 3.1335480 16711746
1.1997257 -2.7602839 3.0346837 16711746
0.7902582 -2.0634727 2.3959498 16711746
1.7018915 -2.0223470 2.0277882 16711746
1.8620138 -2.0186381 1.9547392 16711746
0.4055385 -2.6756639 2.9162645 16711746
0.1908123 -2.3689644 2.2209542 16711746
1.4722954 -2.3573689 2.0754294 16711746
1.1870540 -2.3542378 2.6191955 16711746
1.5197512 -2.0633464 2.4744122 16711746
1.4726802 -2.0995476 2.4225600 16711746
1.1072563 -1.7659254 2.9155173 16711746
1.5269809 -2.0432575 2.0566719 16711746
1.3900274 -2.1858275 2.5465031 16711746
1.1023514 -2.2511890 2.2605398 16711746
1.6283268 -2.2591009 1.6763810 16711746
1.1025351 -1.7868289 2.9364367 16711746
1.2013568 -1.9138205 2.0030131 16711746
0.8383681 -1.6946424 1.9487995 16711746
1.3993326 -2.1239371 1.7591597 16711746
0.7645410 -1.0688871 2.0937917 16711746
1.2548722 -2.3976078 2.6586268 16711746
1.2367915 -2.2305856 1.8120897 16711746
0.6287581 -1.9782374 2.4018333 16711746
0.9828842 -2.4803023 3.3701177 16711746
1.2905961 -2.2959774 2.7692111 16711746
-1.1657387 -3.1945164 4.1365418 16711746
-0.5991540 -3.0552342 3.2649884 16711746
2.0816376 -1.7648046 1.8602055 16711746
0.7951362 -3.3355286 3.3356028 16711746
2.1701958 -2.1827309 1.8194349 16711746
0.5185761 -2.5427170 2.7057681 16711746
1.1860733 -2.2214365 2.4536581 16711746
1.4794303 -2.3546841 3.1961348 16711746
1.4758277 -2.2112880 1.9835020 16711746
1.3950542 -2.3903847 1.8659159 16711746
1.7518622 -1.9600772 2.1304028 16711746
1.4120305 -1.8028218 2.3105397 16711746
-0.5234357 -1.6815717 1.5465094 16711746
0.5074936 -2.5260630 2.7972455 16711746
1.5981755 -3.8226376 1.7913841 16711746
-1.0802207 -1.9933083 2.5644820 16711746
0.6751671 -2.4751811 2.9453487 16711746
0.5347040 -2.2373526 2.2867880 16711746
0.4780456 -2.2381964 2.5774107 16711746
1.2976152 -2.0305476 1.8806115 16711746
0.1659160 -2.4618478 2.6922193 16711746
0.1601310 -2.9674771 2.3665164 16711746
1.2247216 -2.0531771 2.0287192 16711746
0.0014092 -2.2121089 2.4112988 16711746
1.5885482 -1.9792297 2.2620916 16711746
2.0297999 -2.1300578 2.5310910 16711746
1.8059273 -2.1385112 2.2036979 16711746
1.1081400 -2.3275254 2.5017960 16711746
0.9891311 -1.9527127 2.2732048 16711746
0.9892950 -1.9245789 2.2617733 16711746
1.2436517 -1.7631482 1.9408491 16711746
0.2714491 -2.8295972 2.8500302 16711746
2.8616283 -2.6981750 2.6057923 16711746
1.8247379 -1.9459896 1.7877388 16711746
1.1984979 -2.4174712 2.7050359 16711746
1.3494135 -2.1708250 1.8270353 16711746
1.3583955 -2.2046955 1.8284974 16711746
1.0661684 -1.7573278 1.9198221 16711746
1.3341200 -2.0836151 1.6824998 16711746
1.4616029 -2.1585264 1.9860312 16711746
1.2791122 -1.9390659 2.2882490 16711746
1.2540488 -2.4857295 2.8110189 16711746
0.7792297 -2.2501597 2.4034059 16711746
0.7287750 -2.0503953 2.4886796 16711746
1.1364545 -1.7493484 2.1191308 16711746
1.2613839 -1.9563783 2.2196870 16711746
1.5307492 -2.2203774 1.9579834 16711746
1.5234917 -2.1627197 2.1719866 16711746
0.5886609 -2.1657784 2.9027696 16711746
1.3668586 -2.2828987 1.8208132 16711746
1.2532854 -2.4022009 1.8425877 16711746
0.5490804 -2.3073761 2.7585340 16711746
1.6826162 -2.4403548 2.1079540 16711746
0.1186035 -1.5190272 2.4017539 16711746
1.8211129 -2.3719599 2.4602838 16711746
1.3091327 -3.0200577 3.2798860 16711746
0.8767807 -2.4539399 2.5007091 16711746
0.7994129 -2.0882576 2.3538294 16711746
0.9160136 -1.9646291 1.9231565 16711746
0.7854159 -1.9800959 1.9148625 16711746
1.0794214 -1.9720936 1.9985566 16711746
0.6889716 -2.0288787 2.1620040 16711746
1.6618239 -2.0295100 2.3456197 16711746
-0.0078935 -1.9357340 2.4384460 16711746
0.6905294 -1.9306598 2.0126030 16711746
-0.2157855 -2.3251455 3.2681956 16711746
1.4006573 -1.9633883 1.8334072 16711746
1.1376855 -2.2289107 2.3488543 16711746
1.7967070 -2.0369253 2.1792064 16711746
-0.6398494 -2.0432475 2.8809497 16711746
0.6776409 -2.4399412 2.9338317 16711746
1.1993134 -2.0404418 2.1952472 16711746
0.6262302 -1.9177272 2.4404738 16711746
-0.1261456 -1.8106914 2.4270041 16711746
1.5425695 -1.7919881 2.1755562 16711746
0.8560799 -1.5980721 1.9332044 16711746
-0.3260514 -2.2167411 2.3471751 16711746
1.2585822 -2.0513313 1.8347852 16711746
-0.2839330 -1.7836603 2.4601066 16711746
-1.2368908 -2.0987885 2.9157672 16711746
0.2080668 -1.7584558 1.9674357 16711746
1.3113378 -2.3058174 1.7226343 16711746
-2.5923092 -9.0012064 4.9947658 16711746
0.8243609 -2.3655758 2.7348006 16711746
-5.9870048 -12.9383860 4.0245590 16711746
1.2730799 -2.5112877 2.8774683 16711746
1.0714710 -1.7942092 1.9198146 16711746
1.3852309 -2.3861361 2.7627645 16711746
1.0790173 -1.8824826 1.9939953 16711746
1.4036269 -2.5330133 2.6905086 16711746
0.9466771 -1.9004354 2.2329528 16711746
1.5678809 -2.0610752 2.4122040 16711746
1.4796154 -2.9255254 2.8537419 16711746
1.5584166 -2.2548249 1.8191473 16711746
0.7484977 -1.9273598 2.1617496 16711746
1.0239930 -1.8933213 1.8597820 16711746
0.3116834 -2.3972001 2.7528362 16711746
1.0454439 -1.5876279 2.3811758 16711746
1.0688325 -1.7730560 2.1860445 16711746
2.0494089 -2.4770868 2.2473543 16711746
0.4802496 -2.4032207 2.8447802 16711746
1.0694702 -2.0646830 1.8816103 16711746
1.2314004 -1.9705199 2.2649381 16711746
1.0068748 -3.7877367 3.9634771 16711746
1.5140748 -1.8661673 2.0498850 16711746
1.5235045 -2.0556579 2.0601492 16711746
1.5009437 -1.9652536 2.1716874 16711746
0.5995704 -2.3711205 2.8371115 16711746
0.2467271 -2.5790002 2.8847141 16711746
0.7260613 -1.1456876 1.9362315 16711746
0.7033200 -2.0274956 1.9648873 16711746
1.8095595 -2.7132695 4.1379347 16711746
1.1243097 -2.3293042 2.4280958 16711746
1.6809696 -2.0957458 1.9501165 16711746
0.5191948 -2.9184139 3.4602079 16711746
2.0599384 -2.8679428 3.3331800 16711746
1.8820915 -3.2558367 4.1686974 16711746
1.0274841 -2.0862229 1.9600190 16711746
-1.4805766 -2.1118474 2.8864276 16711746
0.9693631 -2.0328279 1.9827425 16711746
2.5557668 -2.3612056 1.8590488 16711746
0.6254836 -1.9754847 2.4837999 16711746
0.6907050 -1.6678159 2.2988257 16711746
1.7451799 -1.8182324 1.8431687 16711746
1.6277469 -2.5905914 3.8004937 16711746
0.1443451 -1.6920595 1.7771913 16711746
2.2675793 -2.0447710 1.8048103 16711746
3.2638726 -4.4518595 3.9583673 16711746
1.2119455 -2.2348108 2.3820202 16711746
1.3902365 -1.7677228 2.3704448 16711746
0.6104411 -2.2362976 2.2067621 16711746
1.2993321 -1.9498025 2.2494235 16711746
1.3367535 -1.9092199 2.2006574 16711746
1.2371420 -2.2537465 2.4962320 16711746
-0.4456533 -1.9935002 2.6928678 16711746
1.4326959 -1.8625044 2.2913337 16711746
1.2285602 -1.8974707 2.1110694 16711746
-0.0737200 -1.7813092 2.1584332 16711746
1.5878497 -1.7420802 1.9943602 16711746
1.6612858 -2.0957308 1.8046465 16711746
0.3557644 -2.2747421 2.7098927 16711746
0.8416581 -1.8809071 2.3100092 16711746
1.5150810 -1.6475106 2.2843928 16711746
1.4347169 -1.8650275 2.2934163 16711746
1.3733844 -2.0935314 2.5165372 16711746
1.2742225 -2.1262624 2.5529251 16711746
1.4735258 -1.7386504 2.1732857 16711746
0.7232002 -2.2409012 2.7633178 16711746
1.4417652 -2.0995607 1.9775794 16711746
0.7423666 -2.3295586 2.4712920 16711746
1.7980127 -1.5512161 2.5012445 16711746
1.5040029 -1.7735693 2.3840187 16711746
1.4416531 -2.2211380 2.0677533 16711746
1.4354995 -2.1022863 1.9797814 16711746
1.1308976 -1.8084296 1.9689089 16711746
1.1309704 -1.5620669 2.8168991 16711746
1.4630944 -2.3759036 1.8986720 16711746
1.1839749 -2.3845930 2.5850956 16711746
0.9950247 -1.9632584 2.4092700 16711746
1.6633830 -1.9715977 2.3733160 16711746
0.9658815 -1.9654096 2.6974006 16711746
1.4049803 -1.8833672 2.0743480 16711746
1.6901792 -2.1176183 1.9594301 16711746
1.0713443 -2.1974270 2.1989598 16711746
0.8129102 -2.4495323 1.8731564 16711746
1.3838954 -1.9464465 1.9685625 16711746
0.6942973 -2.3317542 2.8042684 16711746
1.3675942 -1.8554950 2.2600100 16711746
1.6756680 -1.9452914 2.1514676 16711746
1.7718316 -1.7510881 2.0839732 16711746
1.4685147 -2.2077973 1.9719964 16711746
1.0864631 -2.0411408 2.1665387 16711746
1.2124670 -1.8028609 2.0938187 16711746
1.5133584 -1.4009486 2.3716085 16711746
0.5115897 -2.5959988 3.0555592 16711746
1.5292178 -2.0673261 2.4741311 16711746
1.3808677 -2.1208954 2.5259359 16711746
-0.8338225 -2.1516395 1.7039669 16711746
1.6125236 -1.8165234 2.0233738 16711746
1.9053257 -1.6989046 2.0579340 16711746
1.3801097 -1.8668051 2.2575538 16711746
0.2796136 -2.6133370 2.9306228 16711746
0.5646680 -2.2287960 2.7788675 16711746
1.3412387 -2.2161968 2.6243114 16711746
1.8366585 -2.2242358 2.4814937 16711746
1.3442364 -2.2818813 2.5902810 16711746
0.4991873 -2.6147099 2.1686721 16711746
0.2577226 -2.1660099 2.2798803 16711746
0.6972469 -2.7756224 2.0595081 16711746
-2.6845374 -4.6728759 2.1953533 16711746
0.5656727 -2.1062131 2.2047565 16711746
1.6229134 -1.9477661 1.8577286 16711746
1.4697291 -1.9283558 1.9359764 16711746
0.6897290 -2.1509259 2.6233459 16711746
1.3221259 -1.7056358 2.1241004 16711746
0.6819016 -2.1232047 2.1299427 16711746
0.7351908 -1.8142899 2.0710456 16711746
0.8959622 -1.9413421 1.9798145 16711746
1.1210700 -1.2190045 2.2173231 16711746
0.7680357 -1.7699218 2.0857270 16711746
0.7720586 -1.6405917 2.0704222 16711746
0.3556409 -2.0283332 2.5198932 16711746
1.0938488 -1.8500909 2.2381766 16711746
0.7004127 -1.3476068 2.3531575 16711746
1.1385139 -1.7155113 2.1161277 16711746
0.7737332 -2.5998962 3.0794635 16711746
0.6153911 -2.3846240 3.1261065 16711746
1.0487010 -1.8729829 2.5084507 16711746
1.6655012 -2.0787706 1.9451014 16711746
1.2924781 -2.1730118 2.5631323 16711746
0.5044525 -1.7992969 2.1733978 16711746
1.8189521 -2.5929983 2.9019270 16711746
1.2218312 -2.6706522 2.7534580 16711746
0.3140017 -2.6856351 3.2963407 16711746
0.5333369 -2.2554946 2.7484725 16711746
1.4394644 -2.2148581 3.4277716 16711746
1.5624926 -2.0053604 2.6225328 16711746
0.7480167 -2.1034846 2.2687941 16711746
0.4949133 -2.3883929 3.3239510 16711746
0.3507105 -2.6564896 3.2970841 16711746
1.9382356 -2.6942408 3.5771937 16711746
1.9530039 -3.7713041 3.9572568 16711746
1.5845827 -2.1666734 2.5245433 16711746
2.7954955 -3.0370266 3.6976581 16711746
1.0576020 -1.9943428 2.3561649 16711746
0.6828505 -2.2388551 2.1827054 16711746
0.3617747 -1.8470902 2.1840639 16711746
1.3710501 -1.8411338 2.0301080 16711746
1.3811865 -2.1135788 2.8128233 16711746
1.2705488 -1.8553631 2.3227961 16711746
1.6551530 -1.9386706 2.2445571 16711746
1.4879723 -1.8131795 2.2379925 16711746
1.4500653 -1.7419727 2.4015453 16711746
1.5434372 -2.0372837 1.9302686 16711746
1.4794853 -2.2034321 2.6163199 16711746
1.7215645 -1.8907818 2.1248536 16711746
0.8298479 -1.6088607 1.9563506 16711746
2.3541558 -2.2576969 2.5572546 16711746
1.3419962 -1.7638832 2.1307516 16711746
1.6438978 -2.3332148 2.6561263 16711746
1.4788758 -2.1611428 2.5908494 16711746
1.3433576 -2.2201653 2.6708760 16711746
1.5183851 -1.8603514 2.2490835 16711746
1.1354616 -1.7652237 2.1372736 16711746
1.4940548 -1.8082362 2.2404308 16711746
1.3041438 -1.8969882 2.2553816 16711746
1.2067726 -1.8536485 2.2772925 16711746
1.3253162 -1.7243211 2.2315300 16711746
1.6324524 -1.9160540 2.1105466 16711746
1.3383996 -1.9784274 2.7649825 16711746
0.4366750 -2.3298492 2.6490538 16711746
1.5598077 -2.2044103 2.6666715 16711746
1.2563912 -1.7479416 2.0909863 16711746
1.3794866 -2.1530313 2.8520207 16711746
1.5584507 -1.9808856 2.6170452 16711746
-0.0443452 -1.9463309 1.9088547 16711746
1.2825559 -2.1800952 2.8472502 16711746
1.4062810 -1.7656677 2.3033886 16711746
1.3615900 -2.0889757 2.0207708 16711746
1.5464438 -1.9608490 2.5878315 16711746
1.3079129 -2.1791236 1.9090347 16711746
1.3710065 -1.9142257 2.2853367 16711746
1.2131686 -1.8167294 2.0945849 16711746
1.0923387 -2.1347816 2.4747331 16711746
0.7226102 -1.8860772 2.1585593 16711746
0.7578766 -1.8146011 2.4793186 16711746
1.4160041 -1.7324835 2.1430316 16711746
1.1345807 -2.1517673 2.5165515 16711746
2.2371325 -1.9269847 1.8064109 16711746
0.2407947 -1.8384389 1.9435909 16711746
1.4074856 -1.6182790 2.3587565 16711746
2.7270281 -2.6555142 2.6445894 16711746
1.1231184 -2.1751120 2.3105459 16711746
1.4804188 -1.6858293 2.2279530 16711746
0.5702838 -2.3807108 2.9143989 16711746
0.2984697 -1.7997706 2.0724924 16711746
0.6884707 -2.0028374 2.1854713 16711746
1.9204010 -1.9857664 2.7122197 16711746
1.2773145 -2.0323007 2.3429589 16711746
0.2954869 -2.0076163 2.3388975 16711746
-0.6419643 -3.0970786 3.9602349 16711746
0.4902812 -2.6052918 3.0694366 16711746
1.2336680 -2.1004050 2.4496038 16711746
1.2976719 -2.1181817 2.3565600 16711746
0.9172378 -1.3768202 2.2005975 16711746
0.8132312 -1.4783642 2.1438289 16711746
0.7495219 -1.8562598 2.0221450 16711746
0.7652587 -1.6509808 2.0701704 16711746
1.7185353 -1.9444516 2.2353640 16711746
1.5287924 -2.0751896 2.5392871 16711746
0.9708122 -1.9785576 2.5641294 16711746
1.5959299 -2.0700750 2.3695109 16711746
1.6108613 -1.7431443 2.1977139 16711746
-0.0940036 -2.0571017 2.6063104 16711746
1.4957725 -1.7284678 2.1780622 16711746
1.0658929 -1.7563589 2.4978020 16711746
3.5622129 -4.5924649 4.0316715 16711746
-0.1665678 -1.9294933 2.6016805 16711746
0.2977577 -2.5705655 3.1564541 16711746
0.2350523 -2.2760592 2.2794077 16711746
1.5338204 -1.7768548 2.2074640 16711746
0.4893205 -2.8177602 3.2794316 16711746
0.2746368 -2.1876860 2.2710438 16711746
0.2995700 -2.6142247 2.8657262 16711746
1.2532136 -2.0534062 2.8000317 16711746
-0.5528922 -2.2372825 2.7800050 16711746
1.2542263 -1.6405591 2.2809806 16711746
1.2992960 -1.8159428 2.3199222 16711746
1.4589723 -1.8596882 2.3023529 16711746
1.2089202 -1.7281464 2.1310194 16711746
1.3777399 -1.7149453 2.3551629 16711746
1.4186411 -1.8471060 2.3142300 16711746
1.4124743 -1.7024132 2.1829581 16711746
1.6530952 -1.8899684 2.6068003 16711746
2.0619001 -1.7907161 2.2093472 16711746
1.1003048 -1.8196729 2.5527778 16711746
1.3250937 -1.7265588 2.3390710 16711746
1.2820183 -1.7479693 2.3024487 16711746
0.2464220 -2.1115000 2.3643925 16711746
-0.2586780 -2.1000733 1.8276014 16711746
1.2004365 -1.7442719 2.1698189 16711746
1.3162144 -2.1547031 2.6448486 16711746
2.3356955 -2.2684352 2.5661464 16711746
1.6370810 -1.9735327 2.6838899 16711746
1.0897410 -1.5426011 2.5977173 16711746
1.1716685 -1.2781277 2.4491625 16711746
-0.5714712 -3.1082470 2.6467888 16711746
0.3242939 -1.8636656 2.1793985 16711746
0.1141505 -2.8251967 3.0140953 16711746
1.3423984 -1.7872012 2.2676840 16711746
0.1131847 -2.3014023 2.3154328 16711746
0.4939755 -2.4265761 2.1962402 16711746
1.6629450 -2.1205859 3.1512153 16711746
0.0216126 -2.6534019 2.3077188 16711746
1.4273014 -2.0047762 3.1801703 16711746
1.5228103 -1.8776510 2.3154149 16711746
1.3580395 -1.7625250 3.0086994 16711746
0.0944630 -2.4572814 3.0379570 16711746
0.1828458 -2.2678583 2.9948738 16711746
2.1034961 -2.5037909 3.2409725 16711746
1.4511101 -1.9372745 2.6093996 16711746
1.3820043 -2.0253098 3.3238525 16711746
2.0185559 -2.4263775 3.1262832 16711746
0.9686540 -2.4655521 2.7943757 16711746
1.6393043 -2.1562569 3.6384583 16711746
1.3555198 -2.0580547 2.8734255 16711746
0.2330237 -2.0992756 2.5018687 16711746
1.4467722 -1.2167021 2.4066033 16711746
0.1590465 -1.4369811 2.7260354 16711746
1.4485803 -1.8035254 2.3184462 16711746
0.2901679 -2.3406117 2.7241163 16711746
0.9960356 -1.8090599 2.4260416 16711746
-1.1181906 -2.2878411 2.0968552 16711746
0.2962189 -1.9393823 2.1386554 16711746
0.8389152 -2.2017632 2.1840627 16711746
0.1349843 -1.8021436 1.9327109 16711746
1.5437866 -1.9940897 3.2745664 16711746
2.2443306 -2.1075733 2.3661368 16711746
0.3530609 -1.9460155 2.3298812 16711746
1.4255968 -1.9592793 2.5384197 16711746
1.3599030 -2.0676515 2.2137232 16711746
0.3051552 -1.9535744 2.3639877 16711746
1.3744253 -1.9381031 2.5895927 16711746
2.9418762 -3.5865655 2.1518586 16711746
2.0757554 -2.0815327 2.9259653 16711746
1.2443719 -1.7385139 2.2571306 16711746
0.2560630 -1.6710360 2.2185478 16711746
1.5070131 -2.0830009 2.3307827 16711746
-0.6628580 -2.2658839 2.9380183 16711746
1.4271702 -1.7279497 2.3422761 16711746
-0.3255704 -1.8909118 2.7492599 16711746
-0.5142102 -2.1150436 2.0633900 16711746
1.4277412 -1.7298120 2.3434594 16711746
1.4924450 -2.0522377 2.3243365 16711746
1.4403436 -1.7767580 2.4244661 16711746
1.2901897 -2.1383452 2.7618732 16711746
1.2309124 -1.9906560 2.6675589 16711746
1.3030707 -1.3696305 2.2923393 16711746
1.1868056 -2.3552370 2.3568501 16711746
2.2951157 -3.1413083 2.0151026 16711746
-0.6183574 -2.4492931 2.7419116 16711746
0.1937668 -1.9827561 2.2850103 16711746
0.7962280 -2.8659306 2.9589360 16711746
0.1282789 -2.5504138 2.2077591 16711746
1.2737758 -1.5011520 2.3101447 16711746
1.2517260 -2.0426369 2.2355750 16711746
0.2457176 -2.2963939 2.2059066 16711746
1.6786442 -2.1400189 2.1687512 16711746
0.9571883 -2.6374514 2.8323734 16711746
-1.0067194 -2.5608609 3.2308559 16711746
0.0921670 -2.0915632 3.0404842 16711746
-0.0340115 -2.7093987 2.3431375 16711746
1.4374020 -1.6927273 2.2204962 16711746
1.3693353 -1.9043239 2.3711903 16711746
0.6515540 -2.8295341 2.1505930 16711746
1.2314572 -2.0400612 2.6720665 16711746
0.8939831 -1.7651188 2.2391698 16711746
0.2739708 -1.8826988 2.2401469 16711746
-1.6898210 -3.5329685 2.2597167 16711746
0.2164703 -1.5194080 2.4150345 16711746
0.3348370 -2.2004108 2.1631467 16711746
1.5939534 -1.7729206 2.3366079 16711746
-0.3832994 -2.7991097 2.0357893 16711746
1.2687958 -2.3233638 2.7599854 16711746
1.8823049 -2.3744674 2.1845889 16711746
0.8216672 -2.8372450 2.5073626 16711746
1.2914777 -2.1712322 2.3520973 16711746
-0.9080558 -3.8145633 3.7634978 16711746
1.3205180 -2.3491628 3.0856328 16711746
0.2777062 -1.8277786 2.2022176 16711746
1.2348622 -1.5889248 2.2385912 16711746
1.3084105 -1.8125610 2.2129831 16711746
0.2346470 -1.7524445 2.1893489 16711746
0.2586984 -1.7880430 2.4214537 16711746
-0.1577254 -1.7506475 2.3945143 16711746
1.9326332 -1.6999136 2.1688247 16711746
2.2387173 -2.0861423 2.1720738 16711746
-2.1998341 -2.6013095 3.2482285 16711746
0.1605960 -3.0657501 3.4235342 16711746
1.0762808 -3.2110300 2.8554478 16711746
1.5157928 -1.6949711 2.3091276 16711746
1.8985399 -1.8509550 2.1532047 16711746
1.5846030 -1.8568650 2.4981863 16711746
1.4479653 -2.1640668 2.5622351 16711746
1.0886867 -1.5078723 2.5423629 16711746
1.2386013 -1.3488668 2.7997689 16711746
1.2136660 -2.3050561 2.4276230 16711746
1.5129671 -1.8481532 2.6889479 16711746
1.6558871 -1.6283565 2.7111468 16711746
-0.2796066 -1.9296007 2.3884134 16711746
0.6341087 -2.6476777 3.2267935 16711746
2.0005856 -1.7964053 2.3724689 16711746
1.9076592 -1.8590066 2.1515036 16711746
1.3742242 -1.8907784 3.3387358 16711746
2.1332953 -2.1460247 2.9468269 16711746
1.4926342 -1.7698168 3.1196253 16711746
1.8600705 -1.5030754 2.3411748 16711746
-0.4175557 -2.6543984 3.5432582 16711746
1.8970313 -1.8999714 3.5139091 16711746
1.9531159 -2.1490655 3.1002498 16711746
1.4379228 -1.8607697 3.1514361 16711746
1.5272759 -1.8813691 2.6505272 16711746
1.4114846 -2.5254977 2.7996373 16711746
2.2193744 -2.2654641 2.9993331 16711746
1.6116199 -1.9699653 2.5387089 16711746
1.5748216 -2.2857118 2.8102658 16711746
1.6484897 -1.8562226 2.5909631 16711746
1.2727391 -3.2369270 2.9488907 16711746
1.4058256 -2.0698273 2.7050200 16711746
1.0792813 -3.1606956 2.2867532 16711746
1.8254551 -1.7806823 3.4116871 16711746
1.5564184 -1.8337986 3.3252800 16711746
1.6205009 -1.6633000 2.9584622 16711746
1.9242643 -2.3076210 3.1951020 16711746
1.5014905 -1.9595358 3.2684765 16711746
1.4353858 -1.8322126 2.4249678 16711746
0.1043141 -3.2998362 3.1521373 16711746
1.3523824 -2.0797689 2.4915433 16711746
1.0739777 -3.2594733 2.2871122 16711746
1.3628215 -1.9924856 2.2640605 16711746
2.0553420 -2.8908222 4.6241632 16711746
2.2268758 -1.9462749 2.9055831 16711746
1.8544137 -1.7265717 2.3418298 16711746
1.7553936 -1.8456227 3.1902013 16711746
2.2339473 -1.8951066 2.9457638 16711746
0.3465492 -2.7144556 3.0989299 16711746
-0.4722285 -5.0348806 3.5257347 16711746
1.4392810 -2.0654349 3.0805223 16711746
1.6470021 -2.0157089 2.6943469 16711746
1.4913044 -1.9256774 2.6101534 16711746
1.4632180 -1.9240742 2.5222783 16711746
1.4932042 -1.9479908 3.2878926 16711746
1.6737487 -1.8974975 2.3071203 16711746
1.5501833 -1.9421039 2.5622308 16711746
1.3466159 -2.0220363 2.4422452 16711746
1.3809665 -1.8278891 2.5355375 16711746
1.1536254 -2.4340405 2.3733327 16711746
1.5858034 -1.7155318 2.3347545 16711746
-0.5051053 -2.2170599 2.7620490 16711746
1.5556598 -1.9286326 2.4726102 16711746
1.4302489 -1.8641807 2.4120851 16711746
1.5648973 -1.8224388 2.4744737 16711746
1.5680605 -1.8549094 2.5281470 16711746
1.3104941 -1.7347761 2.4637325 16711746
2.1233563 -1.9198359 2.3458683 16711746
1.6554471 -1.8400884 2.6311510 16711746
1.6082842 -1.7640671 2.5813186 16711746
1.3458954 -1.7820899 2.8035207 16711746
1.4162512 -1.7515664 2.4917085 16711746
0.9240738 -2.1615903 3.3769846 16711746
1.6250656 -2.6966183 3.9200039 16711746
2.6865919 -2.4067011 2.9736230 16711746
1.3532120 -1.8431226 2.4610314 16711746
1.3801757 -1.9437790 2.8106611 16711746
2.1921749 -2.2885628 3.9841063 16711746
1.4461284 -2.0818369 2.9012237 16711746
1.6025821 -1.9414947 2.5276737 16711746
2.3634012 -2.5568581 4.1715894 16711746
2.0908284 -2.9186780 4.8552289 16711746
2.3500957 -2.5074000 4.6208858 16711746
2.6054788 -2.5294881 3.8022187 16711746
1.9587575 -3.3383880 4.6316528 16711746
2.0817926 -2.4010379 3.6517420 16711746
2.4349980 -2.6708214 4.6381392 16711746
1.7478101 -2.0433757 4.4213643 16711746
2.5563097 -2.6743877 4.1683717 16711746
2.0443087 -2.6024818 4.8341584 16711746
2.3591623 -2.4972022 4.0389180 16711746
1.5693978 -1.8676038 2.6831162 16711746
2.4155347 -2.5528309 3.0044541 16711746
1.5991268 -1.2872938 2.7930305 16711746
2.3559296 -2.6861248 3.9147861 16711746
2.4002588 -2.6053543 4.5830140 16711746
2.3656404 -2.5504801 4.3018689 16711746
1.8940494 -2.1010087 3.5203009 16711746
-0.1400024 -2.7084055 4.1738234 16711746
2.5868163 -3.0022500 3.0988750 16711746
1.4938366 -1.7872264 2.8049569 16711746
1.7068727 -1.9720564 2.6319108 16711746
1.9309177 -2.5803704 4.3826070 16711746
2.0125399 -2.1312695 3.5708520 16711746
1.3911227 -4.4529858 3.3723748 16711746
1.3949215 -1.5862174 2.6394503 16711746
1.3454331 -1.3146518 2.7408602 16711746
0.1243967 -2.4348407 4.2018957 16711746
0.8997290 -2.3942373 3.5776377 16711746
0.4785098 -1.6639700 3.3296285 16711746
0.9885517 -2.2164001 3.7053714 16711746
2.8097925 -2.6293876 2.7770958 16711746
0.8098015 -1.1137018 2.8832679 16711746
0.2487736 -2.4995534 4.0579915 16711746
1.2458071 -0.8617945 2.7450898 16711746
0.7599440 -2.6337833 3.5218391 16711746
1.1955880 -1.3395668 2.8768485 16711746
1.2411864 -1.2850150 2.7336493 16711746
1.1793244 -1.3031957 2.7075732 16711746
0.9145804 -1.6765854 3.2261486 16711746
1.1016752 -1.0549085 2.8948412 16711746
2.2240040 -2.3450153 4.1563954 16711746
1.9966192 -2.1710398 3.6707914 16711746
1.9830027 -2.4500797 3.5691943 16711746
1.5984343 -2.5145857 4.2301278 16711746
1.5340401 -2.4065654 4.0272479 16711746
0.8680866 -2.7564526 4.1781378 16711746
2.1823859 -2.8033743 3.6527140 16711746
2.1259134 -2.1626844 4.0643945 16711746
1.5558746 -2.5275297 4.1088309 16711746
2.2478120 -1.8734043 2.6839488 16711746
2.4678283 -2.7034018 3.7943861 16711746
0.8966745 -2.2468963 3.8221698 16711746
1.5915037 -2.6008487 4.2590146 16711746
2.2438364 -2.3157141 4.1214991 16711746
2.1171896 -2.1969335 3.9084113 16711746
2.3989494 -2.5609603 4.6876769 16711746
1.9794285 -1.5006517 3.3941932 16711746
1.9759151 -2.6521947 4.6337390 16711746
2.1500349 -2.5711808 4.5883226 16711746
0.9933474 -1.6730266 3.4006395 16711746
2.0330999 -2.5656033 4.8024163 16711746
1.9710914 -2.7346449 4.2759781 16711746
1.5682163 -1.7561156 2.5438890 16711746
1.7893192 -1.3647950 2.9742837 16711746
2.2245326 -1.8877848 2.6089559 16711746
1.8242769 -2.2614682 2.5640936 16711746
1.9104903 -1.4924424 2.5795805 16711746
2.3070095 -1.8095124 2.7087514 16711746
1.8372598 -2.4092903 4.0380054 16711746
2.0098152 -2.1804011 3.4688244 16711746
1.4937112 -1.7746969 2.6505885 16711746
1.5526835 -1.8762599 2.9225276 16711746
1.5708842 -2.1881089 3.6623070 16711746
2.4319956 -1.9106570 2.8733029 16711746
2.3426569 -1.7939484 3.1296141 16711746
1.5581371 -2.0782175 3.6037929 16711746
1.4309050 -1.9698290 3.3805649 16711746
1.5739483 -1.6581945 2.9095433 16711746
2.1604869 -1.7052084 2.8621535 16711746
2.2287080 -2.3289695 4.1984463 16711746
1.2467176 -1.6775123 2.9660633 16711746
1.6785812 -2.0208035 2.8522117 16711746
1.7057903 -1.7603482 2.7217872 16711746
1.5045255 -2.2742572 3.4880717 16711746
2.3740847 -2.4491041 4.2635045 16711746
2.4892223 -2.4668331 4.0109205 16711746
2.1610031 -2.2621300 3.9433224 16711746
1.9507037 -2.1429486 3.4887543 16711746
1.7118566 -2.1454465 2.9872217 16711746
1.9150827 -2.6047149 4.6343741 16711746
2.3783422 -2.5893025 4.5656681 16711746
1.5859386 -2.7226264 3.9774504 16711746
1.4856756 -3.4012468 3.2767649 16711746
1.5119138 -1.8436443 2.6317050 16711746
1.9512750 -2.2051904 3.5626915 16711746
1.6074404 -1.8539553 2.6387088 16711746
2.4543073 -1.7260575 3.1360745 16711746
2.1703365 -2.2768495 3.5792763 16711746
1.5531909 -1.7218299 2.6458704 16711746
1.3256204 -1.7500347 2.7136052 16711746
1.4358410 -1.8352979 2.6023717 16711746
0.8348169 -2.4011707 3.3227081 16711746
2.5483141 -1.8775780 2.8013570 16711746
2.5541921 -2.4953830 4.0719142 16711746
2.1544182 -1.7599058 2.7208102 16711746
1.5444912 -1.4356486 2.8014033 16711746
1.3043020 -1.6051122 2.6868312 16711746
0.9841397 -1.6120553 3.4276271 16711746
0.9026944 -1.5765648 3.0352359 16711746
1.9392205 -1.9484810 3.4110582 16711746
2.1759489 -2.2567849 3.9148507 16711746
2.0522611 -2.0650396 3.9015489 16711746
2.0410726 -2.2854054 3.6825964 16711746
1.9394841 -1.9483854 3.4695582 16711746
1.8797941 -2.4155967 4.2242365 16711746
2.6209905 -1.8506904 2.9983108 16711746
1.4433396 -1.3288066 2.7709160 16711746
1.4721814 -1.6947414 2.7301424 16711746
1.4528003 -1.8408812 3.4815900 16711746
2.0789742 -1.7097287 2.6528416 16711746
1.3355266 -1.4448018 2.8661008 16711746
2.3177187 -2.1836343 4.5980806 16711746
1.0410104 -1.1435920 2.8408866 16711746
1.6981478 -1.6801679 3.0555189 16711746
1.3637854 -1.5028607 3.1848869 16711746
1.1695070 -1.0592296 2.9904289 16711746
1.3848497 -1.2725565 2.7206035 16711746
1.2251858 -1.1565968 2.9989793 16711746
0.9023780 -1.5248898 3.1177638 16711746
2.4778845 -2.5647123 4.1058722 16711746
1.2541922 -1.0873080 3.0708470 16711746
1.3244600 -1.1130811 2.7514107 16711746
1.0893303 -1.1355896 2.8625515 16711746
1.1368659 -1.4301691 2.7080441 16711746
1.2202959 -1.4135771 2.7489121 16711746
1.3774204 -1.3075950 2.8037348 16711746
1.0126942 -1.3710064 3.1524832 16711746
1.2239742 -1.2418107 2.9995267 16711746
1.2087585 -1.0990081 2.8858929 16711746
1.0551507 -1.2682986 3.2253575 16711746
1.4274683 -1.2466600 2.7523489 16711746
1.0480797 -1.1643902 2.7840116 16711746
1.4310323 -1.5371289 2.8993433 16711746
1.0722747 -1.0341718 3.1189449 16711746
1.1599025 -1.1330206 3.1340728 16711746
2.7403755 -1.9945215 3.1461303 16711746
1.0891267 -1.1769856 2.7050073 16711746
2.0127759 -2.2377679 3.4557061 16711746
1.3765581 -1.5206288 2.7580190 16711746
1.5241377 -1.7281816 2.6210322 16711746
2.0394588 -2.0920422 3.5436149 16711746
1.4987916 -2.4421108 4.6290979 16711746
1.1430444 -1.3030078 2.7910082 16711746
1.4973633 -2.4875751 4.0268545 16711746
1.3202406 -1.4077684 2.7241826 16711746
1.3087332 -1.3316226 3.0843275 16711746
1.0563670 -1.8592870 3.4783297 16711746
1.7228446 -2.0603347 4.3630195 16711746
0.7944437 -3.4335618 4.5891781 16711746
0.6765414 -1.8908793 3.5562518 16711746
1.7348808 -1.5676745 3.1117003 16711746
0.6344814 -1.8550622 3.7062476 16711746
1.2731655 -1.2714871 2.8235669 16711746
0.7415469 -1.9222916 3.2894340 16711746
1.3209577 -1.0853505 2.8015764 16711746
0.7590257 -2.1318190 3.1543133 16711746
1.7471384 -2.0614035 3.3148065 16711746
0.7403446 -1.8788730 3.2755091 16711746
1.1610855 -1.1714526 3.1766284 16711746
1.2264414 -1.0427201 3.0379493 16711746
1.2211989 -1.0634351 3.0234206 16711746
1.0662991 -0.9512461 3.0740230 16711746
1.3111479 -1.2963417 3.2120888 16711746
0.9722148 -1.2604040 2.7353423 16711746
1.3012366 -2.2626059 3.9458878 16711746
1.4078439 -1.0271890 2.7712538 16711746
1.0907490 -1.1009614 2.8543785 16711746
1.3074148 -1.0935729 2.8010855 16711746
1.8721925 -1.9765179 3.3607202 16711746
0.8663347 -1.7975889 3.0497415 16711746
0.4735092 -2.2521751 3.9744611 16711746
1.2523952 -1.2173274 3.0833395 16711746
1.9382720 -1.9750828 3.2664258 16711746
1.9207575 -2.6098797 4.7915668 16711746
2.5149069 -2.7044590 4.6361227 16711746
1.5318964 -2.6114368 4.2542844 16711746
1.3985056 -1.6960946 3.3000484 16711746
0.1472944 -2.2847247 3.8361020 16711746
1.8482319 -2.2660604 3.3262885 16711746
1.9367157 -1.9225680 3.4026041 16711746
1.0549875 -1.1999775 2.8135922 16711746
2.0958297 -2.2558482 3.2140660 16711746
1.0417284 -1.0078881 3.0909529 16711746
1.3559719 -1.1900722 2.8600576 16711746
1.0270456 -1.3550044 2.7978194 16711746
1.0010055 -1.4457849 2.8596210 16711746
1.2607223 -1.5515159 2.9246445 16711746
1.5310088 -1.0456458 3.0403664 16711746
1.6790795 -2.0091169 3.2270310 16711746
1.9879669 -2.5594699 5.0308127 16711746
1.8141204 -1.9874671 3.5651541 16711746
1.9318541 -2.1493678 3.4590771 16711746
-0.5585293 -4.1902061 5.3195295 16711746
1.3314064 -1.4782569 3.2152302 16711746
0.6198199 -1.4963641 3.1304405 16711746
0.0518024 -2.5372803 4.2551761 16711746
-0.0620871 -1.7315505 2.8997953 16711746
0.8800266 -2.2484415 3.4870701 16711746
0.9902146 -2.0033724 3.5111115 16711746
1.1627566 -0.9600076 2.9737298 16711746
0.9501235 -0.7972019 2.8690372 16711746
1.9756138 -2.3066761 3.3514268 16711746
2.1285851 -2.3908334 4.3309331 16711746
0.4400505 -2.2793663 3.7406924 16711746
0.1705060 -3.0710874 4.1284509 16711746
1.9429076 -2.0176406 3.5695510 16711746
1.9843403 -2.7152781 4.4586706 16711746
0.6118559 -1.7002202 2.8399200 16711746
1.2834216 -1.6269770 2.9612606 16711746
1.6729219 -1.4001620 3.4397867 16711746
2.1994200 -2.5180247 4.4680724 16711746
1.9062660 -3.0610476 4.8600492 16711746
1.9462497 -2.0767443 3.6228201 16711746
1.6018137 -1.7672132 3.0034714 16711746
1.3048797 -1.8965766 3.4451256 16711746
0.3490984 -2.1651275 3.5364320 16711746
1.4226403 -2.1765141 3.5870719 16711746
0.4891448 -1.8230251 3.1873894 16711746
-0.2333036 -2.6730311 4.1684017 16711746
3.9563048 -5.7916698 4.8142614 16711746
