# .PCD v.7 - Point Cloud Data file format
VERSION .7
FIELDS x y z rgb
SIZE 4 4 4 4
TYPE F F F F
COUNT 1 1 1 1
WIDTH 50
HEIGHT 1
VIEWPOINT 0 0 0 1 0 0 0
POINTS 50
DATA ascii

 0.0212561 0.0241647 -0.1566935 16777215
 0.0019474 0.0008460 -0.0014830 16777215
0.5895476 -1.3999896 0.3018927 16711746
0.1011273 -2.1383288 1.1566556 16711746
0.2448770 -1.6345470 0.5123479 16711746
0.0434900 -0.2249314 0.0429592 16711746
0.7976574 -0.8192455 -0.0080015 16711746
-0.1656734 -1.8972759 0.8270976 16711746
0.9134262 -1.8352469 1.1967400 16711746
1.1414891 -0.9411277 0.3741365 16711746
-0.1144621 -1.7935827 0.7172408 16711746
0.8842530 -1.1233013 0.2913567 16711746
0.0696340 -0.3930211 0.1022115 16711746
0.4052958 -1.1465577 0.0438862 16711746
0.9061922 -0.9363323 0.0471541 16711746
0.0085782 -0.9998523 0.0330493 16711746
-0.0109545 -0.9891834 0.0367124 16711746
-0.0288534 -1.1022503 0.1230755 16711746
0.1848559 -0.3367636 0.2666693 16711746
0.1834389 -0.3356275 0.2773111 16711746
0.1410352 -0.3716383 0.0671156 16711746
0.1142249 -0.3926221 0.1862196 16711746
0.3735191 -1.6759567 0.5592192 16711746
1.0600754 -1.0243582 0.2629102 16711746
1.7443868 -7.1653242 1.5603108 16711746
1.0184932 -8.6671638 0.7796453 16711746
2.3925951 -6.0247707 2.0909095 16711746
1.8192683 -4.9744768 1.7543973 16711746
1.6379589 -3.7508645 1.8002933 16711746
-0.9415939 -7.0524745 3.1531112 16711746
-0.7715116 -5.1456184 2.2305834 16711746
-1.0535635 -5.7312922 2.4888649 16711746
-1.8077458 -3.7391496 0.9578938 16711746
-0.7689128 -4.4374976 1.3139644 16711746
1.4541875 -4.2173195 3.0246632 16711746
-2.5774114 -4.8270488 0.3788011 16711746
1.2064501 -6.3745465 2.4222326 16711746
-1.3634697 -5.0812092 0.8612756 16711746
1.3270813 -4.8564720 0.8775885 16711746
1.8345233 -5.8026614 0.5605118 16711746
1.7975895 -6.0695109 1.6271241 16711746
4.1204977 -3.7068505 1.3238088 16711746
-1.3246478 -4.9200811 0.8341680 16711746
1.9106047 -4.5030818 2.4623702 16711746
-0.1560747 -0.5674117 0.0436670 16711746
1.3963845 -3.3242092 1.7123162 16711746
1.7579846 -6.3260093 1.1518426 16711746
-0.0667272 -7.6216378 0.6166326 16711746
-0.8667334 -7.6848764 2.7029774 16711746
-0.6632100 -1.3530397 0.3473626 16711746
