# .PCD v0.7 - Point Cloud Data file format
VERSION 0.7
FIELDS x y z rgb
SIZE 4 4 4 4
TYPE F F F F
COUNT 1 1 1 1
WIDTH 1189
HEIGHT 1
VIEWPOINT 0 0 0 1 0 0 0
POINTS 1189
DATA ascii
0.014540851 -4.9545698 27.936239 16777215
-0.21653379 -4.8512611 28.272686 16777215
-0.11171913 -5.0710487 28.567804 16777215
-0.0081294114 -5.176681 28.749956 16777215
0.11399963 -5.0797081 28.914347 16777215
0.23665859 -4.9629436 28.896551 16777215
0.20378368 -5.1948566 29.001274 16777215
0.25121576 -5.366611 29.634039 16777215
0.34771097 -5.4187608 29.561985 16777215
0.32265812 -5.351635 29.878448 16777215
-0.24645387 -5.0656571 30.29747 16777215
-0.030390272 -5.5903015 31.217312 16777215
0.018121224 -5.5195336 31.268574 16777215
0.062976331 -5.5475478 31.274731 16777215
0.10330412 -5.6180325 31.369131 16777215
0.16880418 -5.6391964 31.54141 16777215
0.21533057 -5.6241388 31.903166 16777215
0.17510487 -5.8877878 32.027134 16777215
0.44041187 -5.8132629 32.109909 16777215
0.68211907 -5.7739148 32.290535 16777215
0.83058673 -5.8997784 32.466076 16777215
0.45131698 -6.1057162 32.82053 16777215
-0.044101458 -5.8730526 33.655415 16777215
0.54192746 -6.435647 33.843334 16777215
0.016743155 -6.0683188 34.367481 16777215
0.19255173 -6.2621093 34.580727 16777215
-0.51146442 -5.6703262 35.271408 16777215
-0.1282831 -5.7507329 35.309254 16777215
-0.010102579 -5.8937373 35.45961 16777215
0.2373547 -6.0726547 35.472374 16777215
0.3830108 -6.2092104 35.553947 16777215
0.41655144 -6.40522 36.337421 16777215
0.47080106 -6.6138415 36.673161 16777215
0.59196901 -6.7172308 36.630962 16777215
-0.25762501 -5.8155937 37.016182 16777215
0.053152837 -6.6210852 37.570198 16777215
0.15755051 -6.8173094 37.780289 16777215
0.19645245 -6.8429565 37.951344 16777215
-0.05575043 -6.6475701 38.690662 16777215
0.16873361 -6.9219913 38.84964 16777215
0.24488685 -6.9201694 38.992352 16777215
-0.28200021 -6.8147087 39.440208 16777215
-0.19839303 -6.5192499 39.727852 16777215
-0.33856618 -6.716074 40.168804 16777215
0.041029308 -6.9406652 40.31012 16777215
0.022912428 -7.2020836 40.59251 16777215
0.23018961 -7.3638268 40.611866 16777215
0.28876457 -7.3004103 40.855301 16777215
0.50845414 -7.4191723 41.016098 16777215
-0.34172413 -6.6902957 41.453075 16777215
-0.38027096 -6.7085147 42.038639 16777215
-0.11567307 -6.8688602 42.366707 16777215
-0.053671923 -6.9639168 42.412495 16777215
0.080304816 -7.0640702 42.468952 16777215
0.22118276 -7.1703601 42.913364 16777215
0.32013437 -7.1627522 42.872784 16777215
0.37303963 -7.1016436 42.944714 16777215
0.31587857 -7.0607448 43.304211 16777215
-0.061048772 -7.195673 43.944912 16777215
0.32592577 -7.6240292 44.070908 16777215
0.42842844 -8.0256319 44.329865 16777215
0.53389037 -8.1384439 44.751518 16777215
0.51633924 -8.252636 44.799244 16777215
0.75325525 -8.1992216 45.103916 16777215
0.96082455 -8.1946878 45.17173 16777215
0.80328596 -8.0443325 45.316425 16777215
0.89012599 -8.2118759 45.425125 16777215
0.8996802 -8.3666677 45.844925 16777215
1.0317293 -8.3597145 45.667332 16777215
-0.75305974 -6.7814426 2.5560839 16711746
-0.16836981 -4.8461065 0.30382562 16711746
-3.1982749 -7.4673471 2.0282652 16711746
-6.3337269 -11.512006 3.8223164 16711746
-1.3722351 -8.4539413 2.903583 16711746
0.32009637 -3.2343068 0.58608538 16711746
-0.15692826 -7.5335836 1.7653136 16711746
-0.47041339 -12.709437 3.0067983 16711746
-1.006507 -7.8465304 0.56263536 16711746
-0.5334006 -10.07019 2.1202168 16711746
-0.82198703 -6.22262 0.57465792 16711746
0.29982716 -5.1498313 0.13303848 16711746
0.86244619 -4.0754132 0.062140152 16711746
-8.0835171 -16.072426 7.4372764 16711746
-6.4622836 -12.488068 3.2832611 16711746
-2.9532743 -5.3246622 1.477003 16711746
0.81825686 -3.4296961 -0.039605629 16711746
0.37934574 -4.9278121 -0.040913112 16711746
-0.58199894 -8.0802107 1.1969184 16711746
0.82480508 -5.3429246 0.2238922 16711746
-0.80496377 -6.0596943 0.25600368 16711746
1.1256834 -6.3595881 -0.20877035 16711746
-3.3575358 -8.3260918 2.7506406 16711746
0.66419113 -6.9560246 0.62196726 16711746
0.17400913 -3.7425816 0.27407062 16711746
-3.4098396 -10.450912 2.3364532 16711746
-1.5705422 -6.0324583 1.1461079 16711746
0.74750298 -3.7124782 0.25662053 16711746
-2.3693161 -8.8975496 2.6294682 16711746
-2.7411654 -7.4596653 2.7027457 16711746
-5.5473022 -14.096185 5.2145634 16711746
-0.066255897 -7.0639591 0.65412116 16711746
0.21364951 -4.6059294 0.15984838 16711746
-2.9307125 -8.4729519 2.6368644 16711746
0.54228687 -5.406661 1.0423206 16711746
0.69367898 -5.6077614 1.0336733 16711746
0.42003837 -8.122323 1.5515968 16711746
-5.032475 -12.134702 3.5573015 16711746
0.39023671 -6.8994441 0.7801922 16711746
0.3254045 -4.9996119 0.47930077 16711746
1.1639044 -4.7638717 -0.030124214 16711746
-1.579422 -8.5386057 2.7354586 16711746
-1.8540053 -8.4152184 2.6880789 16711746
1.4557685 -7.3780465 -0.13245858 16711746
0.16196489 -5.8258681 0.37506494 16711746
-2.3990211 -8.6463184 2.1212454 16711746
-3.4135177 -11.354887 7.7224059 16711746
-3.1987746 -6.5348177 1.672237 16711746
-5.1773677 -10.918066 2.5662713 16711746
-2.7816269 -8.1279898 1.6699924 16711746
-2.6195252 -6.4022393 1.8440504 16711746
-0.52319592 -6.6765857 0.87204385 16711746
-1.4321587 -6.7101054 1.5733213 16711746
-0.48486191 -5.7679372 0.60143852 16711746
-6.8033161 -12.02946 4.6578202 16711746
-3.2674303 -10.827236 3.9415438 16711746
-1.9155285 -9.5111818 2.7035136 16711746
-0.44173783 -7.4070516 1.9813936 16711746
-1.6642249 -9.3079557 3.6324794 16711746
13.840855 -20.280272 35.098179 16711746
13.275857 -21.134258 36.031033 16711746
11.274732 -19.270174 32.779373 16711746
14.448851 -20.095995 36.29538 16711746
13.252008 -21.329876 36.068699 16711746
13.900048 -21.499075 35.139214 16711746
16.219004 -19.534124 36.669754 16711746
14.042734 -21.616951 39.403946 16711746
4.6956549 -19.264807 29.209133 16711746
12.376324 -19.655947 36.698284 16711746
27.275661 -26.773104 47.713997 16711746
14.071633 -19.708792 36.148518 16711746
14.609807 -22.07266 36.94231 16711746
-0.64899325 -11.050041 32.874718 16711746
8.8329268 -21.005795 26.698082 16711746
8.5796175 -16.896101 28.270649 16711746
-0.87066036 -12.303239 33.76067 16711746
0.84740472 -10.87938 33.108963 16711746
21.218296 -22.025131 43.828197 16711746
16.654587 -31.865431 48.740524 16711746
13.257936 -21.058035 43.452122 16711746
11.205683 -18.946445 36.463112 16711746
11.146797 -21.139694 27.561234 16711746
10.349122 -17.170671 26.285114 16711746
7.3492198 -16.318634 27.826591 16711746
27.177244 -28.55373 45.361553 16711746
11.893809 -20.608883 39.037647 16711746
9.7272501 -20.106489 27.278929 16711746
0.79767811 -11.439552 33.265358 16711746
14.774926 -22.990961 32.778118 16711746
6.5643201 -17.692217 28.762575 16711746
8.9146566 -16.0424 31.565002 16711746
27.078527 -30.885546 42.99242 16711746
32.611973 -45.718601 56.857399 16711746
0.32606477 -14.558091 36.8498 16711746
15.772602 -21.082911 35.175838 16711746
-1.3362554 -13.926223 32.38475 16711746
0.29371542 -13.641146 37.027046 16711746
59.909485 -44.827877 54.409744 16711746
-1.6471223 -15.756001 33.999352 16711746
29.815952 -32.067108 42.711723 16711746
7.7088132 -29.344095 41.969372 16711746
-1.0080242 -14.239762 34.544029 16711746
-1.4169989 -14.523146 32.663803 16711746
18.678238 -23.937471 38.490314 16711746
53.829792 -40.117645 51.392906 16711746
22.391014 -24.462559 41.948925 16711746
14.004347 -18.809782 36.676376 16711746
16.483395 -19.758484 37.876751 16711746
14.109222 -19.708925 36.129074 16711746
21.468721 -21.039225 41.671127 16711746
8.6019278 -15.595573 34.88184 16711746
16.255245 -19.547421 37.74968 16711746
10.461343 -19.705252 32.03133 16711746
9.5912437 -18.697929 30.613354 16711746
3.6669824 -15.660376 32.818707 16711746
8.5323467 -17.618141 28.631693 16711746
6.1630063 -16.60223 32.815285 16711746
17.035242 -19.893164 39.31078 16711746
16.026875 -20.955215 35.148411 16711746
10.578739 -19.138098 29.835903 16711746
4.3188925 -18.336374 33.809925 16711746
8.7328091 -17.594147 34.184853 16711746
7.6293206 -17.617342 30.243509 16711746
17.708368 -20.513561 39.776314 16711746
7.4455719 -18.658932 31.51668 16711746
7.2392826 -16.01869 34.621906 16711746
3.5022731 -15.017258 33.565578 16711746
4.6659594 -18.001158 29.696907 16711746
3.6557524 -14.512331 32.477394 16711746
5.4931593 -17.24625 31.940994 16711746
11.796681 -18.37995 38.082123 16711746
16.095837 -21.071934 35.259098 16711746
5.0487704 -15.823908 34.440533 16711746
20.608797 -23.339315 40.134701 16711746
3.8242126 -15.780332 33.911045 16711746
4.4540887 -18.390165 34.285004 16711746
5.5002961 -15.525087 31.941626 16711746
6.0716562 -17.643375 28.88768 16711746
6.5234919 -19.299347 30.998035 16711746
3.85583 -17.3381 29.279093 16711746
-0.79673553 -14.349655 32.149868 16711746
0.25979799 -13.665954 33.915295 16711746
19.382275 -21.227804 41.208588 16711746
16.740446 -23.757046 36.691971 16711746
11.564322 -21.318848 32.601849 16711746
13.056573 -16.811338 36.350124 16711746
-1.3579201 -13.846156 34.979881 16711746
5.9851418 -18.465858 30.539318 16711746
8.1012802 -19.34132 30.142477 16711746
-0.86341274 -11.598686 32.129879 16711746
0.094965123 -12.372663 34.108673 16711746
-0.19068496 -10.770871 33.354992 16711746
3.5776892 -15.379263 33.071033 16711746
4.2293029 -18.541059 33.464291 16711746
5.2461634 -17.423094 28.465393 16711746
5.9521341 -18.629364 30.243729 16711746
4.0684748 -14.879767 33.188217 16711746
10.763748 -17.802729 33.760609 16711746
9.5650816 -17.738771 26.590525 16711746
-1.7225925 -13.516613 34.296692 16711746
-1.0151209 -12.638527 33.33091 16711746
8.3038816 -20.368931 31.571495 16711746
0.20495541 -12.016736 31.81838 16711746
7.288044 -17.388927 28.210608 16711746
0.25494924 -13.941638 34.105412 16711746
0.56154293 -13.301054 34.673569 16711746
27.526287 -20.845984 39.405518 16711746
16.744066 -17.248766 33.643696 16711746
3.480576 -14.837094 32.828663 16711746
5.7173362 -15.0286 32.511948 16711746
5.6117382 -18.015499 29.881018 16711746
0.50638759 -10.705055 33.336685 16711746
15.910169 -24.131653 28.856718 16711746
12.305037 -17.011221 31.239788 16711746
3.1014864 -14.648477 32.319706 16711746
4.6638494 -14.0546 31.749453 16711746
4.3603516 -17.292974 30.330801 16711746
9.2718849 -23.930817 30.463772 16711746
1.1017241 -12.653954 34.943806 16711746
0.50680572 -12.40213 34.083031 16711746
20.203171 -20.410538 41.60553 16711746
17.221687 -20.152458 32.182896 16711746
5.2899847 -14.192288 32.214676 16711746
29.359426 -26.879824 34.502533 16711746
3.0711432 -12.841372 33.7164 16711746
4.8835301 -17.757616 36.564312 16711746
3.193651 -12.526514 33.315742 16711746
3.4989655 -15.664908 37.523266 16711746
-0.36848408 -11.596676 33.290558 16711746
2.139297 -12.556392 33.209656 16711746
3.8932354 -12.320556 35.234314 16711746
2.1612873 -9.3097963 30.52813 16711746
-0.35277691 -10.019916 32.864674 16711746
-1.3683137 -19.519293 33.314358 16711746
-0.3692638 -10.552281 31.953762 16711746
4.6454177 -14.030799 36.736649 16711746
-0.48400837 -15.048009 31.368378 16711746
0.99384278 -9.7140274 30.212973 16711746
0.6978175 -13.966896 30.964869 16711746
-0.40159789 -11.055867 32.991394 16711746
10.233785 -18.488945 33.16478 16711746
6.0685945 -14.851056 37.264912 16711746
18.48778 -18.457365 29.63666 16711746
8.7919626 -17.799482 31.10257 16711746
3.2309043 -14.67381 33.034348 16711746
2.2654181 -8.5160704 32.00045 16711746
6.4977217 -16.051006 37.944458 16711746
7.2963367 -17.698078 40.622673 16711746
21.939915 -19.599216 38.446007 16711746
15.74372 -15.096174 34.496521 16711746
22.641808 -20.742893 35.821159 16711746
12.413249 -16.616028 30.23329 16711746
8.1680727 -17.058838 33.513496 16711746
4.8305058 -16.649296 31.424622 16711746
15.676831 -16.886137 26.657484 16711746
13.109721 -18.80966 39.884689 16711746
12.921203 -18.689966 33.570267 16711746
22.943071 -20.333494 33.191284 16711746
18.752275 -18.417631 36.407932 16711746
7.3228183 -16.276842 35.065891 16711746
5.4406581 -17.718903 30.18692 16711746
1.015729 -13.44437 33.788696 16711746
3.395859 -15.964159 34.275604 16711746
-0.90479606 -12.121525 34.61985 16711746
11.577886 -16.85207 30.591745 16711746
13.329855 -18.924948 29.476038 16711746
7.2157764 -17.135792 29.650583 16711746
11.795739 -19.446474 39.192745 16711746
17.601229 -16.280657 34.892815 16711746
10.480478 -17.90204 36.176971 16711746
-1.6031696 -13.522446 35.155552 16711746
17.222328 -16.422812 31.419254 16711746
7.8729258 -16.451504 29.801886 16711746
10.338017 -18.313028 33.620758 16711746
11.314093 -19.570337 37.645496 16711746
20.255768 -23.694443 38.328415 16711746
14.913738 -18.622175 42.730461 16711746
21.185375 -20.172651 34.827114 16711746
7.8107967 -15.209404 34.814514 16711746
21.903505 -21.585278 41.529716 16711746
11.583258 -21.73222 29.794975 16711746
-1.7122509 -13.935845 34.489925 16711746
66.505562 -59.506798 62.138851 16711746
6.5214233 -13.972399 29.081282 16711746
7.8290973 -16.521982 34.255684 16711746
-5.3058176 -16.993563 33.999546 16711746
14.217492 -22.356314 41.14817 16711746
3.6583958 -15.373557 35.379147 16711746
12.648137 -18.182367 30.100611 16711746
12.988039 -20.487797 32.364635 16711746
7.791842 -23.601986 34.401711 16711746
1.0555855 -18.124241 32.710587 16711746
17.11973 -18.773838 28.267159 16711746
3.5653117 -15.884182 33.602398 16711746
5.3744974 -18.332678 39.335911 16711746
29.556133 -25.287975 47.812508 16711746
-1.8836071 -13.042829 36.419205 16711746
25.917027 -22.367781 40.043274 16711746
22.62958 -20.873922 43.573505 16711746
22.245842 -25.032917 44.143921 16711746
23.713749 -22.429932 43.718876 16711746
-5.0331774 -14.15234 36.410461 16711746
94.790733 -59.617317 70.04306 16711746
-1.6256738 -11.939606 35.321968 16711746
30.638445 -37.204712 42.789227 16711746
18.799747 -33.39563 54.055103 16711746
1.3872875 -9.4231119 31.083443 16711746
0.65027905 -9.3216972 31.574841 16711746
0.051455501 -8.6570463 31.628248 16711746
0.19445103 -8.2596111 31.163494 16711746
14.908945 -20.578608 38.393753 16711746
1.2138265 -9.5555677 30.774616 16711746
2.5187395 -10.048935 30.156631 16711746
0.70298553 -9.9513693 31.060663 16711746
3.2252619 -9.7423143 29.801872 16711746
2.0496411 -13.010731 30.796116 16711746
2.047087 -9.1253195 30.656628 16711746
2.4194424 -11.601062 30.599257 16711746
2.7971842 -11.590019 30.267004 16711746
0.36290121 -9.315134 32.491238 16711746
1.8309505 -10.98811 30.232132 16711746
3.2641323 -11.795097 31.372047 16711746
2.0849724 -11.460788 31.479856 16711746
2.045686 -9.0153465 32.655876 16711746
0.86772394 -8.5005026 31.329124 16711746
1.8833704 -10.533244 31.045704 16711746
1.507288 -10.116916 31.245481 16711746
0.97807485 -8.9580183 31.56596 16711746
0.90675724 -10.252154 31.059071 16711746
0.61658317 -9.6126251 31.439409 16711746
1.6773149 -11.404425 32.257317 16711746
1.171138 -9.8816204 31.847422 16711746
0.16608606 -8.1966066 31.341019 16711746
0.022817951 -8.636487 31.594713 16711746
1.0752455 -10.285797 30.90416 16711746
2.4075296 -10.697437 30.306242 16711746
1.9344686 -11.237005 30.502768 16711746
3.2041121 -11.046837 29.783691 16711746
1.4465377 -10.597119 32.395199 16711746
1.463282 -9.6188793 31.395164 16711746
1.1852933 -9.924118 31.157755 16711746
1.5166934 -10.227008 30.823744 16711746
1.2874116 -10.168118 30.96039 16711746
2.4538593 -12.194519 32.637466 16711746
1.5725251 -9.6524296 31.602663 16711746
3.4243424 -12.6722 32.96656 16711746
2.4418042 -12.431828 31.533632 16711746
3.8269904 -11.533282 30.902393 16711746
2.4025147 -10.121387 31.312811 16711746
0.62909651 -8.6303396 32.909351 16711746
0.60408282 -6.0239959 31.675055 16711746
2.9737301 -10.573997 33.358578 16711746
1.379019 -7.9255795 32.200802 16711746
3.304333 -13.590402 30.979979 16711746
4.5405226 -11.770043 32.3251 16711746
-0.27909097 -8.8730946 31.863577 16711746
-0.53767705 -8.8454752 31.958347 16711746
7.0325713 -17.537462 33.354454 16711746
3.1059933 -10.441986 30.947411 16711746
1.6721425 -10.26689 31.427069 16711746
1.4659024 -10.678513 31.424118 16711746
1.6209477 -10.587813 30.791166 16711746
1.3273376 -10.029831 30.773668 16711746
0.0075723198 -8.2870617 31.563192 16711746
1.8109279 -11.064091 30.964029 16711746
0.9969638 -9.1901045 31.177952 16711746
1.8327695 -10.64589 31.528881 16711746
3.5455427 -10.676656 30.541828 16711746
0.70411932 -10.533098 31.947548 16711746
2.2133901 -13.283703 32.012028 16711746
0.93929118 -9.7154617 31.808722 16711746
1.4389763 -8.254077 30.847136 16711746
-0.54745489 -9.0518532 32.996304 16711746
2.490823 -11.530222 32.057785 16711746
7.0495687 -16.858267 32.12101 16711746
3.1706038 -11.997699 33.071617 16711746
1.894055 -11.971677 33.64735 16711746
1.3235096 -9.0345125 30.781332 16711746
4.9695058 -15.140513 31.465384 16711746
1.124591 -10.907388 33.957588 16711746
-0.27011234 -9.2838221 32.224918 16711746
16.488449 -28.763908 37.35302 16711746
4.1841536 -12.617979 34.606369 16711746
2.4334044 -9.2973995 30.666512 16711746
2.7874517 -9.2728662 31.225325 16711746
5.1348038 -15.847801 34.71666 16711746
1.4163234 -10.529147 32.105618 16711746
0.54510814 -7.9361057 31.751986 16711746
0.5368278 -10.810087 33.093815 16711746
-0.0083053345 -8.9519691 31.503258 16711746
1.5262616 -10.967207 32.499561 16711746
3.0476615 -10.439796 31.602276 16711746
4.5245829 -14.769881 33.82428 16711746
1.9945509 -9.6635303 32.263756 16711746
10.24843 -20.082306 33.81583 16711746
6.2505817 -15.370174 33.165775 16711746
1.9345436 -13.355405 31.351297 16711746
0.62938106 -9.2075024 31.241199 16711746
3.0047047 -14.339495 31.564001 16711746
1.1326661 -12.335572 31.915407 16711746
1.9615402 -10.204437 31.073301 16711746
1.2777195 -16.705866 39.635639 16711746
5.6566811 -10.121623 33.391159 16711746
15.704136 -29.109968 45.594505 16711746
2.3171666 -9.205368 31.616507 16711746
-0.27458319 -8.207653 32.713345 16711746
-0.22975197 -9.4628868 34.094032 16711746
5.4150085 -11.801978 29.580917 16711746
4.8220344 -11.090417 29.935926 16711746
1.7900809 -8.4891653 30.757435 16711746
-0.38070971 -9.2010117 32.060009 16711746
0.18316478 -10.645421 32.82888 16711746
-0.83753562 -10.419646 32.282509 16711746
0.097583339 -8.1000881 31.41658 16711746
-0.53934509 -8.8314047 32.319481 16711746
1.8855586 -8.4716463 31.443825 16711746
3.1060617 -10.168337 32.235786 16711746
10.70714 -22.036747 35.305065 16711746
3.8931866 -14.65954 30.851442 16711746
3.9067748 -12.882662 29.906319 16711746
1.8135135 -9.078578 31.317873 16711746
18.533194 -32.146828 55.003426 16711746
3.2171314 -13.164792 38.689831 16711746
-1.7350103 -16.191769 34.65464 16711746
-4.8087115 -17.188362 36.763645 16711746
4.741055 -16.127106 38.777363 16711746
1.4491735 -6.7257562 32.153778 16711746
1.2595538 -8.8865643 31.624153 16711746
2.4206641 -12.327401 33.364998 16711746
1.1114086 -9.4344769 31.613499 16711746
-1.1751592 -8.6813097 32.81813 16711746
2.906158 -11.33777 32.877254 16711746
-0.90608078 -9.0543165 33.338676 16711746
-0.80672514 -8.1606684 32.072109 16711746
-1.1927929 -8.997633 33.353046 16711746
9.7357883 -12.632221 35.153732 16711746
0.14870328 -10.701884 32.834362 16711746
2.1487036 -11.091967 32.464722 16711746
-0.56577057 -11.05249 35.681301 16711746
0.36508831 -10.888895 34.995232 16711746
-0.12915078 -11.371089 34.423912 16711746
0.68752921 -18.196081 40.057842 16711746
0.28191552 -8.4034147 31.417393 16711746
-0.45291659 -8.6287985 33.106426 16711746
0.090954706 -9.5527678 32.411846 16711746
-0.2037055 -10.097469 34.301876 16711746
1.7683946 -10.432334 33.274586 16711746
-0.35207212 -8.6878939 32.096561 16711746
1.1439686 -10.394969 31.446028 16711746
-2.718178 -11.447495 32.843231 16711746
-1.0107672 -10.542377 34.153309 16711746
1.3180082 -9.3386898 32.452408 16711746
-0.34077933 -8.2755766 33.376019 16711746
6.5316081 -10.767838 31.656452 16711746
-0.27196604 -8.127862 31.779297 16711746
-2.1393209 -13.212672 35.90448 16711746
-0.49335077 -8.9961252 33.329037 16711746
-0.98919493 -10.748685 33.25713 16711746
0.16417046 -10.730873 33.614807 16711746
-2.3339131 -9.9385376 32.593212 16711746
2.9319167 -13.82632 32.946987 16711746
0.96220797 -9.8360062 33.395409 16711746
1.0076375 -10.678758 33.740425 16711746
-1.2222861 -15.583819 39.146172 16711746
-0.071268633 -8.0997028 32.91584 16711746
6.0572042 -16.921513 38.982742 16711746
5.2477622 -11.672582 31.321842 16711746
-6.1956234 -22.475384 38.281967 16711746
-1.9808159 -10.785399 33.601353 16711746
-0.25333551 -10.934216 34.452499 16711746
0.5608924 -9.1324358 32.37746 16711746
0.49887827 -10.153526 32.81472 16711746
-0.0010327371 -9.1084261 32.616917 16711746
-0.90972841 -10.608734 33.166546 16711746
-1.1168764 -10.909187 34.312195 16711746
-0.67927063 -9.5712461 32.535244 16711746
2.7729959 -13.818682 33.014664 16711746
0.69582701 -10.285523 33.602226 16711746
0.76988649 -10.261186 32.64996 16711746
-2.3558438 -11.257113 33.517849 16711746
-3.2448575 -11.200735 33.395493 16711746
0.97871548 -12.461219 32.203983 16711746
0.92112547 -13.101102 31.456886 16711746
1.0538555 -12.032113 31.193712 16711746
0.80368555 -10.831657 33.08939 16711746
1.5379572 -13.01047 33.363346 16711746
-1.3420099 -9.867444 32.223034 16711746
-0.095345199 -11.418037 34.425812 16711746
-0.54602361 -9.737812 32.332787 16711746
-0.91263336 -9.7443399 33.32373 16711746
-1.349719 -12.170327 34.194908 16711746
-2.2551363 -12.14615 33.931744 16711746
-0.18779416 -9.9016495 34.153107 16711746
-0.38847095 -9.3176212 34.272442 16711746
0.94340372 -6.9094968 32.054684 16711746
1.3405992 -13.795499 31.210403 16711746
-2.0398991 -10.4988 33.348572 16711746
3.5003643 -12.007135 31.126343 16711746
-0.58292526 -9.8497114 32.134617 16711746
-0.8206861 -8.3777456 32.82431 16711746
-1.0430449 -8.6282034 32.888119 16711746
1.4858795 -12.409355 32.659904 16711746
-1.9675281 -9.6773462 32.208118 16711746
-0.91383117 -9.8657179 32.532597 16711746
-2.1461222 -12.358886 33.534412 16711746
-0.41192311 -10.920131 34.348766 16711746
-0.72214383 -9.1388865 33.492832 16711746
-1.7379217 -14.899581 34.208683 16711746
0.54276901 -9.3874016 32.912537 16711746
0.26625288 -12.040158 34.181904 16711746
-4.0212512 -13.270956 34.819115 16711746
0.75969917 -10.932727 32.159538 16711746
-1.5143585 -9.8796854 32.438618 16711746
1.7722963 -12.949944 34.022923 16711746
1.5169443 -15.982573 32.771927 16711746
-1.0950825 -10.469746 32.672379 16711746
-2.2781866 -10.31496 32.32193 16711746
-0.37899712 -8.3218298 32.132698 16711746
-1.8345982 -14.02787 36.999874 16711746
-0.061416909 -11.118332 34.427292 16711746
-0.13087852 -10.993944 34.244137 16711746
-0.26744524 -9.7507925 33.659454 16711746
-0.66046524 -9.0084858 32.606155 16711746
-2.0735462 -10.718788 33.635178 16711746
-4.4715314 -13.970266 35.163803 16711746
-7.1750979 -15.159524 38.231754 16711746
-2.03176 -11.373307 34.296665 16711746
-1.2892349 -10.252731 32.509666 16711746
-0.35058549 -11.188948 32.305908 16711746
-3.4038787 -11.135778 33.254578 16711746
2.3591213 -16.79122 33.487453 16711746
-1.5406559 -10.066038 33.366722 16711746
-1.9355067 -10.787465 32.803364 16711746
-0.40454733 -9.4179478 33.751045 16711746
-1.5588336 -10.019424 33.850628 16711746
0.8185848 -11.851815 33.982914 16711746
-1.8770155 -10.209751 33.405128 16711746
-4.0076489 -11.272155 35.136192 16711746
-0.80470854 -9.0295916 31.874222 16711746
-2.4772985 -9.9640675 32.911819 16711746
1.1862577 -7.7285428 32.291759 16711746
-0.75418478 -8.5999136 31.956776 16711746
5.8881283 -14.574405 31.078705 16711746
7.8427172 -17.968269 36.452576 16711746
1.5078157 -10.885903 31.503391 16711746
0.52816308 -9.28759 32.726902 16711746
-1.8006992 -9.078311 32.414413 16711746
6.026042 -15.552891 29.84878 16711746
7.0050373 -13.446272 31.442066 16711746
7.7569222 -15.9479 30.737234 16711746
-2.4062123 -9.6406565 35.243374 16711746
8.1405392 -14.544423 35.400856 16711746
5.4411726 -14.450927 35.583546 16711746
6.9207711 -13.85896 30.906515 16711746
5.912796 -15.096212 32.192871 16711746
0.15122485 -9.8208551 32.587154 16711746
-1.3280858 -11.501791 38.300976 16711746
10.49604 -27.518858 49.790588 16711746
6.2094254 -15.348776 31.104742 16711746
-0.72011966 -7.718163 31.860706 16711746
-0.9893133 -9.5844927 33.231064 16711746
1.4546432 -12.152615 31.913902 16711746
11.323894 -21.487381 41.662704 16711746
7.1352706 -18.078459 36.810883 16711746
5.0747418 -14.033205 33.212234 16711746
9.5763474 -17.309744 34.970371 16711746
4.4743028 -11.396253 31.237654 16711746
-1.011585 -8.6547937 32.993301 16711746
5.5069494 -15.551416 35.15979 16711746
2.9116507 -13.397751 31.908527 16711746
-0.64735782 -11.719269 33.113461 16711746
0.78561646 -11.598863 32.282764 16711746
1.9700302 -15.485375 34.014015 16711746
0.94938618 -12.232901 34.517303 16711746
-1.1154311 -8.6427965 32.78643 16711746
-0.10951465 -9.2939224 32.28281 16711746
1.5995231 -10.044217 31.616959 16711746
15.934624 -26.25769 25.744225 16711746
1.8770089 -14.890841 30.616859 16711746
-1.9947388 -10.825411 33.847275 16711746
-0.014700485 -12.214792 33.283909 16711746
2.9168775 -15.120166 30.36887 16711746
-0.11903843 -11.85838 32.06147 16711746
3.031296 -13.026586 30.960941 16711746
0.3933447 -14.247011 34.292732 16711746
-1.4265054 -10.938986 32.460217 16711746
1.3067784 -13.394032 31.990303 16711746
-1.001111 -9.6639776 33.819965 16711746
1.5851091 -15.314785 33.748798 16711746
-1.2010722 -12.648678 33.120895 16711746
-3.2157545 -14.005571 33.955547 16711746
4.4757328 -16.33482 30.735697 16711746
-0.0050246841 -12.352619 35.261963 16711746
-0.60797048 -11.345799 32.593372 16711746
-1.4093755 -11.816375 35.431702 16711746
-0.36524251 -14.498645 34.338394 16711746
3.1843109 -12.427338 33.956146 16711746
3.9578037 -19.539286 33.05925 16711746
-0.20455255 -10.27652 34.607269 16711746
-1.1829944 -12.056829 35.819466 16711746
-1.4255226 -13.230381 37.230946 16711746
-0.34105954 -11.729856 35.038967 16711746
4.9669604 -16.618938 35.564556 16711746
-3.3970199 -11.220963 33.261112 16711746
-3.1049018 -10.912098 35.676861 16711746
5.9915848 -15.439524 29.869555 16711746
-1.9117072 -11.406878 33.052673 16711746
8.3496628 -18.39064 33.492668 16711746
7.2304163 -18.552301 29.826044 16711746
5.6769905 -15.47431 29.162125 16711746
8.7820845 -15.715367 30.903965 16711746
7.1892109 -14.9159 30.567333 16711746
-0.25724494 -10.888885 34.424541 16711746
7.6518064 -15.870916 32.045338 16711746
5.2887011 -13.374853 29.774773 16711746
8.0167961 -16.567282 30.312931 16711746
8.6907911 -15.816963 30.731459 16711746
4.6546407 -17.220451 32.650837 16711746
6.7024479 -18.56391 37.432392 16711746
-0.86262864 -9.9718704 34.120422 16711746
-0.90200084 -13.236147 34.949162 16711746
4.6136203 -16.17074 30.783823 16711746
-1.4970627 -15.685655 39.241989 16711746
-1.9187016 -11.087363 33.387978 16711746
-1.1329018 -9.8848152 34.135284 16711746
5.9929152 -15.141338 30.730406 16711746
-1.0091492 -10.622865 33.954185 16711746
0.70410192 -12.80479 32.016388 16711746
0.13230112 -16.539574 39.403122 16711746
6.4926434 -16.155842 35.239201 16711746
-0.34845048 -10.525043 31.921724 16711746
6.506011 -14.980041 29.89193 16711746
-1.3664697 -10.553283 34.567284 16711746
-1.4782063 -10.026354 32.874645 16711746
-0.11207967 -11.839142 34.66222 16711746
5.282434 -12.957902 30.510674 16711746
12.725444 -19.748802 30.727764 16711746
-0.27995864 -11.249978 36.149105 16711746
11.955679 -22.331526 42.427334 16711746
-0.97714305 -16.379921 39.116795 16711746
7.7799954 -16.317554 30.373983 16711746
4.1934338 -17.327921 33.641762 16711746
6.9187226 -17.619398 33.765087 16711746
4.1251807 -16.495811 34.915943 16711746
13.841396 -23.044888 36.407803 16711746
-2.112638 -11.603497 35.000217 16711746
-1.0748653 -10.915721 33.667721 16711746
2.1725802 -14.446537 34.215595 16711746
7.3678465 -14.255582 34.798019 16711746
8.3693256 -18.859135 33.882893 16711746
7.2847714 -17.488514 30.422314 16711746
7.4217725 -16.122063 30.681629 16711746
-1.3959087 -9.4596958 32.693966 16711746
4.8550396 -15.518138 31.241432 16711746
7.6690187 -17.357315 29.757652 16711746
7.6113081 -17.252855 29.756121 16711746
9.6511154 -22.379763 34.413616 16711746
1.4845406 -12.088884 33.344498 16711746
9.7492962 -17.317789 30.454069 16711746
12.986416 -16.715082 29.084057 16711746
-7.8952565 -24.061485 35.089443 16711746
-5.8330889 -19.824623 37.954281 16711746
10.377907 -15.289101 28.04702 16711746
3.7953036 -17.480742 31.554724 16711746
7.3774319 -19.068832 31.440168 16711746
11.608867 -16.206821 27.896223 16711746
-4.4483519 -16.605776 36.514519 16711746
-0.29380557 -17.932106 32.34795 16711746
5.1131206 -26.371368 31.82135 16711746
7.7098274 -21.133314 38.216938 16711746
8.5692806 -23.067892 38.163857 16711746
8.4133787 -17.681252 34.026535 16711746
10.999289 -19.283258 28.821358 16711746
9.8990774 -17.311485 28.751932 16711746
7.7090387 -23.36829 44.460499 16711746
10.747624 -26.481909 45.413998 16711746
12.396701 -17.983629 28.951464 16711746
2.329325 -16.567633 31.562683 16711746
7.7758188 -21.944597 30.843662 16711746
5.7116385 -28.034636 40.705517 16711746
3.9676955 -16.377161 30.807219 16711746
-8.4772148 -27.387577 38.411999 16711746
8.4427261 -19.975113 31.136183 16711746
-4.4563127 -17.627254 37.927776 16711746
2.7722878 -17.828979 38.26458 16711746
3.2539027 -17.311377 30.809784 16711746
5.4376836 -17.147619 30.92457 16711746
10.837727 -19.028074 31.927355 16711746
25.328537 -28.841721 35.809372 16711746
1.8807163 -24.802906 37.629551 16711746
12.601556 -16.221685 29.110811 16711746
11.25695 -21.067284 33.947201 16711746
3.2911203 -16.205854 31.817991 16711746
-4.8801336 -27.307594 36.233616 16711746
-8.208971 -16.085505 34.008499 16711746
-8.014986 -20.140854 35.461956 16711746
3.2812469 -12.332657 32.892212 16711746
7.876905 -21.669199 36.43512 16711746
11.073874 -24.406792 35.33749 16711746
7.0811272 -17.450661 29.503099 16711746
-4.3388176 -21.010124 40.347866 16711746
-5.4365911 -21.498966 41.338024 16711746
12.417919 -18.783604 28.043152 16711746
21.451872 -25.574457 33.676212 16711746
-0.094473176 -20.790838 37.961361 16711746
10.526006 -16.233128 27.172022 16711746
7.3835759 -20.108126 32.088474 16711746
9.8854532 -18.531807 31.038952 16711746
3.5904183 -15.206644 33.677544 16711746
9.736907 -23.643501 30.542374 16711746
6.1765075 -15.855066 29.806835 16711746
16.900448 -22.250879 36.185902 16711746
2.662544 -15.765944 36.594154 16711746
4.867074 -20.719641 34.867508 16711746
12.796262 -19.243742 26.227961 16711746
6.1592965 -17.872215 31.348488 16711746
-2.3439896 -13.721017 36.706028 16711746
10.262799 -22.780546 33.876457 16711746
8.6429873 -26.299013 42.368774 16711746
18.274382 -22.396301 34.436985 16711746
-1.0838125 -13.526733 33.262089 16711746
5.1496115 -17.926233 34.083519 16711746
16.105415 -19.762312 32.256245 16711746
13.097417 -27.39414 43.176914 16711746
-7.4150362 -15.861855 43.450836 16711746
9.3632421 -20.595917 34.740147 16711746
16.622522 -29.937998 39.820877 16711746
10.392163 -20.403641 35.265755 16711746
2.1872916 -16.095043 30.910339 16711746
19.236607 -27.312481 41.026051 16711746
7.6294742 -18.82622 33.840488 16711746
-1.8981241 -11.303376 34.8326 16711746
19.903572 -32.996349 38.685345 16711746
6.1192689 -17.14349 36.756554 16711746
-3.0647326 -12.908965 34.828255 16711746
8.4019613 -19.009237 37.291996 16711746
8.1612692 -18.456818 38.173325 16711746
13.495387 -26.090837 43.595531 16711746
19.502184 -28.552359 40.933365 16711746
21.01355 -24.053322 43.902401 16711746
9.9451075 -20.593714 38.336361 16711746
-6.2816124 -14.281816 37.531734 16711746
3.6667848 -14.67515 32.415154 16711746
6.7718134 -23.671041 45.199657 16711746
33.719601 -132.34837 85.398758 16711746
59.528706 -36.120186 35.901802 16711746
22.088436 -28.833273 40.646141 16711746
14.82187 -20.277294 33.681114 16711746
12.297224 -18.344511 25.830656 16711746
8.311903 -15.233462 30.909229 16711746
-1.0993774 -13.740918 35.368622 16711746
24.044729 -26.145523 35.848881 16711746
0.74575567 -18.225758 39.199554 16711746
18.933828 -24.428579 43.999783 16711746
9.0323334 -15.898698 30.814127 16711746
9.1886034 -17.053396 28.95134 16711746
-0.29998353 -15.862967 36.715416 16711746
10.638193 -23.711359 34.000149 16711746
3.1897566 -19.845467 34.625111 16711746
6.7467351 -16.796097 29.640398 16711746
-4.5874386 -20.793053 34.222305 16711746
8.25214 -14.167261 31.438921 16711746
2.6443162 -16.260921 34.705944 16711746
8.8199492 -20.64312 31.143827 16711746
5.5540423 -16.800468 35.856812 16711746
7.0706024 -25.508741 39.416122 16711746
8.7813663 -20.720324 34.139492 16711746
4.0295644 -18.960009 31.797417 16711746
-0.84807044 -21.232265 35.10416 16711746
-9.5893297 -27.116085 39.127586 16711746
2.80988 -16.411831 32.166912 16711746
0.027231246 -19.215153 35.008984 16711746
-7.8969021 -20.569653 34.770676 16711746
2.9872687 -17.604473 35.002098 16711746
10.034859 -14.939826 28.125996 16711746
6.4806786 -17.745106 31.251707 16711746
0.092699826 -30.314411 38.182392 16711746
-0.14550951 -19.294813 35.072044 16711746
2.8589139 -20.043861 32.51619 16711746
10.430422 -17.222513 28.355545 16711746
18.538692 -16.637527 30.988981 16711746
1.89935 -18.652945 32.389877 16711746
21.66464 -17.566124 32.079693 16711746
11.790089 -15.01886 32.978065 16711746
23.275545 -17.601475 33.152538 16711746
11.26303 -19.947754 29.032585 16711746
19.914814 -20.534847 32.684097 16711746
19.602417 -21.804739 32.301762 16711746
17.92292 -22.876749 33.043831 16711746
19.457361 -20.268869 32.712833 16711746
-7.0525231 -18.615234 35.057011 16711746
-8.2434092 -20.522066 35.584816 16711746
11.911599 -18.790314 31.664661 16711746
7.0616555 -19.564535 32.12027 16711746
-4.1968718 -15.56471 35.872971 16711746
10.167206 -17.843765 27.564508 16711746
-7.8656502 -18.263647 43.300835 16711746
10.129143 -18.089045 31.955715 16711746
2.6239548 -25.897316 37.243649 16711746
5.7152181 -17.140327 31.451527 16711746
8.0794277 -21.854256 32.123863 16711746
18.022627 -22.704361 32.995373 16711746
16.397186 -14.783766 32.023857 16711746
6.4071937 -14.525865 30.124594 16711746
22.678854 -23.792841 33.548996 16711746
19.818171 -21.739447 32.232441 16711746
3.1887577 -19.76265 31.288523 16711746
22.731779 -23.059235 34.132061 16711746
-3.2971668 -14.543829 36.443874 16711746
3.4445465 -18.033194 37.557293 16711746
11.595433 -23.55188 40.849571 16711746
11.600811 -21.517628 35.795372 16711746
19.803883 -34.619331 41.362946 16711746
2.136642 -14.468719 34.251183 16711746
17.142628 -28.687252 36.710056 16711746
9.0294228 -22.129599 33.530769 16711746
13.963501 -25.376492 37.797756 16711746
9.0454407 -16.824556 30.658508 16711746
10.645405 -13.944633 32.928097 16711746
30.260902 -29.384165 42.537739 16711746
-1.3601301 -12.670134 33.485714 16711746
54.077061 -63.042313 23.978804 16711746
29.143345 -36.596737 28.477484 16711746
-3.1071401 -14.093931 36.483299 16711746
-0.62884027 -12.151952 32.697536 16711746
2.2552621 -14.409102 34.695419 16711746
-6.1102462 -16.879452 34.62595 16711746
9.0760012 -16.444843 30.761539 16711746
8.8011894 -19.142372 34.385544 16711746
4.564672 -17.563908 32.580391 16711746
8.2105904 -18.73455 36.616055 16711746
-3.8710732 -16.164001 39.328102 16711746
15.44986 -17.551462 30.577597 16711746
-0.0059857485 -13.326259 35.537674 16711746
9.730463 -16.080172 32.070049 16711746
-7.3419981 -15.169518 38.851585 16711746
10.905616 -24.212416 35.35146 16711746
3.961926 -17.562241 36.430775 16711746
2.117501 -12.722417 34.911709 16711746
2.3061779 -14.48038 33.431053 16711746
2.8519692 -13.958941 32.122425 16711746
-5.7666984 -21.953993 42.105652 16711746
17.713867 -29.058409 40.379929 16711746
10.399517 -22.401978 32.143867 16711746
7.6621141 -14.989676 34.492764 16711746
-3.3947535 -14.422629 39.037842 16711746
7.4733286 -19.850565 32.846703 16711746
14.968844 -21.299013 30.665621 16711746
12.523527 -20.038557 31.493265 16711746
5.5478592 -26.596247 47.85714 16711746
2.6672115 -14.912127 32.673405 16711746
2.0465906 -14.497811 34.618416 16711746
1.9836501 -15.293179 36.744015 16711746
1.4738559 -14.053282 34.323112 16711746
1.7723007 -15.55932 34.726013 16711746
-1.0716879 -12.856875 32.976498 16711746
-2.1460538 -14.720901 36.5434 16711746
1.5812997 -14.052619 34.797817 16711746
3.5698497 -20.829168 37.602013 16711746
2.7139885 -14.104718 31.714937 16711746
-3.1446919 -14.320623 37.703209 16711746
-1.5642589 -11.163087 35.164738 16711746
-0.48753011 -14.010389 35.925892 16711746
2.747185 -16.005377 33.899601 16711746
-3.2834382 -13.45709 34.479702 16711746
2.6497123 -14.55942 32.269394 16711746
-1.1217436 -12.118621 33.653233 16711746
3.1781533 -13.983924 32.443909 16711746
2.9741819 -16.642876 35.694141 16711746
1.0237813 -15.506051 35.63063 16711746
-4.3602085 -16.600283 38.403378 16711746
-0.8404243 -13.250655 32.778545 16711746
2.9420607 -16.736229 32.950718 16711746
-2.7735486 -15.488942 37.859703 16711746
6.9412751 -17.010107 38.156628 16711746
-1.2627127 -12.672204 33.734428 16711746
-1.1285287 -12.02407 35.546787 16711746
-3.3730128 -14.898108 38.444702 16711746
9.288949 -21.589031 37.590755 16711746
9.0534306 -18.348463 34.099373 16711746
9.9620876 -20.801884 33.675167 16711746
1.4019618 -15.225821 34.222275 16711746
2.3234425 -16.628454 32.731869 16711746
15.892209 -24.027395 39.109303 16711746
-2.8184538 -19.462532 41.409782 16711746
2.6678357 -34.882133 46.763264 16711746
8.9553308 -17.426334 31.153219 16711746
30.480497 -31.279884 36.810783 16711746
4.8167238 -13.199657 35.643295 16711746
7.5694489 -17.625683 37.983276 16711746
6.6893969 -17.730095 32.831127 16711746
9.1888723 -18.505569 38.297718 16711746
4.0994906 -14.74056 33.536919 16711746
5.4415474 -15.281052 32.704208 16711746
6.0886226 -18.895021 41.361237 16711746
5.4114013 -20.316874 42.79224 16711746
1.6654378 -14.805166 36.029163 16711746
1.886322 -14.823006 36.527771 16711746
1.5925208 -14.617819 36.368835 16711746
5.7964873 -19.851635 36.747288 16711746
4.4929395 -14.399281 31.253145 16711746
1.2343109 -14.651096 33.575642 16711746
1.9703603 -13.329402 34.869816 16711746
7.316833 -16.864693 36.671955 16711746
10.147364 -19.952141 39.034752 16711746
6.5049658 -18.731035 32.185349 16711746
12.733206 -15.834587 36.074745 16711746
7.5134754 -14.469101 31.642784 16711746
1.0988193 -14.470318 35.421341 16711746
4.8541188 -14.126388 32.802879 16711746
-2.9238632 -13.960864 36.555046 16711746
-2.2975209 -13.504006 36.086937 16711746
9.2443008 -18.535555 39.3466 16711746
6.0006413 -14.587228 36.63876 16711746
2.6529062 -16.055279 33.56971 16711746
1.0199685 -13.985738 34.678551 16711746
3.480336 -16.27869 35.552185 16711746
7.6939869 -16.222124 31.695618 16711746
5.2018847 -17.377316 34.922779 16711746
2.443078 -14.794748 34.798855 16711746
4.0012317 -14.492026 33.517414 16711746
3.213728 -17.024422 36.667595 16711746
6.1891069 -17.418308 32.73954 16711746
1.2872694 -18.344076 41.224712 16711746
5.0920496 -15.760905 36.291904 16711746
6.6185994 -15.244813 36.129719 16711746
7.4030409 -17.359934 36.899883 16711746
8.9155731 -22.032404 38.698036 16711746
9.1154585 -23.110415 40.640312 16711746
1.3522482 -15.884953 34.347622 16711746
10.550525 -16.66107 36.894253 16711746
1.7590207 -16.138809 36.622948 16711746
4.3847008 -14.282167 34.197525 16711746
4.1572227 -14.822865 33.575287 16711746
4.0509262 -22.285315 42.328804 16711746
5.0876656 -15.780293 36.326675 16711746
10.423521 -19.593258 39.900986 16711746
5.6805849 -15.508232 37.126305 16711746
1.4346706 -13.613877 35.499443 16711746
4.6313863 -15.997869 34.576931 16711746
5.4371696 -12.494401 31.113525 16711746
3.3486202 -18.830408 39.341198 16711746
5.4607048 -19.187254 44.984028 16711746
3.6355107 -11.040559 32.343956 16711746
2.9045596 -14.388538 34.996876 16711746
1.1999199 -17.29311 32.89724 16711746
5.01263 -16.448427 34.700706 16711746
3.7017751 -24.363049 48.591217 16711746
19.526632 -22.802626 42.915878 16711746
6.7424073 -11.8125 35.063297 16711746
6.5143113 -14.565194 36.50602 16711746
3.8547263 -14.293536 40.334194 16711746
7.5775328 -17.853168 34.248814 16711746
15.321633 -24.355824 38.302094 16711746
15.886976 -20.559454 34.529049 16711746
18.887682 -27.256603 39.844223 16711746
6.5665412 -17.591322 36.65226 16711746
3.5969398 -18.79051 39.637196 16711746
2.8318944 -13.98407 32.139427 16711746
11.756802 -20.72942 36.04504 16711746
13.114552 -18.605064 33.527958 16711746
8.2322731 -25.146631 50.655617 16711746
3.5690484 -15.749492 33.831833 16711746
10.957104 -21.362278 41.022739 16711746
2.2288933 -13.583656 32.639 16711746
3.9640067 -14.075824 33.771637 16711746
5.5700912 -16.495953 36.049908 16711746
2.6866641 -14.331321 32.049519 16711746
2.4459343 -14.196255 34.940094 16711746
7.2528157 -16.964317 37.031876 16711746
0.70664525 -19.300896 39.505768 16711746
7.9362979 -27.412514 47.901039 16711746
18.968531 -25.700642 38.374863 16711746
-1.2214988 -11.926609 32.905121 16711746
-2.2083936 -12.6081 35.947178 16711746
6.5773015 -13.323442 32.300674 16711746
3.3968558 -14.803075 33.625576 16711746
8.8254051 -15.184348 34.60994 16711746
5.7112536 -15.09987 30.845921 16711746
1.7935972 -15.689266 36.952042 16711746
0.987831 -13.477043 34.727169 16711746
14.435397 -27.575754 38.405731 16711746
12.814339 -18.561663 32.207657 16711746
15.033691 -18.819691 29.02442 16711746
13.799475 -26.353025 48.808796 16711746
3.7102835 -19.304773 39.94838 16711746
2.3473234 -20.925119 39.171432 16711746
-2.5116179 -14.218667 35.244701 16711746
0.93665022 -13.90864 35.040287 16711746
0.47984704 -21.449039 36.177334 16711746
8.485117 -14.801852 32.04776 16711746
3.1330094 -17.472597 33.940807 16711746
8.1435957 -16.088514 34.454376 16711746
9.3589487 -17.572395 34.767502 16711746
2.6034 -15.976545 37.743782 16711746
3.4031544 -18.074898 39.203747 16711746
-3.4135828 -12.331411 34.651142 16711746
20.713581 -22.258511 32.293411 16711746
1.7011851 -18.001945 32.76067 16711746
3.2175059 -11.986017 34.400333 16711746
22.182766 -24.357542 46.771996 16711746
19.417816 -21.544939 35.218884 16711746
17.266857 -19.156361 35.359406 16711746
24.603008 -23.397873 36.993748 16711746
17.521618 -20.536827 41.693409 16711746
21.140566 -23.052771 33.270313 16711746
24.538956 -22.239738 32.684311 16711746
17.441034 -30.94227 44.259434 16711746
18.569822 -21.427599 34.665001 16711746
25.965353 -25.432402 39.049408 16711746
-3.6596456 -14.863984 39.472496 16711746
13.73119 -25.844774 38.378311 16711746
22.747034 -24.873716 33.381516 16711746
12.950955 -18.373615 33.49992 16711746
11.310573 -24.445137 38.354084 16711746
-3.1394231 -15.087336 35.859406 16711746
19.18364 -27.169296 40.992779 16711746
14.497616 -20.892097 27.529554 16711746
2.9258506 -16.719366 32.2957 16711746
21.801111 -28.897762 39.232075 16711746
24.521221 -26.918837 34.846428 16711746
21.234287 -30.915024 41.859779 16711746
2.7448578 -9.7163181 33.784004 16711746
9.4556017 -12.991301 30.41407 16711746
21.199848 -28.996826 24.82568 16711746
8.0105362 -12.325978 33.22456 16711746
4.0499778 -14.518111 33.532143 16711746
16.597681 -14.674614 32.240868 16711746
23.759283 -21.716089 30.918879 16711746
1.799709 -13.463299 33.635563 16711746
-0.47357455 -16.893232 35.649422 16711746
2.236799 -14.106431 32.570091 16711746
12.495654 -15.156466 30.921686 16711746
12.089675 -13.648725 30.625486 16711746
8.1186886 -28.043941 39.2808 16711746
14.963742 -19.005091 33.409588 16711746
16.588989 -21.083683 31.368792 16711746
-1.1705201 -21.748783 37.206421 16711746
1.1104519 -16.212633 36.488876 16711746
-14.091189 -25.436924 40.959888 16711746
3.3259065 -16.059824 35.562107 16711746
3.0262141 -16.466936 31.953083 16711746
21.189289 -27.429735 43.573307 16711746
-1.0246859 -22.939449 40.126305 16711746
1.2233243 -13.3087 33.955151 16711746
21.062021 -25.413059 38.094032 16711746
10.596066 -21.815281 37.592964 16711746
7.0430613 -18.069172 36.25774 16711746
7.7736554 -16.629288 34.393032 16711746
-6.5822363 -13.914994 33.621422 16711746
20.347124 -20.371361 30.85425 16711746
19.222534 -20.958776 35.819206 16711746
1.7144229 -15.823926 33.998245 16711746
17.19804 -23.655577 38.690815 16711746
7.5080853 -23.501392 38.819645 16711746
20.619076 -26.999414 43.334766 16711746
0.050100237 -15.363513 35.833267 16711746
-0.4963491 -17.482437 37.931313 16711746
21.873922 -19.304531 30.021954 16711746
2.3400605 -14.955606 33.514645 16711746
-5.2143269 -17.249098 36.371445 16711746
-0.74394965 -14.142964 36.368847 16711746
11.991691 -22.48333 35.786129 16711746
-7.9625139 -16.544895 34.187366 16711746
18.435202 -19.204239 29.310989 16711746
-0.67838228 -18.000244 39.224861 16711746
-0.37153777 -14.021119 37.687202 16711746
14.069492 -29.296303 34.972488 16711746
-0.51839381 -18.48003 39.42326 16711746
-3.719008 -15.171468 34.516609 16711746
17.820339 -23.239925 40.565166 16711746
20.593571 -28.112715 41.517303 16711746
16.955133 -20.294212 34.578922 16711746
28.690067 -30.314178 43.303703 16711746
31.085667 -27.411358 40.01099 16711746
33.069977 -38.728359 47.601536 16711746
28.587088 -26.468357 39.194485 16711746
29.664721 -28.794012 42.217384 16711746
19.376352 -24.505724 40.258484 16711746
36.899445 -33.631973 39.230301 16711746
20.742189 -25.079956 33.333019 16711746
16.120052 -19.392612 30.596426 16711746
19.624641 -16.226517 32.034565 16711746
1.7614585 -7.6338291 33.302605 16711746
12.502734 -15.65442 30.106052 16711746
9.2003403 -21.152573 30.256371 16711746
12.746021 -24.224693 30.925232 16711746
30.713812 -21.406136 38.781738 16711746
31.301229 -26.585728 37.327988 16711746
18.867785 -16.361876 30.003788 16711746
24.897062 -24.319407 38.618008 16711746
14.539124 -17.40024 30.11799 16711746
-3.8193984 -14.807092 39.481129 16711746
26.076546 -27.337559 40.302868 16711746
29.814684 -27.842491 39.579342 16711746
24.848362 -24.347698 38.222862 16711746
15.903063 -15.739539 31.68655 16711746
13.246718 -27.121107 36.223755 16711746
17.084122 -19.94364 29.453894 16711746
3.4524791 -36.673286 35.255386 16711746
16.849062 -18.381348 29.701019 16711746
12.280703 -14.25432 30.835861 16711746
15.004833 -25.254293 30.743879 16711746
32.368816 -29.927774 40.421898 16711746
15.626489 -16.530479 31.17461 16711746
19.774271 -27.983763 35.163074 16711746
21.987467 -25.35355 34.728874 16711746
22.359488 -27.191212 46.537247 16711746
26.421009 -27.603424 36.756378 16711746
21.18714 -23.285549 36.705051 16711746
21.197062 -28.853083 32.883575 16711746
35.673969 -41.336716 52.825741 16711746
28.933441 -27.239676 53.529633 16711746
43.957047 -34.219707 51.288162 16711746
18.701294 -19.443707 33.227905 16711746
1.7854732 -7.7097249 33.2467 16711746
29.61231 -22.639894 36.373848 16711746
62.177361 -46.029701 59.259853 16711746
39.837265 -35.283588 38.480625 16711746
12.353789 -42.041748 36.928513 16711746
23.08148 -20.379538 31.274288 16711746
3.759896 -56.946548 47.087963 16711746
23.574253 -24.516928 34.575424 16711746
38.915775 -27.344391 34.861423 16711746
40.032745 -36.751549 48.51651 16711746
28.717548 -27.340164 53.710346 16711746
30.755327 -28.583567 54.997734 16711746
29.140892 -27.534693 53.89851 16711746
10.74415 -24.860525 38.586632 16711746
42.869038 -23.974424 51.857479 16711746
13.201274 -34.541264 42.160355 16711746
28.808926 -35.336502 58.669445 16711746
60.493179 -56.386272 68.78064 16711746
1.526165 -37.465 40.406406 16711746
47.56459 -57.209015 75.728615 16711746
20.206818 -22.268148 36.054852 16711746
6.1676035 -9.9950371 35.815327 16711746
22.005777 -23.822977 33.482056 16711746
55.062664 -53.308056 70.052147 16711746
-18.677608 -43.967735 39.9006 16711746
35.980129 -35.856659 57.591148 16711746
32.36705 -32.706322 54.940628 16711746
17.234774 -35.621277 45.438751 16711746
25.613474 -30.728693 42.620308 16711746
16.976997 -35.492348 32.250961 16711746
35.133698 -41.806786 64.603973 16711746
28.99708 -37.733402 45.811623 16711746
24.023102 -21.804581 32.628529 16711746
-2.0047479 -18.137899 42.235188 16711746
27.675117 -31.456066 46.279434 16711746
25.382643 -26.479567 40.119476 16711746
25.119658 -21.731443 31.20812 16711746
38.336262 -21.628262 36.426891 16711746
16.100323 -25.384443 38.555218 16711746
1.9049646 -8.3385115 34.216854 16711746
21.711508 -24.855181 34.633141 16711746
18.687832 -25.522835 38.30592 16711746
22.508251 -21.818871 41.053467 16711746
43.467846 -27.036367 41.240978 16711746
9.702198 -22.066595 40.240704 16711746
