# .PCD v.7 - Point Cloud Data file format
VERSION .7
FIELDS x y z rgb
SIZE 4 4 4 4
TYPE F F F F
COUNT 1 1 1 1
WIDTH 1203
HEIGHT 1
VIEWPOINT 0 0 0 1 0 0 0
POINTS 1203
DATA ascii
-0.2559058 0.2253304 0.8581743 16711746
0.2583317 0.2376256 1.0379016 16711746
0.5309941 0.2548773 1.3958331 16711746
0.2899033 0.2448578 0.9787153 16711746
0.4784679 0.1777361 1.7222540 16711746
-0.3850259 0.2318641 0.7250587 16711746
0.6749838 0.1851885 0.5941337 16711746
0.2282614 0.2331888 0.8771796 16711746
-0.5375407 0.1311920 1.5567217 16711746
-0.1223576 0.2226036 0.6592582 16711746
1.3963768 0.2191087 1.2607718 16711746
0.0919015 0.1437152 0.5333861 16711746
0.0250644 -0.0083461 0.4934753 16711746
-0.1205781 0.2216899 0.7933084 16711746
0.5771070 -0.6247204 1.4116193 16711746
0.6520383 -0.7021362 1.2415191 16711746
-0.2827078 0.2450249 2.4959543 16711746
1.1656400 -0.5998715 1.1530753 16711746
0.3139882 0.2440352 0.8884041 16711746
1.2835349 -0.6635202 1.0617198 16711746
0.4580257 0.2620234 0.8996423 16711746
0.3959145 0.2503434 0.6816260 16711746
0.3333460 0.1431701 1.5149381 16711746
0.4973471 -0.5171576 1.6284282 16711746
0.6390429 -0.5111791 1.5704499 16711746
-0.1423941 -0.0777813 0.4118552 16711746
-0.4226933 0.2163860 0.7255428 16711746
0.5316247 0.2316977 0.5621287 16711746
-0.1319863 0.2197535 0.8419068 16711746
0.0701849 0.2286531 0.7307935 16711746
-0.4065607 0.2283369 0.7757882 16711746
0.5622740 -0.2900353 0.6246713 16711746
0.0607149 0.0442108 0.4463051 16711746
0.0569886 0.0571779 0.5256234 16711746
-0.3812805 0.2286018 0.7290253 16711746
-0.0931784 0.2290157 0.6496179 16711746
-0.3057134 0.1780399 0.8193733 16711746
-0.3180884 0.1283935 0.5425308 16711746
-0.2765351 0.1617669 0.5187301 16711746
-0.3304076 0.2648726 0.9902962 16711746
0.7046781 -0.2814559 0.7446412 16711746
-0.2024327 0.2297568 0.6389769 16711746
-0.5373331 0.2141860 1.4175252 16711746
0.9434247 -0.3524410 0.6604295 16711746
-0.1718687 0.2355978 0.9023838 16711746
0.6200315 0.2458642 0.7125694 16711746
-0.0805828 0.2223781 0.7278383 16711746
-0.4431768 0.1085802 1.3445190 16711746
0.6559731 0.2026888 0.6517264 16711746
-0.0580848 0.1319184 1.0987916 16711746
-0.3449949 0.1957470 0.7066517 16711746
0.2922189 0.2415869 1.2618111 16711746
0.3446872 -0.7264060 1.6527803 16711746
1.1933092 -0.5276437 1.1835892 16711746
1.1646255 -0.5304745 1.0426276 16711746
0.5509135 0.2633118 1.1311997 16711746
2.0103569 -1.0607409 1.6122296 16711746
0.3893434 0.0544470 0.7675255 16711746
-0.0910553 0.2266694 0.6445081 16711746
-0.3628016 0.2168452 0.7060885 16711746
0.0441032 0.0055150 0.4312747 16711746
-0.3302337 0.1333124 0.5533028 16711746
-0.2675446 0.1217849 0.7629063 16711746
-0.4540655 0.2112442 0.6870300 16711746
0.5059929 0.1307237 0.4835302 16711746
-0.2951380 0.2794255 0.7968727 16711746
0.3271759 0.2432887 0.8044038 16711746
0.7500896 0.2563816 0.7975568 16711746
0.4793016 0.2640073 1.1898212 16711746
0.8180408 0.2691176 1.3248551 16711746
0.6605597 -0.4930720 1.2398218 16711746
0.6118941 0.2422161 0.7038881 16711746
0.1179109 0.1294961 0.6508814 16711746
0.3307085 0.2308577 0.9508371 16711746
0.3730742 -0.3766164 1.1240020 16711746
-0.4144717 0.1968319 1.6878467 16711746
-0.1973455 0.2801393 1.2878757 16711746
0.9463441 0.2252010 1.3247507 16711746
-0.3096983 0.1250620 0.5321082 16711746
-0.2353770 0.2219786 0.9536120 16711746
-0.1220592 0.2233461 0.8952495 16711746
-0.4716944 0.1067101 0.8997669 16711746
-0.1648400 0.2241037 0.5911395 16711746
0.3170048 0.1446501 1.4508427 16711746
0.1367599 0.2065767 1.1458719 16711746
0.8300167 0.2299865 1.5010868 16711746
1.2827017 -0.6555302 1.2551612 16711746
1.6192815 0.3153422 1.2103701 16711746
-0.2422814 0.1028548 0.4776981 16711746
-0.2732311 0.1612336 0.5207992 16711746
-0.1953861 0.2233395 0.6239184 16711746
-0.3854568 0.1841397 0.6205155 16711746
0.0545456 0.0170998 0.4979914 16711746
-0.3950829 0.1604812 0.6178601 16711746
-0.1577902 0.2540340 1.2033157 16711746
1.0912102 -0.5875812 1.3445176 16711746
1.2842400 -0.6646208 1.0403913 16711746
1.2362244 -0.5615014 1.1030675 16711746
0.3609968 -0.7467070 1.6909295 16711746
0.1711785 0.2354770 0.7621884 16711746
0.9351081 0.2486112 1.0090829 16711746
-0.3793997 0.2233999 0.8658160 16711746
-0.2154479 0.2183295 0.5554811 16711746
-0.3135568 0.1561111 0.8209015 16711746
-0.3049950 0.1537913 0.8069035 16711746
-0.1287502 0.2295837 0.9143189 16711746
-0.0843471 0.2298249 1.0276034 16711746
-0.2834889 0.1657508 0.5178549 16711746
-0.6017163 0.2764980 0.9933521 16711746
-0.3364406 0.2246406 0.7162028 16711746
-0.8141085 0.2271463 1.4770273 16711746
-0.8573697 0.2509478 1.3209496 16711746
-0.1327129 0.1535306 0.6278828 16711746
-0.1007185 0.2251175 0.6407262 16711746
-0.2201606 0.1724599 1.7936209 16711746
1.8845062 -0.6226087 1.3727217 16711746
1.1281890 -0.5096114 1.0224138 16711746
0.6655053 0.3110195 1.5540177 16711746
1.1607161 -0.7508498 1.2038884 16711746
-0.2313557 0.2236882 0.6378687 16711746
0.5801378 -0.3851450 1.4306071 16711746
0.6948898 0.2633559 1.6205807 16711746
-0.1126848 -0.0658634 0.4201730 16711746
0.0883976 0.0699286 0.5601447 16711746
0.0451595 -0.0756322 0.4865506 16711746
-0.3125192 0.1862793 0.5692685 16711746
0.0558893 -0.0110973 0.4668496 16711746
0.4282421 0.0531095 0.4243825 16711746
0.0464255 0.0436542 0.4403411 16711746
-0.0616433 0.2275607 0.8867936 16711746
-0.3571925 0.1845958 0.5975400 16711746
0.0707700 0.2305410 0.7338061 16711746
0.8580065 0.2253044 1.4602497 16711746
0.4801168 -0.4191711 1.5946798 16711746
-0.3469791 0.1941062 0.8820562 16711746
1.1445321 -0.4790841 1.1472899 16711746
0.2156684 0.2307357 0.8250601 16711746
0.7299010 -0.5778743 1.4584244 16711746
1.4529729 -0.5563382 1.7373908 16711746
-0.3832048 0.2310336 0.7974280 16711746
-0.2982240 0.2200302 0.8006331 16711746
0.5623599 0.2476702 0.5850745 16711746
-0.1616513 0.2311555 1.0504171 16711746
1.1725960 -0.5996336 0.9339147 16711746
0.4446529 0.2614345 0.8309680 16711746
-0.5174847 0.2447794 1.1348546 16711746
-0.4535797 0.2418451 1.0542772 16711746
0.0788104 0.4924859 2.4626741 16711746
1.3320622 -0.7492614 1.2886143 16711746
-0.2800057 0.0895467 0.5103565 16711746
-0.3874188 0.2240726 0.7601095 16711746
-0.5028272 0.2318726 0.8337408 16711746
-0.6222910 0.2416947 0.9032783 16711746
0.5082623 0.2537562 0.8503885 16711746
0.7913091 0.1486436 0.6278487 16711746
0.0804731 0.2693035 1.2860837 16711746
0.5190973 0.0685301 0.7437350 16711746
0.6789178 -0.3081571 0.8396673 16711746
-0.0887351 0.2804748 2.0361416 16711746
0.2043782 0.2239715 1.5200055 16711746
0.5907965 -0.2138907 0.8385894 16711746
2.2080688 -0.7318435 1.5651696 16711746
0.1620678 -0.2665069 0.7874269 16711746
0.2359455 0.2280245 0.7352468 16711746
0.3958371 -0.6348033 1.2589968 16711746
-0.4271326 0.2396611 1.1555375 16711746
1.0228429 -0.4768283 1.0438977 16711746
0.6087019 0.2293967 1.0360203 16711746
0.5974337 0.1928122 1.5619330 16711746
0.2533789 0.2342485 0.7847524 16711746
1.7269980 -0.6533166 1.8962336 16711746
0.6759983 0.2528612 1.3242252 16711746
-0.3765940 0.1770285 1.5497507 16711746
1.0087433 0.2236087 1.5678763 16711746
1.2930099 -0.6151114 1.2922193 16711746
1.4508464 -0.7826796 1.4080995 16711746
1.5753125 -0.5322753 1.7768029 16711746
0.6571786 -0.4454576 1.6281918 16711746
-0.2899058 0.1191563 0.5237334 16711746
-0.3206924 -0.0133595 0.5286519 16711746
0.0300754 0.0277289 0.6238332 16711746
0.5034637 0.1759064 0.5249956 16711746
-0.2709565 0.0659859 0.5096270 16711746
-0.3983395 0.0940300 0.6160237 16711746
0.2751269 0.2615806 0.7767830 16711746
-0.3921215 0.1165605 0.6119713 16711746
0.2683277 0.2391140 0.9502889 16711746
-0.1174022 0.2308570 0.9424990 16711746
-0.1954924 0.2254006 0.6320954 16711746
0.1011332 -0.0159075 0.2586411 16711746
0.1011963 -0.0175727 0.2865918 16711746
-0.3334316 0.2202092 1.2924063 16711746
0.5104879 0.0480839 1.6649710 16711746
0.6277537 0.0590613 2.0732563 16711746
0.4558224 0.2472420 1.1245915 16711746
0.8153390 0.2645223 1.3583627 16711746
0.0997910 0.2172377 0.8533396 16711746
0.0497624 0.2268084 1.1024785 16711746
0.4159617 0.2290339 0.8971135 16711746
0.5336792 0.1517441 0.5423615 16711746
-1.0076857 0.2241199 1.1423218 16711746
-0.0365125 0.2637615 1.4690610 16711746
-0.6997633 0.3176511 1.4102048 16711746
1.0389922 -0.4747401 1.0078652 16711746
0.0482593 0.2357298 1.1313442 16711746
1.2868955 -0.5504252 1.4982934 16711746
0.5589015 0.2451743 1.7519871 16711746
-0.1005534 0.2327630 0.9501783 16711746
0.5382512 0.2369229 0.6462635 16711746
-0.6326904 0.2416351 0.9130903 16711746
0.6844937 0.2729085 1.6633534 16711746
0.3431209 0.1305266 1.1206573 16711746
-0.3115987 0.1240822 0.5432691 16711746
0.1058112 0.0523129 0.5431452 16711746
-0.3375740 0.2190065 0.6515444 16711746
-0.2421013 0.1687430 0.5578794 16711746
-0.3334881 0.2333697 0.9139606 16711746
0.1012935 0.2294826 0.8865824 16711746
-0.6645374 0.2143470 1.0892725 16711746
0.1210398 0.1590777 0.7435020 16711746
-0.3919260 0.2390165 1.0707150 16711746
-0.0749828 0.2186754 0.6925681 16711746
1.0813296 -0.3386282 0.8612779 16711746
1.8855577 -0.5453947 1.3815283 16711746
1.3550720 -0.4785461 1.3436698 16711746
-0.0491001 0.2669572 1.4506803 16711746
-0.2088497 0.0625266 0.7766720 16711746
-1.0964760 0.2149527 1.5582846 16711746
0.4499705 0.1813944 0.5125529 16711746
0.5407406 0.2386831 0.7744682 16711746
0.3530971 0.2498527 1.0038153 16711746
-0.4110373 0.1771108 0.8783209 16711746
-0.5832441 -0.3443475 0.9075702 16711746
-1.0785615 -0.1514399 1.4655662 16711746
0.9627224 0.2689057 1.0674914 16711746
0.4941463 0.1264327 0.6655905 16711746
1.0340396 -0.5166683 1.0366695 16711746
-0.0504065 0.2195119 1.6555839 16711746
0.6797217 -0.2794427 0.8672863 16711746
0.9342887 0.2454450 1.9758946 16711746
0.0531402 -0.0792891 0.4308041 16711746
0.1588992 0.1587905 0.8867500 16711746
0.0602259 0.2035109 1.0180467 16711746
-0.4850739 0.1898336 0.7675132 16711746
0.0559711 0.2061994 0.6816292 16711746
-0.3157174 0.2169427 0.7545558 16711746
0.0826446 0.2588820 1.2452648 16711746
-0.4132777 0.2604862 1.4782832 16711746
1.0395229 -0.5260609 1.1013423 16711746
0.8663898 0.2005205 0.9083655 16711746
1.6769738 -0.5347428 1.2674640 16711746
1.0839864 -0.4580266 0.9944574 16711746
1.3664061 -0.7890484 1.4534072 16711746
0.9797244 -0.4598697 1.0984985 16711746
0.8982558 -0.4958704 1.9283481 16711746
-0.5515128 0.2484743 1.3529298 16711746
0.9995845 0.2457537 1.9660083 16711746
0.7171862 -0.3558490 1.4553481 16711746
-0.4975563 0.1508099 0.7443821 16711746
-0.1065613 0.2356295 0.6987005 16711746
-0.3474905 0.1696135 0.8020608 16711746
-0.7065569 0.2628119 1.1697651 16711746
-0.5638392 -0.1494544 1.3586934 16711746
-0.8045635 0.2516527 1.2502126 16711746
0.0059987 0.0672815 0.6010544 16711746
1.1936719 -0.6461815 1.3185745 16711746
0.7459077 -0.3267099 1.3136232 16711746
0.4100901 0.2270217 0.7752967 16711746
0.0745825 0.0236098 0.3311865 16711746
0.4305382 0.0631903 0.6708743 16711746
-0.3801936 0.2305021 0.7411953 16711746
0.7237110 0.0936959 0.8216534 16711746
0.3062068 0.1123075 0.6602287 16711746
0.5440083 0.2087007 0.6413695 16711746
0.6489835 -0.6107991 1.1863470 16711746
0.6487910 -0.5202358 1.2302020 16711746
1.3584507 -0.5715001 1.3332807 16711746
1.1174264 -0.5021688 1.2251637 16711746
0.9702566 -0.5225209 1.0813048 16711746
0.7130604 0.2703325 1.6509236 16711746
0.7326738 -0.4137747 1.9301971 16711746
1.8263234 -0.3138669 1.6704037 16711746
-0.1181963 0.2526448 0.7301987 16711746
-0.3591187 0.1811365 0.8308926 16711746
0.4070645 0.0956554 0.5665085 16711746
0.1039538 0.0000073 0.2897148 16711746
-0.6231040 0.3075720 1.4803696 16711746
0.4451742 0.1597558 0.5481796 16711746
0.2091784 0.1795932 0.6327269 16711746
0.6018599 0.0994038 0.8335998 16711746
0.8966761 0.1308838 0.8527990 16711746
0.4639317 0.1937934 0.6367862 16711746
0.6399069 0.1312930 0.8674504 16711746
1.2950845 -0.5581800 1.1428359 16711746
1.3942220 -0.1553412 1.1865265 16711746
0.0732921 -0.0160159 0.3452019 16711746
0.4599957 0.1591787 0.5148166 16711746
-0.4275472 -0.4622763 1.0644482 16711746
-0.5020238 0.2427243 0.9713380 16711746
0.2708204 0.0365952 0.4467932 16711746
0.7281142 0.0950039 0.8377047 16711746
0.7779235 0.2245091 0.7812318 16711746
-0.0974051 0.2095881 0.8841007 16711746
1.1541822 -0.3643499 0.9222409 16711746
1.0281594 -0.5283934 1.1487947 16711746
0.6226677 0.0502031 0.7255068 16711746
-1.0705038 0.1941010 1.3925631 16711746
0.6908101 -0.6598644 1.2450432 16711746
0.6550866 -0.7677873 1.5033582 16711746
0.6534889 -0.3625401 0.8899327 16711746
1.0123361 -0.1700933 0.9997196 16711746
0.7198084 0.0854882 1.0265546 16711746
0.5654755 0.1849732 0.8359923 16711746
0.0594167 -0.0176826 0.3921031 16711746
-0.6858931 0.2247668 1.5656470 16711746
0.5717325 0.1140761 0.7978472 16711746
0.1716003 -0.2311928 0.8996823 16711746
0.7413782 0.2523927 0.7837406 16711746
1.0226394 0.2366039 1.5140533 16711746
1.0666090 0.1888728 1.7773217 16711746
-0.1780728 0.2018870 0.6452051 16711746
-0.3094576 0.1628097 0.7765952 16711746
0.4026978 0.2225693 0.7673948 16711746
0.0401214 0.2729489 1.1911497 16711746
0.6633796 0.0207109 0.9031118 16711746
0.2655299 0.2331289 1.0929552 16711746
-1.3497971 0.3108524 1.6542567 16711746
-0.1706606 0.2264368 0.8164753 16711746
1.5436108 0.1571112 1.1383927 16711746
0.9223874 -0.2499121 1.1406679 16711746
0.3155731 0.2571753 1.0743576 16711746
1.8243321 -0.7521760 1.7457862 16711746
0.4905801 0.1473147 0.7395388 16711746
0.5157417 0.1086716 0.7840084 16711746
-0.4933454 0.2490419 1.2525963 16711746
0.6025938 -0.5998772 1.3054522 16711746
0.0447040 0.2351318 0.8160356 16711746
0.8298652 -0.4946974 1.3807614 16711746
0.6690727 -0.3481495 1.9655876 16711746
-0.0976994 0.2417177 1.2983683 16711746
0.1332119 0.1823065 0.7191517 16711746
0.2238468 0.2313487 0.8650750 16711746
0.7261528 0.2565973 0.9074110 16711746
1.0522563 -0.6004274 1.1333680 16711746
0.6807141 -0.2612066 0.9540694 16711746
0.3641202 0.0235470 0.6133944 16711746
-0.7808554 0.2538350 1.3362625 16711746
-0.5005687 0.2377334 0.8809435 16711746
1.5744617 -0.2772033 1.4648583 16711746
0.4364994 0.2435637 0.8651301 16711746
0.4511589 -0.5507396 1.6707070 16711746
1.3829825 0.1376595 1.0472813 16711746
-0.0384418 -0.2897043 1.7019215 16711746
0.0037827 -0.3503520 1.5784591 16711746
1.7327580 -0.3015274 1.4844477 16711746
0.0963085 0.2042742 0.7583878 16711746
0.6723290 -0.4157041 1.1561186 16711746
0.0170015 0.2250724 0.9154822 16711746
-0.5272003 0.2682569 1.3328879 16711746
0.1975946 0.2088903 0.8211780 16711746
-0.4088726 0.2172268 1.1290507 16711746
0.1479073 0.0504255 0.7769406 16711746
0.5759369 -0.5111317 1.2871499 16711746
1.3430492 -0.7012844 1.1003503 16711746
-0.0517612 -0.3409884 1.7126098 16711746
1.0706067 -0.4850959 0.9758275 16711746
-0.3592525 0.2481792 0.9548432 16711746
0.1380937 0.2125262 0.7927145 16711746
0.1165792 0.1032203 0.7983673 16711746
-0.1943585 0.3083012 2.1654580 16711746
0.2260084 0.2306872 1.0211539 16711746
0.0510927 -0.0189933 0.4217282 16711746
0.0601692 0.1941490 0.7365252 16711746
0.0154845 0.2235287 0.9108827 16711746
0.0289243 0.2332658 0.8388703 16711746
0.7892913 0.2673862 1.1241999 16711746
-0.1571097 0.2214852 0.7736025 16711746
1.2933346 -0.7311765 1.2603878 16711746
0.5881728 -0.4931106 1.2624942 16711746
1.0743182 0.1464256 1.1479387 16711746
1.2777600 -0.3977397 1.2008145 16711746
0.5800694 0.1209567 0.8480130 16711746
1.6519030 -0.8670936 1.2707067 16711746
-0.5470856 -0.6123148 1.4548581 16711746
1.1592222 -0.5197670 1.1345295 16711746
0.1856197 -0.2569814 1.0389605 16711746
-0.0137214 -0.7321907 1.6734426 16711746
0.8149310 0.0290572 1.0862879 16711746
0.8999442 -0.5807791 1.3683184 16711746
1.2326571 -0.5931571 1.1973082 16711746
0.6157140 -0.2813534 1.2491251 16711746
-0.0582059 0.1520695 1.7622697 16711746
0.2279159 -0.4199220 1.5131912 16711746
0.7583572 0.0982034 0.8680046 16711746
-1.0407490 0.2490575 1.4717960 16711746
0.3192832 -0.0647048 0.8448107 16711746
1.9632608 -0.2513328 1.6406035 16711746
0.2602410 -0.2360450 1.4790423 16711746
0.8630483 -0.5277258 2.1810989 16711746
2.4859114 0.4561104 2.9328935 16711746
2.6677649 0.3986465 3.0978036 16711746
0.0927791 0.1883832 0.9854180 16711746
-0.0142466 0.2128408 0.7942818 16711746
-0.0918049 0.1990979 0.9144464 16711746
0.2067284 0.2374204 0.8959219 16711746
0.3020537 0.1972371 0.8521847 16711746
-0.3337639 0.1756623 0.8086010 16711746
-0.0554155 0.1944583 1.1138253 16711746
-0.4849793 0.1849006 0.8660867 16711746
-0.7707407 -0.0689439 1.0552034 16711746
-0.0294683 0.0896662 1.1145705 16711746
0.4848597 0.2756683 1.0718601 16711746
1.2316759 -0.4204435 1.4406544 16711746
0.1842213 0.0961295 0.9151683 16711746
-0.0405172 0.1505307 1.8080814 16711746
1.0810848 -0.4185469 1.1060133 16711746
0.8761384 0.2477760 0.9792569 16711746
-0.3210757 0.2196519 0.7639295 16711746
1.2967784 -0.4911381 1.2516997 16711746
-0.0378359 0.2035719 1.5675673 16711746
-0.5400961 -0.5217222 2.2791598 16711746
-0.2898680 0.2172173 2.2230427 16711746
-0.0545952 -0.0093123 1.2101345 16711746
-0.0190341 0.2195896 0.8108487 16711746
-0.0454134 -0.0092870 1.1473870 16711746
-0.2862385 0.1409154 0.7864550 16711746
-0.0578893 0.1309784 1.5262432 16711746
-0.0406482 0.2588314 1.4102061 16711746
1.1243666 -0.5319076 1.1940798 16711746
1.0704151 0.1607701 1.0123734 16711746
1.3277194 -0.6816073 1.0676141 16711746
0.3787642 -0.3052834 1.3958999 16711746
0.3902494 0.1577871 1.6399616 16711746
-0.6554092 0.3087890 1.2453816 16711746
-0.0823120 0.2265425 1.2327646 16711746
0.2951098 0.1860023 1.0480984 16711746
0.0611461 0.2996522 2.5337021 16711746
0.5392843 0.2590599 1.4493461 16711746
0.4527915 -0.1674310 1.4163682 16711746
0.6789477 0.2521423 1.2867587 16711746
0.5404022 -0.3927487 1.5511124 16711746
0.8460595 -0.5395084 1.7753984 16711746
0.8782356 -0.4717878 2.5952599 16711746
-0.0354357 0.2132893 1.8176910 16711746
-0.3006003 0.1443203 0.7998700 16711746
0.7388099 0.2078912 0.7576949 16711746
0.1409211 -0.1362003 0.8018835 16711746
0.6180049 0.2091415 0.8007948 16711746
0.6602239 -0.3991434 0.8775821 16711746
0.0426446 0.2148852 0.9793678 16711746
0.6651632 -0.4073980 1.0499367 16711746
0.7232479 -0.3619434 0.9682882 16711746
-0.0833650 -0.6024719 1.4319420 16711746
0.5822242 -0.6279680 1.3986226 16711746
0.5653840 0.1913092 0.7061638 16711746
0.4952959 -0.5845358 1.5544387 16711746
-0.0070101 -0.5214157 1.8927457 16711746
1.2742190 -0.2135302 1.2220619 16711746
1.2032552 -0.5664415 1.8746276 16711746
0.5331163 -0.3862467 1.5423136 16711746
-0.1083853 0.2227662 1.6504483 16711746
0.4872040 -0.3159840 1.6312580 16711746
0.7412020 0.2492586 1.2787154 16711746
0.4413449 -0.3792073 1.6441580 16711746
0.9880144 -0.3555214 1.8101096 16711746
0.5180795 -0.1684533 1.2020028 16711746
1.1446761 -0.6637246 0.9772897 16711746
0.7056121 -0.3192077 1.4861865 16711746
0.5145295 0.2642101 1.2143900 16711746
0.5958223 -0.5371642 1.4209690 16711746
0.6225631 -0.4430741 1.6622034 16711746
0.5214784 -0.4676974 1.7408570 16711746
1.0739729 -0.5060467 1.1486334 16711746
0.7572070 -0.4793666 0.9866213 16711746
1.4150994 -0.2984725 1.1685880 16711746
1.1972538 -0.6935328 1.0082614 16711746
1.2656944 -0.5791430 1.1914898 16711746
-0.4218343 0.2358393 0.8559738 16711746
0.5179594 0.1574252 0.7848067 16711746
0.3926880 0.0727726 0.6317095 16711746
0.5545526 -0.4319600 1.0770456 16711746
0.0569188 0.0129158 0.4167368 16711746
0.1402435 -0.1441983 0.8356346 16711746
0.3591175 -0.3603121 1.0689338 16711746
0.6139714 0.1730045 0.7291145 16711746
0.5655053 0.1523717 0.7243805 16711746
0.6718087 -0.5490593 1.2811852 16711746
0.3987109 -0.5708100 1.2593734 16711746
1.1130006 -0.6835955 1.4314291 16711746
-0.0435995 0.0113192 1.1585066 16711746
-0.0358158 -0.1895654 1.2599467 16711746
0.7492864 0.1287290 1.0610275 16711746
0.0947427 0.0587026 0.8877239 16711746
0.4464200 -0.4547470 1.5768178 16711746
0.1671817 0.0770180 0.7913629 16711746
0.9797572 -0.2105318 1.5102909 16711746
0.7837827 -0.2603726 1.7078177 16711746
0.6302088 -0.1846586 1.5082251 16711746
1.8321513 -0.5329493 1.3489596 16711746
0.8654705 -0.4519663 1.7024246 16711746
1.4528334 -0.4766207 1.0744174 16711746
0.0574970 0.0107639 0.4174265 16711746
0.5415080 -0.3602987 1.8453394 16711746
-0.2368686 0.2407933 0.7023638 16711746
0.1140732 0.0386156 0.5850714 16711746
1.2904443 -0.5488490 1.2590066 16711746
0.3900448 0.2105857 0.7700619 16711746
0.2232488 0.2417764 1.0187759 16711746
-0.0564848 -0.4161339 1.6749033 16711746
-0.4373613 0.1157060 0.7265936 16711746
0.6179442 -0.1955883 0.8719116 16711746
0.5357856 0.1729126 0.7721369 16711746
-0.5557302 0.2563864 0.9230525 16711746
-0.0144276 -0.2770760 1.1476002 16711746
0.1134822 0.0704634 0.6595237 16711746
1.3040284 -0.3716350 1.5774807 16711746
0.6199540 -0.1061733 1.4782958 16711746
1.3280154 -0.4764821 1.3259106 16711746
-0.0621700 0.2486850 0.8277144 16711746
-0.2467468 0.2291330 0.9755691 16711746
-0.3181159 0.2589773 2.1368651 16711746
0.9851765 -0.4909983 1.3767478 16711746
-0.1166140 -0.7526339 1.8249962 16711746
-0.4161910 0.2289006 1.4440038 16711746
0.7732185 -0.4592704 1.3626113 16711746
0.7203431 -0.2408385 1.6734514 16711746
0.0084414 -0.3414920 1.5405759 16711746
0.8365986 -0.4425535 1.6204432 16711746
-0.8250365 -0.4806150 1.8280967 16711746
0.8424136 0.1016677 1.2943025 16711746
0.9031622 -0.4809639 1.7445560 16711746
1.5497401 -0.3062156 1.2202367 16711746
0.5595079 -0.1987203 1.6927128 16711746
0.5781706 0.0696122 1.0615884 16711746
-0.0276962 0.1790180 0.6708129 16711746
-0.0158733 0.1755216 0.7499641 16711746
-0.0950390 0.2006292 0.7425651 16711746
-0.0703994 0.2159112 0.8284743 16711746
0.0201506 -0.3204044 1.1527306 16711746
-0.0363654 -0.3770987 1.0236063 16711746
0.1911097 -0.3352757 0.9789574 16711746
-0.2270819 0.2796176 1.2133638 16711746
0.4038877 -0.1965328 0.7454964 16711746
0.1462016 -0.3041504 1.0824301 16711746
0.3193798 0.2122619 0.8946151 16711746
0.6816793 0.2225905 0.9896294 16711746
-0.0769769 -0.0164713 1.2953228 16711746
-0.0692088 0.2379861 1.7905602 16711746
0.6072255 0.0962108 1.0416652 16711746
0.2731856 0.1509962 1.2777061 16711746
0.2998628 0.2162538 1.0533966 16711746
1.2724208 -0.4234554 1.8417915 16711746
-0.1646971 0.2674706 1.2701340 16711746
0.3184647 -0.1326528 0.8222644 16711746
-0.1710657 0.3101875 1.3021638 16711746
0.8738462 -0.4649671 1.6783743 16711746
0.5963113 -0.2473028 1.5403446 16711746
-0.2578283 0.2283429 1.0727726 16711746
-0.2253776 0.1937295 1.3039166 16711746
-0.2853826 -0.3345830 1.5409944 16711746
0.0475752 -0.3462602 1.6995987 16711746
-0.4903811 0.3082807 1.6468152 16711746
0.4329352 -0.3383545 1.5949388 16711746
-0.0068111 -0.2461859 1.2844070 16711746
0.5183977 -0.1298515 1.5068462 16711746
-0.5632582 0.3656226 2.1992123 16711746
0.5195885 0.0074954 0.5924239 16711746
-0.0598129 0.2062372 0.8805516 16711746
0.0942485 -0.2173231 0.9630251 16711746
-0.0152362 0.2135604 0.7996178 16711746
0.1719501 0.0759656 0.7893553 16711746
0.7011951 -0.5300028 1.3072951 16711746
-0.4057264 -0.5248641 1.8676395 16711746
-0.3123248 0.1683065 2.0343258 16711746
1.4181924 -0.6132785 1.3866816 16711746
1.2599583 -0.1854785 1.6592145 16711746
-0.0203447 -0.1860365 1.3936533 16711746
-0.0504357 -0.2151199 1.3844038 16711746
-0.1148126 -0.0291022 1.3872750 16711746
-0.0399689 -0.2076600 1.3310952 16711746
-0.3415205 0.1974400 1.2815911 16711746
-0.0053755 0.1654780 1.3603660 16711746
0.9972699 -0.5049263 1.3901818 16711746
-0.0631105 -0.2939656 1.2593325 16711746
0.3618287 0.0977997 0.4676259 16711746
1.2214277 -0.4705904 1.4167944 16711746
1.1813713 -0.3180287 1.5547899 16711746
-0.1735941 0.2878020 2.0812418 16711746
-0.1489693 0.2218166 0.8859739 16711746
-0.4771993 -0.4922204 2.0858300 16711746
0.6483763 0.2257511 0.9197639 16711746
0.9941578 -0.7496752 2.9949722 16711746
-0.3591497 0.2564586 2.5452871 16711746
0.8832059 0.2555291 1.1112350 16711746
-0.2580595 0.1319414 0.7558796 16711746
-0.2467059 0.1290402 0.7445721 16711746
-0.2513332 0.1521506 0.8905424 16711746
-0.1140735 0.2058083 0.8039326 16711746
0.7204452 -0.2314967 0.8236533 16711746
-0.2485481 0.2194245 1.0328382 16711746
-0.0576652 0.2132715 0.8161901 16711746
0.5927748 0.1636773 0.7569084 16711746
0.1303649 0.0840964 0.7299455 16711746
-0.3910604 0.1417310 1.1177118 16711746
0.0614270 -0.1154205 0.8921296 16711746
1.4026681 -0.5032294 1.3751347 16711746
0.2969163 0.2248956 1.0761563 16711746
-0.1465117 -0.4788999 1.3729444 16711746
-0.1607924 0.2443409 1.0009235 16711746
-0.1366433 0.2141926 0.6958727 16711746
-0.3924677 0.2292248 1.0288882 16711746
1.1504813 -0.5114514 1.1524270 16711746
-0.0213652 0.2249754 0.9576082 16711746
0.5618837 0.1206906 1.0278823 16711746
0.2969276 0.2236159 0.9749123 16711746
-0.1179054 -0.4878668 1.7733285 16711746
0.6170282 0.0960816 1.0788269 16711746
-0.0441743 0.2160286 0.8828650 16711746
-0.5520769 0.2110820 0.9500291 16711746
0.4058983 -0.1796957 0.7503735 16711746
-0.2988030 0.1357040 1.2150624 16711746
0.8387670 -0.4720706 1.4149085 16711746
0.4393952 -0.5897070 1.6744986 16711746
0.6438862 -0.5801734 1.3165655 16711746
-0.0587394 0.1506115 1.7033103 16711746
0.4018540 0.2139156 0.7971435 16711746
0.4042383 -0.5178482 1.5165446 16711746
0.4250267 0.1365483 0.8629786 16711746
1.0871885 -0.1480967 1.4462265 16711746
0.6118318 0.1838185 0.6876711 16711746
0.7605615 0.1044928 1.2059284 16711746
0.7829071 0.1775688 1.5421188 16711746
-0.0647435 -0.3981534 1.5126808 16711746
1.0766002 -0.5385497 1.2030196 16711746
0.7735901 -0.4622964 1.3019736 16711746
1.3104039 -0.4583976 1.4383662 16711746
-0.1051752 0.2263656 0.9605906 16711746
0.4671944 0.1451058 0.6593600 16711746
0.6064004 0.1603973 0.8668841 16711746
-0.1278453 0.2078529 0.9785208 16711746
0.5870686 -0.6132129 1.2926753 16711746
-0.7639205 0.2259015 1.4638427 16711746
0.5388549 0.1957058 0.9233012 16711746
-0.1481678 -0.4164835 1.3066484 16711746
-0.4534214 -0.5284318 1.2713684 16711746
0.4359830 0.2145847 0.8405306 16711746
0.5554080 0.1514364 0.7224645 16711746
0.3456815 -0.2420954 1.0206823 16711746
-0.2231307 -0.2117849 0.9588563 16711746
-0.3898382 0.1200992 1.3314021 16711746
0.7561097 0.0691800 1.0531579 16711746
0.6189732 0.2117821 0.8841401 16711746
1.8790889 -0.6809103 1.7752420 16711746
0.5542623 0.3303687 1.1933596 16711746
-0.0248869 0.2172461 0.8517538 16711746
0.4770452 0.1584223 0.9431311 16711746
0.0594668 0.2165926 1.0211730 16711746
0.1649047 0.1152546 0.8829708 16711746
-0.5461170 -0.5000038 1.8864100 16711746
0.5642015 -0.3635259 1.6508992 16711746
1.1442814 0.2039871 1.4438035 16711746
1.3299205 -0.4499029 1.5507214 16711746
1.5385574 -0.5748222 1.8701261 16711746
0.7854436 -0.2025780 1.5716980 16711746
0.3921256 0.0436836 0.7955109 16711746
-1.6937581 0.2993159 1.8090726 16711746
0.2804775 -0.4156103 1.2515260 16711746
0.6426487 -0.5934872 1.2461869 16711746
1.1133778 -0.5792922 1.5310483 16711746
-0.1930084 0.2138500 0.7500431 16711746
0.3701926 0.1916115 0.9004225 16711746
-0.3781181 0.2398276 1.3259920 16711746
0.5023106 -0.4034079 1.4865201 16711746
0.3557607 0.1539680 0.8601360 16711746
0.6581759 -0.4718053 1.2425601 16711746
0.4592637 0.1072570 0.8782722 16711746
0.7410900 -0.4410753 1.2219642 16711746
-0.2814641 0.1403422 0.7840596 16711746
-0.2824121 0.1356307 0.7328116 16711746
1.0540723 -0.6143428 1.4503206 16711746
-0.0975862 0.2195301 0.8456017 16711746
0.9304375 -0.3406801 1.8329391 16711746
-0.2644284 0.0877905 0.7171959 16711746
-0.2480759 0.2227553 0.9107426 16711746
-0.2877746 0.1640697 0.7849888 16711746
0.0645924 0.1634438 0.7405341 16711746
-0.2516430 0.1989626 0.7553414 16711746
0.6283459 0.1932159 1.0395972 16711746
-0.2836370 0.1399630 0.7771183 16711746
-0.0186021 -0.1828739 1.2182355 16711746
-0.4486862 -0.0379362 1.1799767 16711746
-0.4486727 0.2536347 1.1104279 16711746
0.5727494 0.1547306 0.7309393 16711746
-0.7314985 0.2986873 1.5134764 16711746
0.8905131 -0.3214133 1.7427088 16711746
-0.2006717 0.2190236 0.8214695 16711746
0.5572872 -0.1326661 1.7693183 16711746
1.2112219 -0.4861336 1.1193117 16711746
0.8724859 -0.3052688 1.2213311 16711746
-0.5373145 0.2743512 1.2022225 16711746
-0.0995812 0.2268506 0.8556494 16711746
0.7321664 0.2451216 1.0484524 16711746
-0.2256952 0.2254455 1.5950540 16711746
0.2255284 -0.0529990 1.0089537 16711746
0.2620363 -0.3948012 1.6164783 16711746
0.5749380 -0.1620492 1.5163465 16711746
0.6022740 -0.1322379 1.9087884 16711746
0.1147280 0.0687180 0.6514016 16711746
0.1139576 0.0684001 0.6497042 16711746
0.3589325 0.1798059 0.7819061 16711746
-0.1164971 -0.3334025 1.0441946 16711746
-0.0833299 -0.3229541 1.1147066 16711746
-0.2780709 0.2095490 0.8565913 16711746
-0.0564983 -0.2834134 1.0241936 16711746
0.1420720 0.0093234 0.4159956 16711746
-0.3090567 0.1532546 0.8159760 16711746
-0.0601854 -0.1958212 0.9366369 16711746
0.8844075 -0.4613054 1.5500340 16711746
0.6165712 -0.5033802 1.2009908 16711746
1.1921885 -0.3580888 1.5744159 16711746
-0.7567123 0.3300065 2.7405736 16711746
0.5812175 -0.5941994 1.4891469 16711746
0.4243819 -0.5179812 1.5865916 16711746
1.1625768 0.1650430 1.4343290 16711746
0.1819915 0.2320563 1.1554127 16711746
-0.3978815 0.2223970 1.4023956 16711746
1.2868204 0.3988771 1.5882573 16711746
-0.3468905 0.2332462 0.8716651 16711746
0.0324451 0.2249510 0.8812649 16711746
-0.2540891 0.1061380 1.0468825 16711746
-0.3321590 0.2350245 0.9934692 16711746
0.1658340 0.0611288 0.7058226 16711746
-0.1284421 0.2260109 0.9984868 16711746
-0.0135532 0.2275834 0.9213560 16711746
-0.0073955 0.2226229 0.9345416 16711746
0.7111040 -0.3895779 1.2729698 16711746
-0.3047280 0.2473823 1.1272999 16711746
-0.0802202 0.2271757 1.0153815 16711746
0.6821229 0.1653650 1.4679714 16711746
0.3020461 -0.4869919 1.3693008 16711746
-0.5650436 0.2505233 1.2186227 16711746
-0.1237188 0.1517592 1.0242472 16711746
0.3959117 0.1491834 1.0440094 16711746
-0.2615616 0.2031054 0.7597930 16711746
0.7073058 0.1624116 1.1094221 16711746
0.7237497 0.1205585 0.9956077 16711746
0.6835626 -0.0372746 1.3995230 16711746
0.7211560 0.1186536 0.9868655 16711746
0.5498645 -0.3232337 1.3862243 16711746
0.6899694 -0.5796874 1.5323211 16711746
0.1718193 0.1853535 0.9997094 16711746
0.3661549 -0.1876876 1.2772099 16711746
0.5085456 -0.3452384 1.1955249 16711746
0.4602492 0.0643870 1.1405759 16711746
1.5308199 0.2190755 1.8232734 16711746
0.5353443 0.0132639 1.0642214 16711746
0.9609604 -0.2036437 1.2797589 16711746
0.7537109 -0.0969288 1.0939784 16711746
0.7612088 0.0160628 0.9932942 16711746
0.5751851 0.0916177 1.0617226 16711746
0.7056566 0.0175827 0.9408828 16711746
0.6682904 -0.0794843 0.9939781 16711746
0.5543785 -0.1264463 1.1469308 16711746
-0.4527936 0.2202689 0.8818647 16711746
0.8749625 -0.1240382 1.4251871 16711746
0.5582411 0.0994324 1.3818686 16711746
0.6183131 0.1231242 1.4681602 16711746
0.5229514 0.1477668 1.3369539 16711746
0.6926054 0.1150291 1.5485722 16711746
0.3723177 0.0931707 1.1378163 16711746
0.3988106 -0.0621899 1.2270627 16711746
0.5168583 -0.3607876 1.8269883 16711746
0.3491938 0.0908320 0.9261963 16711746
1.1020788 0.1988620 1.8795063 16711746
-0.0870156 0.2114125 0.8229724 16711746
-0.1109265 0.2153669 0.8648962 16711746
-0.2331422 0.2058810 0.8098336 16711746
-0.2428748 0.2194314 0.8284811 16711746
-0.3130527 0.2473698 0.9578049 16711746
0.0780097 0.0749475 1.0562142 16711746
0.2469415 0.3454413 1.2774559 16711746
0.3493706 0.2930757 1.2908374 16711746
-0.1767899 0.2379436 0.8933946 16711746
-0.3101206 0.2055311 1.2080662 16711746
0.1272147 0.2792722 1.4333948 16711746
0.1965844 0.2264142 1.3794699 16711746
0.4069349 0.3333302 1.1846780 16711746
0.2057652 0.1630859 1.3553842 16711746
-0.1536689 0.2877391 1.1921245 16711746
-0.2402881 0.2390984 0.8591945 16711746
-0.2208449 0.1995331 1.2642441 16711746
0.2677019 0.2538851 1.2461118 16711746
0.2363968 0.1910595 1.3960990 16711746
-0.4579277 0.1134595 1.4022950 16711746
-0.5403645 -0.1286104 0.9684476 16711746
-0.1702853 0.2355404 1.0621924 16711746
-0.4880950 0.2265437 1.1319149 16711746
-0.4367878 0.1386730 1.4379957 16711746
-0.0821648 0.3050365 1.0662739 16711746
0.1970385 0.1443279 1.2450401 16711746
-0.2712902 0.1997251 0.8012123 16711746
0.1387374 0.1395311 0.9802324 16711746
-0.3800915 0.1176000 0.8722616 16711746
-0.2974856 0.2422828 1.1031405 16711746
0.1954728 0.1209292 1.3817717 16711746
-0.6337881 0.2048624 1.1607279 16711746
-0.1977336 0.0365609 1.3383673 16711746
-0.6504689 0.0167612 0.9561577 16711746
0.0388669 0.1141789 1.4999578 16711746
-0.2432121 0.0424612 1.4603281 16711746
0.9490231 -0.5502861 1.3163520 16711746
0.9261108 -0.5599358 1.3493433 16711746
-0.5422617 0.3524424 2.0914261 16711746
-0.2032869 0.2009714 1.3177193 16711746
0.2485528 0.2043269 1.0683916 16711746
0.3058815 0.1586964 1.0539498 16711746
-0.2093967 0.2120073 0.8267087 16711746
-0.1534250 0.2092517 0.8020701 16711746
-0.8004620 -0.7174402 2.9695632 16711746
0.5293751 0.2416863 1.1290381 16711746
-0.1092556 0.2497033 0.9827080 16711746
-0.1243953 0.2262309 0.7890777 16711746
-0.2660472 0.1104915 0.7317669 16711746
0.1509292 0.0492590 0.9051205 16711746
-0.2425698 0.2430248 1.0191940 16711746
0.3196847 0.1808802 1.6013765 16711746
-0.1408444 0.2432443 1.1555756 16711746
0.0752959 0.2991302 1.0342385 16711746
-0.7444512 0.2232104 1.4680586 16711746
0.4991854 0.3108762 1.2281405 16711746
-0.6993684 0.0536313 2.1154275 16711746
-0.1091439 0.2715116 1.0077391 16711746
0.3287214 0.2187346 0.9202951 16711746
-0.0040485 0.2267644 0.9167500 16711746
0.0337135 0.2221292 0.8798116 16711746
0.3374822 0.2402463 1.1167995 16711746
-0.0975516 0.2224937 0.8476008 16711746
0.9547228 0.2026527 1.4576260 16711746
0.4744132 0.1457995 0.6512254 16711746
0.4965631 0.1557619 0.6707701 16711746
-0.7044083 0.2507109 1.3295156 16711746
-0.2390056 0.2049691 1.3775551 16711746
-1.1322742 -0.2878099 1.8736169 16711746
-0.0139695 0.2126489 0.7962322 16711746
-0.9820992 -0.2609048 1.7254587 16711746
0.4903660 0.2031682 0.8025742 16711746
-0.1652694 0.1613363 0.6852541 16711746
0.6240954 0.1031457 1.1452594 16711746
-0.3610901 -0.0305603 1.0950216 16711746
-0.5447661 -0.4007308 1.1781938 16711746
-0.1538655 0.1553849 0.6785689 16711746
0.6635273 0.2046015 1.0437496 16711746
-0.3481403 0.2288644 0.8657367 16711746
0.8092554 0.1744697 1.2459809 16711746
0.3165861 -0.1541250 0.9637181 16711746
0.5984186 -0.2326588 1.1978863 16711746
-0.7164832 0.3376566 2.7202666 16711746
0.8748721 -0.4969522 1.5064405 16711746
0.7911837 -0.4139146 1.6398538 16711746
0.5294254 0.2643637 0.9391560 16711746
0.2859285 0.2308568 1.0994731 16711746
-0.1789881 0.1823020 1.1624513 16711746
0.6711542 0.2102233 1.2335820 16711746
0.6458316 0.2075288 0.9441351 16711746
0.5184230 -0.4122311 1.5131564 16711746
-0.9985541 0.2126496 2.0904243 16711746
-0.2051380 0.2153206 0.8358769 16711746
0.4701402 0.2758043 1.1400166 16711746
-0.4562311 0.3027233 1.8333050 16711746
0.2633230 0.2396020 0.9434908 16711746
-1.3974462 0.2753598 1.9840885 16711746
0.7776735 0.2983334 1.1352317 16711746
-0.1287179 0.2077865 0.9276927 16711746
0.7787020 -0.4267197 1.3833582 16711746
1.4129604 0.1962868 2.4784269 16711746
0.4888323 -0.0856311 1.5309429 16711746
0.0045999 0.2358910 2.0505512 16711746
0.7365060 0.2358036 1.1855958 16711746
0.9294133 -0.2920339 2.4131820 16711746
1.1829334 0.2120511 1.4983877 16711746
0.7078144 -0.2691592 2.2496488 16711746
0.5557326 0.2724649 1.4167360 16711746
0.7785633 -0.1402017 1.8930533 16711746
-0.7471026 -0.2810835 1.4200146 16711746
0.5815080 0.1745014 0.9914827 16711746
-0.6469676 -0.2495287 1.3106434 16711746
0.1507939 0.2252266 0.9256637 16711746
-0.3389297 0.2401162 0.9955530 16711746
-0.6958488 -0.1948071 1.3887011 16711746
-0.3196092 0.1266530 1.2154689 16711746
0.4124513 -0.2323793 1.1246771 16711746
-0.2282251 0.2620511 0.8672079 16711746
0.2211300 -0.1671968 1.0517575 16711746
0.8007063 -0.3190688 1.5159279 16711746
0.8814526 -0.6568030 1.5564556 16711746
1.1047010 -0.6663169 1.5263597 16711746
0.5751993 0.2650535 1.2090725 16711746
1.2503309 -0.6541308 1.6283457 16711746
0.3940893 -0.1713494 1.0615907 16711746
0.3940893 -0.1713494 1.0615907 16711746
-0.7699031 -0.5892227 1.9187027 16711746
-0.6686777 -0.4020247 1.4489446 16711746
0.2249647 -0.5267106 1.7019907 16711746
0.2426787 -0.2272504 1.2844344 16711746
0.8420366 -0.4100983 1.4538628 16711746
0.8666167 -0.5055262 1.9015194 16711746
0.5522929 0.1790048 0.8428906 16711746
0.7302057 0.1332494 1.1631292 16711746
0.7550996 -0.2490360 1.4212244 16711746
0.2144355 0.0892015 0.7809441 16711746
-0.5345435 -0.4368854 1.5441905 16711746
0.6393719 0.0847614 0.9160260 16711746
0.7120024 -0.1186175 1.6742350 16711746
-0.0248143 0.2259262 0.9467564 16711746
0.4269874 -0.2849396 1.2492231 16711746
-0.1825987 0.2137339 1.1656058 16711746
-0.0341300 0.2995154 2.5246704 16711746
1.5954418 -0.8277357 1.7327492 16711746
-0.1418825 0.2150211 0.8847715 16711746
-0.2295915 0.2174379 0.9359216 16711746
0.2535070 -0.0277367 0.7561637 16711746
-0.6076912 0.1964424 1.1149626 16711746
-0.0938433 0.2172536 0.9447510 16711746
-0.3065667 0.2445526 0.9492260 16711746
-0.4960535 -0.3320523 1.1829128 16711746
0.1197819 0.2570407 1.0625846 16711746
-0.4916846 0.2694291 1.1465721 16711746
-0.2467297 -0.4441058 1.4007404 16711746
-0.3137846 0.1304664 1.1731335 16711746
-0.2779189 0.2099665 0.8646562 16711746
-0.2259159 0.2708598 1.1651459 16711746
0.2070278 -0.2665694 1.1289741 16711746
-0.0311712 0.1384798 0.6932467 16711746
0.7611747 -0.6019543 1.6081740 16711746
-0.7474601 -0.4109876 1.5492675 16711746
0.3092489 0.1290652 1.4867901 16711746
0.9002907 0.2337100 1.2240415 16711746
0.1095836 0.0674520 0.6545173 16711746
-0.3218112 0.2308434 1.0152848 16711746
-0.1871670 0.2369363 0.8646932 16711746
1.3890252 -0.2014683 1.8334297 16711746
-0.0324616 0.2163428 0.8591388 16711746
0.2547585 0.1063315 1.0938723 16711746
0.3362221 -0.0749455 1.0034176 16711746
0.0886118 0.2452800 1.7739222 16711746
0.5537753 0.2030312 0.9555061 16711746
0.5273353 0.2350682 1.1141648 16711746
1.0059267 -0.6049082 1.5588739 16711746
-0.4586616 -0.6621569 1.8569750 16711746
-0.3598850 -0.2810004 1.4270934 16711746
-0.8246498 0.2328880 1.3674939 16711746
0.8353119 -0.3694870 1.5430006 16711746
0.2108992 -0.3336877 1.3002577 16711746
0.1507368 0.2350160 1.4051876 16711746
0.3438196 0.2425766 1.4026895 16711746
-2.0739963 0.3642009 2.1483824 16711746
0.3329484 -0.3710800 1.5938948 16711746
0.0690919 0.2621657 2.3021133 16711746
-0.2411546 0.2577935 1.1108211 16711746
0.4884562 0.0596860 0.7331414 16711746
-0.1827277 0.2107043 0.8528189 16711746
0.0739465 0.2393756 1.1996410 16711746
-0.3758939 0.2182455 1.0813696 16711746
-0.1930029 0.1969044 0.7908269 16711746
0.1857224 0.1132932 1.0846986 16711746
0.0295074 0.2162216 1.3440325 16711746
0.1239781 0.2436236 1.0277861 16711746
1.1729238 0.2001578 1.8276815 16711746
-0.2778078 0.2332036 0.9767668 16711746
0.5543326 0.1937454 1.1075398 16711746
0.3213416 0.2306942 0.9630963 16711746
0.5199078 0.2550620 1.3449339 16711746
0.8982068 0.2288121 1.5685451 16711746
0.5934542 -0.4467152 1.8939066 16711746
-0.1626124 0.2295207 0.8752056 16711746
-0.2179496 0.2228894 0.9827711 16711746
-0.2423673 0.2163449 1.0143825 16711746
-0.4666371 0.1624693 1.0115386 16711746
0.6190922 0.2284403 1.2248745 16711746
0.6636443 0.2075003 1.2167102 16711746
-0.5298991 -0.3751214 1.7565706 16711746
-1.1226591 0.3252425 1.9701229 16711746
1.4372498 0.2183240 1.6335930 16711746
0.4742590 -0.5960045 1.5996788 16711746
0.2708497 -0.4097387 1.6494827 16711746
0.6347371 -0.1453396 1.2817776 16711746
-2.0055404 -0.5307506 2.2439113 16711746
-1.3629677 0.3625054 1.4620112 16711746
0.5333411 -0.6187128 1.6871377 16711746
0.4673517 0.2594562 1.1476074 16711746
0.9672843 -0.5646853 1.3584318 16711746
0.0721922 0.2295665 0.8931530 16711746
-0.0866871 0.2093212 0.8052348 16711746
-0.0620352 0.1970109 0.8560284 16711746
0.1752909 0.1119139 0.8392606 16711746
-0.1783693 0.2259235 0.9338110 16711746
-0.1777643 0.2101250 0.8496410 16711746
-0.1702169 0.2023320 0.7940867 16711746
0.0870255 0.2408253 1.1804287 16711746
0.0406527 0.2563582 1.3120832 16711746
-0.1401634 0.2078584 0.7755525 16711746
-0.4087780 0.2325210 1.4208847 16711746
0.6035468 0.1609025 0.8770232 16711746
0.2615106 -0.0928166 1.2778845 16711746
-0.1164483 0.1999970 0.8492686 16711746
0.1629601 0.1885009 1.1264962 16711746
0.3415398 -0.3526919 1.5349160 16711746
0.4780562 0.2025494 1.1350069 16711746
0.4485460 0.0665515 0.9681720 16711746
-0.2340969 0.3313230 2.2871852 16711746
-0.5946380 0.2607023 1.3314327 16711746
-2.6008246 -0.6636509 2.7105350 16711746
0.3235120 -0.5405775 1.7688988 16711746
0.4361892 0.2335914 0.9684840 16711746
-0.6342481 -0.5602527 1.7437490 16711746
-0.7913512 0.2575715 1.3570602 16711746
0.8244193 -0.3744347 1.6444669 16711746
0.7323480 -0.2291822 1.5809410 16711746
0.7245145 -0.2159835 1.7416517 16711746
-0.0847687 0.2151056 0.8884585 16711746
-0.0943180 0.2041299 0.8289444 16711746
-0.6908059 0.1808245 1.1853141 16711746
0.5727015 0.1872937 0.8694367 16711746
0.0816093 0.1796000 0.9317174 16711746
-0.5019036 0.2511002 1.2242222 16711746
0.8971375 -0.5092109 1.2814983 16711746
0.7671339 -0.3289356 1.1996770 16711746
0.0306659 -0.2456829 1.4303594 16711746
1.2277476 0.4270172 1.7284894 16711746
0.1672138 0.0866020 0.8035434 16711746
0.5388014 -0.3474076 1.8822614 16711746
1.3973901 -0.3871007 1.8158863 16711746
0.3313335 0.2334845 1.0954225 16711746
0.1715475 -0.1192676 1.5753282 16711746
0.1222612 0.2468438 1.4178180 16711746
-0.1252612 0.2488241 2.0351570 16711746
0.2282274 0.2448439 1.0513060 16711746
0.5473086 -0.4884153 1.6364776 16711746
-0.0507921 0.2849893 2.1134298 16711746
0.8475848 -0.4161184 1.6507375 16711746
0.4911344 -0.1567704 1.4316956 16711746
0.6288447 0.2091033 0.9170970 16711746
0.8345078 -0.3044087 1.5013642 16711746
0.5771097 0.1716320 0.9952834 16711746
0.5221819 -0.4521327 1.5523400 16711746
1.3291160 -0.5593337 1.6150880 16711746
1.1233574 -0.2340048 1.4789479 16711746
0.8098561 0.0777991 1.3553689 16711746
0.7504025 0.2886443 1.4391562 16711746
-0.6231022 0.2686099 1.2677264 16711746
0.5241081 -0.3130696 1.7028830 16711746
0.8219036 -0.4610896 1.4603283 16711746
0.0415154 0.2202208 1.0052930 16711746
0.7910571 -0.3593931 1.5962360 16711746
0.4830317 -0.5714489 2.6496623 16711746
0.4509004 0.2201180 1.2547605 16711746
-0.1810826 0.2097390 0.8512237 16711746
0.4957461 0.1519255 0.8065172 16711746
0.1303757 0.2197468 0.9733062 16711746
0.8414700 -0.4683531 1.4873089 16711746
-1.2461622 -0.7460600 2.0081348 16711746
1.2447385 -0.3321595 1.5337491 16711746
1.1414086 -0.4299053 1.3732913 16711746
0.2186467 0.0911864 0.9614011 16711746
0.4319606 0.0481264 0.9859148 16711746
0.5892920 0.1878336 0.8506589 16711746
0.2066991 -0.0729737 0.8976762 16711746
0.5088097 -0.4589364 1.4976063 16711746
0.7565598 0.2163771 1.0574720 16711746
0.3387457 0.2309297 1.3624241 16711746
-0.0186530 0.4957362 4.1348567 16711746
-0.0260264 -0.2607965 1.1985077 16711746
0.5242721 -0.4792373 1.5485717 16711746
0.0043748 0.2175892 1.2941326 16711746
0.6288432 0.1343400 1.1509213 16711746
0.5175060 0.1943966 0.8740724 16711746
0.9147800 0.1291767 1.2616178 16711746
-0.8381923 0.2891803 1.4253988 16711746
0.6139288 -0.4804149 1.3824745 16711746
0.5337182 0.1846140 1.0814478 16711746
0.6865644 -0.5150655 1.5834934 16711746
-0.6094140 0.1683391 1.1268401 16711746
1.1551512 -0.5397802 1.4602193 16711746
0.1427691 0.1733381 1.0505688 16711746
0.7781839 0.1421168 1.1574619 16711746
0.0143924 -0.1642741 1.1632930 16711746
0.4939187 0.1710048 0.8907450 16711746
0.8577865 -0.3958543 1.7059325 16711746
-0.0026145 0.2167161 0.9209257 16711746
-0.0736699 0.3008550 2.2280653 16711746
0.5480353 0.1271821 1.0462308 16711746
0.8180503 -0.4757032 1.7658443 16711746
0.7099455 0.2218813 1.3376311 16711746
0.2944333 0.1817447 1.2474730 16711746
0.4217658 0.1289210 0.7557756 16711746
-0.2880810 0.1937882 0.8848107 16711746
0.3860296 0.1905676 0.8935623 16711746
0.5483108 0.0974902 1.0066953 16711746
0.5571544 0.1726821 0.8765118 16711746
0.1022268 -0.0959547 0.9105144 16711746
0.7002279 -0.2636170 1.1924469 16711746
0.4507530 0.1987968 1.1115425 16711746
1.0586703 -0.1340402 1.4875371 16711746
0.2376118 -0.0377610 1.0265496 16711746
0.0004292 0.2115428 0.8872613 16711746
0.9234014 -0.3453914 1.3162390 16711746
-0.0142119 0.2169191 0.9230332 16711746
1.0245968 -0.5361307 1.4417766 16711746
-0.2557657 0.2189634 0.8809074 16711746
0.6926922 0.1845734 1.3193660 16711746
1.2142267 -0.5096854 1.5262917 16711746
0.6066989 -0.4222213 1.6211923 16711746
-0.1442267 0.2094024 0.8180248 16711746
0.4581735 -0.5729524 1.6450200 16711746
0.1617674 0.2038289 0.9453739 16711746
1.0703504 -0.4965413 1.3946368 16711746
-0.1534908 0.1882017 0.7821317 16711746
-0.0418180 0.2720937 1.5734553 16711746
0.8894494 0.1683110 1.8112301 16711746
0.2737048 0.0321508 0.8547946 16711746
0.6068115 -0.0487017 1.6713247 16711746
0.4491218 -0.4590043 1.6078860 16711746
0.2437539 0.2213918 1.0761315 16711746
0.8927832 -0.4139589 1.9547639 16711746
0.5357469 -0.0578516 1.8923830 16711746
0.0283491 0.2744169 1.1849048 16711746
0.0485346 0.2133560 1.3345325 16711746
0.1886632 0.2370092 1.1714852 16711746
0.2717617 0.2474436 1.1307524 16711746
0.2503572 0.2496254 1.1474926 16711746
-0.1091922 0.2179656 1.1083918 16711746
-0.0587146 0.2543158 0.9992715 16711746
0.0151915 0.2192917 1.3582504 16711746
-0.0927317 0.0027615 1.3378811 16711746
0.0514675 0.2929822 1.3355155 16711746
0.1715656 0.1249699 0.9423622 16711746
-0.0978358 0.2396064 1.3051543 16711746
0.8293429 -0.4915453 1.6135324 16711746
0.0448503 -0.3882681 1.5600091 16711746
0.4055263 -0.4988075 1.4945954 16711746
0.1788122 0.1147968 0.9559889 16711746
-0.0656668 0.2030470 1.7727419 16711746
0.3406797 -0.3324327 1.3619702 16711746
0.4868771 0.2104576 1.0523026 16711746
0.6662070 -0.4497550 2.1564381 16711746
0.0502631 -0.3751749 1.5329303 16711746
0.1689427 0.0846321 1.1500249 16711746
-0.6073827 -0.3317033 1.1119654 16711746
-0.0600720 0.2223530 1.2024391 16711746
0.0493730 -0.3879245 1.5548288 16711746
0.0105828 -0.2156940 1.3150957 16711746
0.0183248 -0.2058387 1.2802963 16711746
-0.0980709 0.0036270 1.3605028 16711746
0.1033156 -0.2038049 1.3898547 16711746
0.6135864 0.2523226 1.1437368 16711746
0.2361603 0.1113086 1.1078745 16711746
-0.5461287 -0.4030235 1.7152145 16711746
0.2346768 0.1149359 1.1176519 16711746
0.4243388 -0.2872399 1.8046203 16711746
-0.1901329 0.2306376 1.5365953 16711746
0.2280959 0.2335837 1.0242264 16711746
-0.0366102 -0.3190690 1.5205327 16711746
-0.0298355 0.2313189 1.0216165 16711746
-0.5982462 -0.3362103 1.1151166 16711746
-0.0398497 0.2360866 1.0912615 16711746
0.2548933 -0.1041680 1.2866194 16711746
0.4662743 -0.4729103 1.4211013 16711746
0.4327192 -0.4060516 1.4752182 16711746
0.4193446 -0.4542718 1.4256390 16711746
-0.0710568 0.2096488 1.7898849 16711746
0.4682343 0.1357996 1.9118358 16711746
0.4509007 0.1867516 1.8574978 16711746
0.4895644 0.2237293 1.3143970 16711746
-0.4275768 0.3354807 2.2320726 16711746
0.7861168 0.1840956 1.5693045 16711746
0.0154000 0.2152730 0.9496472 16711746
0.3698765 0.1509023 0.8972868 16711746
-0.1133102 0.1593487 1.1185366 16711746
0.0375315 0.2196853 1.0069575 16711746
0.3171455 0.2567693 1.1562743 16711746
0.4793735 0.2933503 1.1540006 16711746
-0.2218743 0.2295778 1.5904830 16711746
0.0806475 0.1601533 1.5565840 16711746
0.4010955 -0.1840073 1.2649802 16711746
-0.2772793 -0.3357935 1.7126170 16711746
-0.0936992 0.2177376 0.9344584 16711746
-0.1391729 0.2174297 1.0190910 16711746
0.4160596 -0.3173885 1.4627367 16711746
-0.3831247 0.1390827 1.3326770 16711746
-0.0744261 0.2217189 0.9982210 16711746
0.2748817 0.2291649 1.2161542 16711746
0.3724322 0.2356494 1.2848803 16711746
0.7595817 0.2436647 1.1771119 16711746
0.4979692 0.2796306 1.1433562 16711746
0.2523448 0.2342245 1.0684003 16711746
0.0300603 -0.0721583 1.6754141 16711746
1.0911285 -0.3864325 1.3992302 16711746
-0.1490918 -0.4678459 1.7847463 16711746
0.7857417 -0.4705978 1.7632245 16711746
0.4508201 -0.3785559 1.5798963 16711746
-0.0848069 0.2120236 0.9345522 16711746
0.5637893 -0.3628970 1.6786766 16711746
0.4950199 -0.5208608 1.5903318 16711746
