# .PCD v.7 - Point Cloud Data file format
VERSION .7
FIELDS x y z rgb
SIZE 4 4 4 4
TYPE F F F F
COUNT 1 1 1 1
WIDTH 253
HEIGHT 1
VIEWPOINT 0 0 0 1 0 0 0
POINTS 253
DATA ascii

 -31.3820133 33.3228378 53.6256638 16777215
 -0.6353860 0.6759044 1.0856231 16777215
-0.6920257 0.4117505 1.5130299 16711746
-0.6920602 0.3921362 1.5255117 16711746
-0.6553729 0.4328491 1.4792044 16711746
-0.4139889 -0.0448950 1.9043130 16711746
-0.6366963 0.6801651 1.0681474 16711746
-0.5182240 0.3866129 1.6399115 16711746
-0.4316885 0.2096468 1.9376857 16711746
-0.4712390 -0.0643130 2.0242417 16711746
-0.7972777 -0.2403435 1.9081335 16711746
-0.6196521 0.2696016 1.6625623 16711746
-0.6482611 0.3638942 1.5311424 16711746
0.1204668 0.1762422 2.4436643 16711746
0.1382599 0.1373894 2.4626906 16711746
-1.0007348 0.8961753 -0.3265816 16711746
-1.1480420 0.9264832 -0.5774656 16711746
-0.5628517 -0.1082308 1.9746393 16711746
-0.5861385 -0.0804429 1.9058654 16711746
-0.8882431 -0.4600781 2.2590327 16711746
-0.3537744 -0.3068817 2.1697149 16711746
-0.8056675 0.1813055 1.8400804 16711746
-0.9565282 0.1826956 1.9075911 16711746
-0.6196274 0.4042198 1.6244575 16711746
-0.0392102 0.2127461 1.9634476 16711746
-0.8704336 0.3376277 1.6224385 16711746
-0.7536548 0.4622194 1.4502767 16711746
0.4291970 0.3586010 2.6432095 16711746
-0.6725057 0.2163793 1.6970103 16711746
-0.6936479 0.0317328 1.9218816 16711746
-0.1936517 -0.5795005 2.2760549 16711746
0.2845778 -0.1856186 2.4392481 16711746
-0.2437382 -0.7128908 2.1572700 16711746
-0.2008313 -0.1386873 2.0392604 16711746
-0.6084592 0.5402429 1.4709139 16711746
-0.5474256 0.3348053 1.6802040 16711746
-0.5548146 0.2496005 1.8247223 16711746
0.3008292 -0.4344762 2.6292717 16711746
0.5583431 0.3075767 2.7541413 16711746
-0.0307556 0.4665238 1.9556919 16711746
0.5051727 0.2450960 2.6694853 16711746
-0.6240344 0.2588127 1.6484907 16711746
-0.6421288 0.1422623 1.8004614 16711746
-0.6325257 0.1021388 1.8240249 16711746
-0.5359359 0.3668490 1.7237562 16711746
-0.5636314 0.3037620 1.8174278 16711746
-0.5579908 0.1758483 1.8366628 16711746
-0.5664017 0.0254161 2.0680983 16711746
-0.6254399 0.2185658 1.8183460 16711746
-0.8069403 -0.3369657 1.8995984 16711746
0.2268810 -0.3412272 2.5898445 16711746
0.0869229 -0.2519620 2.4262848 16711746
0.3878820 -0.4934536 2.7212131 16711746
0.0657565 -0.2940611 2.0891645 16711746
0.0712585 -0.4517746 2.2427533 16711746
-0.5822827 0.3044319 1.7480692 16711746
-0.5701663 0.2708670 1.7797956 16711746
-0.6136743 0.3510609 1.6425174 16711746
-0.2767735 0.0048855 1.9748182 16711746
0.0061042 -0.0054351 2.4101236 16711746
0.4818333 -0.4625771 2.5267968 16711746
-0.3087368 -0.2790867 1.9565521 16711746
-0.1367746 -0.7681173 2.3753059 16711746
-0.4815949 0.2532052 1.8309057 16711746
-0.4777094 0.2574140 1.8089719 16711746
0.0982082 -0.5911164 2.1765485 16711746
0.3165267 0.2655589 2.7385626 16711746
-0.2772767 -0.8705512 2.3376572 16711746
-0.3830691 -0.2585131 1.8123502 16711746
-0.7225162 0.1118832 1.7906777 16711746
-0.6777499 0.1014025 1.7232267 16711746
-0.7380881 0.3118952 1.5974671 16711746
0.0428830 0.0409252 2.2747817 16711746
0.6187621 -0.4796458 2.3150775 16711746
-0.7380805 -0.4418346 2.2578955 16711746
-0.6974412 -0.1436018 1.9105309 16711746
-0.3068613 -0.6162775 1.9976603 16711746
-0.3351161 -0.5460292 2.0045385 16711746
-0.3173363 -0.9820125 2.3049634 16711746
-0.9498780 0.2337261 1.7590232 16711746
-0.7848247 0.1856560 1.5962743 16711746
-0.7855139 0.1682606 1.6008998 16711746
-0.5416107 -0.2822683 1.9848169 16711746
-0.5729650 -0.2147386 1.9214517 16711746
-0.7979563 0.3848299 1.5630863 16711746
-0.7062409 0.3619340 1.5103874 16711746
-0.1893495 0.3436652 2.0849657 16711746
-0.0740509 -0.8839295 2.4138639 16711746
-0.2143801 -0.7122663 2.2772954 16711746
-0.1776572 -0.1405290 2.2878566 16711746
0.0640779 -0.8115514 2.2780771 16711746
-0.6662763 0.2790841 1.6562444 16711746
-0.4796190 -0.5009137 2.0776079 16711746
-0.2112087 -0.7402885 2.2407432 16711746
-0.3746270 -0.7322014 2.2229533 16711746
-0.4819989 -0.1535549 1.8719543 16711746
-0.8457524 -0.5270795 2.2619843 16711746
-0.8154860 -0.1227453 1.8529624 16711746
-0.5465100 -0.2598675 1.9873208 16711746
-0.5474696 0.4013428 1.6998838 16711746
-0.7755480 0.2179077 1.5996954 16711746
-0.8300416 0.0111073 1.8086276 16711746
-0.7840909 0.2150269 1.5867957 16711746
-0.3521429 0.2767662 1.9324971 16711746
-0.2525598 0.1743181 2.0958824 16711746
0.1497170 0.1744288 2.2798688 16711746
-0.2853727 -0.4709750 2.1999445 16711746
-0.1916936 -0.1391578 2.3088984 16711746
-0.2084258 0.3615624 1.9323740 16711746
0.2464319 -0.0090049 2.8356988 16711746
0.0123148 -0.1443164 2.3859301 16711746
0.3011025 -0.6337010 2.5287712 16711746
0.1596956 -0.4798470 2.3791108 16711746
0.4476167 -0.4933096 2.4462156 16711746
-0.3497112 -0.4706892 2.0590324 16711746
-0.4484096 -0.4763837 2.6629682 16711746
-0.5345762 0.2002355 1.7092869 16711746
0.2898060 -0.7824789 2.3088255 16711746
-0.7010635 -0.1468221 1.8888433 16711746
-0.7254922 -0.1347674 1.8763644 16711746
-0.3676173 0.3273628 1.9495860 16711746
-0.6343058 -0.3495399 2.0753794 16711746
-0.4915260 0.2280617 1.8306407 16711746
-0.0853419 -0.3417082 2.0649135 16711746
-0.5937517 -0.5002013 2.1303051 16711746
0.0127205 -0.0890801 2.8035874 16711746
0.8907089 -0.4859175 2.5795839 16711746
0.1323688 -0.8562591 2.3979690 16711746
-0.6306624 0.2386577 1.6294761 16711746
-0.6502880 0.1221481 1.7635003 16711746
-0.0849014 0.1843281 2.1790156 16711746
-0.1657393 0.2033836 2.0704939 16711746
-0.5376308 -0.7548957 2.2479017 16711746
-0.4810230 -0.9160654 2.3491814 16711746
-0.8746741 0.1292752 1.7213111 16711746
0.7728926 0.6272106 2.4883468 16711746
0.5172625 -0.3021502 2.6836784 16711746
0.4670409 -0.5682924 2.3899932 16711746
0.0647895 -0.3150929 2.3280530 16711746
-0.2449557 -0.8142596 1.9409778 16711746
-0.8004575 0.2296033 1.6533755 16711746
-0.8129644 0.1380788 1.7496827 16711746
-0.1070379 -0.5779018 2.0957203 16711746
0.1193365 -0.5507187 2.2727201 16711746
0.0533468 -0.0557169 2.2457571 16711746
0.0501904 -0.6476028 2.4012909 16711746
-0.8029263 0.2948784 1.6057916 16711746
-0.5658771 0.1232851 1.7878038 16711746
-0.5972764 0.1730850 1.7122804 16711746
-0.5806505 0.2524919 1.6077691 16711746
0.2339409 -0.0958556 2.4664152 16711746
-0.7548341 0.4193386 1.4794236 16711746
-0.7969202 0.3163232 1.6120440 16711746
-0.8038455 0.1524233 1.8371203 16711746
-0.7924598 0.2694349 1.6625341 16711746
-0.7596399 0.2989461 1.6029006 16711746
-0.6300079 -0.0156560 1.8480643 16711746
-0.6587401 0.1043036 1.7317604 16711746
-0.6385202 0.0357556 1.7789266 16711746
-0.8252078 0.2067865 1.6710294 16711746
-0.8256145 0.1904795 1.6755322 16711746
-0.8999384 0.1102114 1.7792089 16711746
-0.0475152 0.4182191 2.1472008 16711746
0.0561045 0.3078096 2.4193721 16711746
-0.2122797 -0.8688136 2.4985690 16711746
0.3271434 -0.1846629 2.5256176 16711746
0.3525196 0.1482885 2.4822698 16711746
-0.0329775 0.1982875 2.2604570 16711746
-0.2490578 0.2860417 1.9836506 16711746
0.0265157 0.2281779 2.1684148 16711746
0.2590363 0.0026681 2.5433922 16711746
-0.2129147 0.3028728 2.0310438 16711746
0.7234343 -0.1042502 2.4305277 16711746
0.5151600 -0.1943675 2.4446881 16711746
0.3571308 -0.3621505 2.7913349 16711746
0.3339983 0.0219022 2.4036162 16711746
-0.2363682 0.5008490 2.0594223 16711746
-1.5864539 0.8978803 -0.9649371 16711746
0.3436404 0.3374474 2.3553286 16711746
-0.1372745 0.4480367 2.2007930 16711746
-0.1241065 0.3838165 2.4032366 16711746
-0.2448815 1.1369815 0.0419813 16711746
-0.3620688 1.0612525 0.1894973 16711746
-0.1281097 1.0181131 0.2664706 16711746
-0.9643560 0.2885348 1.6655762 16711746
-0.7419474 0.4178800 1.5104905 16711746
-0.7329301 0.3968041 1.5673566 16711746
0.1040780 1.4138327 0.0104928 16711746
-0.4721138 0.3356782 1.8563702 16711746
-0.4992942 0.3430736 1.7849573 16711746
-0.4432129 0.3741735 1.7842599 16711746
-0.4107817 0.2244268 1.9988641 16711746
-0.4830473 0.2981257 2.0393476 16711746
-0.5460848 0.3372207 1.9053138 16711746
-0.7490427 0.3132419 1.8978078 16711746
-0.6527632 0.5566538 1.3694788 16711746
-0.6493852 0.5505737 1.4002885 16711746
-0.6048529 0.5140153 1.4801595 16711746
-0.6542051 0.4395708 1.6310493 16711746
-0.4252960 0.1156938 1.9407456 16711746
-0.5369644 0.2619606 1.7227079 16711746
-0.4135514 0.2010225 1.9785656 16711746
-0.7240269 0.1918520 1.8045677 16711746
-0.6576554 0.5223134 1.3703790 16711746
-0.6221355 0.3851683 1.6121744 16711746
-0.6301796 0.2573073 1.8112366 16711746
-0.4765084 0.7787105 0.4327199 16711746
-0.4387778 0.9581331 0.2412170 16711746
-0.6872290 0.8466768 0.1912091 16711746
-0.8267660 0.8306167 -0.0078579 16711746
-1.0120656 0.8090904 -0.3991734 16711746
-1.1324042 0.8967798 -0.6052442 16711746
-0.5903988 0.8248554 0.3991406 16711746
-0.5356773 0.7631944 0.4714008 16711746
-0.6726176 0.8338220 0.0131594 16711746
-0.5863225 0.5033248 1.5563071 16711746
-0.8162440 0.9827343 -0.0946192 16711746
-0.3656671 0.4010224 2.1652310 16711746
0.1131508 -1.0267388 2.1072214 16711746
0.7501234 -0.4118460 2.5326512 16711746
0.3477142 -0.6295789 2.5594957 16711746
0.4236516 -0.3127904 2.5497911 16711746
0.6538891 -0.5766175 2.2862031 16711746
-0.9732491 -0.0937675 1.7514057 16711746
-1.0430770 -0.3038633 1.8806540 16711746
-0.3680403 -0.6318203 1.7950467 16711746
-0.8459756 0.2489279 1.5998583 16711746
-0.9361053 0.2025528 1.6283799 16711746
-0.8360426 0.0683683 1.7842222 16711746
-0.8712196 0.2683067 1.6493895 16711746
-1.0209512 0.1738563 1.6953899 16711746
-1.0832382 0.1874898 1.6362529 16711746
-0.9152504 0.3354041 1.5669315 16711746
-0.8747861 -0.3154012 2.0230470 16711746
-0.8316200 0.1201323 1.6803530 16711746
-0.3520794 -0.5269681 2.5210874 16711746
-0.4588713 0.1363543 1.8689398 16711746
-0.3438737 -0.0112406 2.0539794 16711746
-0.7712964 -0.2697745 2.1709635 16711746
-0.7153125 0.2564881 1.5740887 16711746
-0.5743498 0.1550325 1.7748195 16711746
-0.3112504 -0.4054878 2.1952083 16711746
-0.5106619 -0.0888416 1.8780118 16711746
2493.8479004 -981.8800659 721.4874878 16711746
2145.4689941 -914.8409424 1819.3221436 16711746
1741.4768066 -807.4617920 521.6789551 16711746
105.7659760 -47.3387756 172.7244873 16711746
1464.4129639 -1396.3864746 1421.8273926 16711746
2566.6623535 -1754.0007324 2571.1604004 16711746
2083.8776855 -2517.0571289 2422.1823730 16711746
2263.4187012 -799.3402100 675.6506958 16711746
3653.2207031 -604.4506836 1375.3519287 16711746
4250.6899414 -4836.5141602 4965.7265625 16711746
