# .PCD v.7 - Point Cloud Data file format
VERSION .7
FIELDS x y z rgb
SIZE 4 4 4 4
TYPE F F F F
COUNT 1 1 1 1
WIDTH 1191
HEIGHT 1
VIEWPOINT 0 0 0 1 0 0 0
POINTS 1191
DATA ascii
0.2034847 -0.4128814 0.0331903 16711746
0.1910351 -0.3380521 -0.0205358 16711746
0.1770832 -0.1762414 -0.0188070 16711746
-0.0815827 -0.3187974 0.0635017 16711746
0.1664180 -0.3623770 0.0443225 16711746
-0.0140971 -0.1632245 0.0696055 16711746
0.2384510 -0.2352557 -0.0522389 16711746
-0.1241647 -0.4828665 0.0632044 16711746
-0.0555815 -0.3724723 0.0682520 16711746
0.0740671 -0.1686958 0.0014756 16711746
0.4234224 -0.3747782 -0.1002684 16711746
0.1660216 -0.3188601 0.0132064 16711746
0.2951131 -0.4411263 0.1096323 16711746
-0.0312759 -0.4397516 0.1229861 16711746
-0.0378074 -0.3705534 0.0888527 16711746
0.6212176 -0.4501995 0.0239477 16711746
0.7033170 -0.5089452 0.0300437 16711746
0.1302356 -0.3970541 -0.0068307 16711746
0.0087834 -0.3706554 0.0964858 16711746
0.3663076 -0.3801287 0.0045099 16711746
-0.0059673 -0.3353381 0.0765936 16711746
0.2319834 -0.4449139 0.0387264 16711746
0.6029233 -0.4372241 0.0205300 16711746
0.5758410 -0.4184527 0.0518171 16711746
0.3211555 -0.4339638 0.0683005 16711746
0.4790378 -0.4567941 0.0933462 16711746
0.3783265 -0.5236167 0.0564977 16711746
0.4370467 -0.3542074 -0.0011533 16711746
0.4213257 -0.4267033 0.0277590 16711746
0.4266106 -0.3531571 -0.0142722 16711746
0.6118133 -0.4529009 0.0192685 16711746
-0.0013690 -0.2567223 0.0547042 16711746
0.3310478 -0.3391533 0.0284901 16711746
0.3889123 -0.3907064 0.0709165 16711746
0.0964027 -0.2797363 0.0607527 16711746
-0.0516640 -0.3162601 0.1637111 16711746
0.6017039 -0.4898609 0.2167010 16711746
0.4134550 -0.7434419 0.1050687 16711746
0.6805240 -0.6061542 0.2316727 16711746
0.3980806 -0.3964331 0.0588161 16711746
-0.0248623 -0.4157148 0.1813363 16711746
0.3082308 -0.2658333 -0.0163845 16711746
0.1378510 -0.3702339 0.0319545 16711746
0.6305577 -0.5173836 0.1853198 16711746
0.1680843 -0.3095915 -0.0140798 16711746
-0.0038677 -0.3162446 0.1004833 16711746
0.1442873 -0.2729716 0.0045012 16711746
0.0099168 -0.3432579 0.0652653 16711746
-0.1977405 -0.5626910 0.2737790 16711746
0.6779267 -0.4620598 0.0028245 16711746
0.3991877 -0.5257604 0.0889778 16711746
0.4873435 -0.3671423 0.0388329 16711746
-0.1381854 -0.6865928 0.2966915 16711746
0.3320572 -0.5091206 0.0750372 16711746
0.2779115 -0.4431205 0.0300925 16711746
0.2835766 -0.4686610 0.0888379 16711746
0.3663280 -0.6639966 0.0304182 16711746
0.5672311 -0.4165180 0.0569037 16711746
0.1659580 -0.4915368 0.0350829 16711746
0.1457942 -0.3268887 0.1453742 16711746
0.2502264 -0.4724649 0.0544270 16711746
0.0155816 -0.4059463 0.0569359 16711746
0.0761782 -0.4457386 0.0265701 16711746
0.0137912 -0.5595745 0.0798246 16711746
0.2617866 -0.4558154 0.0749082 16711746
0.2487928 -0.4346273 0.0716003 16711746
0.3610918 -0.5487877 0.0488841 16711746
0.3209758 -0.4765471 0.0930240 16711746
0.4661821 -0.3908607 0.0859964 16711746
-0.1242110 -0.4456135 0.1522386 16711746
-0.1516735 -0.5147998 0.2124104 16711746
0.3418358 -0.5302418 0.0736615 16711746
0.1286280 -0.3529990 0.0432959 16711746
0.5378923 -0.4590643 0.1167313 16711746
0.2964579 -0.5339577 0.0580695 16711746
0.7656999 -0.4369525 0.1333403 16711746
0.4440948 -0.3821110 0.0578060 16711746
0.3564898 -0.4283906 0.0054935 16711746
0.3946264 -0.5839518 0.0795365 16711746
0.2718138 -0.4831904 0.0875346 16711746
0.5358693 -0.5287910 0.1003581 16711746
0.4064837 -0.6222088 0.0569900 16711746
0.4424071 -0.5190085 0.1821897 16711746
0.2476374 -0.4157002 0.1269608 16711746
0.1610462 -0.3691949 0.0399051 16711746
0.1768841 -0.3454030 0.0602521 16711746
0.3637760 -0.5197337 0.0822515 16711746
0.3586015 -0.4795214 0.0793770 16711746
0.2564487 -0.4440268 0.0571591 16711746
-0.0706092 -0.3801926 0.1188416 16711746
0.4954832 -0.5200962 0.0289474 16711746
0.2316926 -0.3508393 -0.0150256 16711746
0.5907339 -0.4653048 0.0569734 16711746
0.5325741 -0.5235004 0.0788213 16711746
0.4170780 -0.5073738 0.0051408 16711746
0.8419866 -0.6931236 0.2590533 16711746
0.3233168 -0.6643720 0.1675278 16711746
0.3820542 -0.3922653 0.0239086 16711746
0.0147017 -0.6706886 -0.0237322 16711746
0.1755220 -0.4344873 0.0589273 16711746
-0.4273619 -0.5882730 0.3788949 16711746
0.5455497 -0.3472522 0.0288808 16711746
0.6826849 -0.4958044 0.0007782 16711746
0.2381570 -0.4640234 0.1749532 16711746
0.2133526 -0.5208003 0.0349539 16711746
0.3009791 -0.3670292 -0.0026333 16711746
-0.1620841 -0.5030832 0.2114558 16711746
0.1565413 -0.3349070 0.0626616 16711746
0.2554101 -0.4939036 0.0558674 16711746
0.4842559 -0.4827968 0.0896203 16711746
0.2434714 -0.4407158 0.0102887 16711746
0.4146655 -0.6023090 0.0607662 16711746
0.4573091 -0.3365778 0.0175278 16711746
0.4474027 -0.5799033 0.1074772 16711746
0.3649930 -0.3363231 0.1137855 16711746
0.1442110 -0.5249856 -0.0142890 16711746
0.1887161 -0.5268250 0.0585051 16711746
0.2795546 -0.5570546 0.1747603 16711746
-0.0501517 -0.3818391 0.1271698 16711746
-0.2734636 -0.5881885 0.2927305 16711746
0.4346058 -0.4147176 0.0453159 16711746
0.1656046 -0.4154521 0.0308069 16711746
-0.0572549 -0.4335815 0.2089304 16711746
0.1660343 -0.3100139 -0.0091495 16711746
0.2759499 -0.4520280 -0.0561214 16711746
0.1657681 -0.3650680 0.0676006 16711746
-0.0733362 -0.5577241 0.2113324 16711746
0.1453943 -0.4630331 0.0053854 16711746
-0.1693114 -0.5643450 0.2937790 16711746
0.1924291 -0.4250264 0.1486726 16711746
0.0546920 -0.4091651 0.0400615 16711746
0.0449390 -0.4210784 0.0340778 16711746
0.1488290 -0.3961573 -0.0062217 16711746
0.1270455 -0.4672422 0.0448206 16711746
0.0935604 -0.3263274 0.0661343 16711746
-0.0249779 -0.5445065 0.1036898 16711746
-0.1528898 -0.5794345 0.2202697 16711746
-0.1522435 -0.5165755 0.2125338 16711746
0.2959107 -0.5293107 0.1303562 16711746
0.2313071 -0.3393888 -0.0107002 16711746
0.3645745 -0.4997762 0.0520883 16711746
0.2854007 -0.4792251 0.0320255 16711746
-0.1434651 -0.4871728 0.2989300 16711746
0.0512342 -0.4137665 0.0559801 16711746
0.3624896 -0.3881164 -0.0338903 16711746
0.2515658 -0.4918031 0.1863737 16711746
0.1434332 -0.3946353 0.0404544 16711746
-0.1378293 -0.6898246 0.2471468 16711746
-0.0344942 -0.4003140 0.1623986 16711746
-0.1494969 -0.5242956 0.1793841 16711746
0.5939879 -0.4974709 0.1772101 16711746
0.3412078 -0.3060301 0.0267488 16711746
-0.2254148 -0.6105145 0.2344917 16711746
0.0606792 -0.3766770 0.1101516 16711746
0.7088045 -0.6468092 0.4041385 16711746
0.6319908 -0.7338008 0.1832143 16711746
0.7206175 -0.5756718 0.2085346 16711746
0.3682545 -0.6839928 0.0647382 16711746
0.4185430 -0.6529816 0.1586591 16711746
0.7458352 -0.6159558 0.1244174 16711746
0.8147894 -0.7289521 0.1581521 16711746
0.3433507 -0.8131705 0.2950159 16711746
0.3840005 -0.5602291 0.0588958 16711746
0.7362138 -0.7578786 0.3365412 16711746
0.7664776 -0.8137669 0.3422934 16711746
0.4836320 -0.4018787 0.0945771 16711746
0.7174495 -0.7308135 0.3612707 16711746
0.7422762 -0.8802190 0.2835323 16711746
0.6634572 -0.8658907 0.2866649 16711746
0.3812497 -0.6166875 0.1806999 16711746
0.4102646 -0.5270298 0.0988146 16711746
0.4351486 -0.5600279 0.1747640 16711746
0.5775458 -0.5016302 0.0962222 16711746
0.6437010 -0.5309704 0.0690685 16711746
0.3001975 -0.4651839 0.0129786 16711746
0.5007264 -0.4482960 -0.0748586 16711746
0.4512071 -0.5339930 0.1549913 16711746
-0.0431349 -0.4681884 0.1967247 16711746
0.4254970 -0.6353716 0.1809870 16711746
0.2522168 -0.4904866 0.2359498 16711746
0.4698630 -0.4302365 -0.0803771 16711746
0.4372611 -0.6075997 0.3741592 16711746
0.2997739 -0.6105550 0.1941764 16711746
0.5775343 -0.7213030 0.2294363 16711746
0.4883519 -0.6122428 0.1980501 16711746
0.3068762 -0.5270562 0.0829108 16711746
0.3102224 -0.5635472 0.0547731 16711746
0.4043727 -0.5631685 0.0833520 16711746
0.2997150 -0.5240288 0.2027945 16711746
0.1408212 -0.4080176 0.0375752 16711746
0.3169610 -0.5465751 -0.0051555 16711746
0.6628819 -0.5374545 0.1710997 16711746
0.5041140 -0.7229677 0.1846662 16711746
0.6495577 -0.7194162 0.2680965 16711746
0.3305326 -0.5052401 0.2502720 16711746
0.3217899 -0.6863813 0.2182444 16711746
0.3454990 -0.6770606 -0.0477962 16711746
0.2061937 -0.6125715 0.2253560 16711746
0.4833526 -0.6969361 0.1771740 16711746
0.5962830 -0.7294405 0.1958302 16711746
0.4099267 -0.6077835 0.1721291 16711746
-0.0123811 -0.4043149 0.1266189 16711746
0.4445933 -0.4963925 -0.0304676 16711746
0.4464657 -0.6278643 0.0089214 16711746
0.5300383 -0.6046075 0.0768244 16711746
0.3790984 -0.6752390 0.0328776 16711746
0.3297777 -0.6634538 0.2607817 16711746
0.3678904 -0.6888990 0.1207923 16711746
0.1280728 -0.3821462 0.0247613 16711746
0.4095623 -0.5790204 0.0102268 16711746
0.1802732 -0.5302777 0.1566288 16711746
0.3555485 -0.6662121 0.1161498 16711746
0.3126901 -0.6089550 0.0926744 16711746
0.4821458 -0.6980991 0.1771168 16711746
0.2942998 -0.4462826 -0.0271472 16711746
0.5666467 -0.4992734 0.0593700 16711746
0.3630291 -0.6821642 0.2867075 16711746
-0.0976344 -0.5801947 0.2290489 16711746
0.2423377 -0.6416537 0.2559157 16711746
0.2174612 -0.4998113 0.1788268 16711746
-0.0154670 -0.4341459 0.0832521 16711746
0.1508456 -0.4995978 0.0060569 16711746
0.3067685 -0.5624287 0.3493317 16711746
0.3341922 -0.6401469 0.3565834 16711746
0.3802729 -0.5998161 0.2640221 16711746
0.3686685 -0.5328866 0.2005031 16711746
0.3799285 -0.6500629 0.0428238 16711746
0.2973965 -0.6857097 0.2452754 16711746
0.1450631 -0.4511577 0.0422150 16711746
-0.1265257 -0.5850525 0.2901627 16711746
0.1797630 -0.5717657 0.2009737 16711746
0.5313425 -0.4334778 0.1618056 16711746
-0.0121978 -0.5728117 0.1542586 16711746
-0.0247031 -0.4518943 0.1809541 16711746
0.3254686 -0.5158587 -0.0809170 16711746
0.4010213 -0.6352423 -0.0469643 16711746
-0.1626036 -0.5414413 0.2909342 16711746
0.7095939 -0.9248800 0.3097124 16711746
0.6384245 -0.7284703 0.2409198 16711746
-0.1918784 -0.6303797 0.2382599 16711746
0.4777712 -0.6947958 0.1611067 16711746
0.7058131 -0.7475351 0.3021601 16711746
0.6636504 -0.7718104 0.2314278 16711746
0.4720679 -0.6939631 0.2693643 16711746
0.5216396 -0.7019927 0.1827146 16711746
0.5310730 -0.7924997 0.2284783 16711746
0.4990318 -0.8885050 0.6075282 16711746
0.2883075 -0.4938960 0.0776674 16711746
-0.1437651 -0.5450249 0.1996459 16711746
0.4153672 -0.5569501 0.1414775 16711746
0.3126408 -0.4857501 0.2083809 16711746
-0.0171011 -0.4846409 0.2470742 16711746
0.2137042 -0.4628103 0.1955587 16711746
-0.0569218 -0.4100212 0.1825493 16711746
0.3135941 -0.3604268 -0.0206615 16711746
-0.1913131 -0.5664921 0.3492903 16711746
0.1939680 -0.4064937 0.1959533 16711746
0.3808208 -0.6102201 0.2712666 16711746
0.3395088 -0.4875776 0.1816701 16711746
-0.0157732 -0.4279024 0.2994961 16711746
0.6639754 -0.4299623 0.0181674 16711746
0.6170468 -0.4582458 0.0580876 16711746
0.3580368 -0.5211489 0.0740870 16711746
0.2218889 -0.3320685 0.0060829 16711746
0.4427611 -0.7082424 0.3802414 16711746
0.6781982 -0.5813991 0.1903230 16711746
0.7083771 -0.8643399 0.3201332 16711746
0.6771901 -0.5831870 0.1905424 16711746
0.6731634 -0.7533870 0.2386427 16711746
0.4063393 -0.5339229 0.0837761 16711746
0.5425136 -0.6871400 0.2390411 16711746
-0.6575130 -1.0959854 0.5489582 16711746
0.2660467 -0.4716647 0.2819006 16711746
-0.0956395 -0.5622094 0.2629397 16711746
0.8320212 -0.4805474 0.0554954 16711746
0.5551532 -0.5971401 0.0694121 16711746
-0.0555591 -0.6317765 0.3314153 16711746
1.0431074 -0.6573614 0.1855876 16711746
-0.1538289 -0.5755952 0.2192311 16711746
0.2462771 -0.7605991 0.2910746 16711746
0.3386573 -0.6333894 0.1853653 16711746
0.3950897 -0.5642977 0.0849414 16711746
0.2651577 -0.5146986 0.0467005 16711746
0.3246933 -0.6513525 0.2553838 16711746
0.7834310 -0.5887644 0.2433106 16711746
0.4484893 -0.5993289 0.1734922 16711746
0.5920185 -0.5717288 -0.0907413 16711746
0.8305025 -0.7579209 0.4551390 16711746
0.5574658 -0.6330764 0.2859486 16711746
0.7215334 -0.6079704 0.1623798 16711746
0.6484580 -0.6349164 0.3076472 16711746
0.8491257 -0.6037356 0.3137809 16711746
0.6078895 -0.5328475 0.0626203 16711746
0.3340545 -0.7492846 0.0975847 16711746
0.3996365 -0.5186678 0.3680197 16711746
-0.1102486 -0.4270280 0.1625175 16711746
0.3272781 -0.5751669 0.2251585 16711746
0.3207476 -0.5492299 0.3588986 16711746
0.6380807 -0.6289197 0.2587094 16711746
0.5809413 -0.6682443 0.2413615 16711746
0.7014902 -0.6397341 0.4088434 16711746
0.0222915 -0.7501250 0.2697704 16711746
-0.0938676 -0.6880105 0.4628482 16711746
0.6696308 -0.6118150 0.2013173 16711746
0.2851918 -0.5824187 0.1234809 16711746
0.8069676 -0.7117862 0.2741512 16711746
0.7977722 -0.7795627 0.3265913 16711746
0.4601955 -0.5946908 0.1439827 16711746
-0.0942853 -0.6311562 0.2597873 16711746
0.8857535 -0.8846076 0.4350462 16711746
0.5548289 -0.4695433 0.1205884 16711746
0.7706665 -0.6786198 0.2621838 16711746
0.8487152 -0.7272977 0.3405250 16711746
0.8131003 -0.4520298 0.1472538 16711746
0.7906211 -0.9111059 0.3087408 16711746
0.9756154 -0.4641010 0.2246932 16711746
0.3326575 -0.3109678 0.0227683 16711746
0.5259245 -0.6030694 0.1973594 16711746
0.7260314 -0.7148684 0.3439493 16711746
0.7677853 -0.5304412 0.1052892 16711746
0.7748685 -0.6521607 0.1760336 16711746
0.8319752 -0.6707212 0.1861997 16711746
-0.1141249 -0.6404663 0.2343125 16711746
0.4823263 -0.6152523 0.1266517 16711746
0.4186577 -0.7531164 0.3664253 16711746
0.2697506 -0.4334674 -0.0116606 16711746
0.2570097 -0.4117967 0.0346272 16711746
0.6911635 -0.7546573 0.3383191 16711746
0.7487931 -0.4708471 0.0615695 16711746
-0.4402704 -0.9647245 0.3727858 16711746
0.3773469 -0.7417602 0.2547513 16711746
0.3557176 -0.5276470 0.1070047 16711746
0.2506697 -0.7745960 0.3487766 16711746
0.4531618 -0.7275988 0.1142315 16711746
0.4094755 -0.6398332 -0.0307723 16711746
0.3269822 -0.6119441 0.0851287 16711746
0.5558743 -0.6032053 -0.0191147 16711746
-0.1521235 -0.5482196 0.3601010 16711746
0.8712596 -0.6367580 0.3896371 16711746
0.4802383 -0.6818907 0.1509397 16711746
0.5149314 -0.6603935 0.1982350 16711746
0.5046153 -0.5663446 0.0098230 16711746
0.5665176 -0.5581769 0.0846864 16711746
0.3846272 -0.6190072 0.0725441 16711746
0.4118482 -0.6438290 0.1007573 16711746
0.6692275 -0.5933238 -0.1173695 16711746
0.5465190 -0.4963187 -0.0932952 16711746
0.6168261 -0.7315369 0.2090634 16711746
0.5192355 -0.7125846 0.1660405 16711746
1.0641315 -0.6078104 0.1561185 16711746
0.3036903 -0.7277300 0.0590856 16711746
0.6130522 -0.5142075 0.1866109 16711746
0.5658705 -0.4960637 0.0809529 16711746
0.4616189 -0.6180081 0.2159044 16711746
0.8528374 -0.9764616 0.3763717 16711746
0.7179157 -0.6794938 0.1268156 16711746
0.6915607 -0.4941120 0.0425131 16711746
0.5717766 -0.5664026 0.1072774 16711746
0.9690285 -0.7076968 0.4382424 16711746
0.4542724 -0.3832481 -0.0485996 16711746
0.6267757 -0.6449715 0.2310150 16711746
0.8417631 -0.5331648 0.1141763 16711746
0.3725356 -0.5722253 0.1862898 16711746
0.9103002 -0.8551168 0.3455163 16711746
0.1870097 -0.6083480 0.0687667 16711746
0.6433465 -0.6044458 0.1276800 16711746
0.7441964 -0.8173582 0.3049257 16711746
0.9667947 -0.7009970 0.4325651 16711746
0.5667456 -0.4777038 0.1706040 16711746
0.8763267 -0.8133123 0.6093780 16711746
0.3232264 -0.5440163 0.0105744 16711746
0.2961190 -0.4948699 0.0205837 16711746
0.9532444 -0.8739814 0.5338300 16711746
0.9245593 -0.9760659 0.4748866 16711746
0.8507985 -0.8235414 0.4147432 16711746
0.7455124 -0.5666217 0.2641665 16711746
1.0815787 -0.5047188 0.2502523 16711746
0.4678298 -0.5760281 0.1217819 16711746
0.5931957 -0.7945004 0.5252756 16711746
0.4173017 -0.5931163 0.0931334 16711746
1.0865048 -0.7581871 0.3999609 16711746
0.9562492 -0.9489866 0.4713599 16711746
1.1343606 -0.7498912 0.4714832 16711746
0.7201655 -0.6365668 0.2835612 16711746
0.7629274 -0.6786510 0.4422611 16711746
0.6966394 -0.6480827 0.1392321 16711746
0.9667818 -0.7639602 0.5204254 16711746
1.0160186 -0.6348107 0.1814348 16711746
0.5334792 -0.4271601 -0.0495772 16711746
0.9395411 -0.4781088 0.1079031 16711746
0.4274237 -0.6699899 0.1616031 16711746
2.2841928 -1.8110075 1.6235508 16711746
0.7484631 -0.8001583 0.3244388 16711746
0.9268856 -0.5783988 0.1374732 16711746
0.3609560 -0.6050965 0.0843021 16711746
0.9564031 -0.8086728 0.4120570 16711746
0.1155287 -0.1075691 0.0327687 16711746
0.1295215 -0.6682720 0.1173265 16711746
0.7306917 -0.7701284 0.3067590 16711746
0.7460810 -0.7444186 0.3194584 16711746
0.9871726 -0.6949702 0.3674257 16711746
0.8583183 -0.9373178 0.4284697 16711746
1.0927721 -0.7205159 0.4511633 16711746
0.6261039 -0.4046735 -0.0081634 16711746
0.9087601 -0.9343243 0.5787783 16711746
0.3888901 -0.5879441 0.1063193 16711746
0.8566518 -0.9930715 0.5469020 16711746
-0.1270449 -0.9451438 0.4987644 16711746
0.6546211 -0.4249486 -0.0280037 16711746
0.2527021 -0.5210212 0.0609808 16711746
-0.2397899 -0.9152141 0.3992613 16711746
0.1343791 -0.6689766 0.0344758 16711746
1.0247022 -0.6761768 0.4252405 16711746
0.8987700 -0.9806329 0.4499787 16711746
0.9356211 -0.5398846 0.1119359 16711746
0.8422413 -0.7675328 0.4626542 16711746
0.6331124 -0.6026923 0.2597118 16711746
0.3493200 -1.0022799 0.6145846 16711746
0.6860952 -0.7270424 0.2905754 16711746
1.0449609 -0.6839131 0.5000266 16711746
-0.3870352 -0.8378333 0.5323125 16711746
1.0282267 -0.8999236 0.6090917 16711746
0.3529604 -0.7626639 0.2462431 16711746
0.5542640 -0.6791837 0.1452720 16711746
0.4214344 -0.6638756 -0.0317533 16711746
0.3878061 -1.1550784 0.0932065 16711746
0.7332524 -0.4915644 0.0167158 16711746
0.6210091 -0.5041434 -0.0522640 16711746
0.3012906 -0.6957046 0.2534411 16711746
0.6230468 -0.7109501 -0.1137881 16711746
0.4035363 -0.7255972 0.2246165 16711746
0.9789249 -1.1465460 0.4404370 16711746
1.1084218 -1.0770658 0.7133115 16711746
0.4502324 -0.6238217 0.1274725 16711746
0.4554754 -0.6255624 0.1416009 16711746
0.8196939 -0.6746754 0.1639335 16711746
0.9617279 -0.8353739 0.3544962 16711746
0.7464208 -0.6942330 0.3335057 16711746
0.4497501 -0.4886647 0.0101540 16711746
0.4705046 -1.2845080 0.3817854 16711746
1.0585518 -0.8300629 0.7215357 16711746
0.6904709 -0.9601448 0.1857080 16711746
1.0474477 -0.8485102 0.7419105 16711746
1.1412613 -0.8109233 0.6235867 16711746
0.5793830 -0.3821868 -0.0213137 16711746
0.8400328 -1.2164338 0.7775512 16711746
0.7684950 -0.6133649 -0.0327883 16711746
0.8954099 -0.8491737 0.1487996 16711746
0.3394443 -1.0399094 0.5688868 16711746
1.0153940 -0.8341599 0.3854623 16711746
0.8781728 -0.8936189 0.3220179 16711746
0.8493961 -0.7438365 0.1600771 16711746
0.9360651 -0.5161887 0.1721658 16711746
0.9954970 -0.7806250 0.2802782 16711746
0.6845026 -0.6148316 -0.1318191 16711746
0.9620097 -0.6698222 0.0807266 16711746
1.1047322 -1.0385574 0.4882354 16711746
1.2741553 -0.9884766 0.8579839 16711746
0.3376928 -1.7982137 0.4499833 16711746
-0.5246397 -1.1529285 0.6758767 16711746
0.7643296 -0.8344538 -0.1264650 16711746
0.7802790 -0.9660404 0.2978634 16711746
0.7486593 -0.6523404 0.1232218 16711746
0.0514330 -0.7098823 0.4805273 16711746
1.0502555 -0.8329107 0.3921154 16711746
1.0242164 -0.9896953 0.6543185 16711746
1.0051038 -1.0706910 0.6139644 16711746
0.4392515 -1.3006097 0.6277364 16711746
0.7876940 -0.7124360 0.4510343 16711746
0.9943963 -0.9120899 0.6632116 16711746
-1.2207925 -1.9431466 1.2845126 16711746
0.3497865 -1.0951188 0.6233085 16711746
0.7256863 -0.8925782 0.2543974 16711746
0.5254276 -0.7576077 0.0909010 16711746
0.7618077 -0.6017023 0.0642015 16711746
0.6424739 -0.8844108 0.2721981 16711746
1.1034852 -0.8480648 0.2969798 16711746
0.9512514 -0.9071978 0.3936780 16711746
1.3702227 -0.6954336 0.5474935 16711746
1.0470749 -0.8226545 0.5568756 16711746
0.6951807 -0.8969833 0.0624334 16711746
0.6476085 -0.9930829 0.0771498 16711746
0.7071635 -0.9741719 0.2443145 16711746
1.0582876 -0.7426970 0.3878895 16711746
0.7100029 -0.9541458 0.3129647 16711746
0.7902402 -0.8028719 0.0378231 16711746
0.3177029 -1.0522838 0.5694022 16711746
0.8892078 -0.8840761 0.0800587 16711746
0.7244164 -0.9941703 -0.0957677 16711746
0.3915146 -1.1305318 0.5514135 16711746
0.7004676 -1.0984179 0.3202972 16711746
0.9421918 -0.8075370 0.1126090 16711746
-0.2504091 -1.1234909 0.4943296 16711746
0.6016077 -0.8901784 0.1161316 16711746
0.4014507 -0.9750157 0.0940060 16711746
0.7529696 -0.8104517 0.0150733 16711746
0.4689350 -1.0617864 0.4298956 16711746
0.6304333 -1.0642039 0.1380055 16711746
0.3748547 -1.1730818 0.1340902 16711746
0.4958840 -1.0956165 0.0975806 16711746
0.6720315 -0.9105222 -0.0833966 16711746
0.9978547 -0.9213421 0.0444808 16711746
0.8241706 -0.7458236 0.0051574 16711746
0.6520229 -0.6848853 -0.1451764 16711746
0.6133673 -1.0821358 -0.1997399 16711746
0.3657394 -1.5991223 0.0565496 16711746
0.3484763 -1.0599729 0.6530695 16711746
1.2354665 -1.0607573 0.8423200 16711746
1.1585495 -0.9275106 0.2358633 16711746
0.3579699 -1.3353163 0.3538172 16711746
0.1843679 -1.0837052 0.5106020 16711746
0.8007355 -1.0239482 -0.1137378 16711746
0.7599521 -0.9624748 -0.1977499 16711746
0.6991405 -0.9938814 -0.1808877 16711746
0.5754780 -1.1670009 -0.0537023 16711746
0.3285775 -0.9385483 0.5831983 16711746
-0.3486260 -1.1966252 0.4201837 16711746
0.7407710 -0.9357529 -0.1939027 16711746
0.5074520 -1.0826527 -0.0472334 16711746
0.1653917 -0.9957979 0.4687122 16711746
0.3370981 -1.0066161 0.6243563 16711746
0.8276861 -0.7763945 0.2619402 16711746
0.7067152 -1.0417092 0.2682140 16711746
0.6745112 -0.8794393 0.2924808 16711746
1.0254774 -0.7578171 0.3244336 16711746
0.5271520 -0.8484682 0.1165960 16711746
1.3467695 -1.0742978 0.9567152 16711746
0.9878429 -0.9105839 0.6535710 16711746
1.1435717 -0.9626176 0.8146324 16711746
0.9317235 -1.0153373 0.4646479 16711746
1.0443208 -0.8980147 0.7353780 16711746
0.8906880 -0.6979581 0.0891760 16711746
0.9973224 -0.6179197 0.1321388 16711746
0.8905162 -0.9733827 -0.0197098 16711746
1.1555997 -1.1223111 0.3926733 16711746
0.9350780 -0.8290465 0.5261770 16711746
1.1645104 -0.8971349 0.3573410 16711746
0.6288332 -1.1158420 0.0340175 16711746
0.3426304 -0.9232851 0.6131603 16711746
0.8534544 -1.0944896 -0.0580858 16711746
0.6710135 -1.0713230 0.4389123 16711746
0.8175416 -0.8758078 0.0315468 16711746
1.1859679 -1.2300589 0.3944774 16711746
1.0332724 -0.8163933 0.3834988 16711746
0.7434073 -1.3348691 0.0176353 16711746
0.5840625 -1.2199079 0.0762608 16711746
0.5507384 -1.0513760 0.1721083 16711746
0.6375696 -1.3458272 -0.1911355 16711746
0.2858945 -0.9881800 0.5563635 16711746
0.5609785 -1.1908937 0.4924379 16711746
0.7047057 -1.2468543 0.0438247 16711746
0.4546303 -0.9489226 0.4076352 16711746
0.7700162 -1.4011128 0.0175854 16711746
0.7784101 -0.9472289 -0.0392714 16711746
0.8248813 -1.2459815 -0.2610693 16711746
1.1922054 -0.7369175 -0.1245352 16711746
0.8926588 -0.8181649 -0.2275546 16711746
0.7168617 -1.0512084 0.0847239 16711746
0.8435329 -1.1492050 -0.1464704 16711746
0.2791031 -0.9213796 0.4326335 16711746
0.3544887 -1.0030102 0.4233257 16711746
0.5148713 -1.3227262 0.1364309 16711746
0.7315446 -1.2621971 0.1385969 16711746
0.9855174 -0.9107054 -0.2694660 16711746
0.6685164 -2.6259682 0.2545151 16711746
0.8048131 -1.5491832 0.5936290 16711746
1.4652396 -0.6433902 0.3902235 16711746
1.2400905 -0.6669825 0.2040122 16711746
1.0269933 -1.1093148 0.0178202 16711746
0.3096476 -1.1128832 0.4405343 16711746
0.3778340 -1.0762895 0.4776792 16711746
0.6262869 -1.2081673 0.4740595 16711746
0.3150769 -1.1088254 0.6193437 16711746
0.2810808 -1.2241251 0.6098729 16711746
0.5712779 -1.1587607 -0.0532991 16711746
0.6215603 -1.3089764 -0.0357707 16711746
0.6691449 -1.2963793 0.0257090 16711746
0.4494256 -1.2137078 0.2396938 16711746
0.5210127 -1.0666153 0.4492315 16711746
0.3738253 -1.0810218 0.0705753 16711746
1.0756143 -0.8736873 0.5969759 16711746
1.0523698 -0.7713723 0.3258707 16711746
0.9263765 -0.9412503 0.4755551 16711746
0.7983034 -0.9252672 0.4308846 16711746
0.4322097 -1.6384178 0.2527137 16711746
0.4573184 -1.6577405 0.6445745 16711746
0.6844020 -1.0199661 0.4083308 16711746
1.0431857 -0.6778622 0.1828138 16711746
1.1579621 -1.0970397 0.6363753 16711746
1.1376811 -0.6685489 0.0681298 16711746
0.9836979 -0.7986653 0.3690102 16711746
0.3173812 -1.3016127 0.4505796 16711746
0.9424316 -0.7008647 0.0051890 16711746
0.8864080 -1.0412822 0.4280658 16711746
0.9528277 -0.9363431 0.4051706 16711746
0.9809613 -0.9408247 0.1620264 16711746
0.9110938 -1.2382935 -0.1708655 16711746
0.9294994 -1.5784931 -0.2109691 16711746
0.3130350 -1.1068959 0.6210201 16711746
1.0968885 -1.3496745 0.3153871 16711746
0.8219783 -1.1193082 -0.0158365 16711746
0.9166771 -1.2486097 0.3136164 16711746
1.3155699 -1.0751700 0.4728989 16711746
0.3267794 -1.2015790 0.1404462 16711746
1.3163744 -0.9742464 0.3815492 16711746
0.8090302 -1.1056914 -0.0118270 16711746
1.6136717 -0.6987686 0.1335902 16711746
0.4886948 -1.2008029 0.1306902 16711746
0.5250724 -1.0910132 0.4221290 16711746
0.1195636 -0.8685688 0.4751914 16711746
1.3006995 -1.0346231 -0.2030960 16711746
1.2104901 -0.7403658 0.1965880 16711746
1.3655511 -1.1428795 0.3621341 16711746
0.3625186 -0.9100183 0.4762502 16711746
1.2141340 -1.1101670 0.6897027 16711746
0.7037496 -1.1575483 0.2689584 16711746
0.6267939 -1.0774540 0.1861956 16711746
0.8984324 -0.9964897 0.3784227 16711746
1.4436444 -1.1698159 1.0012585 16711746
0.4219326 -1.3055435 0.6717857 16711746
1.3944694 -1.5976137 0.4656854 16711746
0.8200524 -1.1242913 0.1486316 16711746
0.8087283 -1.9943136 0.5536364 16711746
0.5380768 -1.1322554 0.7050588 16711746
0.3286591 -1.2948091 0.6244397 16711746
0.2994102 -1.0479026 0.8345602 16711746
0.5612553 -1.6975372 0.7247987 16711746
1.6945773 -2.0812991 0.4274443 16711746
0.6215395 -2.5354581 0.9290363 16711746
0.3049568 -1.5322303 0.4903009 16711746
1.5353682 -1.0507313 -0.0348472 16711746
1.4922723 -1.2057252 0.1769540 16711746
1.4560486 -1.0282315 0.0558468 16711746
1.5257806 -0.8165011 0.2326569 16711746
1.2858711 -0.8124109 0.1276236 16711746
0.4275104 -1.2447743 0.2153582 16711746
0.3881026 -1.2685881 0.5994072 16711746
0.1857447 -1.3389946 0.3287889 16711746
1.0670173 -0.8552288 0.0587630 16711746
0.7369063 -1.0910020 0.2007692 16711746
1.1645019 -1.0147370 0.0589129 16711746
0.8200276 -5.0753965 1.6751137 16711746
1.5051546 -0.8759500 0.2723648 16711746
1.1402743 -0.8716880 -0.0085846 16711746
0.8449378 -1.3349054 -0.0222762 16711746
2.0622277 -1.9019663 1.1189666 16711746
1.9543018 -1.8181386 0.6680302 16711746
2.0636582 -1.5609970 0.4577347 16711746
1.7639047 -1.8448282 0.5563366 16711746
1.4604169 -1.6546943 0.4433472 16711746
1.9100015 -1.9768028 1.2061623 16711746
0.9160797 -3.6202295 1.1871139 16711746
2.0620637 -2.8571460 0.1659222 16711746
1.3374810 -1.1785324 0.1015881 16711746
1.9851044 -1.1557393 0.2548538 16711746
1.1828737 -1.4571532 0.3953571 16711746
1.4201956 -0.9729152 0.0915312 16711746
1.2855421 -1.3292780 0.1183225 16711746
1.1770016 -1.2999381 0.5352505 16711746
1.3711867 -1.1243728 0.5347885 16711746
1.3904508 -1.2925229 0.9007968 16711746
1.4113827 -1.2798671 0.8897837 16711746
1.2741537 -0.8184217 0.1589844 16711746
1.2701960 -1.0160357 0.2874187 16711746
0.4178221 -1.6988238 0.9553631 16711746
0.8296174 -1.1723020 0.0269962 16711746
0.8325429 -1.8709303 0.4052980 16711746
0.9281027 -2.0071821 0.3536718 16711746
1.0229710 -1.7359982 0.4461392 16711746
0.5775186 -1.1112586 0.0359409 16711746
1.1610814 -1.9428415 0.4607635 16711746
0.8737633 -1.1989088 -0.0587651 16711746
0.7296867 -0.8439646 0.1498750 16711746
0.2821507 -0.2400460 0.0598830 16711746
1.3664685 -0.8457832 0.2607756 16711746
1.4520383 -1.4916607 0.9529629 16711746
1.1959212 -1.0298021 0.2001494 16711746
1.3513416 -1.0515314 -0.1271368 16711746
1.5298086 -1.2084389 0.0318113 16711746
1.7944726 -1.4304483 0.0096083 16711746
1.3840324 -1.1464667 0.4509360 16711746
0.4755146 -0.9916836 0.0548701 16711746
1.0783406 -1.0457224 -0.3432734 16711746
0.9179507 -1.0894810 -0.0914941 16711746
1.5896944 -1.0563502 0.0273602 16711746
1.1149031 -1.1198194 0.1667694 16711746
1.7152100 -1.5079043 0.2216266 16711746
1.6329293 -0.8392964 0.2764725 16711746
1.6187960 -1.4976393 1.0988669 16711746
1.4997790 -1.5363439 0.9889054 16711746
1.2775961 -1.0897870 0.2799713 16711746
1.4336931 -1.4512659 0.8585896 16711746
0.9456751 -1.9431233 -0.3201295 16711746
1.0925801 -1.9891254 -0.0047881 16711746
1.1588393 -1.8313794 0.1132038 16711746
0.1887794 -0.2644185 0.2599290 16711746
0.6899174 -0.6950594 -0.1067554 16711746
1.1149566 -1.9077799 0.0764084 16711746
0.7867716 -0.7788239 -0.1590362 16711746
1.0412230 -2.0048862 0.3548368 16711746
1.2882857 -1.6922477 -0.2770175 16711746
1.3541738 -1.9214430 0.0930182 16711746
0.8798915 -1.0586798 -0.0727193 16711746
0.7005889 -2.0021644 0.3561711 16711746
1.3531435 -1.7113190 -0.3855896 16711746
1.0294275 -1.3782467 -0.1644268 16711746
0.5501014 -2.1304543 0.7503995 16711746
1.3314403 -0.8083084 0.2053081 16711746
0.3253451 -0.7180811 0.2162653 16711746
0.2828122 -0.3879653 0.3921185 16711746
0.2550148 -0.6332259 0.5199530 16711746
0.3580086 -0.5054831 0.3511442 16711746
0.3094722 -0.3352382 0.3429175 16711746
0.4174973 -0.8579273 0.2844440 16711746
0.4464948 -0.8162643 0.2955947 16711746
0.2285227 -0.9352139 0.5038490 16711746
2.1276145 -1.8941149 -0.0757467 16711746
2.1363032 -2.5097687 0.6490762 16711746
1.5323021 -0.9858223 -0.0182560 16711746
0.7167356 -1.1357937 0.2395689 16711746
0.2954458 -0.7226269 0.3007020 16711746
0.8800952 -1.1954100 0.0538684 16711746
1.0908806 -1.1048422 0.2387578 16711746
0.5347690 -0.9841226 0.1826174 16711746
0.3107494 -0.7508529 0.3350816 16711746
0.9481002 -0.8904348 0.1306260 16711746
1.7460736 -1.3087447 0.8426456 16711746
0.5940719 -0.9308721 0.3031935 16711746
0.1566766 -0.7026802 0.4782047 16711746
0.7549608 -0.9918614 0.2562922 16711746
1.8090684 -1.2268203 0.0911465 16711746
1.4722934 -0.8454460 0.1511256 16711746
1.4690936 -0.9953284 0.0977806 16711746
1.3622154 -1.5376205 1.0449964 16711746
1.4730492 -1.3536929 0.7125369 16711746
1.1757623 -1.2136909 0.9434809 16711746
1.4878321 -1.2530402 1.2023129 16711746
1.2881962 -1.0591197 0.5113124 16711746
1.2118336 -0.8751051 0.0655998 16711746
1.1882478 -1.0648670 0.2989594 16711746
1.6095128 -1.2075163 0.5865197 16711746
1.4622734 -1.4933344 1.1630160 16711746
0.9552668 -1.0181520 0.1608236 16711746
1.7028595 -1.4511769 0.6741589 16711746
1.5649981 -1.5297157 1.1406105 16711746
1.2591286 -1.1090850 0.4283288 16711746
0.9106199 -0.9675805 0.7690318 16711746
1.4065208 -1.3161442 1.0430032 16711746
1.0149832 -0.8560243 0.4142064 16711746
1.1518807 -0.9593952 0.4889269 16711746
0.8955382 -0.9968599 0.4949504 16711746
1.1839741 -1.4139384 0.6466699 16711746
1.9436009 -1.2774694 0.8399439 16711746
1.5559653 -1.1649357 0.9997024 16711746
1.0841438 -1.1595670 0.7984640 16711746
1.5297213 -0.9260891 0.3296923 16711746
1.5990647 -1.2121198 0.5824422 16711746
0.2728373 -1.7366389 1.0092677 16711746
0.9920411 -1.0320662 0.9726928 16711746
1.4234385 -1.1674564 0.6158744 16711746
0.8365486 -0.8797272 0.5472625 16711746
1.2962109 -2.2447627 1.2420454 16711746
1.4824699 -1.5507791 1.0597097 16711746
1.2047052 -1.2476128 0.6569574 16711746
1.2521186 -1.0754972 0.3132665 16711746
1.1743023 -1.2373990 0.5112951 16711746
1.1984845 -1.0708724 0.8229272 16711746
1.5471249 -1.1129794 -0.0735581 16711746
1.3801901 -0.8786414 0.1264040 16711746
1.0398306 -1.7970804 0.3111344 16711746
1.5476567 -1.4249855 1.1339345 16711746
1.3026514 -1.5014880 0.9735519 16711746
1.1233357 -1.9016472 0.1461309 16711746
0.4468432 -0.6853094 0.6930035 16711746
0.3888340 -2.0058236 0.5089283 16711746
1.4951687 -1.1654692 1.1241982 16711746
1.5966821 -1.1877834 1.0128719 16711746
1.4384500 -1.3483760 1.0677524 16711746
1.3648392 -1.2836213 1.0312412 16711746
1.2891854 -1.1434172 1.1151021 16711746
0.9485326 -0.9063687 0.1929785 16711746
1.2198712 -1.9064426 0.5773812 16711746
0.9482471 -1.8523422 0.9134893 16711746
1.6637422 -1.2354977 0.9391611 16711746
0.4534022 -1.1945435 0.3805817 16711746
0.8448351 -1.2137115 0.0080828 16711746
1.6993906 -1.1380159 0.8677582 16711746
1.4324933 -1.3441197 1.0713512 16711746
1.2538491 -1.2708498 0.9268901 16711746
0.5504570 -1.0345047 0.2036638 16711746
0.9968337 -1.3321249 0.6490725 16711746
1.1716192 -1.3524723 0.5238863 16711746
0.8628154 -1.2453732 0.2621281 16711746
1.2472302 -1.2725712 0.5707033 16711746
1.7475742 -1.1915727 0.7510173 16711746
1.1293410 -1.3915373 0.5825161 16711746
1.1642557 -1.3141224 0.5790995 16711746
1.3838913 -1.3890216 0.5061849 16711746
1.8237487 -1.0925514 1.1238244 16711746
1.6696218 -1.2184043 0.7154415 16711746
0.7217279 -1.0985011 0.1615750 16711746
0.6336958 -1.3414484 0.3620169 16711746
-1.0450245 -4.3739195 3.0538900 16711746
1.5399159 -1.0331370 1.0303675 16711746
1.6373327 -1.1960400 0.7059817 16711746
1.1905396 -1.4122072 0.7932356 16711746
1.0306076 -1.6236901 0.5182352 16711746
1.1384003 -1.3970875 0.5843005 16711746
1.4351629 -1.7327857 0.4980670 16711746
0.7176496 -1.2289087 0.3591617 16711746
0.5761089 -1.0739633 0.1864500 16711746
0.8618409 -2.0195029 1.3752860 16711746
0.6847192 -1.2864746 0.5849426 16711746
0.3390677 -1.0720713 0.2932200 16711746
0.5518934 -1.4953747 0.3335901 16711746
0.5966944 -1.0250636 0.2816648 16711746
0.4758583 -1.0237807 0.2025012 16711746
0.5653564 -1.0662212 0.1919955 16711746
1.0692967 -1.6299199 0.6621341 16711746
0.7387952 -1.2663866 0.0993698 16711746
1.2097770 -1.1052228 0.1721435 16711746
0.6470761 -1.6484828 0.3847185 16711746
1.1948912 -1.8929340 0.5404803 16711746
0.5520001 -1.2409796 0.4884751 16711746
0.7501794 -1.6039754 0.6395245 16711746
0.6772914 -0.8680633 0.1162391 16711746
0.4656191 -1.2580613 0.3366567 16711746
0.8030041 -1.5613472 0.8968943 16711746
1.4457364 -1.6898240 0.8773194 16711746
1.7088879 -1.9008603 0.8476070 16711746
0.5444382 -1.3280491 0.3431133 16711746
0.8220760 -2.2163432 0.3193907 16711746
1.3502138 -1.1339175 0.5491056 16711746
0.8060160 -1.1432253 0.0899924 16711746
0.7991440 -1.2399977 0.1094994 16711746
0.5800370 -0.9564577 0.3616421 16711746
0.0985378 -1.5553607 0.6556717 16711746
0.5342799 -0.9529985 0.3838405 16711746
0.7053303 -1.3904970 0.5447901 16711746
1.4725245 -2.0325603 0.4527719 16711746
1.1006802 -1.4746157 0.1069492 16711746
1.7085687 -2.6547165 1.7403215 16711746
0.9104199 -1.6473827 1.0904495 16711746
0.7920775 -1.4384052 0.7013934 16711746
2.1271877 -2.3145378 0.9644532 16711746
1.7235963 -1.2510160 0.7205224 16711746
1.9138627 -1.7637568 1.3103456 16711746
1.2957875 -1.1407100 0.1029549 16711746
0.2573451 -1.1272805 0.3287202 16711746
1.3887100 -1.1908258 0.3120170 16711746
1.3735291 -1.1722375 0.4547364 16711746
0.8116661 -1.2993231 0.2087543 16711746
0.2371688 -1.0183077 0.3355519 16711746
0.7722162 -1.7389411 0.2882928 16711746
-0.1792761 -1.5853674 0.8616214 16711746
1.2234114 -0.9321716 0.6133825 16711746
0.8630888 -2.2381148 1.3179312 16711746
0.7867038 -2.4631114 1.6576807 16711746
0.4960584 -1.3603457 0.9467098 16711746
1.5502439 -1.7992628 0.8139383 16711746
1.0891302 -1.1565689 0.5099012 16711746
1.2056051 -1.5326350 0.8818504 16711746
1.2485331 -2.1858959 1.3212345 16711746
0.5187165 -0.8717675 0.4023434 16711746
0.4734902 -1.4241388 1.1195982 16711746
0.9513500 -2.2279556 1.8769202 16711746
1.4505953 -1.0861570 0.9496439 16711746
0.8092746 -1.0920591 0.9804967 16711746
1.3691542 -0.7298149 0.4231747 16711746
1.5620829 -1.2020143 0.8091860 16711746
1.9170517 -2.1045780 0.7577577 16711746
1.2293891 -1.8997873 0.3931431 16711746
1.5512671 -0.9657408 0.1998566 16711746
2.3265197 -1.5217555 -0.1005018 16711746
1.4383439 -1.6011823 1.0782492 16711746
1.1105877 -1.4404936 1.2166343 16711746
1.5561384 -1.6306715 0.6330763 16711746
1.6985478 -1.7523105 0.0559898 16711746
0.8182006 -1.1461158 0.2570114 16711746
0.9743947 -1.4484746 0.2319969 16711746
1.4744732 -2.6279290 1.9074097 16711746
3.4023206 -2.9685242 2.3950238 16711746
1.4028041 -1.5013828 0.6036283 16711746
1.1578436 -0.8730860 0.7222978 16711746
1.0876292 -1.1747168 0.8904291 16711746
0.7697182 -1.3230737 0.1724343 16711746
0.3826341 -1.1001230 0.4765794 16711746
0.4295578 -0.9472665 0.5289866 16711746
1.2156910 -1.6198252 0.7175286 16711746
0.8380917 -1.4548279 0.3573602 16711746
0.3281679 -1.6342976 0.9522529 16711746
0.5355310 -1.1015550 0.3348384 16711746
0.5665110 -3.4327710 2.1816788 16711746
2.0548983 -1.3860766 -0.0380426 16711746
0.5512908 -0.5113549 0.3227268 16711746
1.3750603 -1.2891665 0.9740422 16711746
0.7932294 -0.8957406 0.5199026 16711746
0.6955239 -0.9185603 0.4650828 16711746
0.5218632 -0.8614591 0.4112366 16711746
0.4800752 -0.8871834 0.4268967 16711746
0.5345479 -0.9792029 0.4095960 16711746
0.7567923 -1.0046480 0.4194963 16711746
0.7763360 -1.0669740 0.2337578 16711746
0.6946877 -1.1103833 0.4024939 16711746
0.6674737 -1.0084258 0.8621629 16711746
0.6362044 -0.9347942 0.5786197 16711746
0.8372448 -0.8867471 0.7301031 16711746
0.4590001 -0.9475828 0.6436012 16711746
0.6603958 -1.1362975 0.9342815 16711746
0.3806487 -1.0756525 0.3848363 16711746
0.5159569 -0.9516111 0.4287986 16711746
0.2553064 -1.5056291 0.3627958 16711746
0.4971055 -1.0729735 0.4176565 16711746
0.9944660 -0.9667866 0.2639245 16711746
1.3441978 -1.1909590 0.4425185 16711746
0.9147355 -0.9919136 0.4763103 16711746
0.3015471 -1.0093058 0.5440513 16711746
0.9320076 -0.8526859 0.3892786 16711746
0.7197163 -1.2268178 0.4246494 16711746
0.5726633 -1.0861245 0.2708021 16711746
0.3917064 -1.2277032 1.0665114 16711746
0.7524952 -0.7909146 0.6902104 16711746
0.3307595 -1.6918041 0.9005493 16711746
2.3463032 -3.0096066 0.7760426 16711746
0.4718581 -2.4192820 0.3663821 16711746
0.2671025 -1.0232860 0.4521058 16711746
0.6361556 -0.7257511 0.6802318 16711746
2.4319756 -2.8834434 0.8109121 16711746
0.3561535 -1.0773145 0.6868671 16711746
0.4370663 -1.0599142 0.9276460 16711746
0.7782443 -1.1965814 0.2343652 16711746
0.6171864 -0.8939837 0.3092188 16711746
0.5294582 -0.9920071 0.3914143 16711746
0.3717263 -1.0282195 0.3866763 16711746
0.3539418 -0.9117815 0.4175474 16711746
0.4532664 -1.4073721 1.1319863 16711746
0.3725665 -1.0392981 0.3883109 16711746
0.5660620 -1.0434825 0.4057221 16711746
0.1913332 -1.0988482 0.8190253 16711746
0.5352433 -1.5493746 1.2208844 16711746
0.2200306 -0.8844799 0.8028796 16711746
0.5063273 -0.7734330 0.4572718 16711746
0.2829828 -1.2558931 0.6430348 16711746
0.8105428 -1.4549639 0.4740243 16711746
0.5508003 -0.9528815 0.5280887 16711746
0.2993493 -0.9978769 0.3830838 16711746
0.3960562 -1.1482401 0.4365102 16711746
0.3750967 -0.8674200 0.7790605 16711746
0.2974423 -1.5018473 0.9603059 16711746
0.5453865 -1.3446832 0.3868020 16711746
0.2130195 -0.2992356 0.4652906 16711746
1.2935541 -1.4989661 0.9769806 16711746
1.3853198 -2.6371610 0.2294717 16711746
1.7300776 -2.9423609 0.2087380 16711746
0.5485831 -0.4987135 0.3512194 16711746
0.5912884 -0.7063860 0.3352354 16711746
1.0860363 -1.0162034 0.3565199 16711746
1.3462979 -1.0196235 0.0960653 16711746
0.6417105 -0.9024876 0.3336440 16711746
0.8862504 -1.4586420 0.2234279 16711746
1.1606302 -1.0770721 0.2292479 16711746
1.0343273 -1.0477552 0.2869351 16711746
0.8353412 -0.8050224 0.3802147 16711746
1.1507804 -1.8096722 0.8905618 16711746
0.5848419 -1.1929971 0.8962129 16711746
0.1690452 -1.3791054 0.9617084 16711746
0.8973103 -0.8653082 0.3384425 16711746
1.1532652 -0.7827303 0.3558042 16711746
0.9989272 -1.3407749 0.5445072 16711746
2.2694120 -1.2256470 0.4224908 16711746
1.6806788 -1.0830004 0.3119460 16711746
0.9960927 -0.7714520 0.2036901 16711746
0.9228485 -0.9937523 0.2880201 16711746
0.2671552 -0.3512963 0.5180845 16711746
0.7781501 -0.7539399 0.1993571 16711746
0.8689098 -0.8221949 0.1592772 16711746
1.8316578 -1.8835690 1.1917084 16711746
1.9016099 -1.0793092 -0.0437061 16711746
5.4938922 -4.5538678 -2.1969414 16711746
1.5623776 -2.8477671 0.3833206 16711746
0.0994240 -1.3513056 0.7134148 16711746
0.4942813 -0.6250237 0.3471394 16711746
0.3135578 -0.6757853 0.5787917 16711746
0.3227884 -0.6406130 0.6136075 16711746
0.0683262 -1.1926455 0.8249409 16711746
1.2495742 -2.1325371 1.6477885 16711746
0.2787797 -0.7309456 0.5924338 16711746
-0.0334447 -1.0581191 0.6976662 16711746
0.3217293 -0.8836148 0.4961827 16711746
0.0391839 -0.8466754 0.6811396 16711746
0.2005023 -0.7418876 0.5713996 16711746
0.2213214 -0.3981762 0.5688598 16711746
0.2764558 -0.5446815 0.7398216 16711746
0.3039661 -0.6295562 0.6743767 16711746
0.1945527 -0.6046706 0.6451394 16711746
0.2038811 -0.5414086 0.5684178 16711746
0.3660859 -0.7634882 0.7918656 16711746
0.0495874 -0.4972376 0.6777564 16711746
0.1013506 -0.5657554 0.7058135 16711746
0.7099055 -0.9457824 0.6736973 16711746
0.3292994 -0.6931866 0.7555344 16711746
0.6708117 -1.4348540 1.0068282 16711746
0.7572818 -0.9472111 0.7325664 16711746
0.6510542 -0.8901290 0.6709973 16711746
0.3203027 -0.8346700 0.9245195 16711746
0.1874816 -0.3573628 0.6874671 16711746
1.2064697 -1.3973351 1.1859268 16711746
1.1447657 -0.9606961 0.7034414 16711746
1.0042460 -1.2158003 0.9918081 16711746
0.3280445 -0.6682357 0.7906861 16711746
0.0142212 -0.8629956 0.7849753 16711746
0.3998570 -0.4394754 0.5523598 16711746
0.5852652 -0.9886532 0.2959273 16711746
0.5433610 -0.9814339 0.7503769 16711746
0.0467154 -0.7087266 0.6348065 16711746
0.4991329 -0.6893322 0.6681746 16711746
0.3646540 -0.9652389 0.5953957 16711746
0.3289277 -0.8125864 0.5205441 16711746
1.8159522 -1.0700206 0.1602053 16711746
-0.0706507 -0.5105831 0.7958072 16711746
-0.0264265 -0.5318233 0.6957632 16711746
0.1383490 -0.4737300 0.5924166 16711746
0.1737115 -0.3519110 0.5657015 16711746
0.4892495 -0.6079850 0.7449113 16711746
0.0017184 -0.7844514 0.7260755 16711746
0.2038869 -0.8937019 0.9911987 16711746
0.0418702 -1.0888755 0.9167231 16711746
0.7909207 -0.8281204 0.5008377 16711746
0.1724635 -0.4263465 0.5893163 16711746
0.2356030 -0.4705452 0.7072365 16711746
0.1540008 -0.4511251 0.6921230 16711746
0.9522583 -1.3888288 1.2635427 16711746
0.6528468 -1.1224799 1.1106044 16711746
0.5731673 -1.0154055 0.5357260 16711746
0.7751929 -0.8232592 0.8630326 16711746
1.2402147 -1.1183263 0.6401115 16711746
0.7081088 -0.9236044 0.5967079 16711746
0.8294412 -1.3321824 0.5652473 16711746
0.1001709 -1.0084474 0.8496461 16711746
0.7990549 -0.7527655 0.4199203 16711746
0.5362238 -1.1549391 0.7845141 16711746
0.7122980 -1.2012360 0.6856723 16711746
0.6855083 -1.3708161 0.5056365 16711746
1.2019839 -1.1979401 0.7734268 16711746
1.0532157 -0.9192975 0.6718605 16711746
1.0299048 -1.0320817 0.7394605 16711746
1.0326459 -0.8955035 0.6699734 16711746
0.6179601 -0.6844684 0.8043625 16711746
0.6468884 -0.8423083 0.7316033 16711746
1.0097876 -0.9972275 0.6640187 16711746
1.3694850 -1.0319419 0.8016176 16711746
0.4832889 -0.9174059 0.8169101 16711746
0.6261077 -0.8256803 0.5984943 16711746
0.8856768 -1.0521580 0.9875785 16711746
0.6337186 -0.9185715 0.6659100 16711746
0.0937364 -1.0253073 0.8543956 16711746
1.0157025 -1.0036172 0.4169605 16711746
1.2611908 -1.0198354 0.1151790 16711746
0.9142994 -0.7504814 0.7797647 16711746
1.3188707 -1.7315248 1.5569508 16711746
0.9313152 -0.7322519 0.5832984 16711746
0.7001733 -0.8586682 0.6690429 16711746
0.8218271 -1.0387414 0.8282623 16711746
0.7570114 -0.7715562 0.4711936 16711746
0.7142042 -1.7885840 0.2914273 16711746
1.5369929 -1.0973165 1.1195748 16711746
1.3905210 -1.4477091 0.7900947 16711746
1.5487181 -1.1368549 0.8214431 16711746
0.4754750 -0.7051402 1.1516579 16711746
0.6185110 -1.3163456 0.8201836 16711746
0.4143531 -0.8264769 0.8493277 16711746
0.7096056 -0.7082706 0.5231580 16711746
0.6048864 -0.9452167 0.7810149 16711746
0.6178991 -1.2427992 0.6968142 16711746
0.5004522 -0.9981764 0.9805272 16711746
0.1210270 -0.9032722 0.7916162 16711746
0.2770792 -1.0509853 0.9239647 16711746
0.8165552 -0.9535588 1.2342467 16711746
0.7188334 -0.8517358 0.8942278 16711746
0.7554801 -1.0023665 0.8060788 16711746
0.4765757 -0.6661223 0.5818396 16711746
0.2632889 -1.2274504 0.9265566 16711746
0.6647843 -0.8405419 0.6112965 16711746
0.4321017 -0.9319025 1.0280936 16711746
0.7173858 -1.1037481 0.8142452 16711746
0.4375495 -0.9473039 0.6477768 16711746
0.8686825 -0.9946322 0.5128503 16711746
0.9967993 -1.6784798 1.4109232 16711746
0.2308785 -0.9924465 1.1205137 16711746
0.6307365 -1.2558239 1.0276392 16711746
0.2343216 -0.8949977 0.6991512 16711746
0.7159790 -1.4494929 0.6612929 16711746
0.2820640 -1.0569094 0.9269317 16711746
0.6100860 -0.8395556 0.3872986 16711746
0.5920026 -1.0477387 0.5496832 16711746
0.6323498 -0.9350004 0.5486786 16711746
0.9811839 -1.4590100 1.2411914 16711746
0.6972498 -1.0815039 1.0470699 16711746
0.1922967 -0.8482035 0.9720789 16711746
0.3987142 -0.8994864 0.6926730 16711746
0.2798186 -0.9708931 0.6617525 16711746
0.5638380 -1.0530899 1.1642020 16711746
0.5294229 -0.7009355 0.7021706 16711746
0.8636448 -1.1454122 0.9256371 16711746
0.8573910 -0.8870623 0.8051757 16711746
0.2444875 -0.7092563 0.8704247 16711746
0.3617933 -0.8554819 0.6494792 16711746
0.7794541 -1.4182585 0.6553396 16711746
0.6654112 -0.7371700 0.2992773 16711746
0.6317240 -0.9541194 0.4192348 16711746
0.6119489 -1.2194353 0.5122539 16711746
0.5311062 -1.0310929 0.4772388 16711746
0.1213627 -0.5802081 0.8886392 16711746
0.6088524 -0.7958454 0.7201579 16711746
0.6866848 -1.0745012 0.8620822 16711746
0.5234812 -0.5899540 0.4785377 16711746
0.3201027 -0.5118896 0.5321302 16711746
0.1224261 -0.7283141 0.8236452 16711746
0.1245565 -0.8744412 0.7921550 16711746
0.8648125 -0.9089774 0.5392266 16711746
0.3077593 -0.5549337 0.5261040 16711746
0.1745557 -0.8171317 0.6006028 16711746
0.2096937 -1.0290297 0.9595161 16711746
0.1728223 -0.7073756 0.6445360 16711746
0.2321825 -0.3474637 0.6206523 16711746
0.1841400 -0.6160936 0.8443215 16711746
0.2090456 -0.8208213 0.5579806 16711746
0.3204557 -0.5898504 0.8594996 16711746
0.2049945 -0.6260325 0.8121270 16711746
0.2545506 -1.0441390 1.0315540 16711746
0.4387600 -0.9153690 0.9323019 16711746
0.3642790 -0.9278160 0.6232979 16711746
0.1406838 -1.2123659 0.9089161 16711746
0.2469462 -0.5565264 0.6343688 16711746
0.0421819 -0.8217455 0.8553091 16711746
0.3493585 -1.0746831 0.6030278 16711746
0.6149214 -1.1176127 0.7758703 16711746
0.3909505 -0.8661214 0.7377645 16711746
0.4074367 -0.9966919 0.5170785 16711746
0.6764057 -1.1869068 1.0495048 16711746
0.2381802 -0.8079428 0.9254767 16711746
0.0427415 -1.1165761 0.8474462 16711746
-0.2778908 -1.1418190 0.9670087 16711746
0.4383759 -0.8780397 0.5526697 16711746
0.6491090 -0.9181359 0.5741768 16711746
0.7245566 -0.7655435 0.4470717 16711746
1.0654553 -0.7344082 0.4213492 16711746
0.4592342 -0.9550241 0.4796509 16711746
0.5257321 -0.9320276 0.3853208 16711746
0.5288683 -0.6634219 0.5566280 16711746
0.6068725 -0.7974438 0.3626478 16711746
0.8656107 -0.8092139 0.3977589 16711746
1.7940885 -0.7432500 0.7559746 16711746
1.0384835 -0.9622930 0.6432216 16711746
0.1296459 -1.3638700 0.9453618 16711746
0.6215525 -0.8218141 0.5037398 16711746
0.9369186 -1.1662909 0.8616356 16711746
1.1199785 -1.1130308 1.1334682 16711746
0.1320945 -0.2632929 0.6436045 16711746
0.6218302 -1.1178743 0.6722603 16711746
0.4468755 -0.8807576 0.3778524 16711746
0.9168631 -1.2207041 0.9499102 16711746
0.6663761 -1.0715251 0.5800372 16711746
0.6017346 -0.9075917 0.4305678 16711746
1.5120543 -1.1218277 0.9532405 16711746
0.6263671 -1.1869811 1.1324480 16711746
0.7069619 -1.1080339 0.6178549 16711746
1.2624178 -0.8437755 0.9893914 16711746
1.0608473 -1.0752618 0.6674978 16711746
0.6952921 -0.9923101 0.6936104 16711746
1.0489174 -0.9170102 0.5636111 16711746
0.6704106 -0.6872154 0.5599288 16711746
0.6433493 -0.7338846 0.4170601 16711746
0.6761978 -0.8694880 0.3724722 16711746
1.4865308 -1.2008723 1.0717009 16711746
1.3153760 -0.8781146 1.0219187 16711746
0.7899814 -1.0999311 0.9732955 16711746
0.4289065 -0.7180617 0.4638974 16711746
0.1378158 -1.0336368 0.8370103 16711746
0.2028681 -1.3745310 0.8777137 16711746
0.5920882 -0.6657734 0.5344976 16711746
0.7544513 -0.5729893 0.4387622 16711746
0.7632744 -0.8668590 0.5572942 16711746
1.4877806 -1.0191594 0.9409580 16711746
1.1927435 -2.1684322 1.5065185 16711746
0.1021145 -0.4645450 0.6528602 16711746
1.0532990 -1.0572412 0.7459825 16711746
0.8427114 -0.8346652 0.3261195 16711746
1.8993663 -2.7759290 0.5608432 16711746
4.5781960 -4.9509654 2.2126062 16711746
2.4436722 -0.9740885 0.5799962 16711746
