# .PCD v.7 - Point Cloud Data file format
VERSION .7
FIELDS x y z rgb
SIZE 4 4 4 4
TYPE F F F F
COUNT 1 1 1 1
WIDTH 231
HEIGHT 1
VIEWPOINT 0 0 0 1 0 0 0
POINTS 231
DATA ascii

 -0.0710130 -0.0680738 -0.0099033 16777215
 -0.0699631 -0.0630470 -0.0113743 16777215
 -0.0706170 -0.0655805 -0.0107800 16777215
 -0.0599096 -0.0641953 -0.0118031 16777215
 -0.0644839 -0.0586441 -0.0140832 16777215
 -0.0581503 -0.0547694 -0.0157828 16777215
 -0.0536073 -0.0469797 -0.0209829 16777215
 -0.0503584 -0.0457940 -0.0218784 16777215
 -0.0506418 -0.0452127 -0.0239104 16777215
 -0.0507823 -0.0438469 -0.0252574 16777215
 -0.0497364 -0.0501398 -0.0218570 16777215
 -0.0550500 -0.0517739 -0.0178291 16777215
 -0.0539290 -0.0550319 -0.0042460 16777215
 -0.0356856 -0.0744547 0.0234340 16777215
 -0.0536815 -0.0652559 0.0944351 16777215
 -0.0750317 0.0094776 0.2931165 16777215
 -0.0351829 -0.0787884 0.3300658 16777215
 -0.1352439 -0.1076664 0.4766946 16777215
 -0.1483914 -0.0925085 0.6485446 16777215
 -0.2256027 -0.1734659 0.9057341 16777215
 -0.3901695 -0.2697031 1.1421289 16777215
 -0.1271888 0.1632382 1.1734896 16777215
 -0.2576273 0.1068781 1.3908571 16777215
 -0.3914010 -0.3345169 1.3869934 16777215
 -0.1455300 -0.3520252 1.3468683 16777215
 -0.6911225 -0.0395186 1.3447247 16777215
 -0.3275211 -0.4341797 1.7269235 16777215
 -0.1463168 -0.1723957 1.7830391 16777215
 -0.1415912 -0.1762673 1.7971836 16777215
 -0.1418109 -0.1986916 1.7962310 16777215
 -0.1236464 -0.2194605 1.7984598 16777215
 -0.0991643 -0.2435634 1.8007200 16777215
 -0.0966705 -0.2343738 1.8057435 16777215
 -0.0989222 -0.2540841 1.8221251 16777215
 -0.0842758 -0.2805696 1.8352793 16777215
 -0.0500906 -0.3257135 1.8705735 16777215
 -0.0003644 -0.4502669 1.9181101 16777215
 -0.0440913 -0.4363315 2.0627060 16777215
 0.0396559 -0.5043045 2.0973105 16777215
 -0.0518156 -0.5633290 2.2842498 16777215
 0.0009808 -0.6278898 2.2861512 16777215
 0.1467330 -0.6791149 2.4481828 16777215
 -0.1768835 -0.7879479 2.7700415 16777215
 -0.2791717 -0.7684281 2.9981270 16777215
 -0.3107517 -0.8048617 2.9834645 16777215
 -0.2123460 -0.8400058 2.9841542 16777215
 -0.1768678 -0.8326938 2.9671493 16777215
 -0.2360717 -0.7273970 3.0625803 16777215
 -0.3019885 -0.7230092 3.1776879 16777215
 -0.2657895 -0.7307639 3.2614484 16777215
 -0.0649748 -0.9869384 3.3276792 16777215
 0.0301220 -0.9671423 3.4197443 16777215
 0.0325240 -1.0156064 3.4605193 16777215
 0.1118525 -1.0490940 3.5124803 16777215
 0.0900064 -1.0786209 3.5568776 16777215
 -0.4704966 -1.0341170 3.9209151 16777215
 -0.5056239 -1.0485044 3.9803951 16777215
 -0.3736303 -0.8949103 4.0338764 16777215
 -0.3795274 -0.9622686 4.0540957 16777215
 -0.3871201 -0.9315058 4.0587492 16777215
 -0.3916065 -0.9344919 4.0845466 16777215
 -0.4485430 -0.8660114 4.2010870 16777215
 -0.5606569 -0.9816812 4.3702927 16777215
 -0.4486152 -1.1335723 4.3675942 16777215
 -0.4610216 -1.0309250 4.3528099 16777215
 -0.4589454 -0.9403777 4.5241013 16777215
 -0.3416978 -0.9694059 4.3164759 16777215
 -0.2881492 -0.9874711 4.5317111 16777215
 -0.2715808 -1.0656679 4.6407223 16777215
 -0.2103702 -1.0746562 4.5973516 16777215
 -0.2585614 -1.1610024 4.7199383 16777215
 -0.2214423 -1.2612309 4.8001614 16777215
 -0.3291045 -1.3221331 4.9422708 16777215
 -0.2218297 -1.3114265 4.9767299 16777215
 -0.3239246 -1.3544930 5.1134586 16777215
 -0.3338791 -1.3711797 5.1585031 16777215
 -0.3500388 -1.4149065 5.3220863 16777215
 -0.2548105 -1.5900359 5.3330603 16777215
 -0.2639468 -1.6073172 5.3813124 16777215
 -0.5983790 -1.6395109 5.7551346 16777215
 -0.5143752 -1.8748710 5.6595364 16777215
 -0.4379616 -1.6492577 5.8236051 16777215
 -0.4166280 -1.6338162 5.8459415 16777215
 -0.5788829 -1.1167808 5.8805051 16777215
 -0.7190083 -0.6071855 6.0999327 16777215
 -0.6082501 -1.2647942 5.9697022 16777215
 -0.7190853 -1.3188329 6.2868524 16777215
 -0.7131881 -1.2757201 6.2486358 16777215
 -0.6930733 -1.2868886 6.2602353 16777215
 -0.6576089 -1.3123069 6.2824602 16777215
 -0.6663422 -1.3329847 6.3818393 16777215
 -0.6458611 -1.3708634 6.4545164 16777215
 -0.6848767 -1.3594373 6.5079389 16777215
 -0.6169059 -1.3532126 6.5621786 16777215
 -0.5234926 -1.4431064 6.5516868 16777215
 -0.4064337 -1.5424168 6.6105890 16777215
 -0.6100764 -1.3172387 6.7266340 16777215
 -0.7267009 -1.4374369 6.9220901 16777215
 -0.6335757 -1.5184721 7.0557594 16777215
 -0.5389099 -1.7514212 7.1679573 16777215
 -0.4225121 -1.7698717 7.2258024 16777215
 -0.3865232 -1.8482862 7.2799616 16777215
 -0.3331252 -1.9125948 7.2829847 16777215
 -0.6530666 -1.7821209 7.4068613 16777215
 -0.7037133 -1.7726889 7.5178919 16777215
 -0.6329933 -1.8776503 7.6440754 16777215
 -0.6232392 -1.9372375 7.6632457 16777215
 -0.6868544 -1.9345884 7.6643548 16777215
 -0.7010496 -1.7398961 7.8490052 16777215
 -1.0146185 -1.8705111 7.6526041 16777215
 -1.0051895 -1.7521946 7.9372320 16777215
 -0.8286642 -1.9387758 7.9095411 16777215
 -0.8854202 -1.7932638 7.9580593 16777215
 -0.7932723 -1.8526478 8.0190172 16777215
 -0.7777992 -1.8862076 8.0009365 16777215
 -0.7092870 -1.8964031 8.0236702 16777215
 -0.7163246 -1.8958929 8.0911055 16777215
 -0.8428683 -1.7695707 8.3860512 16777215
 -0.8364953 -1.7524457 8.4995432 16777215
 -0.7839658 -1.8200598 8.5075054 16777215
 -0.7950273 -1.8077371 8.5758209 16777215
 -0.7127540 -1.8112211 8.6085892 16777215
 -0.8875558 -1.7949622 8.8847284 16777215
 -0.6027202 -1.9671721 8.7850409 16777215
 -0.6443230 -1.9612715 8.9131880 16777215
 -0.8482817 -1.9670606 9.0530109 16777215
 -0.8013450 -2.0074420 9.0793228 16777215
 -0.7230053 -2.1106498 9.2604809 16777215
 -0.7972578 -2.0895894 9.3205013 16777215
 -0.7718534 -2.1015244 9.3468533 16777215
 -0.6386752 -2.2042937 9.4116430 16777215
 -0.6726642 -2.3038442 9.4068480 16777215
 -0.6964144 -2.2924066 9.4501028 16777215
 -0.9978364 -2.0024717 9.6137657 16777215
 -1.0891705 -1.8958693 9.6776953 16777215
 -0.9549086 -1.9963772 9.7088537 16777215
 -1.1079043 -2.0440245 9.8219299 16777215
 -1.0895685 -2.0844510 9.9389715 16777215
 -1.0123982 -2.1306479 9.9629955 16777215
 -0.9520535 -2.1752644 10.0145626 16777215
 -0.9991118 -2.1032422 10.1154041 16777215
 -1.0440392 -2.0130229 10.1673737 16777215
 -0.9372696 -2.2398100 10.2482634 16777215
 -1.4149625 -1.8485920 10.3435526 16777215
 -1.1752292 -2.0704336 10.3243914 16777215
 -1.1787628 -1.6896565 10.2708712 16777215
 -1.0979432 -1.9754913 10.3381081 16777215
 -1.1380627 -2.1106396 10.4524813 16777215
 -1.1492832 -2.0938623 10.4976244 16777215
 -1.1651258 -2.0526114 10.5258179 16777215
 -1.1881536 -2.0625098 10.5674591 16777215
 -1.1933932 -1.9831991 10.5666685 16777215
 -1.1718057 -2.0595186 10.6454124 16777215
 -1.2551876 -2.0464325 10.7248554 16777215
 -1.1793805 -2.1312263 10.7644711 16777215
 -1.1940626 -2.1940382 10.9104462 16777215
 -1.1411769 -2.1918504 10.9102716 16777215
 -1.0751737 -2.2150462 10.9642792 16777215
 -1.2258053 -2.1079311 11.0455770 16777215
 -1.2946374 -2.0463190 11.1242418 16777215
 -1.2906818 -2.0305564 11.1249809 16777215
 -1.2537495 -2.0419209 11.1294184 16777215
 -1.2725217 -2.0513506 11.1459236 16777215
 -1.2607311 -2.0782793 11.1642094 16777215
 -1.2508184 -2.0726266 11.1721020 16777215
 -1.2287656 -2.0742223 11.1700993 16777215
 -1.2185519 -2.0808494 11.1843233 16777215
 -1.2978069 -2.1705947 11.3126564 16777215
 -1.2805976 -2.1644459 11.3611212 16777215
 -1.3324755 -2.0900142 11.4413633 16777215
 -1.3305252 -2.1040726 11.4599733 16777215
 -1.3383650 -2.0871456 11.4366341 16777215
 -1.2991424 -2.1217427 11.4468679 16777215
 -1.3603445 -2.1067426 11.4517727 16777215
 -1.3815295 -2.2859631 11.5163469 16777215
 -1.3693095 -2.1958129 11.5224848 16777215
 -1.2904104 -2.2386107 11.5299072 16777215
 -1.3005732 -2.2616253 11.5808449 16777215
 -1.2844839 -2.2607682 11.5909977 16777215
 -1.2330134 -2.2931614 11.6123276 16777215
 -1.2612610 -2.2948248 11.6427708 16777215
 -1.2282494 -2.3126304 11.6663342 16777215
 -1.2739030 -2.3716116 11.7785063 16777215
 -1.3331321 -2.3851180 11.8166809 16777215
 -1.1909060 -2.4494815 11.9100313 16777215
 -1.1541139 -2.4022686 11.8982925 16777215
 -1.0966271 -2.4464192 11.9683285 16777215
 -1.1402419 -2.4684002 11.9792986 16777215
 -1.2719257 -2.4455566 11.9636517 16777215
 -1.4920695 -2.3126163 12.2090368 16777215
 -1.6127801 -2.2309144 12.2132435 16777215
 -1.5999081 -2.1895020 12.2315998 16777215
 -1.5687225 -2.2501459 12.2399540 16777215
 -1.5608038 -2.2690377 12.2431650 16777215
 -1.5417082 -2.1646540 12.3231277 16777215
 -1.5364338 -2.1572852 12.3250847 16777215
 -1.5260937 -2.1822517 12.3470631 16777215
 -1.5692012 -2.3264806 12.4202414 16777215
 -1.5432616 -2.3179388 12.2989302 16777215
 -1.5532250 -2.3572099 12.4056644 16777215
 -1.5781010 -2.2640333 12.4055109 16777215
 -1.5719523 -2.1771069 12.3076344 16777215
 -1.5618291 -2.2631588 12.3693066 16777215
 -1.5997200 -2.2256587 12.3536797 16777215
 -1.6286449 -2.1618347 12.3094177 16777215
 -1.5520537 -2.3272235 12.4320297 16777215
 -1.5639784 -2.2862911 12.4058428 16777215
 -1.5743437 -2.3088055 12.4114380 16777215
 -1.5956380 -2.3464031 12.4362564 16777215
 -1.5714283 -2.2342815 12.4306402 16777215
 -1.3498862 -2.1552181 12.4176874 16777215
 -1.4719813 -2.1009889 12.4145050 16777215
 -1.4557517 -2.0927162 12.4099407 16777215
 -1.4520961 -2.1068921 12.4133873 16777215
 -1.4499204 -2.1072702 12.4165392 16777215
 -1.4596591 -2.1206441 12.4178476 16777215
 -1.4645652 -2.1193466 12.4192667 16777215
 -1.4581351 -2.1174784 12.4158773 16777215
 -1.4537526 -2.1136112 12.4136009 16777215
 -1.4382427 -2.1003494 12.4136648 16777215
 -1.5130882 -2.1711431 12.3838844 16777215
 -1.4600625 -2.1177392 12.4061947 16777215
 -1.4519606 -2.1084251 12.4114065 16777215
 -1.4524610 -2.1129625 12.4096727 16777215
 -1.4684508 -2.1191688 12.4053535 16777215
 -1.4930220 -2.1396151 12.4064713 16777215
 -1.4859369 -2.1484144 12.4071102 16777215
 -1.4906719 -2.1528327 12.4081097 16777215
 -1.4916203 -2.1558123 12.4070969 16777215
 -1.4937904 -2.1725540 12.4034195 16777215
 -1.4924014 -2.1647897 12.4056301 16777215
