# .PCD v.7 - Point Cloud Data file format
VERSION .7
FIELDS x y z rgb
SIZE 4 4 4 4
TYPE F F F F
COUNT 1 1 1 1
WIDTH 239
HEIGHT 1
VIEWPOINT 0 0 0 1 0 0 0
POINTS 239
DATA ascii

 0.0040174 -0.1341881 -0.0019219 16777215
 0.0056458 -0.1323397 -0.0017539 16777215
 0.0068017 -0.1299179 -0.0027221 16777215
 0.0077950 -0.1271478 -0.0038654 16777215
 0.0107904 -0.1268194 -0.0048977 16777215
 0.0098201 -0.1239553 -0.0069084 16777215
 0.0108972 -0.1217915 -0.0073455 16777215
 0.0145413 -0.1234939 -0.0063934 16777215
 0.0151172 -0.1247065 -0.0061161 16777215
 0.0182323 -0.1267344 -0.0048764 16777215
 0.0184852 -0.1281738 0.0067811 16777215
 -0.0004711 -0.1075605 0.0744522 16777215
 -0.0225392 -0.1004684 0.1986852 16777215
 -0.0438385 -0.1602979 0.4587303 16777215
 -0.0275414 -0.1682616 0.5401364 16777215
 -0.0446762 -0.1692278 0.6265459 16777215
 -0.1979378 -0.1946493 0.9365027 16777215
 -0.1158478 -0.2776563 0.8996431 16777215
 -0.8368388 -0.3615941 1.6310894 16777215
 -0.5736695 -0.0989094 1.4036350 16777215
 -0.2712230 -0.1062470 1.3499764 16777215
 -0.2706029 -0.2594820 1.3291936 16777215
 -0.3496128 -0.1081193 1.4043441 16777215
 -0.2799222 -0.3891060 1.3764380 16777215
 -0.2584969 -0.3975793 1.3771259 16777215
 -0.3278796 -0.5024677 1.5774298 16777215
 -0.4160911 -0.1471859 1.7577918 16777215
 -0.2670273 -0.3098668 1.6249380 16777215
 -0.5863291 -0.9557285 1.6561134 16777215
 -0.5699490 -0.3084071 2.0857387 16777215
 -0.6661284 -0.5653595 2.0582292 16777215
 -0.5147674 -0.3509875 1.9633768 16777215
 -0.4832663 -0.4203276 2.0591030 16777215
 -0.1615028 -0.4235354 1.9699010 16777215
 -0.1195740 -0.4490876 2.3091810 16777215
 -0.1470980 -0.5958561 2.4018631 16777215
 -0.2255510 -0.4583759 2.4222879 16777215
 -0.3823374 -0.5720202 2.5266824 16777215
 -0.4230462 -0.2863660 2.5731866 16777215
 -0.5053386 -0.5201647 2.5848553 16777215
 -0.4180904 -0.8119622 2.6790764 16777215
 -0.3941525 -0.5469290 2.7030120 16777215
 -0.5440266 -0.3370256 2.8605721 16777215
 -0.3860760 -0.6939009 2.8072169 16777215
 -0.0554044 -0.2818155 2.7964628 16777215
 -0.2922229 -0.7320483 2.9106143 16777215
 -0.2645997 -0.5851969 2.8659480 16777215
 -0.1957364 -0.6111097 2.9309895 16777215
 -0.2826365 -0.5849594 2.9417787 16777215
 -0.1826252 -0.6846918 2.9260130 16777215
 -0.1749804 -0.7139401 2.9436655 16777215
 -0.0993729 -0.8529025 3.1242685 16777215
 -0.0684462 -1.1168187 3.3408806 16777215
 -0.2370869 -0.9734851 3.3905656 16777215
 -0.2388277 -0.8972478 3.5310459 16777215
 -0.3054946 -1.1819522 3.6029184 16777215
 -0.3067147 -0.8266905 3.8011918 16777215
 -0.3200785 -0.7781771 3.7691612 16777215
 -0.3468171 -1.0661383 3.9064860 16777215
 -0.2319480 -1.1033965 4.0592208 16777215
 -0.1759012 -1.0292730 4.0082288 16777215
 -0.4170510 -0.9180162 4.1041694 16777215
 -0.3939821 -0.8724188 4.1483579 16777215
 -0.3005330 -1.1850228 4.2085018 16777215
 -0.3263585 -1.0227244 4.2011786 16777215
 -0.2030016 -1.0703760 4.1177902 16777215
 -0.4171929 -1.1774999 4.2042265 16777215
 -0.4643271 -1.1014290 4.2781124 16777215
 -0.2841238 -1.1668464 4.2896705 16777215
 -0.9983362 -1.4084816 4.4133515 16777215
 -0.4362417 -1.0771048 4.2733002 16777215
 -0.6321089 -1.0291510 4.3100977 16777215
 -0.5596448 -1.0770142 4.3845334 16777215
 -0.7559083 -0.8307942 4.6501675 16777215
 -0.6500276 -1.2350106 4.1637306 16777215
 -0.6552289 -1.3385437 4.5761018 16777215
 -0.5280912 -0.7169123 4.6322260 16777215
 -0.5726722 -1.3469050 4.5720611 16777215
 -0.7440072 -1.2141399 4.6437397 16777215
 -0.7171873 -1.2459276 4.6746960 16777215
 -0.7257968 -1.2236724 4.6638699 16777215
 -0.7281790 -1.1725558 4.6921740 16777215
 -0.7086611 -1.1395099 4.7652855 16777215
 -0.6590379 -1.1964719 4.7624063 16777215
 -0.6031269 -1.2041956 4.7841272 16777215
 -0.5739282 -1.2343426 4.8315616 16777215
 -0.4938240 -1.3052859 4.8164902 16777215
 -0.4437220 -1.2998235 5.0183678 16777215
 -0.5535061 -1.4448910 5.2822084 16777215
 -0.3935529 -1.5228375 5.3715296 16777215
 -1.1420418 -0.9034634 5.8207111 16777215
 -0.2353495 -1.7015495 5.4646673 16777215
 -0.4367307 -1.6228297 5.5618787 16777215
 -0.3424168 -1.8695817 5.6895900 16777215
 -0.4335530 -1.4991124 5.8798337 16777215
 -0.3916776 -0.3960663 5.6338558 16777215
 -0.3492231 -1.2553890 5.7685814 16777215
 -0.4811289 -1.1469518 5.8227401 16777215
 -0.6671720 -0.7681211 5.7889872 16777215
 -0.6263204 -1.0019726 5.9235806 16777215
 -0.7400675 -1.3232343 6.0197759 16777215
 -0.7254418 -1.3466064 6.0330696 16777215
 -0.7165346 -1.3624849 6.0387974 16777215
 -0.6787822 -1.3639600 6.0842075 16777215
 -0.6800252 -1.4344734 6.1623249 16777215
 -0.5789123 -1.4401934 6.2402000 16777215
 -0.5573041 -1.5051599 6.2509809 16777215
 -0.4640722 -1.5482929 6.3107567 16777215
 -0.3954212 -1.6208506 6.4552994 16777215
 -0.4215112 -1.6307250 6.6750975 16777215
 -0.2775169 -1.6946040 6.6567388 16777215
 -0.2885110 -1.6803095 6.7964406 16777215
 -0.2751473 -1.7157316 6.7550206 16777215
 -0.4115209 -1.7735928 7.0722251 16777215
 -0.4973624 -1.7750424 7.2414165 16777215
 -0.5729669 -1.6578543 7.3071332 16777215
 -0.5810304 -1.7206385 7.3447766 16777215
 -0.9009880 -1.9548309 7.5600982 16777215
 -0.7959898 -1.4430929 7.5602016 16777215
 -0.7712265 -1.7139611 7.6604047 16777215
 -0.6247574 -1.7032545 7.5984612 16777215
 -0.6531301 -1.7871032 7.6874804 16777215
 -0.8066977 -1.4203329 7.8451691 16777215
 -0.4318528 -1.7342503 7.6619315 16777215
 -0.7599090 -1.5324388 8.0141916 16777215
 -0.7700494 -1.5502768 7.7471218 16777215
 -0.7845369 -1.6524705 7.9244137 16777215
 -0.7261439 -1.6765484 8.0948849 16777215
 -0.6628665 -1.7347341 8.1624699 16777215
 -0.6841479 -1.8349453 8.2947330 16777215
 -0.6125684 -1.9402311 8.2721138 16777215
 -0.5696784 -2.0082774 8.4200077 16777215
 -0.5081187 -1.9433880 8.4693680 16777215
 -0.4924775 -2.0293984 8.5826740 16777215
 -0.6068432 -2.0236011 8.6276627 16777215
 -0.7925652 -2.1006932 8.8096094 16777215
 -0.7467991 -2.1416826 8.9615402 16777215
 -0.5326380 -2.1759186 8.8875589 16777215
 -0.5202295 -2.2792985 8.9445915 16777215
 -0.7766340 -2.1367335 9.1521626 16777215
 -0.4135059 -2.4047985 9.0702000 16777215
 -0.7054924 -2.4033899 9.2604103 16777215
 -0.5938910 -2.4878695 9.3062019 16777215
 -0.7156096 -2.0590897 9.4852133 16777215
 -0.8433160 -2.1806920 9.6618557 16777215
 -0.7186427 -2.1708069 9.6435537 16777215
 -1.1527698 -1.6534090 9.9529915 16777215
 -1.0405501 -1.5554950 9.9225245 16777215
 -1.0401986 -1.5518987 9.9248075 16777215
 -1.0072184 -1.6046665 9.9309978 16777215
 -1.0025775 -1.6007507 9.9300985 16777215
 -0.9868143 -1.6337373 9.9533615 16777215
 -0.9782132 -1.6639173 9.9654350 16777215
 -0.9699670 -1.7015555 9.9809780 16777215
 -0.9897596 -1.7685761 10.0203705 16777215
 -0.9310029 -1.7955105 10.0303078 16777215
 -0.8673903 -1.8038080 10.0841713 16777215
 -0.9414861 -1.8260074 10.1237450 16777215
 -0.8776553 -1.8315005 10.1708136 16777215
 -1.0409892 -2.0354242 10.6327047 16777215
 -1.0403185 -2.0080593 10.6226873 16777215
 -1.1530442 -1.9548104 10.7335567 16777215
 -1.2465191 -1.9296761 10.8721170 16777215
 -1.0387400 -2.2681065 11.0118828 16777215
 -1.0442730 -2.2364321 11.0210838 16777215
 -1.1398872 -2.1430569 11.1606331 16777215
 -1.1575392 -2.0915172 11.2175789 16777215
 -1.1393000 -2.2637434 11.3097134 16777215
 -1.1373094 -2.2965271 11.3365889 16777215
 -1.1392518 -2.2760830 11.3525991 16777215
 -1.1936837 -2.1349115 11.3853426 16777215
 -1.2102902 -2.1335557 11.4066143 16777215
 -1.1739397 -2.0800605 11.4377975 16777215
 -1.2980466 -2.2339559 11.7183247 16777215
 -1.2599620 -2.2187235 11.7545376 16777215
 -1.2751446 -2.1727746 11.8060789 16777215
 -1.1860044 -2.3017116 11.7783985 16777215
 -1.1300201 -2.3066802 11.8141432 16777215
 -1.5395440 -2.1897049 11.9933357 16777215
 -1.4163599 -2.2257276 12.0574636 16777215
 -1.2104994 -2.1496592 12.0983067 16777215
 -1.1913571 -2.1827288 12.1187744 16777215
 -1.2078983 -2.1852441 12.1634359 16777215
 -1.2202873 -2.2264991 12.1664505 16777215
 -1.1820564 -2.1627550 12.2084637 16777215
 -1.1388116 -2.1392536 12.2158375 16777215
 -1.1592898 -2.1858711 12.2126770 16777215
 -1.1919875 -2.3255258 12.3210764 16777215
 -1.2578630 -2.2327428 12.3589897 16777215
 -1.3125417 -2.1604700 12.4332218 16777215
 -1.3796648 -1.9067338 12.3538418 16777215
 -1.4431038 -2.0129049 12.5435314 16777215
 -1.3690948 -2.0890298 12.5886765 16777215
 -1.3868685 -2.1419559 12.6858139 16777215
 -1.3458654 -2.1824567 12.6932964 16777215
 -1.3212736 -2.2365630 12.7326050 16777215
 -1.3250262 -2.2037969 12.7850285 16777215
 -1.2917593 -2.3097272 12.8288279 16777215
 -1.3400035 -2.1592772 12.8858519 16777215
 -1.4823415 -2.0156412 12.9546394 16777215
 -1.4892716 -2.1041534 13.0380716 16777215
 -1.4072139 -2.0566764 12.9657078 16777215
 -1.4033504 -2.1214738 13.1154442 16777215
 -1.3535476 -2.1478796 13.0955715 16777215
 -1.3912923 -2.1811244 13.1339140 16777215
 -1.4739182 -2.1536946 13.2910004 16777215
 -1.3664732 -2.1460428 13.2239666 16777215
 -1.3036162 -2.1697907 13.2294159 16777215
 -1.4345515 -2.0270019 13.3190451 16777215
 -1.5541136 -2.1612391 13.5021763 16777215
 -1.5050189 -2.2212603 13.4475670 16777215
 -1.4004188 -2.3341768 13.5433474 16777215
 -1.6146988 -2.0871017 13.5732794 16777215
 -1.5770290 -2.2430785 13.6653090 16777215
 -1.5389068 -2.2138729 13.6479864 16777215
 -1.5427551 -2.2459857 13.6703901 16777215
 -1.5480196 -2.2278399 13.6729584 16777215
 -1.5511684 -2.2488172 13.6863165 16777215
 -1.5812670 -2.2370071 13.7516823 16777215
 -1.5807704 -2.2038641 13.7949238 16777215
 -1.5972536 -2.1943693 13.8076248 16777215
 -1.6132426 -2.1879296 13.8235493 16777215
 -1.6268990 -2.1845253 13.8263712 16777215
 -1.6465461 -2.1846361 13.8325377 16777215
 -1.6664041 -2.1879327 13.8296452 16777215
 -1.6349934 -2.1854234 13.8330746 16777215
 -1.6206422 -2.1924694 13.8230095 16777215
 -1.5958471 -2.1978254 13.8058558 16777215
 -1.5961530 -2.2061458 13.7935705 16777215
 -1.5962131 -2.1984303 13.7996359 16777215
 -1.6014404 -2.1910043 13.8112717 16777215
 -1.6098661 -2.1855507 13.8193169 16777215
 -1.6107705 -2.1846905 13.8175068 16777215
 -1.6111042 -2.1823361 13.8119593 16777215
 -1.6097333 -2.1826184 13.8035402 16777215
 -1.6094649 -2.1854277 13.7834444 16777215
 -1.6090093 -2.1860962 13.7798061 16777215
 -1.6083264 -2.1873355 13.7739315 16777215
 -1.6089082 -2.1878338 13.7705021 16777215
