# .PCD v.7 - Point Cloud Data file format
VERSION .7
FIELDS x y z rgb
SIZE 4 4 4 4
TYPE F F F F
COUNT 1 1 1 1
WIDTH 74
HEIGHT 1
VIEWPOINT 0 0 0 1 0 0 0
POINTS 74
DATA ascii

 0.0488270 -0.0831865 -0.0151180 16777215
 0.0174589 -0.0029718 -0.0004170 16777215
-0.0127969 -1.0153086 0.2060872 16711746
-0.1696527 -1.0516027 -0.0021415 16711746
0.3281719 -0.7847807 0.0499805 16711746
-0.3721179 -1.0344865 0.6011320 16711746
-0.0331401 -1.2101805 0.2902125 16711746
0.4060761 -0.6488994 -0.1735404 16711746
2.2515364 -0.8537579 -1.5536613 16711746
1.2676748 -1.2262326 -0.4716000 16711746
1.1647724 -1.1924161 -0.4377729 16711746
1.0143795 -0.9527361 0.0064243 16711746
-0.2732616 -0.3092858 0.2673694 16711746
0.9082823 -1.0584316 -0.4240170 16711746
1.0516199 -1.1403741 -0.3311011 16711746
1.4797977 -1.2768310 -0.5410896 16711746
1.3187616 -1.1686778 -0.4918017 16711746
0.8445603 -0.8298692 -0.0319091 16711746
0.5079136 -0.7553881 -0.1855401 16711746
0.5676668 -0.8032070 -0.2213556 16711746
1.3543075 -1.2006811 -0.5054958 16711746
0.5207145 -0.7184805 -0.1805002 16711746
2.3653264 -1.2587910 -1.4054099 16711746
0.5013635 -0.6503273 -0.1687856 16711746
0.5487576 -0.7757534 -0.2138303 16711746
1.8564686 -1.3066528 -0.2300912 16711746
0.8869140 -1.0760635 -0.3955567 16711746
1.1179339 -1.0118619 -0.4373101 16711746
1.1477131 -1.2038101 -0.4970684 16711746
1.9728950 -1.2604909 -0.9922351 16711746
1.5351825 -1.1475924 -0.6152070 16711746
1.9159255 -1.4111235 -0.8036832 16711746
1.7282678 -1.2691748 -0.4924804 16711746
1.3623418 -1.2746178 -0.5929291 16711746
0.6286703 -0.8705005 -0.2256544 16711746
0.5028257 -0.7517883 -0.1673680 16711746
1.4246713 -1.2816360 -0.5674072 16711746
1.2977338 -1.2105576 -0.4231974 16711746
1.5983127 -1.2661829 -0.8255131 16711746
1.1839554 -1.1253499 -0.5697195 16711746
1.1090342 -1.1377884 -0.2930738 16711746
1.6725106 -1.2018533 -0.4441029 16711746
0.3565461 -0.5854552 -0.0982314 16711746
1.6972805 -1.3389974 -0.7610383 16711746
1.5042365 -1.3136055 -0.6731488 16711746
1.3936083 -1.0449282 -0.6072399 16711746
1.5326476 -1.1228870 -0.5831701 16711746
0.5158880 -0.7578540 -0.1419439 16711746
1.9246343 -1.3353748 -0.9172910 16711746
0.6839858 -0.9270995 -0.3377550 16711746
0.7192878 -0.8818017 -0.2450985 16711746
0.7402561 -0.9374276 -0.2498523 16711746
1.4274291 -1.1725557 -0.4082046 16711746
1.4875762 -1.1841441 -0.4431961 16711746
1.4572110 -1.2582309 -0.5563270 16711746
0.2995047 -0.5167628 -0.1105445 16711746
0.2230818 -0.4093909 -0.0829067 16711746
0.4077244 -0.6325516 -0.0949421 16711746
0.4848835 -0.7124730 -0.1320753 16711746
0.3290169 -0.5433455 -0.0905307 16711746
0.6677745 -0.8844784 -0.2509680 16711746
0.4732110 -0.7080083 -0.1568595 16711746
0.1700779 -0.3236741 -0.0616953 16711746
1.2026088 -1.1348209 -0.3942731 16711746
1.2339405 -1.1116709 -0.4955885 16711746
1.7963246 -1.2328086 -0.6957718 16711746
1.8002527 -1.2547297 -0.7850410 16711746
1.4961200 -1.1573908 -0.4660348 16711746
1.5552881 -1.1571358 -0.5929609 16711746
0.0667320 -0.4311646 0.0988635 16711746
0.9772369 -1.0527066 -0.4235611 16711746
0.9604447 -1.0146109 -0.3466773 16711746
0.4891770 -0.7018393 -0.1461720 16711746
1.3952701 -1.0968517 -0.1521008 16711746
