# .PCD v.7 - Point Cloud Data file format
VERSION .7
FIELDS x y z rgb
SIZE 4 4 4 4
TYPE F F F F
COUNT 1 1 1 1
WIDTH 362
HEIGHT 1
VIEWPOINT 0 0 0 1 0 0 0
POINTS 362
DATA ascii

 0.0000000 0.0000000 0.0000000 16777215
 -0.0272353 0.0020325 -0.0043279 16777215
 -0.0276050 0.0020477 -0.0045597 16777215
 -0.0280668 0.0023265 -0.0049885 16777215
 -0.0282079 0.0029375 -0.0051513 16777215
 -0.0280738 0.0024989 -0.0050943 16777215
 -0.0283166 0.0026178 -0.0053393 16777215
 -0.0285607 0.0023091 -0.0053783 16777215
 -0.0284811 0.0024996 -0.0056165 16777215
 -0.0277088 0.0023372 -0.0054016 16777215
 -0.0280673 0.0023596 -0.0062607 16777215
 -0.0283700 0.0022372 -0.0070208 16777215
 -0.0283936 0.0022091 -0.0070531 16777215
 -0.0284058 0.0022833 -0.0071193 16777215
 -0.0284735 0.0023206 -0.0073630 16777215
 -0.0250327 0.0020880 -0.0091472 16777215
 -0.0226540 0.0027131 -0.0101889 16777215
 -0.0209230 0.0024040 -0.0115376 16777215
 -0.0149766 0.0034914 -0.0129472 16777215
 -0.0125800 0.0036852 -0.0153721 16777215
 -0.0102685 0.0026702 -0.0162372 16777215
 -0.0106886 0.0032370 -0.0192540 16777215
 -0.0108623 0.0032412 -0.0187791 16777215
 -0.0108140 0.0032666 -0.0187287 16777215
 -0.0114591 0.0033743 -0.0166565 16777215
 -0.0211891 0.0023944 -0.0124623 16777215
 -0.0247974 0.0039594 -0.0083038 16777215
 -0.0252926 0.0044513 -0.0055545 16777215
 -0.0220922 0.0034448 0.0031485 16777215
 -0.0194082 0.0036917 0.0112410 16777215
 -0.0115152 0.0041964 0.0201567 16777215
 0.0012421 0.0020751 0.0314750 16777215
 0.0080203 0.0014409 0.0473098 16777215
 0.0109489 0.0013879 0.0626893 16777215
 0.0131905 0.0023071 0.0788817 16777215
 0.0162494 0.0012977 0.0935766 16777215
 0.0191364 0.0000552 0.1077906 16777215
 0.0220255 0.0002270 0.1187148 16777215
 0.0260689 -0.0000474 0.1305760 16777215
 0.0288746 -0.0018610 0.1377246 16777215
 0.0294793 -0.0020884 0.1406037 16777215
 0.0286152 -0.0025844 0.1535615 16777215
 0.0301623 -0.0029693 0.1695462 16777215
 0.0265900 -0.0037406 0.1856758 16777215
 0.0301720 -0.0033530 0.1995527 16777215
 0.0370939 -0.0032705 0.2133192 16777215
 0.0437878 -0.0041273 0.2184909 16777215
 0.0488016 -0.0071049 0.2274876 16777215
 0.0531964 -0.0089030 0.2376214 16777215
 0.0571694 -0.0066709 0.2540599 16777215
 0.0542480 -0.0074890 0.2660098 16777215
 0.0566277 -0.0088911 0.2754542 16777215
 0.0637850 -0.0086708 0.2879850 16777215
 0.0700234 -0.0100544 0.2977296 16777215
 0.0757926 -0.0130442 0.3044568 16777215
 0.0844087 -0.0179151 0.3106379 16777215
 0.0865573 -0.0207935 0.3187607 16777215
 0.0841676 -0.0179887 0.3276049 16777215
 0.0827039 -0.0211711 0.3393391 16777215
 0.0852217 -0.0198094 0.3490832 16777215
 0.0870102 -0.0168921 0.3607098 16777215
 0.1022678 -0.0169644 0.3742990 16777215
 0.1050086 -0.0145770 0.3813997 16777215
 0.1091844 -0.0159743 0.3901283 16777215
 0.1081617 -0.0162999 0.4052269 16777215
 0.1095846 -0.0160943 0.4146029 16777215
 0.1112966 -0.0155313 0.4296652 16777215
 0.1158195 -0.0153173 0.4406003 16777215
 0.1222948 -0.0164141 0.4505583 16777215
 0.1272236 -0.0147975 0.4587080 16777215
 0.1310441 -0.0159086 0.4698962 16777215
 0.1332327 -0.0160037 0.4813145 16777215
 0.1348461 -0.0174389 0.4964912 16777215
 0.1318840 -0.0188346 0.5085517 16777215
 0.1373315 -0.0186015 0.5208359 16777215
 0.1433044 -0.0188028 0.5317200 16777215
 0.1517174 -0.0201085 0.5423709 16777215
 0.1549101 -0.0185827 0.5499564 16777215
 0.1584355 -0.0188877 0.5597519 16777215
 0.1590618 -0.0193537 0.5718471 16777215
 0.1560720 -0.0176834 0.5842875 16777215
 0.1551979 -0.0190430 0.5978782 16777215
 0.1573032 -0.0221137 0.6063975 16777215
 0.1614517 -0.0212681 0.6176378 16777215
 0.1689861 -0.0198708 0.6281074 16777215
 0.1741918 -0.0218128 0.6401051 16777215
 0.1755326 -0.0221220 0.6498355 16777215
 0.1789504 -0.0218724 0.6644940 16777215
 0.1814748 -0.0217255 0.6771760 16777215
 0.1804656 -0.0204941 0.6878757 16777215
 0.1824330 -0.0209060 0.6969787 16777215
 0.1866820 -0.0216490 0.7093700 16777215
 0.1909092 -0.0200849 0.7186952 16777215
 0.1965681 -0.0205762 0.7313521 16777215
 0.2006422 -0.0207571 0.7443259 16777215
 0.2004979 -0.0209153 0.7522667 16777215
 0.2038328 -0.0230571 0.7636553 16777215
 0.2073472 -0.0240156 0.7700874 16777215
 0.2110401 -0.0243690 0.7776574 16777215
 0.2169121 -0.0246064 0.7845901 16777215
 0.2192072 -0.0245437 0.7895836 16777215
 0.2221510 -0.0263866 0.8004740 16777215
 0.2230123 -0.0277490 0.8091696 16777215
 0.2235679 -0.0273796 0.8157217 16777215
 0.2246793 -0.0274713 0.8214853 16777215
 0.2314023 -0.0274993 0.8305939 16777215
 0.2365760 -0.0282340 0.8335292 16777215
 0.2408785 -0.0291019 0.8358167 16777215
 0.2435877 -0.0296366 0.8409685 16777215
 0.2433847 -0.0302330 0.8448942 16777215
 0.2445922 -0.0306321 0.8469518 16777215
 0.2454111 -0.0307533 0.8501980 16777215
 0.2479173 -0.0313582 0.8543394 16777215
 0.2499215 -0.0315664 0.8568760 16777215
 0.2539479 -0.0317212 0.8605805 16777215
 0.2552465 -0.0317263 0.8639925 16777215
 0.2553213 -0.0323115 0.8685998 16777215
 0.2553433 -0.0328697 0.8715061 16777215
 0.2556252 -0.0326014 0.8739220 16777215
 0.2566456 -0.0331393 0.8766441 16777215
 0.2579863 -0.0336332 0.8795094 16777215
 0.2603711 -0.0335225 0.8822747 16777215
 0.2614112 -0.0336804 0.8835346 16777215
 0.2622359 -0.0342988 0.8860469 16777215
 0.2625455 -0.0341773 0.8887605 16777215
 0.2629272 -0.0348560 0.8907894 16777215
 0.2636488 -0.0351783 0.8916960 16777215
 0.2637594 -0.0353358 0.8930949 16777215
 0.2650201 -0.0356936 0.8942578 16777215
 0.2657080 -0.0357187 0.8955107 16777215
 0.2663872 -0.0356368 0.8966669 16777215
 0.2671511 -0.0361432 0.8984560 16777215
 0.2672600 -0.0359927 0.8997226 16777215
 0.2671305 -0.0361717 0.9008089 16777215
 0.2676144 -0.0363590 0.9021292 16777215
 0.2690741 -0.0364171 0.9037675 16777215
 0.2702778 -0.0363997 0.9049041 16777215
 0.2710657 -0.0367698 0.9066051 16777215
 0.2715484 -0.0368445 0.9081734 16777215
 0.2718509 -0.0367683 0.9094476 16777215
 0.2722547 -0.0370870 0.9107462 16777215
 0.2729617 -0.0370436 0.9115894 16777215
 0.2740674 -0.0373414 0.9124966 16777215
 0.2745045 -0.0373971 0.9132957 16777215
 0.2747555 -0.0375079 0.9145347 16777215
 0.2749314 -0.0377434 0.9155701 16777215
 0.2748498 -0.0376129 0.9165576 16777215
 0.2749854 -0.0378382 0.9179012 16777215
 0.2753677 -0.0378914 0.9187654 16777215
 0.2756664 -0.0380772 0.9194222 16777215
 0.2762924 -0.0381272 0.9203677 16777215
 0.2764921 -0.0382680 0.9211656 16777215
 0.2766205 -0.0383148 0.9221581 16777215
 0.2766965 -0.0384815 0.9233477 16777215
 0.2769018 -0.0385634 0.9239665 16777215
 0.2770984 -0.0386068 0.9245528 16777215
 0.2779781 -0.0387455 0.9252408 16777215
 0.2787902 -0.0388345 0.9259543 16777215
 0.2789298 -0.0389259 0.9265595 16777215
 0.2791833 -0.0390275 0.9276807 16777215
 0.2792470 -0.0392309 0.9283540 16777215
 0.2793976 -0.0392753 0.9288307 16777215
 0.2795091 -0.0393310 0.9294904 16777215
 0.2801026 -0.0393730 0.9300430 16777215
 0.2808678 -0.0394922 0.9308380 16777215
 0.2812702 -0.0395949 0.9312457 16777215
 0.2815580 -0.0395243 0.9318913 16777215
 0.2818383 -0.0396225 0.9328393 16777215
 0.2820577 -0.0396407 0.9335670 16777215
 0.2822013 -0.0396467 0.9340593 16777215
 0.2825370 -0.0397159 0.9348930 16777215
 0.2830476 -0.0397672 0.9354192 16777215
 0.2833416 -0.0398725 0.9360697 16777215
 0.2836164 -0.0399317 0.9367959 16777215
 0.2835501 -0.0400764 0.9376445 16777215
 0.2837166 -0.0400387 0.9383542 16777215
 0.2840315 -0.0402085 0.9391950 16777215
 0.2845843 -0.0401791 0.9397775 16777215
 0.2849645 -0.0401593 0.9402820 16777215
 0.2851507 -0.0402291 0.9408296 16777215
 0.2852730 -0.0402552 0.9414517 16777215
 0.2853029 -0.0403525 0.9420453 16777215
 0.2855469 -0.0403887 0.9426029 16777215
 0.2858994 -0.0403980 0.9432133 16777215
 0.2862577 -0.0405076 0.9437331 16777215
 0.2862585 -0.0406911 0.9444243 16777215
 0.2861246 -0.0408383 0.9451740 16777215
 0.2862918 -0.0409470 0.9456769 16777215
 0.2867279 -0.0409787 0.9461954 16777215
 0.2872668 -0.0410413 0.9467732 16777215
 0.2874864 -0.0411735 0.9473001 16777215
 0.2875733 -0.0411993 0.9478871 16777215
 0.2876022 -0.0412888 0.9484955 16777215
 0.2879740 -0.0413674 0.9490068 16777215
 0.2883780 -0.0413337 0.9494101 16777215
 0.2887411 -0.0414292 0.9498888 16777215
 0.2888841 -0.0415681 0.9504337 16777215
 0.2889035 -0.0415554 0.9509649 16777215
 0.2890471 -0.0415898 0.9514401 16777215
 0.2893191 -0.0416916 0.9518152 16777215
 0.2898533 -0.0417007 0.9522995 16777215
 0.2900167 -0.0417629 0.9526632 16777215
 0.2901767 -0.0417786 0.9531254 16777215
 0.2902027 -0.0417556 0.9537088 16777215
 0.2903981 -0.0418477 0.9542337 16777215
 0.2907689 -0.0418876 0.9546461 16777215
 0.2910025 -0.0419873 0.9548947 16777215
 0.2910795 -0.0419846 0.9550965 16777215
 0.2912883 -0.0420581 0.9555641 16777215
 0.2913304 -0.0421022 0.9560327 16777215
 0.2915051 -0.0422022 0.9563270 16777215
 0.2917481 -0.0421524 0.9565994 16777215
 0.2921330 -0.0422514 0.9569442 16777215
 0.2924129 -0.0423029 0.9572907 16777215
 0.2924719 -0.0423449 0.9577158 16777215
 0.2924946 -0.0423628 0.9580756 16777215
 0.2925875 -0.0423915 0.9582993 16777215
 0.2928779 -0.0424007 0.9585102 16777215
 0.2931114 -0.0424465 0.9588040 16777215
 0.2931745 -0.0424705 0.9590694 16777215
 0.2932002 -0.0424830 0.9593421 16777215
 0.2933639 -0.0425538 0.9596476 16777215
 0.2934511 -0.0425705 0.9598925 16777215
 0.2935788 -0.0425683 0.9600502 16777215
 0.2937123 -0.0425634 0.9602858 16777215
 0.2938436 -0.0425941 0.9606099 16777215
 0.2939202 -0.0426273 0.9608529 16777215
 0.2940105 -0.0426722 0.9610445 16777215
 0.2941839 -0.0427049 0.9613613 16777215
 0.2943935 -0.0427020 0.9616321 16777215
 0.2945615 -0.0427529 0.9618398 16777215
 0.2946281 -0.0427703 0.9620667 16777215
 0.2947303 -0.0427505 0.9624453 16777215
 0.2948616 -0.0427721 0.9627131 16777215
 0.2950764 -0.0427990 0.9629376 16777215
 0.2952682 -0.0428159 0.9631017 16777215
 0.2954088 -0.0428368 0.9633763 16777215
 0.2955187 -0.0428247 0.9636046 16777215
 0.2955564 -0.0429109 0.9638974 16777215
 0.2957157 -0.0429258 0.9641429 16777215
 0.2958477 -0.0430142 0.9644046 16777215
 0.2958893 -0.0430916 0.9646373 16777215
 0.2958907 -0.0430913 0.9649818 16777215
 0.2960253 -0.0431679 0.9652908 16777215
 0.2961358 -0.0432082 0.9654720 16777215
 0.2963472 -0.0432111 0.9657223 16777215
 0.2964034 -0.0432429 0.9658784 16777215
 0.2964481 -0.0432375 0.9660560 16777215
 0.2964981 -0.0433054 0.9663740 16777215
 0.2966265 -0.0433268 0.9665868 16777215
 0.2967743 -0.0433277 0.9667857 16777215
 0.2969187 -0.0433711 0.9669681 16777215
 0.2969401 -0.0434032 0.9671625 16777215
 0.2969196 -0.0434632 0.9673925 16777215
 0.2969570 -0.0435010 0.9675198 16777215
 0.2970670 -0.0434901 0.9676670 16777215
 0.2972439 -0.0435273 0.9678063 16777215
 0.2973376 -0.0435761 0.9679068 16777215
 0.2974339 -0.0436028 0.9680668 16777215
 0.2974403 -0.0435873 0.9682714 16777215
 0.2974689 -0.0435840 0.9683948 16777215
 0.2975816 -0.0436346 0.9684865 16777215
 0.2977192 -0.0436327 0.9686002 16777215
 0.2979189 -0.0436094 0.9687104 16777215
 0.2980448 -0.0436543 0.9688453 16777215
 0.2981479 -0.0436783 0.9690802 16777215
 0.2981726 -0.0437273 0.9692476 16777215
 0.2982095 -0.0437364 0.9694023 16777215
 0.2982965 -0.0437570 0.9695867 16777215
 0.2984046 -0.0437987 0.9697294 16777215
 0.2984604 -0.0438342 0.9699036 16777215
 0.2984662 -0.0438836 0.9701334 16777215
 0.2984625 -0.0439205 0.9704001 16777215
 0.2984556 -0.0439447 0.9705419 16777215
 0.2985102 -0.0439586 0.9706876 16777215
 0.2986443 -0.0439619 0.9708624 16777215
 0.2987391 -0.0440270 0.9710192 16777215
 0.2988022 -0.0440491 0.9712352 16777215
 0.2988294 -0.0441014 0.9714076 16777215
 0.2989642 -0.0441372 0.9715877 16777215
 0.2990820 -0.0441500 0.9717118 16777215
 0.2992057 -0.0441664 0.9718308 16777215
 0.2993164 -0.0441934 0.9719763 16777215
 0.2993623 -0.0442239 0.9722080 16777215
 0.2993705 -0.0442599 0.9723585 16777215
 0.2994244 -0.0442995 0.9725010 16777215
 0.2995206 -0.0443091 0.9726573 16777215
 0.2995896 -0.0443269 0.9727162 16777215
 0.2996691 -0.0443536 0.9728753 16777215
 0.2997005 -0.0443759 0.9730210 16777215
 0.2997371 -0.0444054 0.9731835 16777215
 0.2998204 -0.0444202 0.9733061 16777215
 0.2999009 -0.0444254 0.9734216 16777215
 0.2999997 -0.0444671 0.9735767 16777215
 0.2999885 -0.0445072 0.9737110 16777215
 0.3000011 -0.0445244 0.9738425 16777215
 0.3000943 -0.0445487 0.9739528 16777215
 0.3002084 -0.0445581 0.9740415 16777215
 0.3002563 -0.0445734 0.9741321 16777215
 0.3002743 -0.0445798 0.9742718 16777215
 0.3002850 -0.0445833 0.9744354 16777215
 0.3003398 -0.0446072 0.9745443 16777215
 0.3004381 -0.0446077 0.9746521 16777215
 0.3004769 -0.0446207 0.9747384 16777215
 0.3005134 -0.0446311 0.9748155 16777215
 0.3005681 -0.0446425 0.9749751 16777215
 0.3005782 -0.0446692 0.9751008 16777215
 0.3006198 -0.0446994 0.9751970 16777215
 0.3007290 -0.0446832 0.9752794 16777215
 0.3007955 -0.0446869 0.9753644 16777215
 0.3008483 -0.0447026 0.9754496 16777215
 0.3008554 -0.0447192 0.9755366 16777215
 0.3008759 -0.0447313 0.9756303 16777215
 0.3009270 -0.0447432 0.9757029 16777215
 0.3010286 -0.0447638 0.9757498 16777215
 0.3010783 -0.0447842 0.9758414 16777215
 0.3010870 -0.0447897 0.9759157 16777215
 0.3011030 -0.0447930 0.9760403 16777215
 0.3011751 -0.0448063 0.9761389 16777215
 0.3012336 -0.0448418 0.9762247 16777215
 0.3012739 -0.0448568 0.9763056 16777215
 0.3012819 -0.0448654 0.9763945 16777215
 0.3012923 -0.0448680 0.9764581 16777215
 0.3013370 -0.0448840 0.9765220 16777215
 0.3013865 -0.0449057 0.9765857 16777215
 0.3014361 -0.0449193 0.9766605 16777215
 0.3014743 -0.0449329 0.9767449 16777215
 0.3014997 -0.0449519 0.9768292 16777215
 0.3015002 -0.0449669 0.9768918 16777215
 0.3015704 -0.0449650 0.9769531 16777215
 0.3016403 -0.0449794 0.9770326 16777215
 0.3016584 -0.0449926 0.9771043 16777215
 0.3016619 -0.0449935 0.9771795 16777215
 0.3016537 -0.0450031 0.9772482 16777215
 0.3016838 -0.0450070 0.9773183 16777215
 0.3017658 -0.0450051 0.9774006 16777215
 0.3018078 -0.0450188 0.9774820 16777215
 0.3018033 -0.0450222 0.9775363 16777215
 0.3018217 -0.0450418 0.9775988 16777215
 0.3018433 -0.0450321 0.9776400 16777215
 0.3018993 -0.0450392 0.9777170 16777215
 0.3019690 -0.0450448 0.9778045 16777215
 0.3019909 -0.0450701 0.9778636 16777215
 0.3020079 -0.0450705 0.9779333 16777215
 0.3020184 -0.0450768 0.9779991 16777215
 0.3020767 -0.0450781 0.9780552 16777215
 0.3021172 -0.0451047 0.9780900 16777215
 0.3021461 -0.0451129 0.9781703 16777215
 0.3021568 -0.0451249 0.9782341 16777215
 0.3021995 -0.0451329 0.9783071 16777215
 0.3022628 -0.0451372 0.9783528 16777215
 0.3022947 -0.0451571 0.9784107 16777215
 0.3023106 -0.0451670 0.9784836 16777215
 0.3023135 -0.0451775 0.9785460 16777215
 0.3023340 -0.0451784 0.9786009 16777215
 0.3023933 -0.0451975 0.9786331 16777215
 0.3024352 -0.0451941 0.9786570 16777215
 0.3024465 -0.0452067 0.9786946 16777215
 0.3024477 -0.0452123 0.9787417 16777215
 0.3024701 -0.0452156 0.9787678 16777215
 0.3024828 -0.0452215 0.9787819 16777215
 0.3024887 -0.0452124 0.9787884 16777215
