# .PCD v.7 - Point Cloud Data file format
VERSION .7
FIELDS x y z rgb
SIZE 4 4 4 4
TYPE F F F F
COUNT 1 1 1 1
WIDTH 1195
HEIGHT 1
VIEWPOINT 0 0 0 1 0 0 0
POINTS 1195
DATA ascii
1.8669238 -0.7104079 3.9503322 16711746
1.4201992 -0.7025898 3.8928573 16711746
1.7711475 -0.6782518 3.8496835 16711746
2.0188279 -0.6055149 3.7246907 16711746
2.3937852 -0.8833557 3.8095832 16711746
1.7179813 -0.7442335 4.0696526 16711746
1.7723398 -0.7784736 4.1114731 16711746
0.4526227 -1.1946490 4.9239025 16711746
2.2630227 -0.6833663 3.8824193 16711746
2.1182013 -0.7209779 4.0905485 16711746
1.6734360 -0.7463191 4.0565639 16711746
2.4586308 -0.7840106 4.2315164 16711746
1.7074381 -0.6639878 3.8371763 16711746
1.7492799 -0.6594163 3.7708671 16711746
1.4082568 -0.6848738 3.8002014 16711746
1.7746360 -0.7176398 3.9559646 16711746
1.8397847 -0.6393842 3.8032665 16711746
1.7448875 -2.8371642 7.5991349 16711746
1.9250175 -2.8032537 8.1503277 16711746
2.3181727 -1.6367311 5.1349688 16711746
2.1146281 -0.7200883 4.0800495 16711746
1.8221502 -0.7737153 4.1776643 16711746
1.9279194 -0.7448959 4.1379647 16711746
2.0479231 -0.6800240 3.9564290 16711746
1.7576261 -0.7342875 4.0298133 16711746
2.3767369 -0.8217889 4.3948774 16711746
1.8372806 -0.6487085 3.8352566 16711746
2.1152937 -0.7189246 4.0855684 16711746
1.6364872 -0.8396927 3.6088111 16711746
1.8643769 -0.6462507 3.8385623 16711746
2.4238093 -1.2073591 4.1663432 16711746
2.6750219 -0.9170927 4.7751389 16711746
2.0380216 -0.8169624 4.4427199 16711746
1.6134351 -0.8451525 3.5913346 16711746
2.9750280 -1.8460388 5.4384165 16711746
2.7147830 -1.8850847 5.1483660 16711746
1.8133407 -0.6370246 3.7878299 16711746
1.7669554 -0.6956145 3.9096222 16711746
1.7818044 -0.6941779 3.9299548 16711746
1.6371597 -0.6809474 3.9122121 16711746
2.0796399 -0.6606287 3.8541913 16711746
1.4914576 -0.6772176 3.7689788 16711746
2.2281489 -0.7601655 4.0354400 16711746
1.7167763 -0.7470648 4.0151119 16711746
1.4125558 -0.6804125 3.8175621 16711746
1.6762142 -0.6643154 3.7906992 16711746
1.6460762 -0.6465286 3.7415762 16711746
1.6466398 -0.7481695 4.0690231 16711746
1.2431302 -0.7822452 4.1151290 16711746
1.7311958 -0.6653962 3.7986164 16711746
1.8384076 -0.6439278 3.8062172 16711746
1.6780053 -0.6747859 3.8152063 16711746
1.6443346 -0.6802948 3.8118804 16711746
1.6687412 -0.6820843 3.8548269 16711746
1.6467410 -0.6473913 3.7393794 16711746
1.4029778 -0.6792328 3.8152344 16711746
1.3692088 -0.7130631 3.9734783 16711746
1.1450102 -0.7404439 4.0241008 16711746
2.0453975 -0.5973215 3.6456819 16711746
1.2342488 -0.6928656 4.0042844 16711746
2.2275634 -0.6739960 3.8065474 16711746
2.0622990 -0.6931856 4.0400629 16711746
1.4609863 -0.6618491 3.7788568 16711746
1.7214137 -0.6783125 3.8844020 16711746
1.7272534 -0.6815370 3.8689728 16711746
1.5934891 -0.6553914 3.7255673 16711746
1.7532148 -0.6406480 3.7382374 16711746
2.3291650 -0.6794983 4.0029082 16711746
1.7938001 -0.6854711 3.8692074 16711746
1.2762467 -0.7008238 3.9500046 16711746
2.4746251 -0.7764543 4.2640128 16711746
2.5649533 -1.2801604 4.3117332 16711746
1.7035615 -0.6782987 3.8639505 16711746
2.0382457 -0.6597585 3.8301528 16711746
1.9406109 -0.6476061 3.8294437 16711746
1.8345504 -0.7028150 3.9491994 16711746
1.6848638 -0.6646874 3.7798073 16711746
1.6376172 -0.6824102 3.8436701 16711746
1.2676338 -0.6974850 3.9659438 16711746
1.5173491 -0.8077013 4.3009343 16711746
1.7600965 -0.7355717 4.0176082 16711746
1.4657767 -0.6624395 3.7726572 16711746
1.6111079 -0.7203093 3.9594476 16711746
1.9412999 -0.6474913 3.8309171 16711746
1.6961491 -0.6736238 3.8400910 16711746
1.7008153 -0.6847250 3.8725345 16711746
1.6664473 -0.6788156 3.8699884 16711746
2.0444305 -0.5908126 3.7141697 16711746
1.5153421 -0.8101435 4.3149505 16711746
1.9521313 -0.6274600 3.7622068 16711746
1.7443680 -0.7122002 3.9441607 16711746
1.5831972 -0.7475633 4.0420742 16711746
1.6408404 -0.6779299 3.8236725 16711746
1.7684143 -0.6460396 3.7802339 16711746
1.8951718 -0.7943798 4.2462196 16711746
1.2301136 -0.7179109 3.9092503 16711746
1.6207039 -0.7186741 3.9578085 16711746
1.9217294 -0.6309117 3.7812350 16711746
1.7712384 -0.6775207 3.8528068 16711746
3.5280061 -1.5267293 4.4765191 16711746
1.8432399 -0.7101470 3.9481773 16711746
1.7481639 -0.7411702 3.9687803 16711746
1.9399717 -0.8493195 4.4080830 16711746
2.2844739 -0.7886660 4.3093195 16711746
1.8662934 -0.8876959 4.1670771 16711746
2.2126625 -0.6909484 3.9703825 16711746
1.6359442 -0.7902939 3.6270580 16711746
1.5579998 -0.9741281 4.7166791 16711746
3.0923610 -0.9200668 4.3987021 16711746
-1.3142034 -2.5487087 6.3821211 16711746
1.6719997 -0.7457615 4.0548854 16711746
1.7970864 -0.7310008 4.0025482 16711746
1.6193424 -0.7475082 4.0644236 16711746
1.7129198 -0.6549038 3.7661529 16711746
1.9896995 -0.7111468 4.0640798 16711746
1.7799416 -0.6954573 3.9147127 16711746
1.6930574 -0.6470238 3.7547276 16711746
1.7897519 -0.6604570 3.8133371 16711746
1.8356546 -0.8122452 4.2201691 16711746
1.9528359 -0.6838046 3.9550483 16711746
1.6406333 -0.6665803 3.7793536 16711746
2.0026789 -0.6314873 3.7697623 16711746
1.6381594 -0.6746236 3.8362787 16711746
2.3959670 -0.7504892 4.2431946 16711746
1.2737869 -0.7419100 3.9891710 16711746
1.9521670 -0.6455986 3.8503563 16711746
1.7545161 -0.6672206 3.8212552 16711746
1.7501707 -0.7389969 3.9971859 16711746
1.9855080 -0.6205925 3.7422879 16711746
1.6638792 -0.6735343 3.8312404 16711746
1.6243951 -0.6626537 3.7623966 16711746
1.7020994 -0.6788020 3.8639116 16711746
1.7523108 -0.6614779 3.8045044 16711746
1.5830023 -0.7465355 4.0400414 16711746
1.7015901 -0.7336593 4.0294981 16711746
1.6364352 -0.6944587 3.8920538 16711746
1.7369938 -0.6781277 3.8454602 16711746
1.9533688 -0.6834781 3.9549890 16711746
1.8424613 -0.6430098 3.8235917 16711746
1.6115425 -0.7304479 3.9962013 16711746
1.7529588 -0.6806834 3.8695810 16711746
1.5436121 -0.7324795 3.9883800 16711746
1.6204766 -0.6839525 3.8253405 16711746
1.8561143 -0.7182885 4.0185070 16711746
1.8645729 -0.6815133 3.9017899 16711746
1.6971238 -0.6747747 3.8362586 16711746
1.8562928 -0.6670039 3.8573823 16711746
1.8049325 -0.6425377 3.8113565 16711746
1.7799411 -0.6904737 3.8693027 16711746
1.8168747 -0.7853190 4.1624603 16711746
1.9843647 -0.6214678 3.7417073 16711746
2.0921540 -0.6536141 3.8087740 16711746
1.8350841 -0.7368737 4.0692220 16711746
1.6764059 -0.8926543 4.2216973 16711746
1.8876011 -0.8133408 4.3445401 16711746
1.7433650 -0.7141157 3.9327173 16711746
1.7825207 -0.6897293 3.7941020 16711746
1.8387749 -0.8911630 4.2096400 16711746
1.7396833 -0.6733174 3.8848431 16711746
1.6447580 -0.7751075 3.6168642 16711746
2.0196657 -0.6557436 3.8566976 16711746
2.0024974 -0.9088428 4.6329999 16711746
3.1979136 -1.9349673 5.4804912 16711746
1.9688349 -0.8138250 4.3485460 16711746
3.6761394 -2.3859963 6.3722801 16711746
3.0734010 -0.7370861 4.2079649 16711746
2.9880726 -1.9951390 5.8501930 16711746
1.5319233 -0.7373154 4.0219378 16711746
2.2178743 -0.6874000 3.9763706 16711746
1.5365145 -0.7389050 4.0138874 16711746
1.7378436 -0.6735828 3.8603175 16711746
1.7910110 -0.7308190 3.9906242 16711746
1.9507146 -0.7182938 4.0832210 16711746
1.9030674 -0.7164807 4.0548944 16711746
1.6947324 -0.6920059 3.9011681 16711746
1.6048179 -0.6752201 3.8538659 16711746
1.8017186 -0.7881066 4.0346732 16711746
2.0104320 -0.6601164 3.8450847 16711746
1.8628342 -0.8911200 4.1601110 16711746
1.8337020 -0.7687486 4.3146939 16711746
1.6687793 -0.7045655 3.9245632 16711746
2.1306913 -0.7202598 3.9920864 16711746
1.8500143 -0.7061270 3.9680529 16711746
1.5910612 -0.7382205 4.0201969 16711746
1.6272461 -0.6696647 3.7905831 16711746
1.7814178 -0.6683978 3.8625443 16711746
2.0835643 -0.6662111 3.8621628 16711746
1.9046694 -0.6486461 3.8389385 16711746
1.9249411 -0.6593010 3.8855715 16711746
1.6335257 -0.7246142 3.9803712 16711746
1.7011303 -0.7245787 3.9938874 16711746
1.9895818 -0.7112144 4.0628567 16711746
1.8004864 -0.6846282 3.8728614 16711746
1.9158652 -0.8042588 4.2833047 16711746
2.0761764 -0.7036186 4.0135231 16711746
0.6690904 -1.4162432 4.2425780 16711746
2.7583122 -2.3599005 6.0598068 16711746
3.1883767 -1.9137071 5.4409628 16711746
1.9136124 -1.2306571 5.6295347 16711746
1.9150532 -1.2339711 5.6627898 16711746
1.6149532 -0.7620381 3.6218433 16711746
2.1902192 -2.1125431 5.9384441 16711746
2.5889626 -2.0802424 6.0193753 16711746
2.9090550 -1.0551046 4.0687838 16711746
2.4651392 -1.2843614 4.9878078 16711746
3.9552276 -1.2543622 5.4577374 16711746
1.7143587 -0.6984372 3.9237521 16711746
2.5215964 -1.0084827 4.5064783 16711746
1.8374810 -0.7502897 4.1055984 16711746
1.5406784 -0.7525814 4.0524983 16711746
1.9407601 -0.6488363 3.8303475 16711746
2.0013580 -0.8598033 4.4937587 16711746
1.8855132 -0.7359994 4.0753646 16711746
2.1260850 -1.6463408 5.0045648 16711746
1.7020516 -0.6841478 3.8465605 16711746
2.3291333 -0.8134506 3.9109194 16711746
2.1769927 -0.7758739 4.2939324 16711746
1.8628780 -0.7667148 4.1486211 16711746
1.6940498 -0.7057200 3.9205086 16711746
1.7653936 -0.7147394 3.9685059 16711746
1.6131244 -0.7226347 3.9472828 16711746
2.1050720 -0.7632028 4.2760396 16711746
1.4728228 -0.7556674 4.1191158 16711746
1.6428767 -0.6900935 3.8203280 16711746
1.7275038 -0.6818708 3.8674545 16711746
1.9119344 -0.6539453 3.9027896 16711746
2.0019038 -0.6309292 3.8565013 16711746
1.6323100 -0.6844181 3.8349414 16711746
1.6502377 -0.6705812 3.8037367 16711746
1.9047427 -0.6591295 3.8836775 16711746
1.9566545 -0.6948146 3.8873270 16711746
1.7421942 -0.6968830 3.9015865 16711746
1.2998129 -2.3512583 5.9765501 16711746
1.6718211 -0.7046763 3.9190567 16711746
1.5547757 -0.8167138 4.3078060 16711746
2.2693830 -0.6750011 3.9432111 16711746
2.2159460 -1.3556484 4.7147422 16711746
1.7139565 -0.7306187 3.8869708 16711746
2.0983837 -0.9902186 4.2013927 16711746
1.6151351 -0.7625886 3.6231678 16711746
2.4931800 -1.9522223 5.6058674 16711746
3.8710477 -2.4650075 6.5311236 16711746
1.9686118 -2.8403902 8.1695805 16711746
1.6953608 -0.6716155 3.8451135 16711746
1.6868720 -0.6790399 3.8762670 16711746
1.8119649 -0.6731239 3.8668468 16711746
1.8132348 -0.7100976 3.9688194 16711746
1.8096422 -0.6813904 3.8829277 16711746
1.6340059 -0.6937317 3.8411133 16711746
1.4721456 -0.7572179 4.1242824 16711746
1.9138594 -0.6645207 3.8996735 16711746
1.8168631 -0.7854066 4.1647682 16711746
1.6743482 -0.7070090 3.9054744 16711746
1.8108437 -0.6750658 3.8616576 16711746
1.9666286 -0.6919864 3.9878821 16711746
1.8525082 -0.6645683 3.8753700 16711746
1.8868874 -0.7353601 4.0789480 16711746
1.6387964 -0.6967248 3.8840342 16711746
1.6433283 -0.6997522 3.9150362 16711746
1.7705435 -0.6794632 3.8893774 16711746
1.5177269 -0.7136883 3.8791411 16711746
2.1067922 -0.6472827 3.8239031 16711746
1.8031832 -0.7308304 4.0329170 16711746
1.5608264 -0.7131564 3.9138954 16711746
1.8629720 -0.6970925 3.9679573 16711746
1.9339355 -0.6766534 3.9624193 16711746
1.7033869 -0.7359378 4.0124536 16711746
1.5788527 -0.6904429 3.8679867 16711746
1.7694803 -0.7028110 3.9148030 16711746
2.4128411 -0.9577848 4.9495635 16711746
3.2744174 -2.2525673 6.3705029 16711746
1.9045938 -1.2358774 5.6507487 16711746
1.7542962 -0.6980641 3.9349921 16711746
1.3803711 -0.7587585 4.1414356 16711746
1.8673890 -0.6840997 3.9333351 16711746
1.4938653 -0.7273133 4.0102596 16711746
1.4377047 -0.7338173 4.0668607 16711746
1.8523952 -0.6811161 3.9097993 16711746
1.2339343 -0.7559198 4.0506892 16711746
1.6186697 -0.7472330 4.0638423 16711746
2.1312838 -0.6796339 3.9773834 16711746
2.4360301 -0.7110737 4.1065693 16711746
1.5589550 -0.6937422 3.8697510 16711746
1.7018752 -0.7267038 3.9907489 16711746
1.8710461 -0.6751910 3.9029508 16711746
1.6176556 -0.6806083 3.8322728 16711746
1.7602166 -0.6793607 3.8852680 16711746
1.8124428 -0.7497703 4.0970182 16711746
1.7658330 -0.7148841 3.9661934 16711746
1.4559799 -0.9156957 4.5537395 16711746
1.5188804 -0.8743665 4.4543347 16711746
1.3465171 -0.7063674 4.0004048 16711746
1.3542613 -0.7423617 4.0647330 16711746
1.8749952 -0.6552977 3.8968468 16711746
1.2085315 -0.7676445 4.1278672 16711746
1.5864564 -0.6980719 3.9064112 16711746
1.5115969 -0.6817445 3.8378098 16711746
2.0552924 -0.6491492 3.8587322 16711746
1.8247708 -0.6890017 3.9141634 16711746
1.5998541 -0.7804079 4.1509242 16711746
1.9233199 -0.7024250 4.0317521 16711746
1.5978622 -0.7791699 4.1569710 16711746
2.0937586 -0.6257558 3.8253982 16711746
2.0524762 -0.6527495 3.8529572 16711746
1.7619612 -0.7376686 4.0057116 16711746
2.0009458 -0.6654620 3.8716233 16711746
1.4839197 -0.7007177 3.9299409 16711746
1.7574648 -0.8399719 3.8656843 16711746
2.1051519 -0.6461166 3.8366780 16711746
1.6215154 -0.7356915 3.9753916 16711746
1.6020342 -0.7085047 3.9376090 16711746
1.5650473 -0.7681247 4.1128173 16711746
1.3631828 -0.8731802 4.4006271 16711746
1.2694528 -0.8884960 4.3517976 16711746
1.5510331 -0.7419739 3.9798663 16711746
1.7230474 -0.8376176 3.9491796 16711746
1.6070060 -0.8160545 4.1150508 16711746
1.6993877 -0.7221176 4.0072331 16711746
2.1053782 -0.7254001 4.0607052 16711746
1.7013698 -0.7247535 3.9940214 16711746
2.0471523 -0.7233642 4.0644450 16711746
1.5406904 -0.7398855 4.0027413 16711746
1.7609260 -0.6905224 3.8857241 16711746
2.0519814 -0.7219830 4.0745964 16711746
1.0900574 -1.0679511 5.0125256 16711746
1.8646569 -0.7373628 4.0715256 16711746
1.9125068 -0.6667335 3.8941996 16711746
2.2389774 -0.6420697 3.7777228 16711746
1.8913499 -0.7602661 4.1389108 16711746
2.3101017 -0.7411710 4.1182404 16711746
2.0345049 -0.7471701 4.2118516 16711746
1.9807457 -0.6502446 3.8538427 16711746
2.0604744 -0.6912035 4.0250058 16711746
1.7544428 -0.6981801 3.9320827 16711746
2.2445598 -0.6681289 3.9128697 16711746
2.4903605 -0.7959848 4.2714648 16711746
2.6190960 -0.9269168 4.6964302 16711746
-0.5388314 -2.1120501 5.5479054 16711746
4.1407533 -2.2788959 5.5753384 16711746
1.3742877 -0.8348144 4.2863054 16711746
1.9401296 -0.8479834 4.4114742 16711746
1.5794439 -0.6847550 3.8018353 16711746
1.8108130 -0.6924474 3.8905988 16711746
1.9218372 -0.7025068 4.0275311 16711746
1.7267913 -0.6818421 3.8655243 16711746
1.7783631 -0.7067169 3.9568310 16711746
2.1771982 -0.7090686 4.0561309 16711746
2.1034613 -0.7632203 4.2723074 16711746
2.1747754 -0.7101735 4.0545340 16711746
1.7027532 -0.6793174 3.8621907 16711746
1.7861792 -0.6871864 3.9042032 16711746
2.1955643 -0.6462186 3.8916686 16711746
1.6581018 -0.7097723 3.9436507 16711746
1.7983752 -0.6789322 3.8792129 16711746
1.2700094 -0.7271532 4.0998421 16711746
1.8730969 -0.6900958 3.9679091 16711746
1.6625032 -0.7258161 3.9732816 16711746
1.7787367 -0.6939788 3.9190419 16711746
1.5270777 -0.6888727 3.8197131 16711746
2.0811427 -0.6664568 3.8612335 16711746
2.1284029 -0.6818706 3.9726009 16711746
2.2157578 -0.6874467 3.9761264 16711746
1.9758923 -0.6777219 3.9297779 16711746
2.3268671 -0.6533923 3.8942058 16711746
2.2710164 -0.6590649 3.9371097 16711746
1.5853798 -0.6988448 3.9020827 16711746
2.0571990 -0.6656699 3.8774803 16711746
1.6358103 -0.7250853 3.9782941 16711746
1.6834347 -0.7501247 4.0211735 16711746
2.2294357 -0.7748580 4.0630655 16711746
1.8627995 -0.7036222 3.9329259 16711746
0.8781328 -0.9894903 4.7823267 16711746
2.1207998 -0.7185146 4.0880961 16711746
1.7676700 -0.7578515 4.0857177 16711746
1.7838693 -0.7649302 4.1186643 16711746
1.6816956 -0.7157403 3.9611223 16711746
2.2144012 -0.6871780 3.9729011 16711746
2.0767784 -0.7039892 4.0127549 16711746
2.0118387 -0.7455882 4.1871443 16711746
1.8245721 -0.8572841 4.4351444 16711746
2.0455167 -0.6954190 3.9989796 16711746
2.3060083 -0.7423016 4.1126685 16711746
2.3761575 -0.6965464 3.9852140 16711746
1.8362943 -0.9352268 4.1278696 16711746
1.5539289 -0.8173413 4.3054414 16711746
1.4742262 -0.7175168 3.9681513 16711746
1.8939037 -0.7593004 4.1429434 16711746
1.7765974 -0.7320108 3.9812431 16711746
1.5892546 -0.7019458 3.8937323 16711746
1.8724868 -0.6910625 3.9623232 16711746
2.0039895 -0.7782922 4.2565975 16711746
1.7657582 -0.7158301 3.9708266 16711746
1.9753664 -0.6838569 3.9476054 16711746
1.8860501 -0.7371793 4.0703549 16711746
1.4045583 -0.7906540 4.2005563 16711746
1.7015109 -0.7243683 3.9997835 16711746
1.4051900 -0.7875354 4.2181702 16711746
2.3083510 -0.8098654 4.4101210 16711746
2.4243028 -0.7174695 4.1142073 16711746
2.3053412 -0.7429143 4.1111431 16711746
1.7660533 -0.7155598 3.9674253 16711746
1.6255869 -0.9895950 4.9123564 16711746
2.5259943 -1.4115670 5.7045765 16711746
1.6628956 -0.7227657 3.9765687 16711746
1.6582316 -0.7090966 3.9427488 16711746
1.8515759 -0.7068353 3.9696681 16711746
1.8041471 -0.7331410 4.0462093 16711746
1.5083447 -0.6870493 3.9312797 16711746
1.7365720 -0.7150893 3.9622211 16711746
1.5081393 -0.6869197 3.9303720 16711746
1.3765508 -0.7783076 4.1646976 16711746
2.1004305 -0.6445842 3.8418367 16711746
2.4758854 -0.7689370 4.2329597 16711746
1.5660444 -0.6854560 3.8726058 16711746
1.2703968 -0.8925605 4.3739533 16711746
2.0640972 -0.6613605 3.8861535 16711746
1.3336431 -0.7340802 4.0833817 16711746
1.3690158 -0.7051898 3.9801142 16711746
1.1297297 -0.8357112 4.2728772 16711746
1.2657163 -0.7256116 4.0807948 16711746
1.2216028 -0.7903286 4.1175251 16711746
2.1385324 -0.6765862 3.9434571 16711746
1.8554691 -0.7195107 4.0138969 16711746
1.9377311 -0.6987398 4.0067534 16711746
2.1108224 -0.6911998 3.9428344 16711746
1.8324004 -0.7204420 3.9599280 16711746
1.7102886 -0.7319497 3.9555409 16711746
2.2768517 -0.7383774 4.1173916 16711746
1.3443063 -0.7277450 4.0153632 16711746
1.8558730 -0.7180384 4.0158787 16711746
1.8226773 -0.6970701 3.9331195 16711746
1.8278916 -0.7067047 3.9653580 16711746
1.5557463 -0.7076707 3.9356623 16711746
2.2893212 -0.7888132 4.3204737 16711746
2.2038729 -0.6896313 3.9794371 16711746
0.8208558 -1.0028253 4.8552794 16711746
1.8555619 -0.7195987 4.0110927 16711746
1.1899265 -0.7908548 4.0292540 16711746
1.6490420 -0.7124283 3.9584854 16711746
1.5712134 -0.6918811 3.9264693 16711746
1.9222432 -0.7041103 4.0274997 16711746
1.7530732 -0.7068180 3.9444964 16711746
1.8737500 -0.6918198 3.9551816 16711746
2.0469422 -0.6791785 3.9544103 16711746
1.3075610 -0.8265038 4.2449069 16711746
1.7382083 -0.6912869 3.9152913 16711746
1.4018685 -0.7955016 4.2210536 16711746
1.8519566 -0.7058064 3.9688118 16711746
1.5991420 -0.7799704 4.1517210 16711746
2.1579430 -0.7341083 4.1340866 16711746
2.7749386 -0.8236705 4.4114914 16711746
1.7911747 -0.7186438 3.9609318 16711746
1.8942665 -0.7933224 4.2287111 16711746
1.9928647 -0.6916149 3.9868357 16711746
2.2120028 -1.4301188 4.7896571 16711746
2.2804942 -0.7887605 4.3007913 16711746
2.1151874 -0.6897248 3.9747610 16711746
1.8554151 -0.8881252 4.1224346 16711746
2.2852287 -0.8449083 4.5477304 16711746
2.2183409 -1.4345410 4.7971005 16711746
1.8574169 -2.2800009 6.9060283 16711746
2.0805895 -2.0651860 5.9082451 16711746
-1.6391799 -2.8253396 6.5758138 16711746
1.9489990 -2.6105788 7.6661525 16711746
3.0695202 -0.9202238 4.3643632 16711746
2.7699463 -1.0532924 4.9258451 16711746
1.2028142 -1.4970785 4.5356340 16711746
1.9500264 -0.6805502 3.9537427 16711746
1.9429289 -0.6859975 3.9816785 16711746
1.7777457 -0.7209170 3.9737597 16711746
1.5514655 -0.7523721 4.0718603 16711746
1.8180791 -0.7268128 4.0395751 16711746
1.8369784 -0.7507173 4.1029301 16711746
1.6884634 -0.7004918 3.9287097 16711746
1.3138982 -0.7329635 4.0569601 16711746
1.4867967 -0.8292488 4.3420806 16711746
1.9134998 -0.6982354 4.0067139 16711746
1.7570176 -0.7993757 4.2296252 16711746
1.8700049 -0.7151507 3.9411664 16711746
1.1768254 -0.8345767 4.2205544 16711746
1.3020142 -0.8213400 4.2577310 16711746
1.7815078 -0.7319083 4.0147996 16711746
1.2400575 -0.7886640 4.1149993 16711746
1.8043233 -0.7329689 4.0196366 16711746
1.7511004 -0.7193834 3.9783604 16711746
1.4017569 -0.7899463 4.2048454 16711746
1.8522731 -0.6983017 3.9922979 16711746
1.9403584 -0.7703753 4.1983256 16711746
1.9389968 -0.6961686 4.0137658 16711746
2.2798505 -0.8356472 4.4718723 16711746
1.7931229 -0.7776150 4.1320691 16711746
1.6207613 -0.7500545 4.0371776 16711746
2.2844665 -0.8346435 4.4809365 16711746
2.0530162 -0.7234159 4.1307425 16711746
1.3002564 -0.8242961 4.2533765 16711746
1.9546984 -0.7267552 4.1107082 16711746
1.8877246 -0.7358190 4.0797162 16711746
2.2019405 -0.8324417 4.5291100 16711746
2.0749483 -1.1766385 4.3341026 16711746
2.6753142 -0.9566442 4.7546735 16711746
2.3403575 -0.8381836 4.6070156 16711746
3.0061271 -1.5153377 4.9804277 16711746
1.8490421 -2.4688613 6.7869263 16711746
4.4111490 -1.8859748 4.9622478 16711746
1.9562514 -1.8471850 5.3381257 16711746
1.7270564 -1.7876614 5.4440031 16711746
1.7214857 -1.4364434 4.7085299 16711746
1.8355280 -0.7013172 3.9521940 16711746
1.3392450 -0.9532688 4.3924861 16711746
0.8478143 -0.9969596 4.8202996 16711746
1.9545733 -0.7433438 4.1522236 16711746
1.7579697 -0.7332276 4.0195909 16711746
1.1298448 -1.0468202 4.9503422 16711746
1.2103670 -0.9020764 4.4656391 16711746
1.9673251 -0.6910047 3.9918792 16711746
1.8745511 -0.8316351 4.3514585 16711746
1.9838431 -1.0834177 4.0842462 16711746
1.7829082 -0.7504218 4.0897007 16711746
0.4350104 -1.5656658 4.7557445 16711746
2.0648751 -0.6871547 3.9618037 16711746
1.8012705 -0.7489413 4.0833740 16711746
1.7624862 -0.7465471 4.0684905 16711746
2.8132560 -2.0522833 5.6143003 16711746
2.3573015 -0.6763926 3.9627275 16711746
2.3497458 -0.7138638 4.0056157 16711746
2.0041461 -0.7446443 4.1830616 16711746
1.5429735 -0.7541667 4.0380096 16711746
1.8729122 -0.7283571 4.0543313 16711746
2.2286050 -0.6872616 3.9722064 16711746
2.0284915 -0.6960699 4.0551662 16711746
1.9911412 -0.7081331 4.0724931 16711746
1.6187266 -0.7501178 4.0386629 16711746
1.7586766 -0.8010380 4.2197194 16711746
1.8516734 -0.8122531 4.1755271 16711746
2.0593429 -0.7165560 4.0909286 16711746
1.5928575 -0.7559369 4.0871983 16711746
1.8585609 -0.8936320 4.1603460 16711746
1.4724739 -0.7816609 4.1941957 16711746
1.7222432 -0.7792472 4.1027617 16711746
2.1230714 -0.7169648 4.0951457 16711746
1.5768894 -0.7148169 3.9622030 16711746
2.0613992 -0.7150130 4.0954695 16711746
1.7870197 -0.7254380 4.0109396 16711746
1.8452830 -0.7511553 4.0996194 16711746
1.8555596 -0.8577639 4.1847329 16711746
1.8581356 -0.8932946 4.1578131 16711746
1.9675595 -0.8300528 4.3673701 16711746
1.9389495 -0.7713044 4.1912026 16711746
2.0956566 -0.9677485 4.8738284 16711746
2.3816590 -0.8235352 4.4013395 16711746
1.7916890 -0.7780786 4.1305037 16711746
-0.0832099 -2.0469909 5.7796655 16711746
1.9317735 -0.9528706 4.6469097 16711746
1.5831701 -1.0211616 4.7692642 16711746
2.2448761 -0.7169526 4.0872536 16711746
0.4700843 -2.0935440 5.5188398 16711746
1.9816071 -0.7636718 4.2112093 16711746
2.3985076 -0.8939493 4.7004185 16711746
2.4252167 -0.9746695 4.2378631 16711746
1.8935390 -0.7573767 4.1505127 16711746
4.0194726 -1.1347450 5.9345021 16711746
2.0680249 -0.8484352 4.4559145 16711746
1.5941058 -0.6929141 3.9214866 16711746
1.8443577 -0.7350588 4.0661144 16711746
2.0708649 -0.6823925 3.9720068 16711746
2.0209763 -0.6944547 4.0215864 16711746
2.1206100 -0.7746972 4.3011284 16711746
1.8867196 -0.7738559 4.1746483 16711746
1.0338820 -0.8684484 4.3714709 16711746
2.0055716 -0.7896866 4.2770224 16711746
2.1087036 -0.7531091 4.2002149 16711746
1.9302893 -1.3075742 5.9805322 16711746
1.6241143 -0.7425996 4.1040373 16711746
1.9451044 -0.7919686 4.2431006 16711746
1.8947911 -0.7942285 4.2228885 16711746
1.9214340 -0.6858315 3.9905612 16711746
1.8183110 -0.7847648 4.1621737 16711746
1.9545208 -0.7431234 4.1546612 16711746
1.6809444 -0.7137817 3.9527011 16711746
1.8523047 -0.8096409 4.1730766 16711746
1.5513660 -0.7437926 4.0005121 16711746
1.3651903 -0.8069723 4.2263074 16711746
1.3792899 -0.7776836 4.1643257 16711746
1.9355993 -0.7813551 4.2172112 16711746
1.8920004 -0.7580806 4.1506238 16711746
1.7787009 -0.7613322 4.1472778 16711746
1.8062587 -0.7275524 4.0127792 16711746
1.6897061 -0.7195859 3.9375720 16711746
1.8491459 -0.8119817 4.1966081 16711746
1.7616042 -0.7456371 4.0781140 16711746
1.8479698 -0.8105922 4.2157063 16711746
2.1868956 -0.6823644 4.0117207 16711746
2.2221739 -0.6648159 4.0031600 16711746
1.7655786 -0.8708093 4.4082270 16711746
1.7335470 -0.7328833 3.9485176 16711746
1.6834650 -1.0281394 4.8451247 16711746
1.9681081 -0.7779523 4.2276697 16711746
1.1370353 -1.0427423 4.9395485 16711746
1.8912016 -1.0370375 3.9664857 16711746
1.4358574 -0.7909486 4.1756892 16711746
1.8135501 -0.7532009 4.0861187 16711746
1.9925864 -0.8129038 4.3177266 16711746
2.0835631 -0.9612038 4.8038630 16711746
2.1968324 -0.8361437 4.5239654 16711746
1.9553930 -0.7429481 4.1573172 16711746
1.8205048 -1.3546072 4.5432997 16711746
2.0619330 -0.7162712 4.0946903 16711746
-0.1232612 -1.9517027 5.1470580 16711746
1.8042295 -0.7306973 4.0296345 16711746
2.0110524 -0.7437066 4.1905875 16711746
1.7632192 -0.7388104 4.0064020 16711746
1.2728394 -0.7917979 4.0623837 16711746
1.5734124 -0.7695937 4.0991478 16711746
1.2821783 -0.7906126 4.0521975 16711746
0.3683694 -1.7112814 4.8417273 16711746
2.1110530 -1.3910427 4.7403827 16711746
1.8354850 -0.7369971 4.0669103 16711746
2.3500328 -1.7946973 5.3073931 16711746
1.9228570 -0.7949559 4.2888842 16711746
2.0363519 -0.8018975 4.3562803 16711746
3.1480453 -2.0308590 5.5864196 16711746
1.7069216 -2.6328576 7.1719785 16711746
2.5299416 -2.2029784 5.8222184 16711746
-0.5278655 -2.1463645 5.3917623 16711746
1.8603418 -0.7551740 4.1222978 16711746
1.7864186 -0.7644051 4.1216226 16711746
1.7368664 -0.7148238 3.9613738 16711746
2.2044909 -0.6778669 4.0010881 16711746
2.0925200 -0.6937830 4.0420694 16711746
1.9698720 -0.6866769 4.0012574 16711746
1.7164292 -0.7754939 4.1253366 16711746
1.3423609 -0.7905205 4.0819192 16711746
1.8652560 -0.7373661 4.0734344 16711746
1.8275774 -0.7048739 3.9706316 16711746
2.0197744 -0.6955673 4.0183964 16711746
1.9850241 -0.7168643 4.1225824 16711746
2.0429256 -0.6969404 3.9911582 16711746
1.5803169 -1.0275955 4.7358112 16711746
2.1778297 -0.6880179 3.9968200 16711746
1.5534070 -0.7435118 3.9879649 16711746
2.1130979 -0.7219307 4.0770092 16711746
1.9195917 -0.7981728 4.2318211 16711746
1.8010591 -0.7198805 3.9933448 16711746
2.0740950 -0.8758205 4.5388474 16711746
2.5620124 -0.8700972 4.5227423 16711746
2.1042955 -0.7640535 4.2681937 16711746
2.5505440 -0.7471139 4.1858931 16711746
1.8628818 -0.7666618 4.1505756 16711746
2.8028808 -1.3649215 4.4661431 16711746
1.4175001 -0.7940104 4.2226830 16711746
1.8857523 -0.7374681 4.0666418 16711746
2.2530377 -1.3773506 4.8122449 16711746
-1.5290191 -2.4970045 6.4358792 16711746
3.3204904 -2.1290121 5.5145559 16711746
1.8343679 -0.7372610 4.0659037 16711746
2.2401156 -0.8799447 4.6838374 16711746
-0.3178247 -1.9502832 5.2564497 16711746
1.6956933 -0.9564585 4.6591854 16711746
3.0518785 -1.6751560 6.3549919 16711746
1.8371121 -0.9312729 4.7108488 16711746
1.8217863 -0.7256399 4.0314393 16711746
1.8919703 -0.7594120 4.1428289 16711746
1.8655039 -0.7369812 4.0782175 16711746
2.0263786 -0.6799155 3.9877555 16711746
1.6943524 -0.8853769 4.4680872 16711746
1.5848730 -0.7490813 4.0366893 16711746
1.6222687 -0.7208980 3.9561415 16711746
2.4043167 -0.7008051 4.0496154 16711746
2.2135994 -0.7507479 4.1120191 16711746
2.0019443 -0.8456649 4.4093518 16711746
1.8945464 -0.7946628 4.2254219 16711746
2.1587086 -0.7351354 4.1347318 16711746
2.2854037 -0.7619473 4.1014123 16711746
0.2547346 -1.3121563 5.2617574 16711746
2.1799362 -0.7224793 4.0886264 16711746
1.8415941 -0.7278166 4.0400867 16711746
1.8400085 -0.7405556 4.0894198 16711746
1.8020372 -0.7234365 3.9850571 16711746
2.2161868 -0.7543612 4.2234235 16711746
3.3404100 -2.6041939 6.7341590 16711746
1.9460485 -0.7292148 4.0991035 16711746
1.9203637 -0.7752045 4.1915541 16711746
2.2815940 -0.7654551 4.1137490 16711746
2.4350195 -0.7236518 4.1531482 16711746
1.7270395 -0.7666300 4.0822845 16711746
1.8580734 -0.7564177 4.1232290 16711746
1.7388301 -0.7808064 4.1215467 16711746
1.7421325 -0.7828781 4.1114140 16711746
1.7738283 -0.7771454 4.1398988 16711746
2.0711830 -0.7083888 4.0324264 16711746
1.4862325 -0.7574596 4.1010571 16711746
2.2505019 -0.7129912 4.0973759 16711746
1.5705591 -0.7418795 3.9603870 16711746
1.7596474 -0.7927794 4.1988955 16711746
1.7724140 -0.7468385 3.9769115 16711746
1.8445700 -0.7531700 4.0905118 16711746
1.0328207 -0.8663444 4.3769894 16711746
2.1205451 -0.7007213 4.0506940 16711746
2.2619920 -0.7663879 4.0760403 16711746
2.0841162 -0.7860672 4.3205137 16711746
1.9392737 -0.7706019 4.1937475 16711746
1.8801239 -0.7173449 4.0338740 16711746
2.2744834 -0.8997604 4.7246933 16711746
2.3963549 -0.8541065 4.5456109 16711746
1.8162451 -0.7855239 4.1638937 16711746
2.3369596 -1.3707855 5.2655859 16711746
2.6779592 -1.8407642 5.2685523 16711746
1.9314436 -0.8480923 4.3641520 16711746
2.3695953 -0.7911680 4.2059717 16711746
2.4691751 -0.7949557 4.2421241 16711746
1.7676905 -0.7346645 4.0495710 16711746
1.8818936 -0.7459535 4.1170974 16711746
2.0157406 -0.7864265 4.3167300 16711746
1.5989668 -0.9137880 4.6002784 16711746
1.5635085 -1.0010247 4.7627506 16711746
1.6427152 -0.9822578 4.7688050 16711746
2.3245425 -0.8068693 4.2012715 16711746
1.8920504 -0.7596666 4.1437464 16711746
1.7008679 -0.8545297 4.3143439 16711746
2.3077886 -1.4696507 4.9820409 16711746
2.9461257 -1.9529279 5.6880169 16711746
-0.6404593 -2.2420490 5.4520750 16711746
-0.3691686 -2.0229387 5.4471793 16711746
2.4288688 -1.8286661 5.3731599 16711746
2.8071516 -2.0006540 5.5852447 16711746
1.3977869 -0.7889084 4.2072296 16711746
1.9683350 -0.7796999 4.2428327 16711746
1.8376741 -0.7368678 4.0999637 16711746
2.0110199 -0.7268139 4.1587720 16711746
1.8373286 -0.7350034 4.1063766 16711746
1.8562092 -0.7494852 4.1086001 16711746
1.8350424 -0.7478648 4.1152239 16711746
1.8739251 -0.8052610 4.2272329 16711746
2.0850992 -0.7290584 4.0654788 16711746
2.1899760 -0.7783076 4.1090994 16711746
2.1832223 -0.7753324 4.2994552 16711746
1.6806498 -0.7433236 4.1013927 16711746
2.2331929 -0.7623356 4.1211610 16711746
1.8244742 -0.9275078 4.1390777 16711746
2.3977888 -0.8938448 4.7025456 16711746
2.1727300 -0.8204769 4.4765606 16711746
1.9561300 -0.7913704 4.2628355 16711746
2.0499985 -0.7579985 4.2239022 16711746
3.2304137 -1.6725320 4.8709183 16711746
3.4485464 -1.5367185 4.7290659 16711746
1.9942504 -0.7419901 4.1783290 16711746
2.0665050 -0.9531360 4.7303743 16711746
1.7617466 -0.7454233 4.0732155 16711746
1.4361967 -0.8843693 4.4538407 16711746
2.4187975 -1.1951718 4.2435365 16711746
2.5838611 -0.9909723 4.8955913 16711746
2.4129915 -0.8209588 4.2487068 16711746
0.2879355 -2.3058393 6.0270247 16711746
1.9685493 -0.7776553 4.2249227 16711746
1.5654659 -0.8659208 4.4642859 16711746
1.7142379 -0.7580667 4.1188974 16711746
1.8355896 -0.7490306 4.1107354 16711746
1.5101030 -0.8747481 4.4687409 16711746
1.8635969 -0.7613694 4.1683116 16711746
1.9656487 -0.7125430 4.1323190 16711746
2.0317297 -0.8049766 4.3412385 16711746
1.7605399 -0.8709097 4.4539108 16711746
2.2445409 -0.7839704 4.3179393 16711746
2.0338309 -0.7457460 4.2126298 16711746
1.6211127 -0.8701034 4.4918542 16711746
1.5728543 -0.9738703 4.6852322 16711746
1.7276527 -0.7391106 4.0420504 16711746
2.1208096 -0.7000026 4.0501161 16711746
2.2888343 -0.8435308 4.5463309 16711746
1.7857361 -0.7647182 4.1206365 16711746
1.9050977 -0.7137396 4.0583739 16711746
1.8649942 -0.7403659 4.0622654 16711746
1.7897959 -0.7889801 4.0709558 16711746
1.7401844 -0.7803491 4.1190548 16711746
2.5105145 -0.7804864 4.1358767 16711746
1.7582430 -0.7423192 4.0866961 16711746
2.0315244 -0.8060480 4.3451552 16711746
1.5771571 -1.0243549 4.7920995 16711746
1.8881919 -0.9614558 4.2144008 16711746
1.8422196 -0.7809932 4.2165737 16711746
1.9678349 -0.8128991 4.3234367 16711746
2.0059042 -0.7765123 4.2644038 16711746
2.0304520 -0.8067017 4.3396587 16711746
2.5123572 -1.9558438 5.3607121 16711746
1.7827222 -0.7649675 4.1125965 16711746
2.1383905 -1.2263300 4.4598522 16711746
3.3630683 -1.1010263 5.0167937 16711746
-0.3084564 -2.0306432 5.1655221 16711746
1.6883777 -0.9558221 4.6723080 16711746
2.1953692 -0.7564359 4.0838990 16711746
1.9380475 -0.8238401 4.3216395 16711746
1.7272002 -0.8711107 4.4263330 16711746
1.8461230 -0.7893466 4.1888304 16711746
1.9594433 -0.7470174 4.1675634 16711746
1.8519218 -0.7734569 4.1624808 16711746
1.8187054 -0.7838066 4.1665778 16711746
1.4800422 -0.8282048 4.3531823 16711746
2.2040484 -0.7529574 4.0966244 16711746
1.9592724 -0.7455038 4.1735125 16711746
1.4433069 -0.8416352 4.3489971 16711746
1.6264768 -0.7580930 4.1457329 16711746
2.2036767 -0.7541280 4.0977645 16711746
2.0092030 -0.7239421 4.1305280 16711746
2.1642830 -0.7000658 4.0391793 16711746
1.6765451 -0.8573959 4.4031153 16711746
1.4224257 -0.8843061 4.4666967 16711746
1.6894382 -0.8579512 4.3582873 16711746
1.8922693 -0.7577480 4.1506348 16711746
2.1825564 -0.8090723 4.4197183 16711746
2.5266697 -1.1456099 4.7759700 16711746
1.5578339 -1.0826252 4.7980232 16711746
2.2129054 -0.6925920 3.9594214 16711746
1.8869859 -0.7726469 4.1830730 16711746
1.9673563 -0.8979650 4.4897695 16711746
1.4156020 -0.8811396 4.4295726 16711746
2.2664349 -0.9283642 4.7882361 16711746
3.7443907 -2.4438260 6.4590859 16711746
0.2981125 -2.1196959 5.8312740 16711746
1.9795192 -0.7652382 4.2158356 16711746
1.4620245 -0.9141246 4.5474968 16711746
1.6250254 -0.9363814 4.6694908 16711746
1.7189126 -0.7739630 4.0934677 16711746
1.7602602 -0.8022015 4.2150636 16711746
2.1222939 -0.8305658 4.4862027 16711746
2.1217096 -0.7736667 4.3023357 16711746
1.3700713 -0.8344963 4.2915802 16711746
1.9399616 -0.7708516 4.1889148 16711746
2.6642618 -0.9131413 4.7560968 16711746
2.3050809 -0.8091276 4.4075103 16711746
2.3045542 -0.8106672 4.4028687 16711746
1.9536189 -0.9355513 4.5246897 16711746
0.6203187 -1.4242754 5.4413176 16711746
2.2601006 -0.7594934 4.1831007 16711746
1.6505811 -0.8978902 4.5749083 16711746
1.9855613 -0.7967687 4.2697153 16711746
2.4790633 -0.7963750 4.2608333 16711746
1.9318542 -0.8152700 4.2995844 16711746
2.1797359 -0.7145225 4.0818853 16711746
2.3832498 -0.8073066 4.3181629 16711746
1.8693539 -0.7705535 4.1474886 16711746
2.0900407 -0.7248960 4.1447291 16711746
1.4652892 -0.9189944 4.5386758 16711746
1.8420705 -0.8172356 4.1957345 16711746
1.6419390 -0.8964927 4.5944376 16711746
1.8513508 -0.8012899 4.2009187 16711746
1.9670801 -0.7717097 4.2156038 16711746
2.6294582 -1.1886485 4.3203421 16711746
2.2671297 -0.7577206 4.1851015 16711746
1.8757167 -0.7820634 4.1858354 16711746
2.0568833 -0.8192126 4.3770094 16711746
2.1261983 -0.8170388 4.4470630 16711746
2.2096617 -0.8048931 4.4034142 16711746
2.1685381 -0.6966794 4.0424976 16711746
1.8510094 -0.9053804 4.3231535 16711746
1.9534360 -0.9425305 4.5760641 16711746
1.9675531 -0.8125545 4.3286543 16711746
2.2383418 -1.4779539 4.8325806 16711746
2.5520499 -1.5986516 5.0370359 16711746
4.3942590 -0.8910998 6.0232434 16711746
0.8476156 -0.9955340 4.8227425 16711746
1.3609812 -0.8217373 4.2202220 16711746
1.8996477 -0.8235194 4.3155684 16711746
1.8013855 -0.7755665 4.1494532 16711746
1.8004627 -0.7753352 4.1481605 16711746
1.8873543 -0.7749273 4.1700187 16711746
0.4057095 -1.8577899 5.0586357 16711746
2.0965261 -0.7669199 4.2506347 16711746
0.5359945 -2.2589142 5.5594687 16711746
2.3073738 -0.8191651 4.3739562 16711746
1.9148426 -0.8063369 4.2540507 16711746
1.8971174 -0.7626167 4.1578550 16711746
2.0085132 -0.8380966 4.3990774 16711746
1.9993912 -0.8601134 4.4655719 16711746
2.0456326 -0.7334771 4.1522994 16711746
2.2475715 -1.2582295 4.4430132 16711746
0.7279350 -1.3949054 5.3844347 16711746
1.5148219 -0.8460102 4.3990397 16711746
2.8183544 -1.2626615 4.8523922 16711746
2.2539206 -0.8761671 4.6467509 16711746
2.1065428 -0.7959275 4.3523574 16711746
1.4654304 -0.7974674 4.1373062 16711746
2.2081027 -0.7526828 4.1039367 16711746
2.3214612 -1.4850030 5.0315638 16711746
1.9109181 -1.1701367 5.2415957 16711746
2.1976020 -0.8379657 4.5226278 16711746
1.7670060 -2.1357675 5.9867659 16711746
0.8508291 -0.9917597 4.8138413 16711746
2.4246128 -0.7749884 4.1986718 16711746
1.9857289 -0.7968051 4.2699986 16711746
1.8724692 -0.8008779 4.2548099 16711746
2.4922829 -0.7952984 4.2730980 16711746
1.8634256 -0.8204178 4.3089118 16711746
1.4609160 -0.9160218 4.5472317 16711746
2.2787712 -0.7175682 4.0934401 16711746
2.1311781 -0.7595061 4.2562094 16711746
1.8958308 -0.8880777 4.5024204 16711746
1.9954476 -0.7416002 4.1819248 16711746
2.1239016 -0.7525247 4.2340565 16711746
2.0041182 -0.7596008 4.2277007 16711746
2.2308278 -0.7880353 4.1507926 16711746
2.0696793 -0.8475662 4.4561191 16711746
2.0477784 -0.7309330 4.1597009 16711746
2.1767766 -0.7797609 4.1001701 16711746
1.9195479 -0.7841899 4.2296019 16711746
1.9318343 -0.8143054 4.3008933 16711746
1.8977609 -0.9091412 4.5030537 16711746
2.0124295 -0.8258811 4.3475738 16711746
1.9450823 -0.8037210 4.2861433 16711746
2.4051545 -0.8021072 4.3418207 16711746
2.2822340 -0.7155434 4.0966296 16711746
1.7154639 -0.7897742 4.1617308 16711746
2.0379765 -0.7427562 4.2210307 16711746
2.0591419 -0.7534865 4.2426028 16711746
2.2454126 -0.7841893 4.3187923 16711746
1.8880080 -0.7726238 4.1810608 16711746
2.2130404 -0.7501407 4.1077046 16711746
2.1348715 -0.7611190 4.2804184 16711746
1.8882765 -0.7861684 4.1954689 16711746
2.2287049 -0.7972779 4.3321180 16711746
1.9176694 -0.8236318 4.3282366 16711746
2.1234543 -0.7678316 4.2532816 16711746
1.1483116 -1.0752439 4.8369694 16711746
1.4047393 -0.8753734 4.3704081 16711746
1.9485883 -0.9439760 4.6082606 16711746
1.7604321 -0.8036527 4.2109509 16711746
0.6914039 -1.2623652 5.4567142 16711746
0.8426923 -1.2899532 5.2410789 16711746
0.9734443 -1.1743137 5.0712671 16711746
1.8362414 -0.8121638 4.2184143 16711746
2.0564647 -0.7986439 4.5088935 16711746
1.9081084 -0.8046650 4.2664876 16711746
1.8660549 -0.7664812 4.1589179 16711746
2.1021817 -0.7335413 4.1710811 16711746
2.1625829 -0.7998086 4.3712149 16711746
2.2283201 -0.8119829 4.4273210 16711746
2.0290861 -0.8170725 4.3578887 16711746
2.1316228 -0.7450002 4.2092948 16711746
2.4416032 -1.3907545 4.8517909 16711746
1.8492560 -0.8593430 4.1532211 16711746
2.3407531 -0.8347849 4.4849396 16711746
1.5990249 -0.9131997 4.6048408 16711746
2.5566902 -1.1405790 5.5105257 16711746
2.1331372 -0.7892467 4.3781600 16711746
1.4119940 -0.8595889 4.3759933 16711746
1.9352701 -0.7791038 4.2233429 16711746
0.8248151 -1.3002452 5.5773287 16711746
1.8174723 -0.9160348 4.5959563 16711746
1.8571955 -0.9527616 4.0564985 16711746
2.5785692 -0.8994402 4.5268569 16711746
0.9969794 -1.2902292 5.0308619 16711746
2.1910341 -0.7737423 4.3094554 16711746
2.1688519 -0.7773998 4.1629086 16711746
1.8669878 -0.7969952 4.2298694 16711746
1.3980684 -0.8789241 4.4535360 16711746
1.9715196 -0.7770474 4.2472744 16711746
1.9506636 -0.8058494 4.2968264 16711746
1.9180486 -0.7899439 4.2397223 16711746
1.8174462 -0.8941540 4.4564781 16711746
2.2566822 -0.7819502 4.2903523 16711746
1.8288140 -0.8498186 4.4074335 16711746
2.0160093 -0.8245435 4.3502812 16711746
1.8332158 -0.8192033 4.3162661 16711746
2.1780913 -0.7483826 4.2255340 16711746
1.8299732 -0.9151727 4.4925303 16711746
1.8265027 -0.8486722 4.4202199 16711746
2.2596400 -0.7468554 4.1211591 16711746
2.2131853 -0.7598776 4.2413683 16711746
2.2486312 -0.7714867 4.1559887 16711746
1.8175108 -0.8071167 4.1507759 16711746
1.8357503 -0.8248922 4.3327875 16711746
2.4479775 -0.7834688 4.2424016 16711746
1.8281703 -0.8507595 4.4128799 16711746
1.4985809 -0.8312318 4.3316483 16711746
1.4127475 -0.8775779 4.3185701 16711746
1.9578108 -0.7882687 4.2771811 16711746
2.3631868 -0.8040721 4.2264104 16711746
2.1791463 -0.7762555 4.2948513 16711746
1.8583747 -0.8048385 4.2006001 16711746
1.9351461 -0.7764287 4.2365642 16711746
1.9663724 -0.8320911 4.3454876 16711746
1.5131062 -0.8437790 4.4036484 16711746
1.9638391 -0.9135795 4.5844831 16711746
1.9545871 -1.0280641 4.5026116 16711746
1.9367304 -0.8064784 4.2799211 16711746
2.2943892 -0.8504627 4.5258560 16711746
1.8815280 -1.0506452 5.3015881 16711746
0.1279070 -1.5225900 5.8312869 16711746
2.0819142 -0.7494918 4.2183089 16711746
1.7151545 -0.7999880 4.2395978 16711746
2.3396561 -0.8357911 4.4826188 16711746
2.5197308 -0.8593538 4.4336700 16711746
2.1733191 -0.7756186 4.3050241 16711746
1.9711285 -0.8444764 4.3924012 16711746
2.4348090 -1.4787529 4.9656458 16711746
1.8917506 -0.8070623 4.2708349 16711746
1.5172008 -0.8128976 4.3191857 16711746
1.9265624 -0.8596356 4.4351220 16711746
1.9714174 -0.7719412 4.2405767 16711746
1.9702263 -0.7775853 4.2260408 16711746
2.0210752 -0.8427176 4.4018679 16711746
1.9673651 -0.8288283 4.3628120 16711746
2.2572489 -0.7813863 4.3366351 16711746
2.0191922 -0.7675927 4.2698750 16711746
2.1096327 -0.7605278 4.2784715 16711746
1.7538983 -0.7954971 4.2371426 16711746
1.9178547 -0.7898657 4.2416396 16711746
1.4054651 -0.9374763 4.6006303 16711746
1.8018370 -0.8627666 4.4134445 16711746
1.9259557 -0.8586186 4.4423666 16711746
1.4770442 -0.8385044 4.4478426 16711746
2.2306602 -0.7647448 4.1637092 16711746
1.9230353 -0.8290663 4.3461637 16711746
1.9669698 -0.8315418 4.3486304 16711746
1.7900289 -0.8591006 4.4685354 16711746
2.0678353 -0.8490868 4.4552455 16711746
2.1177559 -0.7764378 4.2962570 16711746
2.4202974 -0.7894921 4.2805324 16711746
1.9914755 -0.8146058 4.3174043 16711746
2.2227702 -0.8154066 4.4120574 16711746
1.8760575 -0.8061925 4.2363200 16711746
1.7764980 -0.9474291 4.6619110 16711746
1.8104094 -0.9188543 4.6001015 16711746
2.0213993 -0.8231424 4.3295326 16711746
1.8754789 -0.8322095 4.3467040 16711746
2.0243678 -0.8196554 4.3503137 16711746
2.6665683 -0.9802563 5.0072412 16711746
1.6886680 -1.2300192 5.5838032 16711746
1.4833648 -0.8527782 4.4186230 16711746
1.4877088 -0.8298197 4.3430715 16711746
2.3742647 -0.8136355 4.4213347 16711746
2.1415079 -0.9138302 4.7219896 16711746
2.4156964 -0.8943875 4.7321954 16711746
1.1384487 -2.2495587 6.2280540 16711746
2.0944359 -0.7538818 4.2505975 16711746
2.6766136 -0.9823760 5.0316577 16711746
2.0022147 -0.9031112 4.6100020 16711746
2.0464754 -0.8406025 4.4230046 16711746
1.0604317 -2.3803647 6.4683180 16711746
2.1180267 -0.7561748 4.2398958 16711746
1.5734746 -3.7646525 8.8718128 16711746
1.8664488 -1.0307961 5.1329813 16711746
1.7352027 -0.9871203 4.7251506 16711746
2.0288703 -0.8208661 4.3610559 16711746
2.2118134 -0.8048735 4.4052000 16711746
2.0719213 -0.8764188 4.5227118 16711746
2.0602567 -0.8171396 4.3843884 16711746
1.9236419 -0.8311799 4.3391123 16711746
1.8780496 -0.8281186 4.3219209 16711746
2.0621467 -0.8302800 4.4067640 16711746
1.9229535 -0.8293677 4.3471031 16711746
2.0202146 -0.7655823 4.2718048 16711746
2.2404435 -0.8582799 4.5849919 16711746
1.3599795 -0.9041002 4.5145369 16711746
2.3695014 -0.8086690 4.3037138 16711746
2.0068543 -0.8387151 4.3860879 16711746
1.8996415 -0.8237017 4.3159857 16711746
1.9255296 -0.7927626 4.2463217 16711746
1.9626660 -0.7919875 4.2537303 16711746
1.8697703 -0.8037325 4.2541966 16711746
1.9354837 -0.8234921 4.3214941 16711746
2.1258268 -0.7494944 4.2540832 16711746
1.7943630 -0.8393030 4.3555551 16711746
2.2271600 -0.7656229 4.1612897 16711746
2.2596567 -0.7799323 4.3392062 16711746
1.7955097 -0.8400034 4.3529034 16711746
2.1128488 -0.7557933 4.2895083 16711746
2.1921663 -0.7599161 4.2596364 16711746
2.3465681 -0.8080099 4.3372440 16711746
2.2754531 -0.7950200 4.2979479 16711746
1.8945749 -1.1483687 4.3322124 16711746
2.2435424 -0.8470303 4.4040661 16711746
2.3099384 -0.8451049 4.5530362 16711746
2.2657311 -0.9020700 4.6936588 16711746
2.2714703 -0.9590296 4.8082123 16711746
1.9148601 -0.8074882 4.2783475 16711746
2.2533090 -0.7837476 4.3309255 16711746
1.6756808 -0.9741218 4.7027364 16711746
2.2545438 -0.9532025 4.8675313 16711746
1.9159863 -1.2208933 5.5376201 16711746
2.5982404 -0.9750771 4.5429387 16711746
2.0616837 -0.7943754 4.3461070 16711746
2.0954990 -0.7529543 4.2513995 16711746
2.3137169 -0.8105639 4.4093857 16711746
1.7108743 -0.9942194 4.7252297 16711746
2.2420754 -0.8576130 4.5893626 16711746
2.1731448 -0.7764120 4.3050656 16711746
1.8713824 -0.8000211 4.2601795 16711746
1.8875312 -0.8276591 4.3358679 16711746
1.9441864 -0.7964881 4.3118258 16711746
1.5430977 -0.8368940 4.2836928 16711746
2.1229866 -0.7722201 4.3058033 16711746
2.2134628 -0.7588624 4.2453370 16711746
2.4062369 -0.8941832 4.7100000 16711746
2.0231383 -0.8403615 4.4138136 16711746
1.9724721 -0.8184817 4.3316445 16711746
2.0142703 -0.8240097 4.3501978 16711746
1.9364729 -0.8008069 4.2849021 16711746
1.9692826 -0.8082442 4.3053193 16711746
2.0161235 -0.7947183 4.3136969 16711746
1.6979097 -0.9563056 4.6552200 16711746
2.4347923 -0.7937549 4.2040725 16711746
1.7835987 -0.9471209 4.6520343 16711746
2.4201996 -0.7974014 4.1951394 16711746
2.0591819 -0.8180634 4.3829350 16711746
2.5213594 -0.8586677 4.4374199 16711746
1.7777227 -0.9788439 4.7062898 16711746
1.7471133 -0.8909050 4.5194349 16711746
2.5659995 -0.7231897 5.2761102 16711746
1.7634953 -0.9338342 4.6806302 16711746
1.7664872 -0.8941047 4.4547462 16711746
2.3063977 -0.7821903 4.3382959 16711746
2.3720036 -0.8069669 4.3083119 16711746
2.0264380 -0.8809825 4.5612254 16711746
2.0652528 -1.0824162 4.2492557 16711746
2.6951878 -1.2145355 4.7022209 16711746
2.1136818 -0.7993531 4.3833442 16711746
1.9672066 -0.8236256 4.3998652 16711746
1.9854821 -0.7952144 4.2720790 16711746
2.1692002 -0.8471892 4.5545206 16711746
1.7130668 -0.9946404 4.7196698 16711746
2.1217384 -0.7730088 4.3028660 16711746
2.4201827 -0.8923000 4.7373195 16711746
2.1678298 -0.7963411 4.3829079 16711746
1.5642645 -0.9722341 4.7152023 16711746
2.6552134 -1.7150667 5.3665152 16711746
3.7272744 -2.2376044 6.5755739 16711746
1.9139132 -1.2473123 5.6780481 16711746
2.4400449 -1.1701393 5.6209993 16711746
0.9195897 -2.2178078 5.9393654 16711746
2.0317278 -0.8076703 4.3523049 16711746
2.0577471 -0.8381041 4.4185743 16711746
2.2876623 -0.7788706 4.2890639 16711746
2.1815615 -0.7454028 4.2316613 16711746
2.0902023 -0.8017272 4.3896832 16711746
1.9217322 -0.8313872 4.3433824 16711746
1.7831479 -0.9460087 4.6574364 16711746
2.1266108 -0.8167420 4.4434347 16711746
2.0770488 -0.8715472 4.5583673 16711746
2.1201108 -0.7745813 4.2994685 16711746
2.0127723 -0.9467831 4.7116585 16711746
2.0182788 -0.8602999 4.4530015 16711746
2.0595105 -0.8699392 4.4995890 16711746
2.0642092 -0.7913194 4.3557839 16711746
1.9491987 -0.8020011 4.3061986 16711746
1.9112980 -0.8141440 4.2958264 16711746
1.8668747 -0.8278670 4.3372517 16711746
2.2868567 -0.7657509 4.3312607 16711746
1.9141831 -0.8123878 4.3000107 16711746
1.6975498 -0.8846380 4.4558029 16711746
1.8145014 -0.8120030 4.2820616 16711746
1.9570814 -0.9327204 4.6580639 16711746
1.9832133 -0.8608027 4.4599118 16711746
1.5166693 -1.0110984 4.8732433 16711746
2.0768402 -0.7948363 4.3658700 16711746
1.7837111 -0.9043061 4.5361514 16711746
2.3092566 -0.7789158 4.3441586 16711746
2.0227077 -0.8837615 4.5412474 16711746
2.1301510 -0.7852103 4.4357371 16711746
1.7714313 -0.8947919 4.4509101 16711746
1.7689528 -0.8689244 4.4137235 16711746
2.0864627 -0.8595386 4.6293235 16711746
1.8592534 -0.8495281 4.4056115 16711746
1.8117487 -0.8407321 4.3027129 16711746
2.2250278 -0.8144979 4.4191008 16711746
2.1423478 -0.8151093 4.4506021 16711746
2.0924966 -0.7948788 4.3630023 16711746
3.0087087 -1.3558648 4.4597387 16711746
1.8275830 -0.8566697 4.4250889 16711746
1.9938526 -0.8876927 4.5306554 16711746
2.9519088 -0.8410060 4.4844937 16711746
2.1770353 -0.8153988 4.4513483 16711746
1.9750407 -0.8797191 4.5199471 16711746
2.1234021 -0.8221471 4.4376221 16711746
2.1855414 -0.8077383 4.4219141 16711746
2.1303592 -0.8120645 4.5297351 16711746
2.2421048 -0.8769420 4.6481285 16711746
1.9425546 -0.8317645 4.3493071 16711746
2.4445174 -0.8481020 4.3203797 16711746
4.0206695 -2.0342145 5.5482860 16711746
1.9775257 -0.8236716 4.3559842 16711746
1.7746350 -0.8669500 4.4214253 16711746
2.3513038 -0.7875266 4.2688055 16711746
2.2941973 -0.7605318 4.3492932 16711746
2.0017459 -0.8447793 4.4183779 16711746
2.1521616 -0.8238068 4.4656959 16711746
1.7004671 -0.8840792 4.4527631 16711746
2.0635192 -0.8285755 4.4098825 16711746
2.0198917 -0.8346812 4.3890047 16711746
1.7924581 -0.8384486 4.3598256 16711746
2.0226202 -0.8313916 4.3701248 16711746
1.7775605 -0.8950314 4.4925771 16711746
1.7050986 -0.9538375 4.6550221 16711746
2.2776122 -0.7651941 4.3400283 16711746
1.9563279 -0.9332722 4.7059636 16711746
1.9061190 -0.8687522 4.4687200 16711746
