# .PCD v0.7 - Point Cloud Data file format
VERSION 0.7
FIELDS x y z rgb
SIZE 4 4 4 4
TYPE F F F F
COUNT 1 1 1 1
WIDTH 1190
HEIGHT 1
VIEWPOINT 0 0 0 1 0 0 0
POINTS 1190
DATA ascii
4.4250093 -0.42361668 11.150712 16711746
4.5195723 -0.37979594 9.764389 16711746
8.4409657 -1.2924275 12.542608 16711746
2.1466382 -0.49300903 11.269658 16711746
4.5656424 -0.19552979 10.426974 16711746
7.3448782 0.0052999235 9.7735472 16711746
4.0122719 -0.21191907 10.441054 16711746
4.2946715 -0.74550343 11.49886 16711746
1.4437568 -1.3562934 14.524693 16711746
9.5542698 -5.0853019 17.129175 16711746
3.3545425 -0.30672222 10.538259 16711746
9.7291603 -6.4875226 18.832144 16711746
12.08451 -6.7286348 19.831236 16711746
6.8749547 -4.3994923 15.854279 16711746
5.1338177 -2.3503928 12.054259 16711746
9.3997412 -7.6902041 20.354921 16711746
7.6862006 -6.0553174 18.269621 16711746
7.3420486 -1.5928204 11.14274 16711746
5.9895086 -0.2815578 10.687092 16711746
3.802933 -0.48875776 11.226417 16711746
4.180932 -0.50144845 11.090553 16711746
4.4593349 -0.32039073 10.906104 16711746
2.9303453 -0.10156464 10.254505 16711746
3.1122773 -0.31893232 10.645053 16711746
4.2068572 -0.010109042 10.167476 16711746
4.2763896 -0.11098502 10.076835 16711746
4.2607365 -0.17309637 10.549117 16711746
3.9438019 -0.313088 10.77284 16711746
3.5209949 -0.19889009 10.185655 16711746
4.4444823 -0.064504102 10.119508 16711746
7.1642518 -0.25101623 9.4090919 16711746
4.8103862 -0.18592685 10.25561 16711746
4.8322592 -0.17871924 10.252355 16711746
5.5241232 0.00023231843 9.5360003 16711746
3.4059949 -0.52327621 11.448735 16711746
1.8609082 -0.42773905 10.878953 16711746
6.7561655 -1.3193127 9.9287987 16711746
5.9491158 -0.048731983 10.167587 16711746
4.8792944 -0.070909448 10.139997 16711746
7.4171658 -0.83260942 10.408383 16711746
1.2045952 -0.46737874 11.11832 16711746
3.0971427 -0.31440341 10.637774 16711746
4.2591457 -0.51921827 11.306751 16711746
2.5568843 -1.4457915 12.718729 16711746
0.72442055 -0.75079948 13.289582 16711746
3.1987062 -1.3052415 10.655053 16711746
4.3029599 -0.085679546 10.124006 16711746
3.5984993 -0.27155152 10.557002 16711746
4.2277484 -0.74307621 11.635128 16711746
-0.067430422 -0.53774309 11.565326 16711746
9.0408573 -1.3702465 14.116417 16711746
4.2226849 -0.84531158 12.488406 16711746
4.2060161 -0.84452724 12.372951 16711746
3.7655363 -0.74852484 11.939258 16711746
2.5342155 -0.34984156 10.70314 16711746
3.7772167 -0.72533768 12.160642 16711746
2.1744289 -1.9023706 17.093029 16711746
-0.2577005 -2.4108717 20.018221 16711746
9.8753605 -2.7212286 14.919173 16711746
4.9875851 -0.10990576 10.145578 16711746
4.07372 -0.61538279 11.548809 16711746
1.0340544 -1.0568382 13.431798 16711746
7.3016481 -0.28720492 10.65697 16711746
12.34437 -7.6042004 18.404446 16711746
4.1881647 -0.49116135 11.211818 16711746
8.9353867 -0.2348184 10.867384 16711746
1.5674587 -1.3435282 14.301089 16711746
5.4394035 -0.24519102 10.575962 16711746
3.1760378 -0.39922646 10.951506 16711746
5.194128 -1.0182503 11.127689 16711746
6.0003753 -0.48758978 11.027802 16711746
3.2203572 -0.77890557 11.677342 16711746
5.8663111 0.096701264 9.5975332 16711746
4.3134637 -0.18956162 10.552623 16711746
8.2589569 -3.1752312 13.389463 16711746
3.1089668 -0.33449832 10.59971 16711746
4.4006157 -1.2834438 14.188125 16711746
5.6839604 -0.4500384 11.494306 16711746
-0.46610862 -1.1121159 13.88172 16711746
4.4155264 -0.42493275 11.164588 16711746
4.1244259 -0.82915789 11.209909 16711746
4.29918 -0.75953317 11.649843 16711746
11.452491 -7.0748544 18.398668 16711746
6.5414767 -4.1561418 15.076825 16711746
10.000857 -7.2294445 18.744028 16711746
13.787617 -7.7494178 22.251841 16711746
6.5463128 -3.8720996 13.324863 16711746
6.110671 -2.7453778 12.983812 16711746
4.3215132 -0.0581096 10.206897 16711746
5.617363 -3.2788365 11.898348 16711746
4.9523687 -0.23867142 10.743828 16711746
4.4426012 -0.25769281 10.699148 16711746
3.0414324 -0.44235981 11.088394 16711746
5.0729995 -0.29602346 10.801461 16711746
2.5802491 -0.2661801 10.476339 16711746
4.8625851 -0.15260576 10.322613 16711746
0.72309172 -0.5503068 11.738526 16711746
6.9833989 -0.030189266 9.347868 16711746
2.2587049 -0.5647195 11.339243 16711746
1.2661897 -0.56353235 11.723893 16711746
2.3001406 -0.62308311 11.759383 16711746
3.3696158 -0.3253645 10.809479 16711746
3.2436347 -1.3021244 10.16657 16711746
2.9543588 -0.49889618 11.082489 16711746
2.887958 -0.27150619 10.392866 16711746
1.1538738 -0.45035309 11.157898 16711746
1.2290659 -0.61260837 11.723723 16711746
7.6502275 -0.68151754 10.312032 16711746
5.7875319 0.059977084 10.701761 16711746
5.277668 -0.29676571 10.751692 16711746
2.2974761 -0.62873149 11.695608 16711746
1.9861985 -1.0029289 13.49068 16711746
5.5403214 -0.070231646 9.9429989 16711746
4.5483479 -0.41261792 11.182836 16711746
4.9809432 -0.29129604 10.802178 16711746
5.4158645 -0.9649052 13.256423 16711746
4.8196588 -0.17412457 10.295998 16711746
4.4078526 -3.9332309 12.385456 16711746
0.86829841 -1.2975221 14.251737 16711746
4.0499692 -2.2295702 10.59002 16711746
2.5115745 -0.64284486 11.910352 16711746
7.1278429 -0.15842712 9.9552307 16711746
2.1295755 -0.78018653 12.580883 16711746
13.671789 -6.7137194 19.244213 16711746
5.8792524 -0.088856049 10.073269 16711746
3.5918887 -0.2712943 10.538296 16711746
2.190727 -0.78761625 12.375286 16711746
7.722548 -0.80816811 10.612228 16711746
0.99723512 -2.0218339 15.642967 16711746
1.887201 -0.43951389 10.859524 16711746
3.8821065 -0.79701746 12.140088 16711746
5.7637386 -0.23269819 10.340702 16711746
5.4373126 -0.38839364 11.193704 16711746
2.7081428 -0.30611718 10.538671 16711746
5.7815065 -0.22049826 10.356418 16711746
7.7793226 -0.793414 10.671017 16711746
1.8712003 -0.43405506 10.879621 16711746
4.8930674 -0.76569408 10.657555 16711746
5.7877812 0.095133759 9.0383148 16711746
4.0680652 -0.62186408 11.502165 16711746
5.3368793 -1.0039742 11.403249 16711746
0.80721909 -2.0791521 16.225927 16711746
5.0776086 -0.15547527 10.398655 16711746
4.1140504 -0.42614666 10.841776 16711746
1.2377746 -0.62219149 11.678129 16711746
2.6794598 -0.87867171 12.564609 16711746
5.3852329 -2.3617153 11.507937 16711746
2.200995 -0.71195769 12.212027 16711746
5.7974877 -0.21617356 10.36659 16711746
21.344812 -7.1236978 16.437117 16711746
0.75845134 -0.55042106 11.679175 16711746
0.76877481 -0.55930787 11.673815 16711746
6.2251859 -1.3230036 9.565505 16711746
3.0325787 -0.4331111 11.132621 16711746
2.6815162 -0.38751733 10.183873 16711746
4.0509472 -0.50972384 10.961643 16711746
2.9488707 -0.48811632 11.086155 16711746
5.1604819 -0.0058641257 9.9707518 16711746
-0.22537248 -1.1077695 13.533063 16711746
1.995953 -0.99996102 13.303029 16711746
2.880234 -0.24231896 10.491623 16711746
4.7157869 -0.10321766 10.166563 16711746
8.7432423 -1.2702029 12.822676 16711746
9.1542606 -1.3794206 14.198327 16711746
2.5589828 -0.37837777 10.642711 16711746
4.1762209 -0.44176179 11.035726 16711746
1.1037908 -0.43062961 11.245064 16711746
4.0011048 -0.1248252 10.324462 16711746
5.017014 -0.55003619 11.145728 16711746
9.5661411 -1.1745355 13.936843 16711746
16.205055 -8.3446093 19.197304 16711746
7.0367494 -1.1735585 10.695026 16711746
6.4701324 -1.5153754 13.25798 16711746
5.0897508 -2.1998708 10.922406 16711746
4.1061835 -0.14605489 10.423366 16711746
4.5540071 -0.80365962 11.322195 16711746
7.574995 -0.82446873 10.523711 16711746
5.0550718 -0.84154087 11.102355 16711746
-0.39241451 -1.112599 13.781657 16711746
4.9919009 -0.8888886 10.965528 16711746
7.0327759 -0.54473436 10.744157 16711746
14.253602 -9.3839321 19.287025 16711746
5.3126688 -0.28504387 10.829753 16711746
4.2632875 -0.74242646 11.73743 16711746
4.9185991 -1.2194732 14.11235 16711746
-3.5604999 -5.0889912 16.505093 16711746
4.8627472 -0.062742569 10.165443 16711746
6.8247089 -0.90081209 10.635452 16711746
8.1259451 -0.93103391 10.355369 16711746
3.8753552 -0.86783373 12.408736 16711746
5.1648159 -0.35446939 11.202199 16711746
5.5540352 -0.93369222 13.581259 16711746
5.1516342 -0.91714203 13.146141 16711746
7.1790786 -0.64355075 10.728435 16711746
3.1443539 -0.25697035 10.403668 16711746
4.0730643 -0.45805916 11.138564 16711746
8.9839277 -3.8281856 12.6152 16711746
2.1424322 -1.5539805 14.693513 16711746
4.9584022 -0.23717988 10.778873 16711746
4.2693028 -0.51255888 11.320945 16711746
3.8183639 -0.45371401 11.202945 16711746
2.3970041 -0.89452547 12.785297 16711746
3.3353744 -0.89441192 10.885272 16711746
0.33376497 -1.0994284 13.740978 16711746
0.37408754 -1.6649711 14.719989 16711746
-1.456574 -1.1789171 14.266363 16711746
0.87406874 -0.61419183 10.61366 16711746
-1.2841579 -1.1819704 14.063886 16711746
-0.54982048 -2.6745114 16.524406 16711746
3.0476866 -0.59187263 11.49908 16711746
1.2670295 -0.72692305 10.159492 16711746
3.3277621 -0.86136264 11.23113 16711746
1.8056816 -0.39207178 10.97044 16711746
2.962347 -0.51482272 11.010161 16711746
10.771728 -5.4784737 12.826612 16711746
5.5845141 -0.098107941 10.369459 16711746
1.6826682 -0.70195711 12.060759 16711746
1.728811 -0.71606469 11.957828 16711746
19.365896 -7.7013521 18.339849 16711746
5.8410468 -0.61074597 11.668369 16711746
1.1583626 -0.99833161 13.410074 16711746
3.3411138 -0.32879058 10.712646 16711746
6.7818384 -0.56102347 11.381652 16711746
8.0925503 -0.27923587 10.612869 16711746
8.3071527 -0.24062507 10.754096 16711746
0.21831995 -0.78664678 11.888426 16711746
1.211785 -1.7653614 15.88484 16711746
3.6231172 -0.3496488 10.931122 16711746
5.8684688 -1.3034226 14.091558 16711746
6.7874885 -2.0378251 17.543205 16711746
4.3601737 -0.41855544 10.94459 16711746
-11.870398 -11.110619 24.81168 16711746
5.7864213 -0.4262073 10.914161 16711746
9.058363 -1.1881932 13.447333 16711746
9.3239622 0.23602019 12.081135 16711746
2.4088848 -0.49042866 11.054249 16711746
0.53262889 -0.63933325 11.949704 16711746
2.5871835 -0.40794224 10.719259 16711746
3.0023651 -0.36142427 10.592826 16711746
7.5070691 -1.5279448 10.99938 16711746
6.7277598 -1.3765683 10.643916 16711746
-43.230633 -23.48933 54.712448 16711746
5.7183986 -2.4997475 12.026511 16711746
2.6202052 -0.56817108 11.545415 16711746
2.9791877 -0.32297432 10.693645 16711746
4.5227022 -0.38868976 10.984455 16711746
4.0686474 -0.47554433 11.003535 16711746
5.1109681 -0.10607952 10.456508 16711746
5.4690185 -0.1416083 10.470062 16711746
3.6937759 -0.34493476 10.96616 16711746
2.9735551 -0.32378039 10.678626 16711746
1.6834476 -0.84231001 9.7356243 16711746
2.0292964 -0.40326265 10.81031 16711746
0.7070598 -1.0252256 10.618023 16711746
2.6306665 -0.58084708 11.538424 16711746
3.6278327 -0.3680664 10.872205 16711746
1.958681 -0.37315315 10.923546 16711746
6.5375805 -0.2387729 10.527452 16711746
4.7516575 -1.1140001 11.022271 16711746
5.6798334 -0.33299783 10.925853 16711746
1.5316013 -0.49814492 11.14657 16711746
3.1050818 -0.39023048 10.691901 16711746
1.253347 -1.091746 13.017173 16711746
3.1105502 -0.53817391 11.012468 16711746
3.4878089 -0.45338154 10.814556 16711746
2.709605 -0.31898147 10.5451 16711746
3.9243042 -1.2736921 13.767025 16711746
3.4018111 -1.3678194 10.307549 16711746
0.059435859 -0.76028502 12.046194 16711746
0.3289718 -1.6943185 14.924482 16711746
3.8651528 -0.38887805 10.975077 16711746
3.876183 -0.37400839 10.987791 16711746
4.9280548 -1.2349486 14.110487 16711746
3.6642079 -0.25031543 10.559643 16711746
3.4795327 -0.44126329 11.135306 16711746
0.7634992 -0.54893589 11.677844 16711746
5.057127 -0.30008838 10.871387 16711746
5.7270632 -0.54978794 11.368092 16711746
3.9227099 -0.34361234 10.678157 16711746
3.6930771 -0.3561933 10.925117 16711746
4.1249428 -0.2084209 10.717475 16711746
3.7997854 -0.20682338 10.556318 16711746
3.0401342 -0.44429684 11.085684 16711746
2.7451267 -0.34173337 10.446974 16711746
2.7937875 -0.42984205 10.867485 16711746
1.8484842 -0.67019457 11.792909 16711746
3.6039929 -0.64362669 11.778523 16711746
1.8490421 -0.59992725 11.76867 16711746
3.4579384 -1.3431145 10.039188 16711746
2.3468947 -0.45975816 11.165127 16711746
1.8290486 -0.65907717 11.824471 16711746
0.12775406 -1.0140405 11.424246 16711746
0.49588943 -0.96009481 13.07925 16711746
3.7984655 -0.5021199 11.196405 16711746
1.0029761 -0.74097258 12.471959 16711746
3.6230245 -0.36096728 10.908458 16711746
4.0482483 -0.43070814 10.762445 16711746
2.0372565 -1.0104141 13.24535 16711746
7.1441789 -0.63600808 11.501302 16711746
6.6508541 -0.17798783 9.5995512 16711746
2.7430665 -0.34051433 10.645647 16711746
1.9993048 -0.48951215 11.072699 16711746
6.6847482 -0.15412667 9.6526499 16711746
1.1687825 -0.45518196 11.19017 16711746
3.7401612 -0.57913786 11.552695 16711746
0.55318975 -1.2980677 14.044497 16711746
9.7253828 -3.4881401 14.01838 16711746
7.8368864 -1.6528198 10.451349 16711746
2.9871471 -2.7528718 21.031183 16711746
6.0379376 -0.47069818 11.05892 16711746
-35.330276 -25.994957 53.774883 16711746
5.7923594 -2.497324 12.049635 16711746
7.8500662 -0.3409209 10.437807 16711746
3.1243005 -0.3278549 10.632267 16711746
2.5920668 -0.39651778 10.696156 16711746
6.955802 -0.22021233 9.8851662 16711746
4.5431213 -0.84759337 11.406104 16711746
4.5130057 -0.87591696 11.235015 16711746
4.6869025 -1.0075012 13.189795 16711746
6.8781409 -0.8956207 10.677076 16711746
6.2151961 -0.18230422 10.656503 16711746
6.2471328 -1.0750599 13.321431 16711746
1.8445866 -0.669541 11.780906 16711746
4.4240856 -0.87967628 12.250023 16711746
2.3647699 -0.35978082 10.628611 16711746
13.880759 -7.2286491 18.948095 16711746
2.3041193 -0.83917052 12.048122 16711746
4.0649071 -0.64321053 11.415054 16711746
2.0411637 -0.47222355 11.246828 16711746
3.9773872 -0.58081841 11.338166 16711746
3.2422032 -0.5535171 11.245134 16711746
1.2247713 -0.52687645 11.603304 16711746
1.0090201 -0.66242403 12.153763 16711746
3.0372639 -0.43929181 11.107203 16711746
4.2771673 -0.3801457 10.97983 16711746
2.3137813 -2.6626887 12.814296 16711746
7.5847802 -0.24595501 10.451137 16711746
0.37905303 -2.2950532 18.428638 16711746
2.4273241 -0.40112713 10.551663 16711746
4.109704 -0.45995471 10.761267 16711746
3.8104448 -0.75385922 11.937796 16711746
-0.95408064 -1.7032311 16.151621 16711746
-1.179494 -1.1853492 13.958731 16711746
6.7734847 -1.3887912 15.275601 16711746
4.4728384 -0.28397736 10.779862 16711746
-8.3151884 -5.5330367 34.333195 16711746
3.3912344 -1.3499404 10.251886 16711746
2.0538697 -0.47497946 11.228022 16711746
2.3342543 -0.62584412 11.639822 16711746
3.5882289 -1.2268474 14.219497 16711746
3.6020021 -0.64281994 11.78428 16711746
1.6670359 -0.69147408 12.083483 16711746
6.268548 -0.11365413 10.509895 16711746
3.5943463 -1.2344258 14.128239 16711746
-1.2828859 -1.1573491 14.055789 16711746
3.9221666 -1.2546842 14.278759 16711746
2.0589521 -0.47917971 11.206712 16711746
2.2833405 -0.29773009 10.820346 16711746
7.2115455 -0.80643982 11.925159 16711746
1.719785 -0.55461812 11.559952 16711746
4.0130019 -0.39739791 10.762847 16711746
6.2981901 -1.0249939 10.618928 16711746
-20.517302 -10.008098 30.560518 16711746
6.3043976 -2.2196412 11.24946 16711746
5.4358749 -7.190074 19.685463 16711746
2.1709237 -0.77926558 12.402811 16711746
2.6265128 -0.39999613 10.864776 16711746
1.4251415 -0.45027137 11.277779 16711746
4.0050445 -2.0635083 9.9418402 16711746
3.727916 -0.67140341 11.824709 16711746
3.8855133 -0.80270541 12.128234 16711746
1.4953698 -0.84000915 13.141836 16711746
7.170023 -1.8066887 11.019005 16711746
3.7945976 -0.54154575 11.294304 16711746
7.2138815 -0.62457597 10.088965 16711746
5.8891077 -0.8088938 11.352973 16711746
-3.8780167 -5.3891411 22.947672 16711746
2.6933696 -0.2774916 10.579123 16711746
6.0502291 -7.5598021 18.893381 16711746
6.2585402 -0.40508929 10.864483 16711746
3.3848877 -0.97973078 10.326031 16711746
6.6052494 -0.45295775 11.052843 16711746
2.2576654 -0.5621838 11.337796 16711746
6.7846866 -2.0488276 17.458143 16711746
1.5215657 -0.4979088 11.181821 16711746
13.571944 -5.4738212 15.141191 16711746
1.4000434 -0.53863472 11.18324 16711746
4.5713663 -0.72353786 11.279444 16711746
3.5450861 -0.95080334 12.802015 16711746
0.88458169 -1.6601073 15.609758 16711746
0.39376441 -0.84955716 12.841137 16711746
4.1159987 -0.7186119 11.59293 16711746
6.4638629 -0.32589614 10.85521 16711746
7.4612331 -1.9270384 10.634335 16711746
0.5793798 -0.64802223 11.905164 16711746
6.8726773 -1.263008 10.461472 16711746
5.5997543 -0.4870345 11.381112 16711746
4.4092202 -0.72087383 11.241998 16711746
1.6590241 -0.70500088 12.096294 16711746
5.0115995 -1.0114436 11.061809 16711746
4.8203773 -1.0369347 10.757755 16711746
2.5458128 -0.64912766 11.857599 16711746
4.6341367 -0.667678 10.905273 16711746
4.1110401 -0.77819586 11.372879 16711746
4.1260638 -0.74629867 11.545328 16711746
3.8158989 -0.85430825 12.306822 16711746
3.805779 -0.95619959 12.768752 16711746
-2.4271052 -5.3018003 15.725341 16711746
5.7733884 -1.0303016 11.463733 16711746
4.0580578 -0.49906147 11.017118 16711746
7.2434392 -0.6251995 11.096398 16711746
1.7050353 -0.54632038 11.592385 16711746
6.2930279 -0.38848746 10.897644 16711746
4.4253864 -0.59952134 11.093536 16711746
5.3533874 -0.44787607 11.03364 16711746
1.6824967 -0.54305899 11.616313 16711746
2.2750776 -0.56536156 11.291757 16711746
4.8496089 -0.89803767 11.757424 16711746
3.5827363 -0.56263882 12.085447 16711746
3.2654648 -0.67829448 11.202448 16711746
4.506988 -0.91400766 11.09475 16711746
3.9162712 -1.2646917 14.096445 16711746
8.8737478 -4.1238279 13.76003 16711746
4.8904099 -1.2313011 14.046256 16711746
9.3741179 -3.0707383 14.20476 16711746
5.5264225 -1.7664095 16.155464 16711746
5.7837639 -1.1254793 12.176776 16711746
3.7943337 -0.54397553 11.287124 16711746
17.381922 -7.1247301 17.872015 16711746
7.340497 -3.1871171 19.837662 16711746
-25.261745 -14.204665 35.812695 16711746
8.1232548 -3.5848551 14.192489 16711746
19.369476 -6.3832173 15.284635 16711746
17.892799 -5.8612728 14.415073 16711746
18.265318 -6.0163317 14.668989 16711746
4.4028788 -0.72266155 11.261127 16711746
7.073216 -1.2449402 10.589713 16711746
4.6789045 -1.0115578 13.118484 16711746
6.1889682 -0.43872502 10.798165 16711746
4.4090376 -0.72682351 11.251759 16711746
0.31151539 -0.8393237 12.922735 16711746
3.6157384 -0.67117363 11.682289 16711746
3.2757394 -1.1879233 15.989806 16711746
3.6080227 -0.64525104 11.761464 16711746
4.0619941 -0.61805123 11.519786 16711746
3.4995883 -1.4295484 14.351341 16711746
3.5452857 -0.5597285 11.138787 16711746
3.2663879 -0.84067351 12.154983 16711746
3.6522269 -0.65485394 11.69116 16711746
3.6950729 -0.89024413 12.331137 16711746
5.6417871 -0.62290376 11.175568 16711746
4.1772132 -0.73210108 11.39966 16711746
4.5930157 -0.87561512 10.778818 16711746
2.8346963 -1.1802133 13.318249 16711746
5.2099919 -0.92896861 10.906911 16711746
2.6481988 -0.47394234 11.094044 16711746
5.6620169 -0.51825005 11.192329 16711746
3.479543 -0.75146073 11.943851 16711746
3.6849658 -0.80453146 11.818161 16711746
7.2748594 -7.2873945 17.807684 16711746
7.0092516 -7.8978271 19.958969 16711746
8.0526924 -3.0928135 13.109744 16711746
10.117105 -5.4260335 15.784853 16711746
15.683788 -5.1804996 13.35847 16711746
3.0803788 -1.7482241 16.097603 16711746
4.8215842 -1.3364877 13.918354 16711746
6.7649665 -0.39423478 10.829132 16711746
5.9576669 -0.53480083 10.941283 16711746
6.8518934 -1.8554347 10.195463 16711746
3.3170481 -0.7393738 11.136212 16711746
4.3973231 -0.68679518 10.893758 16711746
1.3352201 -0.57720786 11.650253 16711746
4.8670969 -0.89271992 10.467588 16711746
-0.0028331359 -9.5676651 23.558199 16711746
3.503114 -0.77451134 11.830156 16711746
0.38675016 -0.81961107 11.59916 16711746
10.432443 -7.5873823 18.326721 16711746
3.4213221 -1.5164962 10.0038 16711746
3.0101371 -0.86148781 12.680896 16711746
-2.7770846 -1.8338807 16.958344 16711746
2.7998405 -1.1774868 13.430352 16711746
4.8223982 -4.0090108 12.881304 16711746
6.5201364 -0.49374688 10.957284 16711746
4.7957978 -0.8786155 10.834385 16711746
-3.0256462 -4.817945 15.066118 16711746
5.5800433 -5.1299672 15.333241 16711746
5.4365859 -4.8883076 14.934519 16711746
6.2981515 -0.38469571 10.89163 16711746
5.7388315 -5.2879481 15.274426 16711746
2.3373613 -0.88696045 9.8401365 16711746
4.1996803 -0.88601846 12.090993 16711746
8.8273802 -1.258063 13.146283 16711746
10.049974 -1.8417228 16.526972 16711746
4.8144302 -0.86799592 11.864513 16711746
7.1280694 -0.83832037 10.822367 16711746
6.6983714 -0.39630589 11.149544 16711746
6.4772058 -0.96730691 10.787861 16711746
3.1942973 -0.84833175 12.417926 16711746
4.8062577 -0.89562196 11.742741 16711746
5.1834526 -0.89277476 10.710874 16711746
2.6918666 -1.2561954 13.855595 16711746
5.1609845 -1.0579034 11.324073 16711746
3.1017406 -0.79120123 12.621245 16711746
0.43282706 -9.8084459 23.076208 16711746
9.507802 -2.7195966 15.008643 16711746
9.8387928 -8.5191097 22.354368 16711746
10.594865 -6.3397727 17.152397 16711746
2.2121704 -0.74470627 12.320313 16711746
2.079669 -0.48366144 11.211632 16711746
4.2805004 -0.84079033 12.189397 16711746
-1.0277716 -1.1769003 13.825478 16711746
5.7872124 -1.9247645 15.944753 16711746
3.8089044 -0.84543991 12.288293 16711746
5.3717299 -4.8259354 14.893426 16711746
2.9974904 -7.2589216 19.087858 16711746
3.7049432 -0.88108611 12.361532 16711746
2.7817099 -0.89001054 12.541353 16711746
1.3674773 -0.53143668 11.27577 16711746
6.0583429 -0.94431949 13.287023 16711746
-3.1900063 -5.5778484 15.193131 16711746
4.8713107 -0.87608618 10.55194 16711746
5.7765613 -3.3453085 12.412618 16711746
3.5542748 -0.95659721 12.77224 16711746
4.28406 -0.83424264 12.201289 16711746
3.2503366 -0.83344871 12.208808 16711746
3.7278388 -1.1075813 12.957937 16711746
6.6626625 -0.93180239 10.927771 16711746
3.2372718 -1.074532 13.299276 16711746
4.4604053 -0.85471034 12.300212 16711746
2.7154589 -1.5819557 13.65205 16711746
4.7737741 -0.93805522 11.565952 16711746
4.288866 -1.3561282 12.639773 16711746
6.9018207 -0.89558238 12.479351 16711746
7.0414128 -0.76765919 12.118878 16711746
7.6439872 -1.4426175 11.093088 16711746
5.1963506 -1.1152267 13.236941 16711746
4.9203033 -1.289163 14.687458 16711746
4.8604722 -1.3189898 14.25378 16711746
6.787631 -1.2715795 10.385386 16711746
3.1988499 -0.85335344 12.344129 16711746
5.3721719 -1.0047734 12.82529 16711746
2.3966069 -1.5350394 14.868037 16711746
3.1877022 -0.93749285 12.751832 16711746
6.6213002 -7.802958 20.564459 16711746
6.748301 -4.1088619 13.488074 16711746
3.7092168 -1.0829836 13.077945 16711746
3.8882265 -0.80561012 12.072494 16711746
3.8863885 -0.80750942 12.082746 16711746
5.1238708 -1.0246557 12.699348 16711746
3.8269992 -0.86510974 12.194616 16711746
6.1988873 -5.3026118 17.848398 16711746
6.9786377 -4.2938375 13.899121 16711746
6.2267137 -0.64401728 11.535172 16711746
10.507323 -6.3084221 15.374079 16711746
11.364307 -7.1484914 22.069757 16711746
6.46524 -12.207568 27.313225 16711746
11.674356 -7.4775281 16.109509 16711746
8.6110888 -6.2649202 16.5308 16711746
3.874265 -0.85056365 12.446699 16711746
3.4694901 -0.91850537 12.695431 16711746
3.9090345 -1.2453556 13.537662 16711746
5.136363 -0.96869951 12.723392 16711746
3.2187572 -1.0571126 13.460118 16711746
4.9209232 -1.03767 11.040082 16711746
3.1593187 -1.0275846 13.616808 16711746
5.4291358 -1.1157162 11.396852 16711746
2.2953372 -1.0171303 13.039888 16711746
2.6355319 -0.9001649 12.651946 16711746
4.0545697 -1.21709 12.333909 16711746
2.58125 -0.98860359 13.036308 16711746
7.4159222 -0.87839848 12.577263 16711746
6.1528082 -0.90765595 13.412351 16711746
7.4985414 -5.9072909 16.551586 16711746
5.9129591 -1.6150891 15.456094 16711746
3.7258539 -1.1090064 13.024456 16711746
7.2644849 -1.2082129 13.699533 16711746
6.7005901 -1.3992053 14.993477 16711746
6.5395632 -7.0985899 18.542337 16711746
4.7163906 -0.94295305 12.481697 16711746
3.2724979 -1.0815016 13.184927 16711746
4.4939165 -0.8734917 11.412443 16711746
6.0790372 -0.9448052 13.346265 16711746
4.3877702 -0.81486648 12.084784 16711746
7.3187857 -0.78385514 10.959755 16711746
3.2127945 -0.85102385 12.367311 16711746
2.0145307 -0.71301335 12.648722 16711746
4.5651441 -1.2548156 13.560705 16711746
2.4785688 -0.92672396 12.853086 16711746
2.1906126 -1.3544809 14.789861 16711746
4.9820285 -1.0710837 13.472941 16711746
3.7049158 -1.0812297 13.101223 16711746
7.1148362 -0.91824937 12.678277 16711746
2.9304519 -1.379007 14.503879 16711746
4.9629116 -1.2035984 13.399269 16711746
3.8053031 -0.95184177 12.727312 16711746
4.9098692 -4.3859148 13.946915 16711746
2.7273972 -1.3485082 14.981189 16711746
9.7116957 -1.1944849 13.945915 16711746
2.6177077 -0.90111148 12.695999 16711746
2.4593911 -1.3715556 14.54983 16711746
9.0396433 -5.6340842 17.183821 16711746
5.8905234 -1.6187124 15.360954 16711746
9.7113991 -8.8688984 21.781536 16711746
10.804886 -9.0455103 24.837244 16711746
4.6987019 -1.1059767 13.130748 16711746
7.5971718 -5.0474372 14.949832 16711746
5.6760392 -1.5967813 14.743336 16711746
0.98420233 -1.3511084 14.068748 16711746
4.7895327 -0.8877365 11.798331 16711746
4.6440945 -1.0356902 12.908331 16711746
6.8277569 -0.59284914 11.360396 16711746
2.3692145 -0.87912613 12.840898 16711746
5.2628736 -0.92287725 11.845629 16711746
1.3060431 -1.1202542 13.931816 16711746
4.7943048 -1.5584577 13.749436 16711746
1.8273414 -0.91908932 13.519404 16711746
4.3472514 -1.0178648 12.940135 16711746
3.2326894 -0.81522769 12.2548 16711746
2.5956836 -0.70108467 12.230659 16711746
4.9685655 -1.18689 13.432352 16711746
8.8806458 -1.1808687 13.498466 16711746
7.4232564 -1.087801 13.608299 16711746
1.2694759 -1.7305208 15.115217 16711746
5.0093985 -1.2816159 13.984856 16711746
7.0839887 -0.86495978 11.802632 16711746
9.9310312 -5.2739077 16.258549 16711746
10.228853 -6.058784 16.712135 16711746
7.8253284 -6.1525607 17.441067 16711746
1.417997 -0.81727707 13.285993 16711746
11.539402 -6.107667 18.144173 16711746
5.0427279 -1.2736992 14.183145 16711746
6.0780544 -1.8022866 15.967254 16711746
7.1153383 -3.9385939 14.351314 16711746
-36.051895 -20.137936 55.029171 16711746
2.3522739 -0.73269081 12.241628 16711746
7.9229918 -1.0327632 13.083497 16711746
0.1064663 -1.8010736 15.88559 16711746
1.0678229 -1.3242195 14.324377 16711746
4.2592316 -1.0120071 12.291594 16711746
1.7496085 -1.3890032 14.040943 16711746
7.4881673 -8.2249842 22.146698 16711746
2.3068352 -1.0385476 12.909991 16711746
6.9687119 -1.1593704 13.918339 16711746
9.5566196 -1.2025874 13.850393 16711746
8.9175673 -3.00916 13.870301 16711746
10.04281 -5.9932604 15.681967 16711746
5.5044761 -1.1337342 13.314355 16711746
6.5194111 -0.97903067 13.338723 16711746
8.0632086 -1.3849324 14.821671 16711746
0.22644535 -1.1850671 13.90118 16711746
1.7634187 -1.1189278 13.990829 16711746
7.2119732 -0.72640163 12.18175 16711746
2.7146013 -0.87024438 12.649562 16711746
6.2593575 -0.78428656 12.158286 16711746
4.9321384 -1.1267463 13.07106 16711746
4.6390128 -1.0555317 12.788736 16711746
1.1914048 -1.7154181 15.305958 16711746
5.1820188 -1.1788729 12.964216 16711746
4.348268 -1.0716593 12.643792 16711746
6.4171724 -0.91878164 12.63817 16711746
3.2685575 -1.4793648 16.967272 16711746
1.8190435 -1.1370524 14.072864 16711746
1.7802452 -1.1291964 14.125704 16711746
4.6944537 -1.0149297 12.88322 16711746
7.9645185 -1.3942494 14.725295 16711746
6.0429258 -1.1379492 13.54013 16711746
7.9241443 -8.4883642 19.705944 16711746
6.5228882 -1.0771948 13.034149 16711746
8.1352797 -1.5990931 15.928008 16711746
7.544076 -1.4573922 16.063309 16711746
8.9358892 -7.9507265 20.570086 16711746
5.1429958 -0.96556836 12.725681 16711746
2.6462841 -1.0223708 13.559167 16711746
5.5921483 -3.9712484 14.640714 16711746
4.6472845 -3.4954321 13.363414 16711746
5.3847528 -3.9433734 13.350203 16711746
6.7163577 -1.0332962 13.383401 16711746
8.8838472 -1.177573 13.498217 16711746
7.5610123 -1.0439235 13.546826 16711746
1.7614409 -1.1247741 12.6148 16711746
4.5096202 -1.2623436 13.432602 16711746
6.5631766 -1.0482002 13.599495 16711746
7.0566397 -0.93730211 12.597043 16711746
3.237581 -1.0541474 13.272194 16711746
5.9265056 -2.9109709 12.149206 16711746
2.7855349 -1.1753538 13.458775 16711746
1.8868991 -0.93699956 13.424935 16711746
3.7547214 -1.0602196 12.846758 16711746
2.0327101 -1.4470158 13.563832 16711746
9.3165407 -1.2948025 14.09669 16711746
-4.2560811 -11.626743 25.388374 16711746
6.5732336 -1.0604148 13.60484 16711746
1.6766139 -1.3524156 14.164275 16711746
7.9675345 -6.1052871 17.866652 16711746
7.4698601 -1.5034288 15.894473 16711746
6.2902012 -1.2750152 14.09443 16711746
8.9500713 -6.99652 17.325081 16711746
3.833679 -2.9572635 20.82852 16711746
-4.6350241 -9.6036663 27.316154 16711746
10.088311 -6.6366663 18.809469 16711746
4.3957081 -1.0967841 13.281977 16711746
6.7880015 -0.60474974 11.316958 16711746
7.8221178 -0.89563859 11.987894 16711746
7.7224722 -0.78389025 11.843121 16711746
4.6973529 -1.0105519 12.89097 16711746
6.7728014 -0.71712548 11.998027 16711746
6.0684772 -0.90345508 11.865741 16711746
8.9385128 -0.89981967 12.393469 16711746
4.6147785 -1.0630279 12.953398 16711746
1.1304148 -1.345437 14.229874 16711746
7.2998257 -0.82656908 12.36229 16711746
4.6495624 -1.0243883 12.992438 16711746
5.2751122 -1.0452726 13.492569 16711746
6.2010503 -4.6842523 15.505665 16711746
6.2750335 -1.8379112 16.723366 16711746
1.9190553 -0.95896572 12.523026 16711746
6.7295775 -0.73509693 11.94921 16711746
5.9962177 -1.5482415 14.969416 16711746
5.9064169 -1.614892 15.392273 16711746
0.68587357 -1.284186 13.94835 16711746
8.1721163 -6.8371477 18.199661 16711746
4.616189 -1.0554048 12.951593 16711746
5.0052848 -0.92763984 12.325717 16711746
7.0172753 -0.60845089 11.690578 16711746
8.2339888 -1.0624598 11.581141 16711746
5.5142312 -1.369131 14.351913 16711746
8.4205914 -0.97937977 12.975711 16711746
5.5299754 -1.1730025 14.067312 16711746
5.6574602 -1.5647029 15.047526 16711746
6.572227 -0.88573122 12.989625 16711746
4.634325 -0.96499515 12.847065 16711746
6.7904005 -0.7536065 12.06079 16711746
3.3915968 -2.0084839 16.931208 16711746
8.832448 -3.8163619 17.836615 16711746
8.964077 -6.1769166 17.640114 16711746
9.2219019 -6.7693191 20.56592 16711746
4.44842 -1.1758146 13.240784 16711746
4.3217225 -9.5411844 20.790684 16711746
5.0734811 -1.1160737 12.320438 16711746
11.417696 -9.7452993 26.291172 16711746
8.3944607 -8.1018581 20.338469 16711746
9.6633854 -3.8579524 14.980815 16711746
9.7390699 -7.3256865 20.884697 16711746
9.770071 -2.8601627 13.974114 16711746
15.466751 -8.1101713 18.848063 16711746
18.452999 -8.7861137 23.533339 16711746
10.493943 -7.0549765 21.043846 16711746
4.4074588 -1.0983829 12.974432 16711746
5.2055469 -1.1170833 13.002329 16711746
6.8307414 -0.60904956 11.861255 16711746
5.5818133 -1.2903973 13.878416 16711746
7.5711207 -0.67466289 11.474197 16711746
4.6822462 -2.2443388 14.284415 16711746
2.0977359 -1.1967175 13.600586 16711746
2.6956143 -1.2672402 13.869819 16711746
7.0825386 -0.67308265 11.448622 16711746
6.2237282 -0.8672204 12.54178 16711746
4.6841259 -1.5219212 12.27251 16711746
2.9938326 -5.1493549 15.011903 16711746
4.6931405 -1.5326046 12.229801 16711746
10.264315 -7.6476445 19.72517 16711746
7.5993638 -1.6645092 16.235744 16711746
10.153302 -2.8414772 15.724051 16711746
10.658643 -4.6642084 16.333572 16711746
9.7662745 -7.0296392 19.061771 16711746
12.272688 -8.3535337 21.472902 16711746
9.0658016 -7.3629112 19.649584 16711746
13.517599 -8.4793262 26.363728 16711746
-10.568509 -13.086046 33.299362 16711746
-13.491781 -14.898321 37.866558 16711746
7.9518657 -8.5945215 20.319069 16711746
6.0918341 -1.0889517 13.68546 16711746
4.1801481 -1.8140457 15.720201 16711746
5.4154468 -0.97566396 12.908545 16711746
-4.9797292 -4.2199755 22.413195 16711746
6.833734 -1.0707977 13.692736 16711746
7.2972951 -0.90302682 12.754774 16711746
7.1943583 -0.94435781 12.645094 16711746
6.7357068 -1.3969454 15.068423 16711746
6.7523084 -2.913192 16.559706 16711746
11.596908 -8.9107437 22.536283 16711746
9.6783476 -8.4676256 22.975374 16711746
8.6061134 -5.3967481 16.73592 16711746
9.9120092 -1.1816149 14.13015 16711746
1.935573 -1.6758552 15.130054 16711746
8.740346 -2.6533139 13.052494 16711746
6.9713807 -2.9996405 17.313917 16711746
7.8911166 -1.2796278 11.333842 16711746
6.9037981 -0.85132831 11.041241 16711746
6.3546944 -0.77162838 12.768065 16711746
7.5813532 -0.54429334 11.408066 16711746
7.1868582 -0.77585542 12.120776 16711746
5.4636116 -1.2888796 11.873338 16711746
8.1096067 -1.7808437 11.515668 16711746
7.7286434 -1.7937056 11.341773 16711746
4.2051158 -1.7295264 15.470989 16711746
7.0397429 -0.65185487 11.736621 16711746
8.567071 -1.1702549 12.471721 16711746
4.3955274 -1.0782549 12.726516 16711746
7.3118987 -0.79705065 11.324425 16711746
10.489078 -4.786706 15.88706 16711746
13.179072 -8.959281 24.691824 16711746
17.745855 -9.8088722 23.764917 16711746
10.564822 -3.6800516 16.971365 16711746
7.9172802 -1.6044115 16.009834 16711746
9.7517271 -5.4370809 16.371098 16711746
6.4881558 -1.7281108 15.95751 16711746
6.4948802 -0.99334884 13.344566 16711746
6.938899 -0.88172626 12.521571 16711746
7.5673766 -1.0452127 13.541533 16711746
1.7441242 -4.4522796 22.707809 16711746
5.1049542 -1.1008861 12.770858 16711746
9.0597935 -6.8807278 20.469534 16711746
9.2496309 -5.5945873 17.742388 16711746
7.6974268 -1.3492371 14.821079 16711746
6.0462079 -1.135102 13.592705 16711746
10.429973 -8.544179 20.286705 16711746
11.036235 -3.4371805 16.887707 16711746
15.094296 -8.7923994 26.214573 16711746
5.3028321 -1.1280342 13.226387 16711746
5.237659 -1.3132929 14.081448 16711746
9.1671858 -1.1292838 13.71603 16711746
5.2842379 -1.1434195 13.166418 16711746
2.7845688 -1.180482 13.451136 16711746
4.157773 -1.0986402 12.799822 16711746
4.6869187 -1.5490259 12.139439 16711746
4.1292887 -1.2170422 13.171837 16711746
4.5167255 -1.1248053 12.963758 16711746
4.7074804 -1.5531552 12.064142 16711746
2.4858236 -1.3197492 14.218387 16711746
5.5608115 -1.1113577 13.176153 16711746
6.3099966 -0.69927651 12.301692 16711746
3.8540587 -1.6903909 15.243938 16711746
10.416817 -5.6018677 18.119085 16711746
4.0067196 -2.9822314 20.626101 16711746
8.2691631 -0.89072412 11.807515 16711746
10.483424 -2.5911505 13.305244 16711746
15.648891 -7.3474422 20.617443 16711746
11.802462 -6.5862002 20.034449 16711746
8.5095749 -3.6752291 17.21582 16711746
6.8557587 -2.6661117 14.264892 16711746
8.639699 -1.0671904 12.792037 16711746
5.5589938 -1.0243756 13.687667 16711746
4.4270926 -1.0523744 12.81969 16711746
5.7925968 -2.2824218 18.336544 16711746
6.1538796 -0.98599762 13.296519 16711746
5.720685 -1.1495019 13.486802 16711746
7.3382258 -0.6644026 12.289919 16711746
6.2843714 -1.3801852 14.616035 16711746
8.6918955 -1.0440377 12.790186 16711746
6.571753 -0.84508765 12.928032 16711746
6.3954616 -0.79480404 13.77949 16711746
7.4085097 -0.97601753 12.316114 16711746
7.3121147 -2.2591391 18.55615 16711746
6.0593753 -1.5015059 14.834776 16711746
5.4874759 -2.3562984 11.150918 16711746
5.4963455 -1.2456824 13.806815 16711746
4.388474 -1.3839668 14.759414 16711746
4.3687186 -1.1781262 13.171605 16711746
5.3199515 -1.0180806 12.800331 16711746
5.4946499 -1.2421358 13.853424 16711746
3.9851112 -1.5622648 14.826833 16711746
7.4992352 -0.8277697 12.64724 16711746
9.8883791 -1.6060128 14.82918 16711746
7.8880601 -1.1493814 13.901249 16711746
6.0860095 -1.0990775 13.661679 16711746
6.3035831 -0.98474222 13.34531 16711746
5.6055188 -1.2874845 13.975126 16711746
5.3471441 -1.2097726 13.627173 16711746
7.81675 -0.88514215 12.089254 16711746
5.9989891 -0.83416605 12.876022 16711746
6.085175 -0.9974885 12.995215 16711746
6.4511228 -1.2726811 14.461824 16711746
6.3211098 -0.97479469 13.351665 16711746
6.9001694 -1.3408909 14.769464 16711746
7.9633956 -1.282272 14.628759 16711746
8.4856215 -1.1349629 14.203337 16711746
8.7058144 -4.4290853 14.484042 16711746
7.0965495 -1.2253195 14.326098 16711746
10.216846 -2.4633188 15.089564 16711746
7.0130978 -2.8377452 14.198227 16711746
8.3209639 -5.8328757 18.253475 16711746
8.6646109 -3.7470651 17.540312 16711746
9.1946354 -4.2403212 18.449997 16711746
3.9643943 -1.4024584 14.18661 16711746
4.8011694 -1.8869706 13.077351 16711746
4.8138528 -3.2961683 12.836362 16711746
4.8513303 -3.1961386 12.799705 16711746
4.27039 -1.466916 14.755328 16711746
8.7118797 -1.1196715 13.847091 16711746
3.8618073 -1.2081075 13.446981 16711746
6.9288669 -0.88379413 12.53134 16711746
5.841455 -1.3186425 14.074049 16711746
-0.88742191 -8.9129457 19.710646 16711746
6.5092015 -0.80626112 12.355288 16711746
2.145566 -9.3419123 20.249756 16711746
2.6103508 -8.7345676 20.213806 16711746
7.3518825 -0.98512524 13.208608 16711746
3.1289201 -2.5213869 18.163599 16711746
7.4213643 -4.8437037 15.695401 16711746
10.58319 -5.0123587 21.315804 16711746
9.029294 -8.551321 22.294601 16711746
0.51468486 -5.0283284 17.008955 16711746
11.056023 -5.9737968 18.914314 16711746
11.137566 -7.5254545 20.733225 16711746
10.070654 -8.6151009 19.966837 16711746
7.7844911 -1.3254366 14.320348 16711746
6.2879658 -1.3584449 14.431171 16711746
0.82205105 -8.9796352 21.508398 16711746
0.83502448 -8.7290192 21.840399 16711746
5.9250927 -0.90054667 12.887126 16711746
9.9886017 -1.8777008 14.919812 16711746
15.191914 -6.7776995 17.259443 16711746
7.7920189 -0.89062333 12.924951 16711746
11.031426 -3.2661676 16.433992 16711746
7.0101242 -0.7383545 12.297703 16711746
6.6557608 -0.71714395 12.544467 16711746
4.8218627 -1.8488543 12.805528 16711746
4.6199765 -1.4317554 12.712257 16711746
4.5642495 -1.3697966 13.81159 16711746
4.4637456 -1.1679342 13.232536 16711746
4.963676 -1.2109745 13.389305 16711746
4.8462682 -2.2128413 13.667113 16711746
5.1022058 -1.2957337 13.988788 16711746
5.3755598 -1.2036614 13.644549 16711746
3.8517909 -1.4208429 14.289058 16711746
6.0180774 -0.98787212 13.390804 16711746
6.080421 -0.82921529 12.642298 16711746
5.0131073 -1.2894144 13.974241 16711746
3.1139724 -1.7674178 15.973092 16711746
2.6116586 -2.315196 15.957198 16711746
4.5169911 -1.2673519 12.880367 16711746
3.5568204 -1.5617567 14.717634 16711746
3.4132962 -1.5021793 14.448407 16711746
4.7607012 -1.919275 13.609071 16711746
7.3039641 -0.82208937 11.725438 16711746
9.8035221 -1.7198737 16.117208 16711746
5.224297 -1.4197024 14.807747 16711746
-1.3292481 -8.6289797 20.655523 16711746
7.1399965 -1.2043412 14.394691 16711746
6.7361999 -1.35513 14.831129 16711746
7.4081645 -0.88051236 12.568581 16711746
8.0519505 -1.0859731 11.835691 16711746
7.8369751 -2.7342467 14.914046 16711746
2.3703012 -1.8269968 15.449221 16711746
-3.1178734 -11.407954 24.740234 16711746
-1.7387675 -12.919279 29.319935 16711746
9.7151461 -4.5460277 19.352013 16711746
-10.6251 -15.174343 33.622932 16711746
7.8172054 -1.2943143 14.722856 16711746
6.3145652 -1.3706288 14.688409 16711746
5.8403773 -1.4413961 14.557612 16711746
3.0700102 -1.5813488 15.289061 16711746
9.4432268 -1.4029671 14.869378 16711746
6.1918974 -0.92047179 13.216286 16711746
4.1496396 -1.4976331 14.879786 16711746
5.4512339 -1.1718792 13.135796 16711746
5.8466697 -1.3229092 14.015051 16711746
6.491498 -5.150918 17.742758 16711746
3.7738035 -1.283821 13.67382 16711746
5.2384057 -1.2152225 13.720128 16711746
4.8000565 -1.8467522 12.947838 16711746
4.8136353 -1.8524535 12.748784 16711746
4.8255062 -1.8358968 12.69154 16711746
5.2000017 -3.925535 14.708319 16711746
1.9199489 -5.9700365 16.102194 16711746
7.5244989 -1.0434569 13.737013 16711746
7.0200596 -0.81737858 12.631981 16711746
7.6871638 -1.1435498 13.374553 16711746
5.5528889 -1.150629 13.441067 16711746
1.4669766 -2.3535068 17.954857 16711746
3.9485943 -1.2681624 13.485548 16711746
3.4778874 -1.3985142 14.061879 16711746
2.7468877 -5.3816118 16.896227 16711746
5.2001877 -1.4159017 14.746954 16711746
4.3380904 -1.3290783 13.685495 16711746
2.1941817 -1.5696952 14.638886 16711746
0.76337725 -8.0597839 21.487368 16711746
4.0631847 -1.3154539 13.799289 16711746
6.3623266 -1.2030698 14.186913 16711746
7.6960793 -1.3290924 14.229554 16711746
1.8585434 -7.963171 20.03829 16711746
5.4369397 -1.39687 14.695365 16711746
2.4242101 -8.8315716 22.689203 16711746
3.3372791 -6.9160056 18.177132 16711746
10.667894 -2.0638576 15.604303 16711746
2.022485 -1.9329002 15.895773 16711746
0.47301117 -7.9026699 18.899385 16711746
3.8857548 -12.602177 25.915211 16711746
-4.9451489 -16.650099 37.846497 16711746
8.5491142 -7.6316571 20.789963 16711746
3.933569 -1.250468 13.532352 16711746
3.0372927 -1.6516275 15.348867 16711746
8.7786436 -1.4536138 14.572829 16711746
3.0032008 -7.3138485 18.162918 16711746
3.5554018 -1.5617274 14.781887 16711746
10.162719 -1.1426147 14.30245 16711746
10.264325 -2.8356459 14.609824 16711746
6.7479358 -0.887995 12.739934 16711746
1.6341954 -7.588954 18.817537 16711746
3.9644871 -1.3055867 13.616713 16711746
5.7599359 -1.3306491 14.239384 16711746
0.64207447 -2.3992832 18.252562 16711746
2.6766808 -4.887991 21.486996 16711746
15.677238 -8.9419165 23.944166 16711746
4.6228671 -1.0825438 12.829783 16711746
3.049474 -1.6441602 15.330164 16711746
2.4873319 -1.9154264 15.888852 16711746
4.1958308 -1.4359314 15.113076 16711746
5.3600245 -1.4068712 14.396492 16711746
3.1780419 -2.2097011 17.160519 16711746
3.1636968 -2.8624246 18.3016 16711746
2.9774663 -2.9626267 19.111238 16711746
3.1258271 -2.5096805 18.261854 16711746
3.4770889 -2.012773 16.752401 16711746
8.0443573 -0.96314299 13.377301 16711746
2.41289 -1.9105835 16.018021 16711746
3.6813567 -1.2731407 13.73375 16711746
4.1653719 -1.5021799 14.811466 16711746
6.8417773 -0.87755412 12.952662 16711746
3.1265707 -2.5272133 18.219748 16711746
9.0901175 -1.4749291 14.058643 16711746
5.4511986 -1.1656909 13.139339 16711746
6.5190201 -0.98651016 13.497321 16711746
3.9371617 -1.3492862 14.199512 16711746
3.9634759 -1.3136126 13.631403 16711746
5.5070515 -1.0644958 13.050656 16711746
9.5148335 -1.9351907 14.35095 16711746
5.5047855 -1.0633891 13.065595 16711746
4.8553319 -2.1895418 13.307053 16711746
5.8986197 -1.1588343 13.908946 16711746
0.13193835 -2.5571518 19.488253 16711746
2.9537947 -1.2836084 13.774792 16711746
9.9422483 -3.0780559 17.333338 16711746
11.109675 -2.9932108 17.753372 16711746
6.2859616 -1.3477973 14.461772 16711746
3.4556587 -1.4002866 14.130648 16711746
4.8927855 -1.4733462 13.224077 16711746
6.4402232 -1.6545897 16.19128 16711746
9.3337698 -7.950799 21.851048 16711746
-2.2357936 -9.4233723 20.702452 16711746
-10.063643 -13.038238 29.641033 16711746
6.2950363 -1.6837494 15.579309 16711746
3.7338798 -1.1815026 13.135409 16711746
4.1266575 -1.1538815 13.069895 16711746
5.708468 -1.7515653 15.872698 16711746
6.1201901 -0.919801 13.112713 16711746
5.4839487 -1.2544333 13.809249 16711746
3.6572447 -1.225354 13.530128 16711746
9.7080679 -1.0179019 14.143463 16711746
6.1470466 -1.5737166 15.099545 16711746
6.9800858 -0.94906676 13.354773 16711746
5.8012037 -1.1974783 13.750145 16711746
6.6975737 -1.3995104 14.885967 16711746
5.8519888 -0.94462836 13.06069 16711746
8.0485582 -0.94940114 13.381037 16711746
6.9670587 -0.96530855 13.313447 16711746
5.5055552 -1.3835493 14.302605 16711746
-3.3447413 -8.1390295 21.335127 16711746
-6.485394 -10.075788 27.732948 16711746
8.3905067 -1.166218 14.084092 16711746
2.0032237 -1.6684051 14.806176 16711746
8.4247589 -1.0655073 14.014121 16711746
7.6483188 -2.4994195 19.111238 16711746
3.152751 -1.2392279 13.592135 16711746
7.7915578 -2.5558772 19.533131 16711746
7.1824369 -1.2208219 14.31927 16711746
5.659657 -1.5756856 14.994441 16711746
5.4651327 -1.5670062 14.977354 16711746
4.9048901 -1.1094366 13.184355 16711746
5.5778599 -1.2848319 13.91145 16711746
5.1048698 -1.2892594 13.995185 16711746
3.0871334 -1.4873886 14.775663 16711746
3.4204223 -1.8051741 16.621571 16711746
1.0615529 -1.9816862 16.223818 16711746
5.2389941 -1.0721687 13.095651 16711746
6.8408799 -1.0561285 13.725125 16711746
3.1875818 -1.7866448 15.783831 16711746
5.7179484 -1.7550169 15.946755 16711746
2.8795722 -1.3135922 14.056203 16711746
6.2217736 -0.91457182 13.472342 16711746
6.0754619 -1.5427283 15.287579 16711746
5.9180503 -1.3978274 14.494497 16711746
5.9588642 -0.89132851 13.514395 16711746
6.7443371 -1.1109434 14.017347 16711746
6.4659376 -1.1415316 13.807924 16711746
5.9249401 -1.4018668 14.465723 16711746
4.5665741 -1.2647556 13.540435 16711746
2.9620848 -1.3999949 14.297727 16711746
3.499572 -2.425782 16.930298 16711746
4.9537711 -1.2097044 13.455287 16711746
2.9345238 -1.2334219 13.799035 16711746
4.6927471 -1.4892473 12.29678 16711746
3.5658264 -1.2249111 12.774619 16711746
6.5742683 -1.0350257 13.717266 16711746
5.0160165 -1.2085326 13.555273 16711746
6.8269229 -1.068749 13.704297 16711746
6.685782 -0.94125533 13.950909 16711746
5.6655135 -1.7032118 15.754341 16711746
6.5976653 -1.0473469 13.625638 16711746
4.3080945 -2.675148 15.570651 16711746
6.577374 -1.4417005 15.003441 16711746
5.1564898 -1.7049357 15.889739 16711746
6.025322 -1.5126539 14.943074 16711746
6.2716579 -0.86675775 13.145621 16711746
5.9831047 -1.3873118 14.319623 16711746
2.2800808 -1.2196206 15.522191 16711746
4.9679718 -2.307647 17.969641 16711746
7.5791926 -1.0282694 13.600234 16711746
5.672389 -1.558226 15.180567 16711746
6.3336682 -0.96312648 13.404381 16711746
6.7513566 -1.2581644 14.53061 16711746
6.1056118 -2.0061657 17.124737 16711746
7.2504458 -1.2224014 13.659341 16711746
0.60933417 -2.390485 18.255484 16711746
6.5040574 -1.2705699 15.133118 16711746
3.4408357 -1.4923784 14.403413 16711746
0.043746069 -3.7816544 19.583155 16711746
2.8472607 -3.100765 19.659105 16711746
5.0011435 -1.1301608 13.339463 16711746
5.1062207 -1.1991626 13.459381 16711746
5.0082173 -1.1616355 13.24057 16711746
3.6545818 -1.0459659 13.051951 16711746
3.80059 -1.1404824 12.837707 16711746
5.0211391 -1.1909618 13.134123 16711746
4.8846812 -1.1191174 12.999228 16711746
4.684967 -1.5035125 12.286341 16711746
3.6801364 -1.2691773 12.608457 16711746
5.8092971 -1.229237 13.599444 16711746
4.7036948 -1.495075 12.264286 16711746
3.8448164 -2.3338389 11.835315 16711746
3.8228545 -2.6109765 11.836267 16711746
3.9885027 -1.3036203 13.610911 16711746
-27.786421 -21.57531 38.487923 16711746
-13.656395 -10.90398 26.838057 16711746
9.5322142 -11.314818 31.924519 16711746
-1.2923216 -2.0826268 16.723602 16711746
5.2794609 -1.2915308 14.069504 16711746
7.9614172 -1.0706184 13.725249 16711746
8.1205273 -1.0180181 13.683957 16711746
-3.6567919 -4.7607217 26.13983 16711746
5.6396017 -1.5107194 14.815526 16711746
-0.31515846 -10.565255 23.794567 16711746
5.0979371 -1.2915366 14.036451 16711746
6.0094318 -0.99291801 13.392075 16711746
3.0231602 -1.3943611 14.298696 16711746
5.5092402 -1.3744845 14.306514 16711746
4.876101 -1.2455573 13.626197 16711746
3.5829396 -1.9078001 16.387045 16711746
6.9586987 -1.1571263 14.22445 16711746
6.3162408 -1.5761037 15.39477 16711746
5.4539957 -1.2096552 13.71744 16711746
0.86228812 -3.3763423 21.903015 16711746
-1.7455571 -9.0631437 21.767597 16711746
5.6948824 -0.9347747 13.086816 16711746
-0.50597036 -9.2622881 21.375612 16711746
7.5708113 -1.0564545 13.471085 16711746
6.6021576 -1.1729916 14.890701 16711746
6.3723388 -1.271644 14.185831 16711746
-6.7470217 -8.2759638 23.059851 16711746
4.2361016 -2.1902146 11.387068 16711746
4.5410113 -1.2382585 13.638387 16711746
3.8623021 -1.1092534 12.711548 16711746
6.5040269 -2.4781132 11.390341 16711746
4.1020222 -1.0743527 12.996427 16711746
4.8525195 -1.8547473 12.543778 16711746
4.0139174 -1.3383679 13.99844 16711746
3.9147465 -1.2325162 13.390593 16711746
5.1707697 -1.447301 14.556887 16711746
5.8367453 -1.2145581 13.723334 16711746
5.237905 -1.2269406 13.680777 16711746
3.794349 -1.0802909 12.802893 16711746
2.4009566 -1.8288258 15.39892 16711746
1.8545884 -1.9796957 15.748407 16711746
5.5661788 -1.4008629 14.355059 16711746
6.7102337 -0.81486255 13.796156 16711746
-4.0643897 -8.6923065 22.126543 16711746
7.5334754 -1.841719 16.849762 16711746
9.3266201 -1.4340334 14.285929 16711746
5.2286844 -1.2484951 13.68968 16711746
7.3132019 -2.2627699 18.560234 16711746
-6.1543641 -7.8349767 23.186289 16711746
3.6934295 -1.3584954 13.996998 16711746
5.8860898 -2.4154088 15.423299 16711746
2.1959305 -1.5591565 14.890137 16711746
7.8994479 -2.353025 18.867048 16711746
6.2523708 -1.1024587 13.612671 16711746
9.1724348 -7.9372158 20.808395 16711746
3.3110199 -1.3632369 14.746302 16711746
3.3071992 -1.3583665 14.772449 16711746
