# .PCD v0.7 - Point Cloud Data file format
VERSION 0.7
FIELDS x y z rgb
SIZE 4 4 4 4
TYPE F F F F
COUNT 1 1 1 1
WIDTH 1195
HEIGHT 1
VIEWPOINT 0 0 0 1 0 0 0
POINTS 1195
DATA ascii
-2.7161241 -6.9903941 -0.29533479 16711746
1.9090682 -8.7390118 4.0136161 16711746
-11.565142 -9.7720385 4.3577371 16711746
-3.5036745 -6.8091807 2.2263191 16711746
0.75510889 -8.4862986 4.022809 16711746
2.0947769 -3.8012657 1.5927151 16711746
0.55809903 -6.2630501 3.9653587 16711746
-6.5439186 -6.5889425 2.019264 16711746
4.6558061 -6.110877 0.18167748 16711746
2.5148156 -7.778326 0.21741301 16711746
1.1687238 -6.1580358 3.2376807 16711746
-7.2797451 -4.6065211 5.6154413 16711746
7.4693284 -8.0575724 -0.84221363 16711746
3.0961509 -6.0310788 0.065827169 16711746
2.1328375 -6.133491 0.067375533 16711746
2.7938778 -5.4574237 0.074374445 16711746
-4.1563573 -7.9719052 6.1652889 16711746
-6.5738077 -8.6880274 5.4067297 16711746
0.80737609 -7.9698997 -0.068216734 16711746
-4.0256224 -7.0368915 2.9133253 16711746
-6.0464411 -6.8832273 1.5545371 16711746
0.56166935 -7.3753891 4.7046037 16711746
0.62874871 -5.7398682 2.6543624 16711746
-3.8793919 -8.2062817 1.5626388 16711746
-2.5548503 -7.0274005 1.2565006 16711746
-11.692254 -10.265061 11.14339 16711746
-10.196725 -12.652843 3.8115871 16711746
1.096945 -5.3958163 2.7934229 16711746
2.9589362 -4.4461942 -0.0066204364 16711746
3.1212287 -6.2557607 0.11618856 16711746
2.2580316 -8.8312912 1.4993428 16711746
1.7041285 -8.0875187 1.355396 16711746
5.827292 -7.7014165 3.6601489 16711746
2.4924726 -6.5846295 0.73642254 16711746
2.1872468 -9.6196451 2.3246815 16711746
4.9149108 -6.9070926 0.65760279 16711746
3.0633028 -7.4620309 1.5114815 16711746
-6.7995753 -7.1814661 3.0669913 16711746
5.0729842 -5.9066334 1.0354464 16711746
-3.4045224 -6.8340497 2.4598141 16711746
0.5730747 -5.7009048 0.099940963 16711746
0.98894125 -8.6866083 5.576189 16711746
-4.1635542 -6.6977897 1.6276598 16711746
0.45705777 -6.5459652 0.43844101 16711746
5.0532122 -4.6429634 -0.1264776 16711746
-4.5860214 -9.1239243 1.1813551 16711746
2.1794212 -5.6184464 0.9580065 16711746
2.5250809 -5.6211877 -0.30777532 16711746
-4.6500964 -5.5621047 1.8689156 16711746
-2.0478218 -3.9897275 2.3870502 16711746
-1.1886317 -5.541697 3.1074152 16711746
-0.58097476 -2.3805223 1.2402689 16711746
-15.730762 -15.516162 11.04119 16711746
-5.5529847 -7.0486465 4.2191262 16711746
-3.0348196 -7.3903327 3.6348889 16711746
-0.51312244 -8.056797 6.5914869 16711746
-0.67102814 -1.0302377 0.36814108 16711746
-9.2731657 -9.3371763 6.5010047 16711746
4.0160394 -6.8891306 1.476995 16711746
5.4976568 -8.3542042 3.5252986 16711746
1.6436176 -7.2093687 0.83636928 16711746
3.7990303 -8.157917 2.9740772 16711746
3.9465036 -6.3857775 -0.45409697 16711746
5.2845197 -7.9532404 2.4759948 16711746
4.1418471 -8.4180183 3.0353289 16711746
7.0491681 -6.759479 4.7345314 16711746
3.0384223 -6.9757967 3.4480529 16711746
2.4302306 -8.9460564 3.9857328 16711746
-4.618926 -8.3983335 2.142076 16711746
2.4376841 -8.3848267 3.3716667 16711746
1.1151929 -8.0525532 3.1162205 16711746
2.8308306 -6.8081217 1.2547741 16711746
4.0449119 -6.4987597 -0.50666863 16711746
5.7363629 -9.2884359 4.4400206 16711746
-0.98308343 -9.0042953 4.7172737 16711746
6.6020966 -6.9477401 2.167119 16711746
-10.054986 -11.537191 0.68649262 16711746
1.2246225 -9.5324059 3.3478332 16711746
7.4079585 -7.5429034 6.4969802 16711746
-7.8340135 -9.6865845 7.3170457 16711746
6.5612054 -6.9881535 2.479939 16711746
2.5176871 -8.1067648 2.8941398 16711746
7.8308301 -9.7247601 3.9688041 16711746
4.0214515 -5.5936704 0.332463 16711746
0.4017666 -7.4040189 4.4455347 16711746
2.5878901 -7.5856848 4.6363077 16711746
-5.8491926 -10.675832 2.7373185 16711746
2.0596433 -8.3317719 4.7691283 16711746
0.45311856 -10.171812 2.6342452 16711746
2.7651031 -5.4642019 3.0179164 16711746
8.4868002 -8.1647816 4.8975978 16711746
10.262337 -9.4151077 4.9942298 16711746
6.7943482 -6.5791368 0.9937427 16711746
-21.117384 -15.969991 15.38569 16711746
0.21324086 -9.2292995 1.3418871 16711746
-10.97475 -14.279224 9.082983 16711746
3.7951505 -7.6289558 4.1144481 16711746
3.56722 -9.0457888 5.2878103 16711746
2.4289541 -8.6413555 3.8566911 16711746
4.9687829 -7.9913759 4.8219118 16711746
6.0194807 -8.969121 3.5362871 16711746
2.1794326 -8.2054205 4.1852636 16711746
5.2917123 -7.9757171 2.7691009 16711746
3.3374157 -7.2513852 0.13298826 16711746
4.8295164 -7.7053785 2.736711 16711746
1.8996907 -9.4334478 4.071146 16711746
1.4769394 -9.4078131 3.8382576 16711746
3.1509635 -8.899931 4.1601167 16711746
2.0881276 -8.323348 5.4463496 16711746
5.6788335 -8.5002918 7.054256 16711746
-5.0504403 -9.6780672 2.8657844 16711746
5.2962766 -6.8985362 1.6783199 16711746
-0.048860904 -6.2006607 1.5164917 16711746
5.8841591 -7.2469735 2.99863 16711746
5.5544949 -6.654242 3.5412183 16711746
3.3703361 -8.1490707 2.937392 16711746
-0.045496754 -8.779563 4.3662772 16711746
4.6214223 -10.720912 5.1542063 16711746
2.0780079 -10.184235 0.79073787 16711746
2.4786084 -10.121641 4.388679 16711746
5.8645859 -6.7011867 1.0696572 16711746
-0.49111223 -7.4610243 1.1058395 16711746
3.2692077 -10.196699 8.7290392 16711746
-19.566294 -16.162025 7.1836891 16711746
1.0033258 -2.6497703 1.1029087 16711746
3.6976559 -6.9516363 6.3794584 16711746
4.4245005 -7.9120526 5.2904692 16711746
2.7790523 -8.6556768 1.5952744 16711746
-15.791765 -15.827583 7.1499557 16711746
5.5766001 -8.7698116 3.4251215 16711746
1.3198661 -9.9476624 3.9056754 16711746
2.39097 -7.4927559 2.6477535 16711746
6.8489132 -7.1288624 0.24782376 16711746
5.9315248 -6.1413989 0.13736975 16711746
5.261672 -5.4299908 0.12016351 16711746
3.5664029 -7.2547574 0.097257808 16711746
-12.862206 -11.447185 1.6398488 16711746
4.4734993 -6.3198504 0.36590853 16711746
2.1336603 -9.3577175 2.2822335 16711746
1.7835525 -8.1683607 3.5742133 16711746
6.1369309 -6.7745795 -0.22102609 16711746
1.3446711 -8.5016069 3.1749446 16711746
6.5470772 -6.5398965 5.575192 16711746
2.9271331 -9.7675228 5.2339444 16711746
2.4197354 -8.7479944 3.9084697 16711746
8.1659575 -7.5461769 3.4728813 16711746
0.67697078 -9.3996458 2.2763414 16711746
4.8989348 -6.5897446 -0.32592359 16711746
2.6196098 -4.7218995 1.8965014 16711746
0.15158521 -7.5083189 2.5866404 16711746
2.2892084 -8.5482922 5.569418 16711746
1.9853109 -5.8548012 0.91371602 16711746
1.4780487 -8.1953278 3.9596608 16711746
1.072551 -7.9468284 0.005984752 16711746
0.51442641 -8.9574165 3.9119334 16711746
2.0242555 -7.6893339 2.8123395 16711746
3.4294181 -6.9699774 3.943897 16711746
3.3395364 -9.9990187 5.5750089 16711746
-0.35609242 -10.112174 5.6385503 16711746
0.12014181 -9.3062153 5.7058849 16711746
-9.4861174 -12.345437 7.7318778 16711746
0.43116322 -11.262883 2.0049889 16711746
-14.598897 -13.850887 4.5340085 16711746
3.9546149 -10.427185 4.287065 16711746
-7.1394362 -9.5666866 4.3643246 16711746
3.6820791 -7.3598371 1.6748186 16711746
1.925753 -9.7242613 4.411552 16711746
0.061390139 -8.1838379 2.0428112 16711746
4.8498502 -6.9083295 0.63995361 16711746
3.3706646 -6.1024075 -0.31690082 16711746
4.5438766 -8.9002161 5.0780773 16711746
8.218503 -6.8571892 -0.048426904 16711746
-22.535494 -18.414381 19.890436 16711746
1.3828766 -9.3483009 2.1405685 16711746
3.3815694 -8.2614784 2.4513755 16711746
0.18937589 -8.6940813 1.9034615 16711746
-14.01752 -13.787323 6.3366103 16711746
5.1528387 -15.917527 7.9091301 16711746
4.4949856 -6.5070586 0.59001732 16711746
-3.1724396 -8.8251257 2.3448133 16711746
3.4288015 -8.7719288 3.6884072 16711746
2.3840652 -8.109993 1.9885039 16711746
2.1147933 -8.9558878 1.807381 16711746
5.5866041 -7.4151926 1.8024322 16711746
3.5026522 -7.4267359 3.1147697 16711746
8.6579781 -8.2985859 3.430984 16711746
4.274384 -8.4160099 1.7257059 16711746
4.2531605 -7.7271504 -0.11114458 16711746
8.545435 -6.656817 0.58055162 16711746
5.1714082 -9.984293 3.0620594 16711746
1.2280499 -7.9545679 0.061769892 16711746
2.2437186 -8.2376585 4.1376705 16711746
1.9569265 -7.7649765 5.1053262 16711746
3.9610679 -7.0985727 4.7656436 16711746
4.9257636 -8.2162714 1.9553047 16711746
6.9267077 -7.9620776 7.2910767 16711746
3.447253 -8.7478018 3.6699123 16711746
-0.48403034 -7.0479937 3.0007453 16711746
7.1506095 -9.3539343 1.2833685 16711746
1.0699438 -9.8361177 2.4317784 16711746
5.9445348 -7.054635 4.2575698 16711746
6.675313 -7.8366413 5.2200799 16711746
3.5328267 -6.5231233 5.959528 16711746
2.1445971 -8.9115133 1.6047114 16711746
-6.3530078 -8.8185644 0.35062146 16711746
-1.9874618 -8.9379368 6.9828415 16711746
7.2450881 -7.4569335 0.66893405 16711746
3.5429907 -7.4292459 3.1569059 16711746
-6.104568 -10.90913 4.5268393 16711746
2.7748251 -7.1521544 0.017457709 16711746
5.5344687 -6.8598666 -0.19264303 16711746
5.6360331 -7.3356194 3.4314945 16711746
-0.085945688 -9.0070744 4.9094329 16711746
2.2929523 -9.2269564 3.0553279 16711746
5.1045642 -6.2084684 -0.18616939 16711746
-25.733475 -19.236868 18.839571 16711746
4.6799912 -7.8317246 1.7221074 16711746
3.073313 -8.866209 2.7598975 16711746
2.7936022 -9.9550285 6.5526786 16711746
-8.543786 -10.495986 1.6138364 16711746
2.8750765 -8.6267548 4.2634983 16711746
-7.209362 -6.5945888 2.3288014 16711746
-3.6750274 -9.7150335 0.54822171 16711746
2.9453323 -5.3102326 -0.50240839 16711746
0.37364334 -4.8279138 -0.66888875 16711746
-1.1898973 -5.3051414 1.3226916 16711746
0.30163804 -4.9738984 -0.016273778 16711746
-3.4832745 -5.7467327 1.386041 16711746
1.6660525 -4.4478974 -0.049361918 16711746
2.68628 -5.8329916 -0.68563354 16711746
1.9255131 -6.4436002 -0.23894012 16711746
-2.1583867 -5.9577842 3.6040146 16711746
7.7407103 -8.9439611 2.8985336 16711746
5.2718878 -7.3222003 2.462595 16711746
-0.39745659 -8.0425968 2.5515206 16711746
4.8135114 -8.5657701 0.49741483 16711746
1.9514459 -7.6630659 0.84345943 16711746
3.8111181 -6.7766724 1.1486927 16711746
6.4767346 -8.0683908 2.7059124 16711746
4.8894691 -6.4446516 6.6523399 16711746
-7.1564245 -15.956675 9.4144716 16711746
3.5511465 -8.6868677 2.7859113 16711746
4.0628533 -7.5833063 1.9551121 16711746
-3.206758 -9.360218 4.4919887 16711746
-4.9495134 -11.475511 7.8582368 16711746
0.62818259 -8.6405153 -0.22641344 16711746
7.5014348 -6.2247467 0.10686392 16711746
1.4289453 -13.428422 8.7564583 16711746
0.43948394 -8.5790472 0.67258418 16711746
-13.732552 -12.632648 4.850287 16711746
0.70474368 -7.8768673 0.73812026 16711746
-0.21338446 -10.337271 5.0384007 16711746
6.6729279 -7.6547041 2.1236808 16711746
8.3884563 -8.8446255 2.7458124 16711746
2.7522068 -8.8407936 2.8720019 16711746
1.3868241 -10.057636 1.9457484 16711746
3.979495 -6.7819648 3.8940141 16711746
4.3757486 -5.4193821 1.9287642 16711746
3.0231614 -9.9620838 2.4552603 16711746
4.2919455 -9.4123907 4.1001387 16711746
-0.83560723 -9.7216454 3.856535 16711746
4.4648442 -7.4590745 1.4692519 16711746
-0.19277067 -8.9523926 3.9844916 16711746
-2.6935265 -16.284735 10.707478 16711746
4.7344184 -6.6524444 6.2848663 16711746
7.5734315 -12.460239 9.0071907 16711746
5.5616651 -7.740005 6.8178453 16711746
-0.22519952 -10.4298 2.7666099 16711746
-2.7405295 -9.5185909 2.9263389 16711746
1.0379937 -7.84092 0.39193776 16711746
3.0246108 -8.1103621 5.3798194 16711746
0.086112909 -8.1186981 5.121438 16711746
-3.560638 -9.2076368 5.3368807 16711746
3.5249219 -8.3983183 2.6702397 16711746
6.7827001 -8.1280975 6.4616785 16711746
5.6752367 -9.4088964 6.784605 16711746
2.232707 -8.741271 1.4687911 16711746
9.8967628 -8.3904009 0.26136523 16711746
4.7863836 -7.5331907 -0.0001193504 16711746
4.2307191 -8.5642557 2.3466976 16711746
4.2207713 -8.4789515 2.3518507 16711746
7.9652338 -15.947814 8.7146893 16711746
6.2877154 -9.6224394 4.7750936 16711746
4.4795737 -10.513855 4.8717566 16711746
2.4030347 -11.755807 3.3941267 16711746
3.8940153 -8.4839268 0.21122788 16711746
0.31311226 -9.6422062 0.93545306 16711746
5.4242539 -7.8963733 0.64463514 16711746
4.6122198 -8.312068 1.7828058 16711746
-4.8070092 -11.129109 6.5861554 16711746
8.5691891 -10.791711 3.4368579 16711746
3.2398043 -11.173847 1.4689641 16711746
3.8101473 -9.7111702 0.63343406 16711746
-4.5553555 -12.126952 5.1382847 16711746
3.6453466 -7.6023512 2.092859 16711746
6.6327457 -10.604737 1.1694111 16711746
9.0300655 -11.1763 5.3260159 16711746
7.9890928 -9.8907719 -0.56824958 16711746
-6.8214617 -11.416191 1.2381192 16711746
1.428378 -8.0409632 0.43702415 16711746
-1.433967 -9.2716818 2.3546653 16711746
-2.2621439 -9.9143667 4.0919218 16711746
8.7005377 -10.85344 7.5104775 16711746
2.4203961 -10.24301 2.6745985 16711746
-2.5193179 -12.542997 3.5944467 16711746
6.5734921 -8.1216908 -0.042211108 16711746
4.367527 -8.5887365 1.0887117 16711746
5.4008594 -7.2074661 2.6528652 16711746
0.85982257 -9.2195234 0.76147598 16711746
4.6579685 -8.3345356 5.4720888 16711746
6.362464 -9.5114918 3.9624438 16711746
-38.812737 -29.667414 33.57745 16711746
-1.6547211 -4.4311757 2.7998097 16711746
4.2680135 -8.8206482 2.6633966 16711746
3.5026629 -7.4073291 2.0498941 16711746
5.6866393 -7.5141172 0.24540485 16711746
0.14390914 -9.4375448 1.3732961 16711746
2.1615193 -7.9398694 4.8943839 16711746
1.2243654 -8.4598846 0.32482839 16711746
0.0070391204 -6.3023105 1.6842 16711746
-1.8182802 -11.004486 4.8939605 16711746
4.1880732 -9.7127151 4.5600314 16711746
3.378917 -10.525618 5.0894923 16711746
-1.7937835 -10.755177 4.7955112 16711746
-2.2889357 -10.706082 2.349412 16711746
2.4410098 -13.248362 6.3550639 16711746
3.7374573 -7.4575343 0.053223252 16711746
2.2437186 -7.1850724 1.88405 16711746
9.8517971 -9.070323 4.1207662 16711746
4.3753657 -8.7581758 2.6191585 16711746
3.7305772 -11.311605 6.175652 16711746
6.0261278 -12.151859 1.9065306 16711746
-4.3503709 -11.580153 -0.12761813 16711746
3.8500662 -8.5252609 6.3833838 16711746
3.0524349 -6.7113037 2.8389184 16711746
2.8094809 -11.217392 9.3857946 16711746
1.7201622 -11.189785 2.7221165 16711746
5.2969794 -6.9987698 7.2862539 16711746
-1.587726 -8.6318808 3.0268972 16711746
4.3241253 -8.607482 2.008477 16711746
0.95957077 -7.2873168 3.4683092 16711746
1.0595959 -8.9588966 0.52757663 16711746
4.2211895 -9.345562 1.9326525 16711746
9.6289711 -8.8287392 5.5440364 16711746
6.1367159 -9.0889425 2.7998078 16711746
1.7432638 -9.9769096 4.0628953 16711746
2.0370936 -10.823677 3.2016375 16711746
2.1699007 -11.527365 5.6297431 16711746
8.1706972 -7.5391388 0.39335656 16711746
-6.2376089 -12.154973 4.8991532 16711746
-12.019387 -13.913439 7.4852901 16711746
2.3914819 -5.8639274 3.157511 16711746
5.6102018 -7.3378663 7.6143618 16711746
6.2101798 -12.658142 5.3154168 16711746
3.535002 -12.809866 5.7997837 16711746
5.6315875 -11.591735 5.6320581 16711746
7.2320981 -12.266971 1.5036044 16711746
7.1555934 -11.439709 1.0812049 16711746
5.6805029 -11.533543 5.0359116 16711746
5.2962894 -11.646996 2.7032087 16711746
-11.24078 -18.173296 11.764958 16711746
-25.802847 -25.293089 19.174229 16711746
7.1934729 -10.818577 8.1322594 16711746
6.5729933 -11.83912 4.094389 16711746
6.1112957 -12.40602 4.1176805 16711746
9.6252995 -11.770761 2.8265676 16711746
3.2103386 -13.106039 4.8574338 16711746
6.5756249 -11.87117 4.0572019 16711746
-4.57829 -17.119064 9.0400629 16711746
5.5614514 -12.188053 2.6962667 16711746
6.3418756 -11.822062 4.7305713 16711746
-10.945906 -18.382984 9.6655655 16711746
7.1450415 -11.400474 1.0773518 16711746
-10.900194 -17.592115 11.517488 16711746
12.490668 -11.667198 4.9102316 16711746
7.786891 -13.126233 6.6893086 16711746
7.5094037 -11.288956 4.4991002 16711746
2.6964433 -11.580927 2.2130141 16711746
-10.017338 -16.532967 10.871523 16711746
-13.088081 -19.676605 14.716346 16711746
10.405412 -10.956156 9.1369257 16711746
8.0496521 -15.363076 8.4174051 16711746
21.390762 -51.743729 17.686382 16711746
-8.7808285 -8.9503269 4.7334871 16711746
2.7958729 -11.630363 6.7530346 16711746
2.7683432 -12.894645 4.4289789 16711746
8.3449478 -9.4927263 8.7540264 16711746
6.4810071 -12.59059 2.820534 16711746
12.134832 -11.738591 4.4489489 16711746
9.113986 -12.182334 2.1922402 16711746
7.09163 -11.733805 1.4992548 16711746
-16.58119 -20.082655 12.239779 16711746
4.1462207 -12.778929 3.1631136 16711746
2.6403842 -12.564001 2.1675901 16711746
3.2542489 -13.221817 5.6266356 16711746
3.1791091 -11.909298 2.3184836 16711746
7.1397066 -11.993903 2.9615748 16711746
7.2989507 -17.038534 6.0400066 16711746
7.1624284 -12.593688 2.805238 16711746
7.7758093 -12.579522 5.318181 16711746
6.0256867 -12.232871 4.0391922 16711746
7.5329924 -11.148876 9.3860312 16711746
2.6996474 -13.436949 2.8058755 16711746
0.77970207 -12.837175 0.91507286 16711746
6.4616323 -11.964316 2.5770009 16711746
2.4116116 -11.121159 1.186232 16711746
11.456809 -11.724015 1.7855195 16711746
9.4825602 -12.108121 1.6386471 16711746
-0.24572459 -15.888126 9.3643084 16711746
-6.2749491 -15.057026 6.3374543 16711746
3.2918952 -14.874251 1.1740919 16711746
-2.2181213 -13.766278 4.5259757 16711746
-4.3454003 -14.63362 1.211035 16711746
10.499928 -11.49648 2.4944105 16711746
10.481074 -10.550149 6.2073855 16711746
1.357058 -13.611794 6.2192469 16711746
4.5024409 -13.955462 7.3916559 16711746
-11.274076 -16.463923 3.2891781 16711746
6.0621996 -10.526781 2.0738401 16711746
1.985099 -13.647249 3.877475 16711746
6.6586604 -10.447204 2.953604 16711746
5.9927292 -7.1006079 8.6434793 16711746
-1.3578476 -12.562226 5.9138937 16711746
3.4350731 -13.728339 4.9724298 16711746
10.602776 -10.759874 1.383171 16711746
5.2860956 -10.700164 2.8943486 16711746
1.675146 -12.495849 4.913506 16711746
4.0664811 -22.575624 8.426321 16711746
16.452301 -14.781058 -1.2372646 16711746
7.6133094 -12.77479 8.4314718 16711746
4.249258 -13.481991 6.3113661 16711746
5.0864668 -8.1810799 6.3423615 16711746
2.6091247 -21.157625 4.8537478 16711746
9.2850885 -26.262068 0.45402935 16711746
11.011159 -23.808052 11.697715 16711746
6.6455445 -16.458975 1.8238987 16711746
10.240554 -15.65397 4.0352545 16711746
4.6499715 -6.1969752 5.8706493 16711746
5.8213139 -7.9631085 7.6145062 16711746
-2.3175478 -6.4903407 3.6044698 16711746
4.1714187 -6.9318037 4.2894354 16711746
16.374392 -31.113432 6.4391809 16711746
1.3125908 -15.581159 4.7948532 16711746
11.451129 -34.385826 -0.26005176 16711746
11.876123 -38.097828 13.566581 16711746
-9.2629824 -17.127171 7.9517088 16711746
2.9967852 -17.112162 4.3843856 16711746
-0.69905758 -9.3536825 5.0201645 16711746
12.992274 -19.927906 13.05945 16711746
-2.0845683 -10.382665 6.4802203 16711746
3.5289497 -13.761225 2.9967761 16711746
-4.4482512 -10.742494 10.941762 16711746
-3.5900421 -7.9120812 6.1776628 16711746
-12.034065 -22.660852 8.5802898 16711746
-13.799462 -31.469391 14.189686 16711746
1.628796 -19.817472 9.4474049 16711746
3.1555078 -19.492605 4.1643424 16711746
4.4169736 -14.781025 4.8796673 16711746
5.2161198 -10.686479 3.8283062 16711746
8.0027056 -9.440589 6.0418253 16711746
7.6810694 -10.889065 6.7735267 16711746
10.368967 -11.903653 6.8829441 16711746
8.6856995 -15.942175 11.302464 16711746
5.1669159 -11.644675 6.3444929 16711746
7.7704034 -12.781231 5.7630062 16711746
6.9104218 -11.333916 4.4909 16711746
4.88937 -13.913331 5.3278241 16711746
5.1156664 -13.415221 6.1032133 16711746
5.9433956 -16.237329 5.2074556 16711746
5.5249157 -13.020897 6.551775 16711746
3.9194109 -13.301028 7.3228617 16711746
5.6890006 -14.062511 7.3186893 16711746
7.9853454 -9.5761337 5.8184409 16711746
5.2574754 -12.720832 6.3342738 16711746
5.8950076 -12.702305 6.1294465 16711746
11.560638 -12.703859 9.0732822 16711746
4.7822371 -13.837573 9.392046 16711746
8.4495945 -12.211362 6.293931 16711746
7.6383667 -11.593525 8.2851458 16711746
18.244366 -16.08843 10.198 16711746
7.7081099 -10.081011 6.1110401 16711746
4.4253645 -14.061599 5.8210001 16711746
8.310216 -8.0132027 7.4986243 16711746
3.2363474 -10.161524 5.8217049 16711746
17.871 -14.538878 10.97157 16711746
10.656749 -12.791495 8.8876877 16711746
2.8379362 -11.254705 5.8758602 16711746
-0.22725911 -13.975772 9.0317326 16711746
3.7537379 -10.620624 9.2573109 16711746
15.229739 -16.208647 8.4676771 16711746
3.260838 -14.327453 10.057576 16711746
1.3029706 -11.330935 6.2525644 16711746
5.5400743 -12.382588 7.2083149 16711746
0.83600485 -13.066955 6.248004 16711746
15.17362 -13.817583 4.9003768 16711746
4.1825008 -13.922232 8.755352 16711746
3.4993486 -13.481041 8.7836437 16711746
6.519135 -10.911649 6.6514916 16711746
7.0667911 -11.102761 6.759552 16711746
16.746439 -16.901503 10.427157 16711746
8.4477139 -15.336686 9.5338182 16711746
7.8560128 -11.257948 7.0793471 16711746
5.8751326 -13.350128 6.9575315 16711746
6.2123656 -13.059556 7.8225541 16711746
-4.2360086 -12.97278 8.2717829 16711746
12.994484 -10.450495 4.5291829 16711746
5.8197141 -10.474607 6.7330885 16711746
6.248374 -14.994564 9.8044806 16711746
7.4180975 -11.152695 4.5396981 16711746
5.9691548 -12.350735 5.880918 16711746
7.5359931 -11.836637 7.5578904 16711746
-1.8422756 -12.105042 8.2848568 16711746
8.8859158 -11.359704 5.6588769 16711746
7.9689093 -11.531575 8.1701317 16711746
14.848487 -13.544864 5.0342879 16711746
7.7537045 -11.293208 7.9102883 16711746
5.9453344 -12.696415 7.2857723 16711746
9.7065907 -10.390261 5.9399405 16711746
7.7575064 -11.448303 6.8773937 16711746
8.8929682 -24.760494 14.575953 16711746
6.515316 -13.76855 8.4866428 16711746
4.3615804 -16.032135 10.961793 16711746
2.6934569 -17.094215 13.932293 16711746
15.569819 -15.599248 10.036797 16711746
12.874893 -19.713793 15.469681 16711746
5.2912436 -17.247574 11.599892 16711746
2.8600869 -16.763577 11.265355 16711746
3.8120251 -23.032557 19.948013 16711746
10.257866 -12.052346 8.5151024 16711746
0.27285352 -15.634364 11.962834 16711746
12.807942 -20.340364 19.550327 16711746
2.6257482 -13.883848 9.2465458 16711746
6.028101 -19.744762 18.121519 16711746
18.122133 -21.716486 24.084974 16711746
2.1190784 -9.6805162 8.3007917 16711746
6.0361156 -13.665555 6.9356012 16711746
-7.6733561 -14.665496 9.0143776 16711746
5.7257247 -13.901873 8.2217951 16711746
-9.6278353 -15.12265 7.6326542 16711746
8.5714273 -15.699151 11.012848 16711746
3.3335567 -13.70881 9.0158749 16711746
8.5462885 -11.568883 7.1014814 16711746
7.5532155 -11.45517 8.2319098 16711746
0.40680298 -17.379417 10.962277 16711746
6.2367749 -10.509163 6.1373968 16711746
7.8507276 -12.496169 6.0862556 16711746
2.9193144 -12.896551 8.211113 16711746
9.7095242 -10.641855 13.484351 16711746
1.2169044 -12.207096 10.388107 16711746
16.282129 -16.988853 11.275587 16711746
7.3994789 -13.194993 8.9328775 16711746
5.1856046 -11.774979 7.9547219 16711746
6.1258149 -12.698867 7.8467317 16711746
7.72962 -17.725929 13.325289 16711746
0.055203069 -19.405842 18.229626 16711746
2.8837636 -16.127607 13.292148 16711746
11.468471 -16.147057 11.804991 16711746
2.1826346 -8.2700539 8.4961615 16711746
14.174786 -20.379827 16.350044 16711746
8.6418962 -15.259505 10.055876 16711746
5.7049541 -14.657023 9.0768728 16711746
12.765368 -15.175131 10.289742 16711746
10.765617 -17.182024 13.033875 16711746
7.9584889 -11.70549 8.7108774 16711746
8.8678045 -13.099983 9.6222067 16711746
7.7148561 -11.253592 7.2576671 16711746
9.8464279 -16.551901 12.197675 16711746
5.3107657 -14.856832 9.0320997 16711746
5.6706543 -14.113894 8.406291 16711746
7.0267448 -10.019789 6.1060734 16711746
7.4874377 -15.138741 11.04624 16711746
11.67071 -13.710018 14.824068 16711746
7.5686984 -11.74227 8.2271233 16711746
5.0778117 -13.538612 8.7667847 16711746
8.1464586 -14.336572 10.375231 16711746
4.5896792 -12.307895 6.1225066 16711746
9.5834703 -10.707703 6.9957948 16711746
4.8803968 -13.618354 8.3946352 16711746
14.788754 -19.749504 17.663488 16711746
2.8853533 -12.979191 7.5584588 16711746
7.0597076 -15.173958 9.619997 16711746
8.5141659 -11.416629 8.60042 16711746
13.70061 -16.891285 10.674316 16711746
14.168171 -21.05287 16.265043 16711746
8.0853653 -11.149567 7.4394698 16711746
1.7695827 -11.855795 10.669579 16711746
7.0676794 -14.761192 8.7128296 16711746
18.226942 -15.355905 10.318496 16711746
5.2659993 -14.887657 9.3670235 16711746
6.0308814 -12.638357 7.2764864 16711746
11.068607 -16.567102 17.795456 16711746
19.694517 -16.005501 11.935197 16711746
5.3505788 -12.196846 7.5182533 16711746
29.714649 -17.008686 12.281661 16711746
1.9666169 -13.402008 8.9580526 16711746
5.9019761 -10.629737 6.7581992 16711746
3.2875004 -12.204906 7.2971606 16711746
0.44983932 -16.749731 13.556983 16711746
-1.0775675 -22.401495 21.700493 16711746
15.155196 -16.603575 12.751051 16711746
1.0336095 -13.658427 9.1221943 16711746
7.3928266 -13.643769 9.1891308 16711746
9.0890293 -11.312546 6.1038923 16711746
2.3814745 -11.275712 9.894331 16711746
16.631231 -19.622803 22.123173 16711746
16.992176 -21.671247 21.613344 16711746
23.262007 -21.274361 19.459375 16711746
14.638672 -24.441525 24.004061 16711746
20.996841 -22.174929 21.870895 16711746
9.7660036 -21.177589 16.640862 16711746
10.672671 -20.448298 15.28326 16711746
-1.7015346 -24.212168 23.370071 16711746
4.8221536 -13.846499 6.6664977 16711746
12.133674 -19.745695 19.747709 16711746
11.847604 -19.68652 19.9548 16711746
15.611825 -15.831068 10.882453 16711746
2.6742651 -14.527383 8.6551914 16711746
8.6813936 -22.303183 16.262556 16711746
14.581235 -23.891993 23.66202 16711746
3.8366666 -10.984048 7.1623702 16711746
22.009176 -16.799046 8.640851 16711746
6.7155414 -17.189623 11.502805 16711746
8.4253874 -16.761745 10.873441 16711746
10.388228 -13.009571 7.22718 16711746
1.2788229 -12.221006 10.348973 16711746
11.035192 -19.399647 15.529802 16711746
9.9181252 -12.445065 6.565752 16711746
6.0146689 -13.37753 7.8384275 16711746
-4.0593958 -22.979742 16.019096 16711746
14.140284 -17.262547 12.336252 16711746
0.25479394 -17.967884 16.648863 16711746
4.9423747 -11.942575 10.639062 16711746
5.5533652 -12.639949 5.6093631 16711746
18.563087 -23.581293 22.141644 16711746
5.1610141 -12.899686 6.3029723 16711746
19.832033 -20.541254 20.569559 16711746
18.160576 -19.379547 13.093395 16711746
8.6295118 -16.844387 12.299707 16711746
8.8312778 -13.668516 10.857203 16711746
-2.2900872 -20.87298 17.533411 16711746
8.5556164 -11.517794 8.5778608 16711746
8.8953056 -19.042767 18.1966 16711746
17.740002 -14.673779 7.7560759 16711746
19.56834 -16.33947 9.0687971 16711746
8.9625568 -12.626968 9.2412004 16711746
8.5780687 -12.102504 7.1227665 16711746
9.4495802 -12.472928 4.9586778 16711746
11.20334 -8.6960335 5.8626347 16711746
7.6430416 -12.681986 7.0888019 16711746
6.833158 -13.511635 8.4769182 16711746
17.017698 -17.936903 9.2059603 16711746
3.8402343 -4.8788667 8.6734495 16711746
16.319563 -17.690281 12.129404 16711746
15.167688 -19.444191 18.944511 16711746
19.094198 -19.911648 20.12849 16711746
5.0280485 -13.673022 10.909402 16711746
10.761295 -12.410502 6.9394836 16711746
8.4982882 -11.35569 8.5915537 16711746
23.389853 -16.126614 14.51001 16711746
9.9023895 -10.946779 6.3520331 16711746
-2.0612721 -16.630737 16.021849 16711746
8.2122364 -16.526608 10.29829 16711746
16.660358 -21.563578 19.463247 16711746
9.2695808 -14.745921 11.147706 16711746
19.206478 -18.225166 11.676693 16711746
9.777935 -16.214443 12.103684 16711746
-6.8114209 -22.610394 19.556669 16711746
9.2180948 -12.701785 9.4424229 16711746
8.4409618 -12.65762 6.216639 16711746
1.6145352 -12.728676 8.9056749 16711746
13.38025 -10.659222 5.7020001 16711746
8.0697527 -14.288803 7.1331677 16711746
-0.62718123 -16.509642 8.6184835 16711746
9.8103456 -12.554573 7.0561743 16711746
10.194765 -14.790323 6.5049853 16711746
4.163332 -13.656487 8.7302723 16711746
-0.36440164 -14.087403 9.1118565 16711746
16.070801 -11.971118 5.6666017 16711746
-2.112834 -14.45238 11.841324 16711746
1.4455408 -13.273926 8.9681425 16711746
16.50071 -21.186558 20.363346 16711746
24.661972 -22.326614 20.563757 16711746
1.5335397 -9.3505459 8.981904 16711746
6.3461075 -11.901136 7.9275537 16711746
9.6769753 -16.164139 12.02548 16711746
7.5798111 -12.803866 7.1661396 16711746
5.7374153 -11.013222 7.0028119 16711746
14.113297 -16.304598 12.118489 16711746
6.0820065 -12.574776 7.4171758 16711746
17.054115 -17.098728 10.431945 16711746
9.7334805 -13.174291 8.9593849 16711746
10.29643 -12.942117 7.2139544 16711746
11.383869 -9.0578651 6.1511827 16711746
17.171844 -18.020044 12.832113 16711746
5.0481858 -14.064426 8.7199945 16711746
-0.9806639 -14.337553 9.0583096 16711746
10.523654 -28.634708 21.148464 16711746
0.013257467 -13.465135 8.9691391 16711746
12.172709 -34.560093 30.332441 16711746
24.655064 -22.231123 20.635036 16711746
4.3507586 -10.754704 8.458683 16711746
7.9467077 -12.186975 6.8221712 16711746
10.90057 -15.252671 10.717052 16711746
4.2332139 -13.903618 9.2942638 16711746
6.3112197 -13.775564 8.613986 16711746
14.905904 -17.805132 12.498341 16711746
3.8567638 -11.817445 8.1780071 16711746
9.4300871 -13.412327 7.7592297 16711746
-4.1861334 -26.172804 4.4436884 16711746
14.938891 -14.710135 10.541589 16711746
11.94432 -15.937484 10.005442 16711746
4.190486 -18.682915 15.042664 16711746
16.850807 -15.052703 10.074541 16711746
9.1948833 -14.90734 11.180346 16711746
9.1139479 -14.318092 10.549342 16711746
11.63403 -16.071321 12.393823 16711746
19.796736 -26.130322 20.997574 16711746
12.564427 -16.988991 13.753962 16711746
5.5765781 -15.782527 9.8533134 16711746
2.4139895 -11.505209 5.5877814 16711746
8.6886654 -12.999423 5.5276484 16711746
4.2509704 -13.257408 8.0749397 16711746
12.166955 -16.292679 13.25993 16711746
9.1154594 -17.057877 12.386685 16711746
10.793909 -14.608675 10.619355 16711746
22.12874 -22.943886 17.115999 16711746
13.709044 -15.444761 12.463621 16711746
7.4543991 -13.577472 8.8589821 16711746
12.191217 -15.159467 9.8878317 16711746
5.9301581 -12.289043 8.6774998 16711746
6.6069317 -15.476952 11.469001 16711746
5.9435205 -12.433726 8.6796637 16711746
10.127084 -15.313085 5.6348195 16711746
7.5535789 -11.349098 8.363699 16711746
7.5328598 -11.788692 9.0421 16711746
16.015108 -15.861865 10.908358 16711746
17.339769 -15.4871 10.114738 16711746
11.533965 -14.964157 8.1680422 16711746
3.4190364 -10.292747 6.3021369 16711746
7.9670086 -19.620579 11.875131 16711746
6.3170781 -15.58551 11.30201 16711746
10.725637 -15.179007 9.971055 16711746
4.6452727 -14.068216 8.7893209 16711746
8.6231794 -16.110315 9.7361059 16711746
16.016779 -17.742901 13.302088 16711746
11.605832 -17.891384 12.304533 16711746
3.730397 -7.7967925 9.3842878 16711746
7.5541549 -11.257983 8.3662901 16711746
10.337895 -13.705232 8.4093933 16711746
9.1100836 -14.684564 7.2039108 16711746
7.2836695 -14.909237 10.944649 16711746
6.7341609 -13.551489 8.385849 16711746
15.73002 -16.202028 12.719209 16711746
17.790445 -21.634352 23.238968 16711746
1.5978932 -16.6257 12.981577 16711746
1.3919442 -21.661943 16.078825 16711746
2.8215506 -17.292507 13.803846 16711746
13.920829 -19.528748 15.892648 16711746
4.5327802 -15.879294 11.987918 16711746
16.245914 -20.194771 18.544678 16711746
6.3239856 -12.313801 7.8357291 16711746
10.102701 -12.137703 7.3218069 16711746
17.875904 -23.658831 20.718746 16711746
12.363977 -13.979748 9.4048452 16711746
17.109463 -15.06677 10.897535 16711746
3.6585867 -4.2400374 7.7392607 16711746
13.142024 -17.76771 14.281056 16711746
8.0568352 -8.7301979 10.720464 16711746
14.412133 -22.698063 16.850914 16711746
8.6651392 -13.959612 10.181526 16711746
13.27565 -18.635576 14.205766 16711746
17.821188 -20.300411 14.741974 16711746
13.011917 -18.46347 13.953444 16711746
11.556379 -16.018091 12.243072 16711746
8.2603321 -14.302707 9.9523077 16711746
5.0852365 -13.37892 9.0906248 16711746
6.3476248 -13.391974 8.225625 16711746
10.627102 -14.782318 10.260029 16711746
5.3598237 -13.437407 9.6385174 16711746
19.494408 -14.705073 9.4676905 16711746
-1.017256 -17.576303 11.488811 16711746
20.707397 -17.153151 12.521666 16711746
7.9637003 -13.890509 7.1914053 16711746
17.793205 -15.189821 8.9866762 16711746
6.8245635 -25.22529 17.879583 16711746
5.9296947 -12.634971 7.5092731 16711746
7.4016318 -16.096165 11.049441 16711746
8.0244379 -13.811044 10.266101 16711746
9.1094952 -12.477409 9.4484711 16711746
14.923596 -16.011684 12.649161 16711746
8.1892233 -12.429301 8.5741692 16711746
4.9428825 -11.917933 9.7686558 16711746
8.6270781 -11.318062 9.3298607 16711746
18.236654 -24.519932 21.088493 16711746
16.004196 -21.185154 19.12969 16711746
18.125889 -15.023165 9.3965654 16711746
12.307734 -14.11122 10.319488 16711746
15.525557 -16.596834 9.6306839 16711746
10.991444 -16.265429 10.478183 16711746
11.794076 -13.332985 8.6573811 16711746
8.6380796 -16.417328 12.413299 16711746
9.7304096 -14.068012 11.914299 16711746
6.1445518 -13.373886 7.8093076 16711746
5.9938836 -15.470171 10.18765 16711746
10.862332 -11.803496 7.9129972 16711746
8.9162035 -12.788297 7.8201151 16711746
5.689496 -12.731798 9.0176964 16711746
5.7372327 -13.14333 8.4756966 16711746
11.925115 -15.024261 10.804873 16711746
11.546852 -12.721304 6.9180903 16711746
5.7824426 -14.543205 10.578074 16711746
1.6825113 -15.408304 7.6911893 16711746
10.640505 -19.811628 15.102002 16711746
9.171031 -19.357885 14.756233 16711746
11.619586 -14.877628 8.3994741 16711746
13.408687 -14.392488 7.3346887 16711746
7.9290481 -15.822821 9.7218218 16711746
9.0441113 -14.04561 6.9603901 16711746
9.6280098 -14.338766 8.293705 16711746
7.1548996 -15.739856 12.094934 16711746
7.8065462 -14.411336 6.8091002 16711746
8.3439865 -16.954823 10.464136 16711746
6.4509015 -13.717593 7.674129 16711746
8.325799 -22.308723 15.142026 16711746
-1.516865 -23.997 22.70178 16711746
5.66465 -12.790604 7.5020423 16711746
4.3274727 -11.179431 7.7088761 16711746
6.4011645 -11.483006 8.4420156 16711746
4.8647709 -12.129192 9.7465725 16711746
4.1892819 -12.304641 10.009229 16711746
4.3903389 -15.045023 11.367971 16711746
11.092844 -13.619695 7.9491076 16711746
6.0736599 -12.864056 7.3075466 16711746
5.7449608 -12.637097 7.5754356 16711746
11.079073 -16.782448 11.602888 16711746
11.518841 -21.689722 16.979977 16711746
10.827732 -14.847756 9.0533895 16711746
6.2192235 -15.042306 13.001625 16711746
13.602697 -13.580911 10.772076 16711746
6.2769709 -15.620537 10.765909 16711746
9.8376732 -14.400059 11.256227 16711746
1.8145868 -12.434578 8.0738411 16711746
10.829318 -14.742664 11.662356 16711746
11.627388 -15.735734 11.531026 16711746
1.3224248 -11.456437 8.1389284 16711746
12.440904 -14.391381 8.6699543 16711746
4.311985 -12.778533 10.492565 16711746
4.8257704 -13.250886 9.7990427 16711746
9.1155472 -16.825518 12.25167 16711746
4.7429972 -13.300221 8.9925747 16711746
8.904006 -14.107424 7.367496 16711746
5.7256813 -11.789272 8.9657097 16711746
8.4255428 -19.187963 15.145379 16711746
6.8712826 -15.253005 9.7328024 16711746
7.0200958 -14.02358 8.6027632 16711746
13.938055 -16.459751 9.9626217 16711746
8.1400928 -20.089388 14.526459 16711746
10.922176 -16.37064 10.552274 16711746
4.9709282 -11.908807 9.8142815 16711746
6.7452483 -16.284084 12.340394 16711746
13.177718 -15.669389 9.8843126 16711746
12.315267 -21.774675 16.067024 16711746
2.0669689 -14.853878 13.723569 16711746
8.463275 -12.902752 8.2045813 16711746
2.5256472 -22.579432 11.218023 16711746
6.3142667 -15.067968 12.053667 16711746
6.5475235 -18.61549 14.413568 16711746
13.421206 -16.448515 10.600754 16711746
2.8453398 -17.586647 15.826627 16711746
2.8174794 -16.806873 13.587518 16711746
11.922692 -15.613393 9.4899549 16711746
15.106555 -14.665674 11.112168 16711746
16.290367 -19.794615 19.816475 16711746
7.1224818 -24.605219 19.501558 16711746
11.528739 -16.805092 11.653354 16711746
5.602695 -15.76181 10.336231 16711746
2.9331434 -16.728579 13.568827 16711746
1.8970478 -12.920125 9.5870819 16711746
2.7726605 -16.981438 14.440147 16711746
2.8067472 -18.557404 15.433488 16711746
2.7593346 -17.078869 14.981009 16711746
6.7889767 -21.246473 16.161369 16711746
1.6978227 -10.320894 7.9498143 16711746
2.0792899 -17.204889 12.242337 16711746
0.32080173 -24.262245 21.608414 16711746
8.1687279 -18.380232 13.941174 16711746
11.22252 -37.460613 30.433432 16711746
8.065486 -18.444799 14.016252 16711746
13.555264 -20.452936 15.660268 16711746
0.94161206 -20.530367 19.845762 16711746
2.4390779 -8.9522257 8.4239683 16711746
3.71015 -12.405918 9.9070911 16711746
6.5408463 -21.777632 18.122543 16711746
-1.157764 -20.332798 17.313578 16711746
11.605713 -21.314901 18.291258 16711746
9.7594557 -12.979463 9.1350937 16711746
7.4633551 -23.595867 19.244049 16711746
-3.1320007 -20.512537 16.105545 16711746
4.7672253 -12.587341 8.4778271 16711746
8.4392071 -18.960569 13.110895 16711746
4.270596 -13.452911 9.7484655 16711746
1.7544769 -10.663453 8.5339079 16711746
7.8470502 -17.495178 12.939529 16711746
4.2317672 -16.149702 11.581187 16711746
-3.2017524 -20.709038 14.786756 16711746
12.686241 -14.057878 9.1989632 16711746
3.2226825 -15.889145 11.226615 16711746
13.674855 -13.537041 10.904922 16711746
7.9701653 -10.49791 8.4069691 16711746
4.285749 -9.8164949 8.1730299 16711746
13.128242 -13.940867 7.7803063 16711746
5.7739916 -15.111529 10.655941 16711746
12.488643 -13.937516 9.2061186 16711746
11.78101 -17.910009 13.671342 16711746
4.55828 -10.082638 9.5270081 16711746
11.44843 -16.553127 9.4369192 16711746
8.7466841 -21.529577 15.818329 16711746
0.176405 -9.432725 8.1211729 16711746
-0.19610994 -8.8105545 14.470452 16711746
-4.2999587 -28.669827 22.999363 16711746
4.3095808 -12.491398 10.209424 16711746
8.6612854 -15.234932 9.7656898 16711746
0.25100219 -14.958115 8.2864866 16711746
9.8340597 -16.397282 11.821343 16711746
8.1743374 -16.280155 9.2809429 16711746
-4.6413755 -14.097028 13.833288 16711746
-2.6148551 -18.214355 15.163886 16711746
-11.622905 -27.756048 27.453781 16711746
22.314516 -29.41328 26.112867 16711746
9.7540264 -16.233452 12.307521 16711746
-0.18242039 -25.200184 22.422445 16711746
15.656821 -17.96468 14.158072 16711746
20.221823 -32.179237 30.184326 16711746
10.825463 -14.480303 8.8189116 16711746
9.2649517 -19.546194 13.150574 16711746
-7.6697292 -15.83001 14.054205 16711746
-3.7034435 -15.768966 10.588119 16711746
8.1589661 -16.264179 11.526809 16711746
12.514533 -16.728331 10.005109 16711746
5.6964421 -16.217138 11.164522 16711746
11.545177 -24.315773 17.742094 16711746
-1.8587325 -17.988779 15.892474 16711746
5.4227667 -13.480844 11.380596 16711746
0.76936585 -10.607676 11.966992 16711746
-95.302193 -96.539383 92.151215 16711746
7.2507143 -17.573742 12.815558 16711746
4.2556567 -15.070549 9.7273598 16711746
5.2220149 -16.198145 11.719073 16711746
6.1688747 -17.56974 13.447408 16711746
-6.9626422 -15.770792 10.135284 16711746
6.2759981 -15.780466 12.185556 16711746
10.488076 -12.261297 11.923269 16711746
-11.189207 -16.16975 15.598512 16711746
13.9618 -14.779505 9.6161442 16711746
3.6186378 -17.627113 12.24106 16711746
9.6773739 -14.130088 11.89239 16711746
8.5670519 -15.909722 9.7135153 16711746
11.818901 -18.575066 11.202521 16711746
5.4842 -18.064688 13.94635 16711746
5.3470302 -17.681301 13.880038 16711746
8.18262 -16.982077 11.611199 16711746
6.3166151 -22.95274 20.480059 16711746
6.6030197 -16.824715 13.631541 16711746
7.5805569 -17.976656 13.394147 16711746
4.8734341 -19.872089 13.390629 16711746
-2.3868508 -12.013036 11.800238 16711746
-0.55773401 -18.34849 13.989926 16711746
8.7841272 -18.856615 13.443788 16711746
5.1001329 -26.478149 20.278448 16711746
-6.5521512 -19.127594 17.592751 16711746
-3.7636368 -15.450195 11.231264 16711746
8.9366579 -18.250898 14.389304 16711746
11.941755 -18.335052 11.201565 16711746
15.963881 -13.579639 10.399051 16711746
11.586775 -16.277067 9.3262749 16711746
3.5981305 -13.69534 9.3883963 16711746
-4.9533815 -18.157093 16.271441 16711746
-2.2550676 -17.913147 16.402761 16711746
7.3863649 -16.624958 10.585071 16711746
9.2675486 -17.957691 13.77729 16711746
14.166206 -21.38936 16.339981 16711746
-8.2300186 -24.475742 16.949501 16711746
5.4794922 -13.23477 11.232578 16711746
6.5845008 -7.9073887 12.239823 16711746
13.642385 -11.894928 8.3485298 16711746
14.040659 -10.820771 9.1072674 16711746
-4.8610659 -16.919695 16.329807 16711746
-2.9270959 -20.564987 16.310459 16711746
18.281317 -28.127832 28.206207 16711746
13.659145 -14.974646 10.019006 16711746
16.334045 -16.429424 14.292242 16711746
-3.0372961 -17.383389 11.540976 16711746
-6.2028871 -18.868933 12.379705 16711746
6.5044203 -17.859106 12.449868 16711746
-3.2762339 -19.953514 12.961739 16711746
-6.1716843 -14.013227 20.075027 16711746
-5.8492947 -15.537771 12.728623 16711746
5.1885729 -15.031505 12.679252 16711746
-10.076025 -16.083473 16.586151 16711746
4.4798808 -11.794432 10.211233 16711746
8.1246567 -16.608379 11.605151 16711746
6.1714635 -15.573111 10.877132 16711746
5.8346796 -13.971848 10.560797 16711746
6.4439564 -13.728211 10.791939 16711746
-7.9154506 -17.29723 13.082841 16711746
8.1442909 -14.68735 12.401387 16711746
3.6116502 -15.073364 9.503684 16711746
-7.5694499 -17.613199 18.985062 16711746
5.897337 -14.914514 10.116875 16711746
5.0825558 -17.090841 12.830105 16711746
14.298169 -19.722363 12.755926 16711746
5.7507982 -42.605442 35.936413 16711746
28.283175 -49.759075 9.8607769 16711746
36.04641 -67.439133 11.392818 16711746
21.297201 -27.590017 25.178156 16711746
5.2329412 -15.765517 12.114046 16711746
6.3735847 -20.054213 12.093669 16711746
9.4308443 -18.893219 14.025643 16711746
16.517996 -16.499596 12.58777 16711746
4.8458171 -17.779419 11.541979 16711746
18.918074 -15.534098 13.656069 16711746
8.1516733 -16.828585 11.631852 16711746
10.021196 -16.266941 15.649581 16711746
11.777691 -17.224741 12.988677 16711746
9.2734175 -20.163767 15.004118 16711746
4.0907454 -20.886734 14.354747 16711746
9.4119949 -16.86739 15.852122 16711746
12.880455 -16.896612 14.387416 16711746
7.01086 -18.159372 9.7663956 16711746
7.3701997 -16.721617 10.55106 16711746
11.732974 -19.540941 17.20606 16711746
12.523464 -16.099756 14.601444 16711746
8.0090733 -14.600816 9.9137487 16711746
4.9487128 -24.431019 19.90794 16711746
-9.7828302 -21.362242 13.491355 16711746
-4.1134062 -18.298084 11.540071 16711746
12.647343 -12.44374 17.166595 16711746
20.644007 -26.913118 25.87467 16711746
12.570712 -22.555111 17.780788 16711746
10.112856 -15.275006 12.545587 16711746
10.523209 -17.523726 13.828133 16711746
5.9768476 -15.176813 10.834531 16711746
5.4748235 -24.065125 17.704895 16711746
9.1382589 -19.617218 15.725834 16711746
4.2974081 -16.498367 8.9191265 16711746
3.8358035 -17.272068 17.590004 16711746
8.8542347 -16.721931 11.973562 16711746
8.545661 -16.108356 11.61345 16711746
10.56729 -15.784032 13.668304 16711746
3.4653811 -20.263905 16.541845 16711746
12.67393 -16.552366 9.6155157 16711746
-12.325234 -18.941446 11.842268 16711746
5.6218648 -29.06514 22.833183 16711746
20.250221 -29.501474 23.132788 16711746
12.165014 -17.758427 13.258214 16711746
32.638813 -42.372303 40.201527 16711746
17.137096 -16.714582 13.498365 16711746
23.769606 -25.184566 15.759431 16711746
6.2094073 -18.95192 10.759503 16711746
3.1513629 -18.840605 15.667861 16711746
16.122662 -15.520987 12.45436 16711746
14.53126 -15.564544 11.179343 16711746
15.97851 -15.875625 12.556268 16711746
16.889112 -15.20167 11.377023 16711746
5.1703639 -15.382475 11.897554 16711746
4.136754 -17.930433 12.071752 16711746
2.7110596 -14.311341 14.573714 16711746
21.301142 -17.540546 15.129601 16711746
10.221565 -16.700754 13.716288 16711746
10.958086 -23.657837 19.618904 16711746
6.2578592 -15.279243 10.450312 16711746
16.700558 -17.796638 12.259039 16711746
16.774446 -16.878931 16.300543 16711746
9.3898821 -14.765079 11.658786 16711746
23.116152 -19.777622 19.127424 16711746
16.545317 -15.179281 18.269854 16711746
11.728841 -16.157024 13.07198 16711746
7.9546132 -15.689317 16.311831 16711746
16.514994 -16.762199 15.242853 16711746
11.439696 -17.621849 14.875349 16711746
-1.8108187 -22.373415 16.524599 16711746
6.2423444 -25.682167 22.725508 16711746
7.9559994 -25.808514 22.740406 16711746
20.149466 -51.179359 35.742771 16711746
12.139353 -14.897592 11.613905 16711746
12.397846 -16.689571 11.735595 16711746
18.341944 -17.835428 13.632497 16711746
10.001328 -29.009836 22.566641 16711746
16.515387 -16.756161 16.259943 16711746
14.540644 -28.383045 22.225294 16711746
19.656803 -19.87002 16.169264 16711746
9.2890177 -43.671562 33.89138 16711746
16.955442 -14.051142 11.769739 16711746
10.523598 -20.284916 15.04037 16711746
19.043474 -18.954653 15.075252 16711746
11.169957 -16.361671 10.535469 16711746
14.583651 -20.247868 17.653601 16711746
10.203202 -20.051737 17.794031 16711746
7.4351773 -16.560034 11.678403 16711746
18.894007 -14.805581 9.5010948 16711746
11.639205 -15.076799 11.438451 16711746
11.902285 -16.596609 9.4223204 16711746
8.9609127 -16.789965 12.073516 16711746
9.6115131 -20.691151 16.924322 16711746
11.018434 -16.56127 12.927217 16711746
11.023534 -15.726459 13.349768 16711746
9.6788673 -14.023971 11.806417 16711746
17.382336 -23.163216 17.544813 16711746
5.6640754 -21.673668 17.058434 16711746
13.916382 -14.401588 10.563272 16711746
18.384308 -21.005678 16.016479 16711746
12.191163 -16.235229 13.098415 16711746
17.798059 -19.767916 14.98083 16711746
17.088448 -20.468668 19.633495 16711746
13.914407 -17.647182 14.588803 16711746
13.042701 -16.317221 10.538295 16711746
18.487911 -20.737558 17.218231 16711746
14.697661 -15.37782 12.648296 16711746
16.503052 -29.916691 27.602066 16711746
9.5999155 -21.816038 17.281397 16711746
16.428402 -20.645466 18.813864 16711746
16.765301 -15.47488 11.529939 16711746
9.8461914 -13.020553 9.8841572 16711746
19.842373 -16.303553 13.907541 16711746
16.80253 -18.126511 22.150393 16711746
14.44528 -21.50561 16.645065 16711746
22.280468 -18.123508 8.0914888 16711746
19.585663 -35.679588 28.061968 16711746
12.798496 -19.739342 16.440437 16711746
11.174675 -19.159525 14.848538 16711746
11.293661 -16.731625 11.194563 16711746
6.7286463 -18.358809 15.284657 16711746
13.907929 -19.128784 14.568916 16711746
13.220393 -15.529312 11.65339 16711746
15.690639 -15.405316 12.518918 16711746
8.7835903 -17.905397 11.945105 16711746
8.8731766 -16.544025 11.292082 16711746
11.71482 -15.889074 10.545055 16711746
10.620565 -17.806015 13.552772 16711746
20.492579 -21.819572 17.610758 16711746
9.3074131 -18.995182 16.792671 16711746
15.579686 -18.814888 19.377628 16711746
9.9999857 -32.476524 27.056265 16711746
13.213339 -22.551838 16.312555 16711746
11.906929 -21.423956 17.891376 16711746
10.475977 -35.319134 26.52083 16711746
5.757072 -14.167642 12.316088 16711746
15.959318 -25.933723 17.105375 16711746
11.736084 -15.404071 13.534333 16711746
11.312247 -13.889801 13.06139 16711746
11.480756 -17.028746 14.714248 16711746
10.824686 -19.942616 15.531336 16711746
10.57389 -17.705645 14.838306 16711746
12.410546 -14.997098 13.134398 16711746
9.8563766 -14.610108 12.443247 16711746
11.214358 -12.815931 12.60359 16711746
14.52128 -14.667468 10.750668 16711746
11.367001 -15.897138 11.895033 16711746
10.991464 -22.710581 17.643713 16711746
10.005175 -14.63129 15.780898 16711746
13.053058 -13.023739 13.132134 16711746
10.549589 -18.626303 14.135267 16711746
11.428032 -20.00157 16.730902 16711746
13.428486 -16.703943 14.324837 16711746
-12.260995 -24.587826 25.786137 16711746
12.771435 -16.583235 12.051547 16711746
7.5820961 -34.153946 26.224274 16711746
17.376719 -21.222744 22.429811 16711746
17.483404 -22.252676 21.157381 16711746
31.199888 -34.42979 19.031073 16711746
14.398451 -14.3993 11.10787 16711746
8.0207872 -16.334784 10.937879 16711746
17.056456 -21.368879 17.451788 16711746
11.915421 -20.861498 17.32394 16711746
11.236407 -14.81042 12.691081 16711746
9.0676804 -20.108652 18.471634 16711746
3.8515472 -18.483101 16.133997 16711746
7.4378448 -24.960062 17.718119 16711746
11.483466 -20.757767 16.734072 16711746
10.298876 -19.684002 17.998571 16711746
14.313739 -23.4175 17.028641 16711746
6.6132393 -30.364042 24.373096 16711746
18.906712 -30.246655 27.201649 16711746
14.147173 -18.389069 16.148006 16711746
13.403854 -16.346197 12.094805 16711746
33.018959 -62.582821 7.6331596 16711746
4.0401363 -16.884142 16.697311 16711746
6.3462219 -14.584388 11.439215 16711746
6.1409302 -15.116451 13.309505 16711746
9.109889 -13.590815 12.009831 16711746
14.442781 -15.372435 13.151516 16711746
15.62344 -16.917334 12.438519 16711746
8.7892132 -14.661679 12.056067 16711746
2.6997354 -19.241768 14.967115 16711746
5.1230774 -17.513807 14.104332 16711746
