# .PCD v.7 - Point Cloud Data file format
VERSION .7
FIELDS x y z rgb
SIZE 4 4 4 4
TYPE F F F F
COUNT 1 1 1 1
WIDTH 90
HEIGHT 1
VIEWPOINT 0 0 0 1 0 0 0
POINTS 90
DATA ascii

 -15.3033447 -3.9892001 8.6332312 16777215
 -0.1653826 -0.0506019 0.1047404 16777215
0.4459121 -0.0919572 0.8202329 16711746
0.5041199 0.2730947 1.1588638 16711746
0.4425060 0.3991648 1.1000012 16711746
0.5232894 0.1688960 0.9791420 16711746
0.6418842 0.1802144 1.1011790 16711746
0.5945618 0.3433252 0.9957773 16711746
0.9678726 0.0988139 1.0591854 16711746
-0.0657072 0.2530051 1.0742269 16711746
-0.1049481 0.2496835 1.0715722 16711746
0.7860729 0.1299367 1.1439741 16711746
0.5789043 0.0723545 0.9077483 16711746
0.7220240 0.0996286 1.1578254 16711746
1.0258576 0.1732095 1.0678408 16711746
-0.5002583 -0.0511997 1.0074658 16711746
0.6169165 0.1579949 1.0950291 16711746
-0.0093566 0.4286968 1.0981574 16711746
0.4096230 0.2156810 0.9280677 16711746
0.5210150 0.2542459 1.1483240 16711746
-0.0548639 -0.0001224 0.8793822 16711746
0.2785205 0.3235332 1.2363062 16711746
0.4219258 0.2576472 0.9366648 16711746
0.2574072 0.1816094 0.7435427 16711746
0.5980309 0.2993129 1.1484731 16711746
0.6894443 0.0466048 1.1324694 16711746
0.8007575 0.3924884 1.1213441 16711746
0.5082642 0.2389924 0.7929941 16711746
0.8246390 0.1162788 1.0657806 16711746
-0.6549951 0.5756274 1.2731365 16711746
-0.3165682 -0.0429172 0.9038171 16711746
0.1724780 0.2974867 1.2957711 16711746
-0.0532883 0.2987175 1.0864892 16711746
0.1962848 0.3006155 1.0410800 16711746
0.1034760 0.2548223 1.0138017 16711746
0.4279191 0.1273629 1.0989349 16711746
0.7281087 0.1973527 0.6919370 16711746
1.2046136 0.3641090 1.0484833 16711746
0.4815674 0.1662848 0.9022378 16711746
1.0284468 0.2339247 1.0731618 16711746
0.7216839 0.3493181 1.1335471 16711746
0.6303877 0.2507616 0.9555163 16711746
0.9253347 0.3516646 1.0939618 16711746
0.5863324 0.1162481 0.9270819 16711746
0.5029826 0.0963550 0.7634876 16711746
0.4825200 0.5505791 1.0396245 16711746
0.3371341 0.4388649 0.7751037 16711746
-0.0212781 0.3838841 0.9069761 16711746
0.4098548 0.3507394 0.9542658 16711746
0.4280821 0.4313232 0.9506031 16711746
0.3116725 0.3255029 0.8007634 16711746
0.0352183 0.3823186 1.0885711 16711746
-0.0107621 0.3383171 1.0815580 16711746
0.0781343 0.5542589 1.3843453 16711746
0.1297258 0.3752811 1.0400306 16711746
0.6682140 0.4791905 0.8748617 16711746
0.5213783 0.5450605 0.9025922 16711746
0.9542176 0.3656402 0.7811795 16711746
0.5453943 0.3672014 0.9188779 16711746
0.7363396 0.3675363 0.8769093 16711746
0.5775002 0.2826304 0.7626233 16711746
0.5745098 0.4328906 0.9068925 16711746
1.0812058 0.5711333 1.0471319 16711746
0.6933428 0.4180007 0.8794374 16711746
-0.3216169 0.2044319 1.1914752 16711746
-0.2001265 0.3819928 1.1334738 16711746
0.7300307 -0.0008270 1.0759835 16711746
-0.0561159 -0.0005739 0.8711377 16711746
-6.1391888 0.0238126 16.4395752 16711746
-4.7844095 1.9026597 26.3908043 16711746
48.4521713 72.6903610 786.9726562 16711746
-1.5223869 34.2514725 80.4090652 16711746
21.8985195 25.8528423 65.9458160 16711746
23.1535091 24.7803230 66.2219467 16711746
-69.0932159 355.7998352 662.2633057 16711746
23.6473446 -18.5318222 53.4983177 16711746
11.4121609 21.6249504 62.7018776 16711746
23.8451099 25.2911625 68.0199356 16711746
13.9393444 65.4334335 160.8696594 16711746
69.6891632 239.3843231 463.5835876 16711746
31.6672134 35.0350571 241.5789795 16711746
-132.7669220 -18.3561134 117.7276688 16711746
-65.0042572 248.8007660 490.0754700 16711746
-9.6464481 9.4178085 39.7447472 16711746
77.5237732 273.4920654 523.4431152 16711746
17.4600639 -11.6315517 63.0659294 16711746
197.8945312 -151.4550018 762.3933716 16711746
257.3438110 76.1197891 532.9793091 16711746
70.9986877 -37.2729340 478.8783569 16711746
17.3359451 -10.8325787 62.7464180 16711746
