# .PCD v.7 - Point Cloud Data file format
VERSION .7
FIELDS x y z rgb
SIZE 4 4 4 4
TYPE F F F F
COUNT 1 1 1 1
WIDTH 117
HEIGHT 1
VIEWPOINT 0 0 0 1 0 0 0
POINTS 117
DATA ascii

 0.0791934 -0.0712536 0.0323700 16777215
 0.0799519 -0.0726589 0.0334735 16777215
 0.0807673 -0.0740796 0.0345629 16777215
 0.0807713 -0.0740888 0.0345653 16777215
 0.0811377 -0.0741139 0.0343214 16777215
 0.0813311 -0.0741276 0.0342649 16777215
 0.0816711 -0.0749237 0.0356608 16777215
 0.0816900 -0.0749522 0.0370076 16777215
 0.0818245 -0.0692974 0.0380615 16777215
 0.0862828 -0.0701186 0.0614559 16777215
 0.1016646 -0.0617580 0.0790008 16777215
 0.1129639 -0.0647429 0.0986438 16777215
 0.1268114 -0.0654897 0.1256002 16777215
 0.1390654 -0.0617716 0.1511666 16777215
 0.1528175 -0.0603925 0.1851143 16777215
 0.1704414 -0.0599869 0.2195158 16777215
 0.1875382 -0.0555048 0.2500129 16777215
 0.2057795 -0.0380404 0.2762024 16777215
 0.2207444 -0.0521220 0.3099465 16777215
 0.2569785 -0.0404025 0.3619152 16777215
 0.2641810 -0.0423547 0.4081560 16777215
 0.2686454 -0.0430174 0.4219593 16777215
 0.2912050 -0.0415583 0.4679937 16777215
 0.3262323 -0.0609893 0.5288954 16777215
 0.3552063 -0.0650892 0.5759933 16777215
 0.3826456 -0.0401816 0.6204514 16777215
 0.4083548 -0.0581983 0.6733994 16777215
 0.4411529 -0.0736177 0.6998708 16777215
 0.4570233 -0.0786693 0.7545528 16777215
 0.4812795 -0.0846074 0.8149632 16777215
 0.4952889 -0.0940768 0.8217673 16777215
 0.4779746 -0.0904160 0.8731521 16777215
 0.5126026 -0.0760704 0.9257046 16777215
 0.5428681 -0.0844011 0.9577616 16777215
 0.5573514 -0.0776286 0.9996754 16777215
 0.5824152 -0.0995986 1.0521019 16777215
 0.6016502 -0.0573508 1.0983001 16777215
 0.6332033 -0.0609875 1.1453805 16777215
 0.6445698 -0.0879339 1.1758052 16777215
 0.6695889 -0.0832309 1.2177408 16777215
 0.6851214 -0.0461625 1.2673569 16777215
 0.6861381 -0.0324931 1.3030561 16777215
 0.7347013 -0.0571141 1.3487659 16777215
 0.7963799 -0.0633128 1.3790469 16777215
 0.7993274 -0.0365285 1.4088701 16777215
 0.7986934 -0.0404137 1.4526179 16777215
 0.8111817 -0.0512588 1.4848616 16777215
 0.8156890 -0.0517794 1.5152920 16777215
 0.8531247 -0.0450934 1.5569484 16777215
 0.8654276 -0.0484369 1.5921514 16777215
 0.8426576 -0.0572309 1.6421986 16777215
 0.8515904 -0.0618429 1.6936710 16777215
 0.8998578 -0.0391707 1.7384325 16777215
 0.9196074 -0.0569783 1.7721931 16777215
 0.9269598 -0.0490820 1.8260818 16777215
 0.9386455 -0.0680000 1.8640547 16777215
 0.9540802 -0.0211665 1.8924067 16777215
 0.9928862 -0.0449100 1.9316859 16777215
 0.9739422 -0.0002507 1.9956126 16777215
 0.9482103 0.0067414 2.0117972 16777215
 0.9926986 0.0411589 2.0502334 16777215
 0.9834790 0.0563354 2.0876672 16777215
 0.9870714 0.0497787 2.1173623 16777215
 0.9945552 0.0474832 2.1378927 16777215
 1.0128192 0.0562464 2.1586804 16777215
 0.9817948 0.1150771 2.1765776 16777215
 1.0314932 0.0206717 2.2521329 16777215
 1.0454755 0.0120182 2.2752328 16777215
 1.0659605 0.0161711 2.3243170 16777215
 1.0712239 0.0398625 2.3632259 16777215
 1.0776548 0.1018358 2.3922594 16777215
 1.1053751 0.0812149 2.4349170 16777215
 1.1496845 0.0823866 2.4736409 16777215
 1.1700572 0.0668153 2.5158324 16777215
 1.1285540 0.0925696 2.5507348 16777215
 1.1801864 0.0996957 2.5765424 16777215
 1.2078485 0.0859941 2.6340551 16777215
 1.2346553 0.0849892 2.6694181 16777215
 1.2393271 0.0712161 2.7209468 16777215
 1.2651052 0.0901469 2.7531636 16777215
 1.2826947 0.1126941 2.7691622 16777215
 1.2935110 0.1044537 2.8082280 16777215
 1.2703768 0.1033949 2.8591022 16777215
 1.2728274 0.1196194 2.8714552 16777215
 1.2908578 0.1115251 2.8944824 16777215
 1.2904885 0.1405599 2.9155655 16777215
 1.3015089 0.1019409 2.9581623 16777215
 1.3201714 0.1058873 2.9816349 16777215
 1.3354319 0.1238760 3.0182981 16777215
 1.3403552 0.1422045 3.0838470 16777215
 1.3748528 0.1502436 3.1128025 16777215
 1.3898211 0.1354619 3.1363602 16777215
 1.3768504 0.1777898 3.1985455 16777215
 1.4061655 0.1598620 3.2446020 16777215
 1.4115895 0.1587689 3.2779300 16777215
 1.4179505 0.1380740 3.3186400 16777215
 1.4595327 0.1316407 3.3547742 16777215
 1.4726516 0.1434385 3.3951519 16777215
 1.3883116 0.1955951 3.4423568 16777215
 1.4812596 0.2059501 3.4513805 16777215
 1.4759256 0.1987413 3.4794793 16777215
 1.5004508 0.1921810 3.5370884 16777215
 1.5232322 0.2050843 3.5518541 16777215
 1.5171566 0.2407523 3.5694618 16777215
 1.5274817 0.1914700 3.6228199 16777215
 1.5261554 0.2135500 3.6164415 16777215
 1.5252240 0.1727364 3.6616902 16777215
 1.5313667 0.1955341 3.6709065 16777215
 1.5234109 0.2161834 3.6912296 16777215
 1.5347404 0.2308310 3.6929269 16777215
 1.5654883 0.2271103 3.7087433 16777215
 1.6038947 0.2580751 3.7303836 16777215
 1.5931578 0.2451239 3.7436500 16777215
 1.6046258 0.2433407 3.7664759 16777215
 1.6058732 0.2511954 3.7846048 16777215
 1.5870614 0.2489808 3.8257306 16777215
 1.6164820 0.2389561 3.8373466 16777215
