# .PCD v.7 - Point Cloud Data file format
VERSION .7
FIELDS x y z rgb
SIZE 4 4 4 4
TYPE F F F F
COUNT 1 1 1 1
WIDTH 1194
HEIGHT 1
VIEWPOINT 0 0 0 1 0 0 0
POINTS 1194
DATA ascii
1.4937264 -1.3595302 2.4491630 16711746
1.0035484 -0.8063269 2.6005025 16711746
-0.2019886 -1.1324337 2.2624030 16711746
0.3808903 -1.2457066 3.1909080 16711746
0.7223604 -1.6607758 2.8029511 16711746
1.6256016 -1.0155958 2.2614293 16711746
0.8348341 -0.9654332 2.9098802 16711746
1.0765171 -0.8963556 2.6324911 16711746
0.6969586 -1.5615927 3.0209670 16711746
-1.0432535 -1.4739227 2.8763688 16711746
2.0158577 -1.2495911 2.2904172 16711746
0.3420677 -2.3160183 3.4652877 16711746
0.7619683 -0.9323054 2.7718406 16711746
0.9992383 -1.2684082 2.9361298 16711746
1.0771137 -1.1610041 2.2166224 16711746
0.9318118 -1.2739462 2.2856381 16711746
0.1492231 -1.0890747 2.8850248 16711746
0.3415019 -1.7141154 3.0224266 16711746
0.1413533 -1.0998456 2.9038296 16711746
0.1054596 -1.2756100 2.8753400 16711746
2.0224702 -1.3540341 2.9739087 16711746
1.0894873 -1.1755198 2.2398415 16711746
1.3815415 -1.0858606 2.3149006 16711746
2.9163232 -2.4384022 5.8798399 16711746
0.9507423 -0.2246993 1.7308091 16711746
3.5272155 -2.0809534 5.1219263 16711746
2.4973087 -1.7031615 4.8082385 16711746
0.7393377 -0.4632586 1.8203931 16711746
1.6778657 -1.3829768 2.8671920 16711746
0.4105236 -0.5953243 2.3101768 16711746
1.9318280 -1.2090571 2.8798070 16711746
-0.3993021 -1.3817233 3.4608128 16711746
0.3197172 -1.3211076 2.1374536 16711746
1.9090958 -1.3564727 2.8128603 16711746
1.9112661 -1.1660835 2.2885525 16711746
1.4353178 -1.2075725 2.0619609 16711746
1.1641005 -1.4708469 2.7158725 16711746
0.7237484 -1.4246621 2.5082841 16711746
0.3866010 -1.4866667 2.8410914 16711746
0.8248948 -1.1496298 2.3922539 16711746
1.2224615 -1.2680120 2.7363136 16711746
1.0479776 -1.4492383 3.3557086 16711746
1.9050915 -1.3970619 3.0683944 16711746
0.9684194 -1.4189974 2.4164636 16711746
1.3643368 -1.1814151 2.3369796 16711746
1.1566453 -1.2894268 2.3582137 16711746
0.8046017 -1.3779157 2.5233078 16711746
0.3257019 -1.7517902 2.7867355 16711746
0.2916013 -1.2775754 2.7727261 16711746
-0.5080182 -1.6727587 2.2881012 16711746
1.1585875 -1.4494725 2.5063214 16711746
1.7965941 -1.2709463 2.2184236 16711746
0.3251832 -1.5528165 2.8916624 16711746
1.7096376 -1.5500383 3.4080172 16711746
1.0391076 -1.6229508 2.5830839 16711746
0.9496554 -1.4517548 2.8711762 16711746
1.4928538 -1.3434796 3.5350907 16711746
0.2454179 -0.9686283 2.8872330 16711746
1.1648122 -1.3622992 2.6580887 16711746
0.3295142 -1.9638730 3.0220430 16711746
1.2619619 -1.1518111 2.5921118 16711746
2.4502089 -1.2594969 3.6639464 16711746
0.4278439 -1.6018033 2.7461076 16711746
2.1652520 -1.4211558 2.7611403 16711746
2.0117581 -1.3327436 2.9559770 16711746
1.7033038 -1.6750274 3.2567225 16711746
1.2231387 -1.2932924 2.6675787 16711746
1.9128551 -1.6307548 2.5751812 16711746
0.1409776 -1.8364732 2.9755673 16711746
2.2405441 -1.5797685 4.4406939 16711746
1.6604308 -1.5793741 3.5419762 16711746
0.9418315 -1.4761007 2.4981921 16711746
0.9362594 -1.6431831 2.7710822 16711746
0.9981663 -1.2970097 2.7670214 16711746
2.2946346 -2.3671761 3.9758720 16711746
1.2577451 -1.1544003 2.5908637 16711746
1.0959526 -1.3410015 3.7680135 16711746
1.9304901 -1.8620340 4.7959008 16711746
2.3746905 -1.8803046 4.5034137 16711746
1.5600628 -1.6518521 3.7999902 16711746
1.4748074 -1.1771209 2.4282918 16711746
1.7907115 -1.3525860 2.3043501 16711746
0.9056359 -1.7978754 3.2380648 16711746
0.0170236 -1.8444234 3.6007748 16711746
0.5651804 -1.3192973 2.5754378 16711746
2.0741799 -1.3298188 2.7055023 16711746
0.8685891 -1.1705931 2.5622890 16711746
1.1894974 -1.1227989 2.4469059 16711746
1.7322162 -1.4447658 2.6418996 16711746
1.0986974 -2.4229181 2.9012177 16711746
1.5387881 -1.4718490 3.0425041 16711746
2.0106521 -1.5209454 3.1981990 16711746
0.5424890 -1.5316838 2.8922594 16711746
1.6853883 -1.3554773 2.7040632 16711746
2.2110486 -1.4604088 3.1550641 16711746
1.3045706 -1.3214947 2.3805711 16711746
1.9468545 -1.4277490 3.1044223 16711746
-0.1056817 -1.5508347 3.6525629 16711746
0.0159637 -1.8840903 3.0801835 16711746
1.8260919 -1.4651536 2.4992325 16711746
1.9721451 -1.3701353 2.8282201 16711746
0.7449885 -1.2198881 2.2487712 16711746
1.7668211 -1.5911404 2.2946944 16711746
1.7348799 -1.3667427 2.2500408 16711746
1.4621983 -1.1737508 2.1901350 16711746
1.9200141 -1.3692781 3.0717816 16711746
1.9627237 -1.0062389 2.4676144 16711746
1.6160792 -1.0729195 2.2332821 16711746
1.9396894 -1.0430909 2.6369452 16711746
1.7172281 -1.6425678 2.8164217 16711746
1.9218166 -1.8721273 4.4221444 16711746
2.1028671 -1.8651866 4.2277055 16711746
1.8793044 -1.2085164 3.1123834 16711746
1.4664570 -1.2715324 2.2729027 16711746
1.9677258 -1.3445777 2.8679318 16711746
1.6146122 -1.6048267 3.4586029 16711746
1.7475625 -2.0670292 4.2357068 16711746
1.8616341 -1.7209190 4.5725732 16711746
0.5461547 -1.1080433 2.4229395 16711746
2.1587746 -1.4181883 3.1127882 16711746
0.4300940 -0.8973016 2.3081982 16711746
1.6754334 -1.0716411 2.2254300 16711746
1.7434794 -1.2021602 2.2960536 16711746
1.6258553 -1.2884475 2.1909049 16711746
1.1375301 -1.2420815 2.6464248 16711746
0.5882993 -0.5138215 2.2380855 16711746
2.2326698 -1.7130684 4.0777001 16711746
1.8094003 -1.4582694 3.0446155 16711746
1.6429111 -1.5671769 3.5266263 16711746
2.1887989 -1.7820550 3.9727445 16711746
1.8129495 -1.4181813 2.7807159 16711746
2.5152955 -1.6345057 3.7965894 16711746
-0.1012317 -1.1368589 2.6060848 16711746
1.8293481 -1.3191562 3.1533732 16711746
2.7397358 -1.9093914 5.4227190 16711746
2.0132895 -1.4172860 2.8237791 16711746
-0.0088048 -1.3404154 3.2393711 16711746
1.3976907 -2.6458900 3.1469672 16711746
0.8567551 -3.0745146 4.4448814 16711746
1.8452278 -1.1547710 3.0554197 16711746
2.1467094 -1.2946813 3.8498335 16711746
1.6890736 -1.2167965 2.6312299 16711746
1.4239769 -1.2047197 2.3964059 16711746
1.6838081 -1.3151710 2.5120528 16711746
1.8015102 -2.1774704 4.4861445 16711746
0.9800733 -1.5460168 2.6832631 16711746
0.3367228 -1.2176569 2.6237366 16711746
0.0520533 -1.1848189 2.4065521 16711746
1.5010275 -1.2592595 2.5325131 16711746
1.4288614 -1.1835753 2.5429959 16711746
0.8269244 -2.2192202 3.4732900 16711746
-0.8117595 -1.3417492 3.7000024 16711746
-0.1995078 -1.3689715 2.8309753 16711746
0.7490953 -0.9254980 2.7007897 16711746
1.4173774 -1.2923918 2.3609543 16711746
-0.3641662 -2.9922163 3.0701897 16711746
0.3497491 -1.2116536 2.5732429 16711746
1.2412720 -1.2234187 2.5697393 16711746
2.0580728 -1.6057521 3.7337122 16711746
1.7989361 -1.2579335 2.7620277 16711746
1.7518339 -1.3930317 2.6895795 16711746
0.3061877 -1.4526929 2.3414388 16711746
2.7808497 -1.9234598 4.8874040 16711746
0.8385364 -1.4725618 2.8765769 16711746
0.6489131 -7.6956434 7.5117488 16711746
1.4148576 -1.3661934 3.1302404 16711746
0.9458742 -1.1062758 2.5407162 16711746
0.8231644 -1.0961146 2.8710907 16711746
1.2849402 -1.1086365 2.1880877 16711746
1.1637934 -1.3500038 2.3874421 16711746
2.9552231 -1.5062780 3.3876815 16711746
1.7280973 -1.2030770 3.0302308 16711746
1.7795610 -1.3624648 2.9735262 16711746
1.0185831 -0.8991166 2.4691014 16711746
1.5292282 -1.6285660 3.4060299 16711746
1.8576968 -1.8461754 3.5406601 16711746
1.7520082 -1.4841083 4.0861597 16711746
1.7325796 -1.1699247 2.2630868 16711746
1.6722736 -1.6561699 4.0019679 16711746
2.0664308 -1.6314728 3.7176600 16711746
1.7504636 -1.3865993 2.4406626 16711746
1.2849561 -1.3382294 2.8574123 16711746
1.1750040 -0.9698234 3.1176176 16711746
1.5082747 -1.3684605 2.3314190 16711746
1.5621669 -1.2237320 2.5355008 16711746
1.8250250 -1.2064346 2.4197018 16711746
1.4212428 -1.3624933 3.1292622 16711746
0.9216448 -1.2002026 2.5194297 16711746
1.9756442 -1.7144591 4.2736802 16711746
1.7720802 -1.2440655 2.3187747 16711746
1.8059487 -1.1558671 2.1182568 16711746
1.5290843 -1.4098060 2.3414576 16711746
1.6556567 -1.4376268 4.2149668 16711746
1.4433669 -0.9204429 3.8645434 16711746
2.6719506 -1.6825343 3.7607019 16711746
1.6412170 -1.1440138 3.2193258 16711746
0.8498272 -1.0589174 3.0290072 16711746
1.0645257 -1.1944844 2.7402611 16711746
1.8690426 -1.5032853 2.8494630 16711746
0.8725534 -1.5195818 2.8866675 16711746
1.1966380 -1.2780854 2.7445517 16711746
1.1657321 -1.3405874 2.3783875 16711746
2.9380832 -1.9286906 4.0723424 16711746
2.0389042 -1.4256594 3.2688537 16711746
0.8978907 -1.1476458 2.8962483 16711746
0.6572621 -1.1769495 2.2289226 16711746
0.8404223 -1.1283181 3.1036315 16711746
1.0508450 -1.2778530 2.5797546 16711746
1.7150422 -1.3223618 2.5329847 16711746
0.9045663 -1.2381735 2.9993982 16711746
0.2846723 -1.1521136 2.5938423 16711746
1.2715039 -1.3395438 2.6597834 16711746
1.7746181 -1.3119736 2.2901704 16711746
0.2920877 -1.1649240 2.5979557 16711746
1.9610956 -1.1776998 2.6238532 16711746
1.3333248 -1.4509956 3.3771303 16711746
2.0777290 -1.2833850 2.7090607 16711746
2.1229837 -1.6914053 3.8592954 16711746
0.0561699 -1.4505866 2.2584405 16711746
0.1858990 -1.5974951 3.8963025 16711746
-0.0233396 -1.5545422 4.3321571 16711746
2.1970532 -1.4775863 2.4360728 16711746
1.3013430 -1.4167136 3.6396403 16711746
1.3885226 -1.1090337 2.9190290 16711746
4.6516485 -10.5316515 9.0321989 16711746
1.9341846 -1.5337610 2.9392960 16711746
0.6253944 -1.2825133 2.2742798 16711746
1.6888686 -1.2214118 2.3229740 16711746
1.2050526 -1.3202093 2.7446349 16711746
1.0707970 -1.4110550 2.9164767 16711746
1.2941912 -1.6695204 2.7330251 16711746
1.3535933 -1.7461438 2.8487570 16711746
1.5672264 -1.5114938 2.3725314 16711746
1.9444944 -1.1403403 2.3662264 16711746
0.8920614 -1.3327233 2.6076794 16711746
1.6084895 -0.8657271 2.1629317 16711746
1.5458179 -1.1931782 2.5107648 16711746
0.4775473 -1.1818843 3.3115506 16711746
1.1655639 -1.3939631 2.5884721 16711746
0.5422767 -1.3221431 3.3651662 16711746
1.9018379 -1.3887200 3.3599079 16711746
1.6787142 -1.1358995 2.8682451 16711746
1.3253661 -1.2031771 2.3429673 16711746
1.8559186 -2.6950893 5.4969082 16711746
1.2273024 -1.2186166 2.7410183 16711746
1.8339995 -1.5950896 3.2798877 16711746
1.1814417 -1.5552025 2.6993437 16711746
1.2594812 -1.4009645 2.9404461 16711746
1.3781515 -1.2985818 2.3980665 16711746
1.4893099 -1.3222574 3.1495590 16711746
1.6164216 -1.2981318 2.5249155 16711746
1.5996226 -1.3644208 2.6450758 16711746
1.7142687 -1.5886267 3.5176401 16711746
1.9647201 -2.4500089 5.1159267 16711746
1.6811686 -1.8944178 4.1347632 16711746
0.8839263 -0.5690601 2.1107092 16711746
1.2210070 -1.7256247 2.8001053 16711746
1.2326849 -1.3827870 2.5660992 16711746
1.6285291 -1.1288629 2.2989545 16711746
1.8476117 -1.2646443 2.7801180 16711746
0.5219581 -1.2812610 3.3994942 16711746
1.1945931 -0.9647639 3.2099695 16711746
1.8495250 -1.3860891 2.6926975 16711746
0.1071370 -1.8788946 2.9680388 16711746
2.3643973 -1.8551164 4.4275308 16711746
2.0809906 -1.5058475 3.3660555 16711746
1.4458725 -2.8091588 5.2585983 16711746
2.8275218 -6.1310744 5.2682137 16711746
-1.3402697 -7.8172507 8.5691023 16711746
1.9526075 -1.7079228 4.2801785 16711746
2.2653713 -1.5683283 4.1376300 16711746
1.8731847 -2.2177787 4.9939928 16711746
1.3536203 -1.3755944 2.8657322 16711746
3.0902221 -1.4248250 4.9452229 16711746
2.4047017 -1.4669218 3.8229809 16711746
1.8867781 -2.1638944 4.7228093 16711746
3.0310419 -1.5816709 4.6722159 16711746
1.8581048 -1.1348259 2.7441456 16711746
1.8846873 -1.2762049 2.6989062 16711746
1.9273449 -1.7065650 3.4963319 16711746
1.8181920 -0.9789973 2.4498811 16711746
1.5482825 -1.5567673 2.6219149 16711746
1.7875558 -1.1817136 2.4071689 16711746
2.8779695 -1.6162267 4.2752218 16711746
1.1537321 -1.3522530 2.7285261 16711746
2.2398508 -1.7160898 4.0890884 16711746
2.0585544 -1.9046963 4.5624628 16711746
1.8680012 -1.9542773 3.7815335 16711746
1.6530231 -1.8043294 3.6289251 16711746
2.3466287 -1.6031744 4.5350862 16711746
1.7254374 -1.5269029 4.6381311 16711746
2.8647983 -1.4641517 4.4470139 16711746
1.6557319 -1.1901377 2.4255168 16711746
1.9496999 -1.2104744 3.1143792 16711746
1.7711906 -1.1813161 2.4041924 16711746
1.8293563 -1.1178837 2.5840209 16711746
1.8457699 -1.3641359 2.8123071 16711746
2.7066369 -2.1765141 5.6145749 16711746
1.8483074 -1.8043621 4.9090481 16711746
0.0400996 -2.5696096 4.9228506 16711746
2.7973018 -1.3880590 4.3295083 16711746
-0.2170333 -2.8320320 4.2649512 16711746
1.9646480 -1.3646508 2.8846307 16711746
1.8702414 -1.1775396 2.6254685 16711746
1.2763411 -1.8429010 3.6447511 16711746
0.1603865 -1.6644380 3.7514977 16711746
1.8674315 -1.0267620 2.4893258 16711746
2.1035576 -1.1844091 2.8498161 16711746
1.7182986 -1.0544330 2.4264362 16711746
2.7178392 -1.1969769 4.4431286 16711746
1.5530587 -1.2167022 2.5188220 16711746
0.2130906 -1.9476372 3.7702713 16711746
2.2674870 -1.1970587 2.6823862 16711746
2.6333783 -1.2487909 2.8808129 16711746
1.5842928 -1.3976797 2.7865822 16711746
1.7835938 -1.0995195 2.4602351 16711746
4.5142102 -1.7765597 5.3274322 16711746
-0.1031173 -1.3749064 3.4680843 16711746
0.0648597 -1.5442779 3.9353666 16711746
0.2004676 -1.9390519 3.2907078 16711746
-0.2628656 -1.5435383 3.3196485 16711746
2.2504060 -1.3322816 2.9652097 16711746
2.0185266 -0.7468136 2.6122591 16711746
1.1248153 -2.1513793 2.9759483 16711746
3.6587799 -1.3150769 4.4608188 16711746
-0.0477890 -5.8570142 5.3455582 16711746
2.0472856 -1.8871895 4.0841918 16711746
1.2537662 -2.1776392 5.1967549 16711746
4.0697155 -1.9443213 7.4099545 16711746
1.4134736 -2.0538409 4.4678059 16711746
0.7709616 -1.4411957 2.5563405 16711746
1.5709928 -2.4808865 5.2809930 16711746
-1.2783751 -1.5537094 3.3249097 16711746
-0.0470303 -1.4776641 4.3398519 16711746
-1.4501381 -3.6615493 4.5015454 16711746
-4.9718375 -9.0713749 16.9038525 16711746
0.2899823 -1.3931255 3.5968997 16711746
-0.0069363 -1.4436202 4.2217841 16711746
1.3214216 -2.4529591 4.8249798 16711746
1.4828249 -1.1234381 3.1192663 16711746
0.2493662 -1.7683839 3.4897101 16711746
0.3293318 -1.1129717 3.1263618 16711746
-0.1415820 -1.6558132 3.6663272 16711746
0.4240754 -1.2795781 3.3303967 16711746
0.4232545 -1.4239582 3.1063206 16711746
1.3750050 -1.0995189 2.6027043 16711746
0.5047173 -1.0877019 3.1947210 16711746
1.3472042 -1.1337972 3.5570619 16711746
0.1601676 -1.5129941 2.9030209 16711746
1.6584659 -1.2656411 2.7573178 16711746
1.2331920 -1.1637393 2.5718305 16711746
1.9420180 -1.2841903 2.7022552 16711746
1.7715496 -1.8872724 4.3549414 16711746
1.9390082 -1.2868601 2.6989951 16711746
1.3904935 -1.2465277 3.6935301 16711746
2.0193985 -2.3676217 4.1892400 16711746
-0.4244986 -1.8184417 2.7681637 16711746
1.1708009 -1.7438864 2.7291634 16711746
1.1699033 -1.7188096 2.7170813 16711746
-1.4739233 -2.8708379 3.1062841 16711746
-1.6050551 -1.7239016 3.6329565 16711746
-0.8270934 -2.1848183 2.9862518 16711746
2.1399362 -2.5194523 5.3768229 16711746
1.9462827 -2.1449466 4.8784046 16711746
2.7305830 -1.2481220 4.3776727 16711746
2.4696064 -2.0222754 4.8964443 16711746
2.0468745 -1.1994015 2.5088606 16711746
2.2902501 -1.4530001 3.4610534 16711746
3.1314454 -1.8265367 4.8363442 16711746
1.5113175 -1.2026219 2.5280719 16711746
2.4687583 -1.4529306 3.4290485 16711746
2.2931199 -1.0194445 2.3989472 16711746
1.8075067 -1.8083937 3.6505489 16711746
2.3747866 -1.2988516 3.3822277 16711746
1.9285771 -1.4782518 3.3984234 16711746
2.4459774 -1.5017514 4.8253379 16711746
1.5748006 -1.2630585 4.2769036 16711746
1.1045309 -1.6117588 3.3502698 16711746
-1.5674266 -1.8580736 3.3764987 16711746
-1.8611760 -3.1689165 4.2173009 16711746
-1.8460567 -1.8802328 3.5538874 16711746
-0.4417769 -1.7748559 3.0045354 16711746
1.1444623 -2.0835190 3.2053413 16711746
2.4319680 -2.2090118 6.1371236 16711746
2.2682204 -1.1749202 3.2650146 16711746
1.5833774 -1.6722341 3.9158812 16711746
2.0355122 -1.3750671 2.9977732 16711746
2.6425495 -2.0819612 5.4565516 16711746
2.3151484 -1.9854493 4.6341910 16711746
1.8992269 -1.1903992 2.7080092 16711746
4.2627096 -2.4809275 8.2883339 16711746
2.1474583 -1.2436088 3.1639915 16711746
0.4745190 -1.3702356 2.6605914 16711746
-1.0131510 -1.4546421 3.3561263 16711746
2.2021525 -2.4137249 6.3176646 16711746
-1.0162717 -2.2606528 3.6492088 16711746
1.8656721 -1.1828830 3.1943517 16711746
0.3994733 -1.8031616 4.2102957 16711746
1.3204072 -2.6891952 4.3668375 16711746
1.7595766 -1.1629152 2.8196323 16711746
1.9336201 -1.5925801 2.9570973 16711746
2.8074353 -1.8322766 6.1107550 16711746
1.8941232 -2.3757026 3.9924092 16711746
2.7332244 -1.8782095 4.8397279 16711746
1.4590744 -2.9703758 4.2986684 16711746
3.5904558 -1.7835019 6.3878565 16711746
2.5525100 -1.9240011 5.0559039 16711746
0.5952456 -0.5608605 2.2666566 16711746
1.5469104 -1.0570549 2.3903551 16711746
2.0779262 -1.4585034 4.1727509 16711746
1.9459547 -1.0929668 2.7491484 16711746
1.7335610 -1.1456815 2.7796202 16711746
2.5348346 -1.4204327 3.6433640 16711746
1.7549232 -1.1920550 2.8962557 16711746
1.6985543 -1.4755765 4.2280421 16711746
1.3899187 -1.2994560 3.1864765 16711746
2.0278316 -1.0699811 2.7908325 16711746
2.3085213 -1.2541720 2.7966216 16711746
2.2452469 -1.3207784 2.8208537 16711746
1.7755252 -1.2530254 2.7017272 16711746
2.0751026 -1.0435123 2.6667342 16711746
1.1982236 -1.3855932 2.9110181 16711746
0.9846234 -1.4329810 3.1202323 16711746
2.0133457 -1.3495339 2.9753513 16711746
2.9873314 -1.3611736 3.2236676 16711746
1.9047523 -1.3379509 3.5463247 16711746
1.2979643 -0.9500629 3.4873271 16711746
0.8754633 -1.7951788 3.3787537 16711746
1.1380258 -1.8825440 3.5330782 16711746
0.7504699 -0.6910920 2.7335546 16711746
1.9193422 -1.0646399 2.7306035 16711746
1.6464165 -1.2984854 2.7894335 16711746
1.4874940 -0.8637879 2.4100246 16711746
1.3085232 -1.4195856 3.3204064 16711746
2.4237101 -1.4413300 2.5715158 16711746
0.4646606 -1.0903953 2.6554949 16711746
1.4163688 -2.5031462 3.9327297 16711746
2.9497354 -1.7641933 5.5276303 16711746
2.5138855 -1.5550734 4.6525283 16711746
0.5736654 -1.3816247 3.0456803 16711746
0.5820979 -1.0560236 2.8253212 16711746
2.0220852 -1.0132148 2.8624964 16711746
1.9878873 -1.0220613 2.7135117 16711746
1.4461111 -1.3055936 2.6575401 16711746
0.3633137 -2.0637593 3.5909815 16711746
0.4333192 -1.0819618 2.9132378 16711746
0.9764289 -1.5362173 3.0434315 16711746
1.8882718 -1.1988082 2.6001248 16711746
1.9906294 -2.4458518 3.2584167 16711746
0.9889272 -1.5332131 3.1781280 16711746
1.3534355 -0.9251476 2.5166111 16711746
0.9992840 -1.7682890 4.1709442 16711746
1.8313470 -1.3212830 3.4819570 16711746
1.8882842 -1.7051873 4.4848590 16711746
1.6025621 -1.1306200 3.0155494 16711746
2.5969021 -1.1295166 4.0307884 16711746
1.9866905 -1.0923179 2.4355242 16711746
1.5017977 -2.4540784 5.2191796 16711746
2.2551436 -1.3978148 3.9513123 16711746
0.4962314 -0.7343175 2.9931104 16711746
1.8585714 -1.3217441 2.6066139 16711746
1.7706897 -1.3791101 2.5697050 16711746
1.8291059 -0.8530064 2.6505332 16711746
1.5351708 -1.4145522 3.5399759 16711746
0.1084775 -1.5436306 3.3908949 16711746
2.1662569 -3.4612255 6.5060067 16711746
2.5512400 -1.7655215 4.0588698 16711746
2.7789543 -1.7729828 5.8498807 16711746
-0.8701103 -1.1816682 4.3220911 16711746
4.7959833 -6.1861577 7.6963286 16711746
0.9729856 -0.3966723 2.4008825 16711746
1.7442248 -0.5236263 2.4547937 16711746
0.5535674 -1.0783337 2.9678590 16711746
0.2944663 -1.3513956 3.2207232 16711746
1.8993088 -1.2783233 2.8387892 16711746
1.6516671 -1.2389263 3.0653410 16711746
1.8366410 -1.3265680 3.2951558 16711746
4.1310811 -2.4367466 8.3736181 16711746
2.9443285 -1.7524456 5.4691396 16711746
1.9086745 -1.2972722 3.4055440 16711746
1.9222192 -1.3308246 3.4283342 16711746
2.1491675 -2.4890831 3.5448577 16711746
2.1406260 -1.3122904 3.2348320 16711746
0.5163515 -0.9955223 2.9360950 16711746
2.4145935 -1.4145486 4.6028872 16711746
1.0027823 -0.8705476 3.3208301 16711746
1.5345920 -1.5243713 3.6215353 16711746
2.3559039 -1.8740662 4.6787786 16711746
1.3183095 -0.6397455 2.5223505 16711746
1.2868476 -0.5844890 2.5499988 16711746
0.5913628 -0.8270298 2.9649079 16711746
1.0679632 -0.1223005 2.3926740 16711746
1.2972677 -0.6425706 2.4898031 16711746
0.9264204 -1.0862912 3.4644296 16711746
1.3288559 -0.8052403 2.7888827 16711746
2.2779860 -1.3056794 4.3163567 16711746
1.9858001 -1.0541970 3.6303008 16711746
1.1779002 -0.4404362 2.8500311 16711746
1.3199257 -0.5619207 2.4728529 16711746
1.3276620 -0.5181378 2.4772623 16711746
1.4545163 -0.5510242 2.4439342 16711746
1.6299796 -1.9978665 4.0190868 16711746
1.4951910 -0.4816591 2.7896440 16711746
1.4544564 -0.7058283 2.6240568 16711746
1.5001180 -0.6167755 2.4785144 16711746
1.5642632 -0.5881554 2.5028894 16711746
1.4938269 -0.7989818 2.8175590 16711746
1.7639685 -1.3466738 3.6652815 16711746
1.9097755 -1.0723699 3.6681302 16711746
1.6118757 -0.6768485 2.6181483 16711746
1.1722087 -1.2574084 3.4399052 16711746
1.8553456 -1.4525657 3.5362711 16711746
4.4837747 -2.6646268 9.1703310 16711746
2.7751327 -1.8562840 4.8086691 16711746
2.9203184 -2.4093773 5.6007848 16711746
1.7974010 -1.3556194 3.7044003 16711746
1.9543159 -1.0400354 3.5955353 16711746
1.7399297 -1.3231715 3.6691842 16711746
1.9083997 -0.8108566 2.9526861 16711746
2.1664197 -0.7486708 4.4385738 16711746
1.7098275 -0.8276566 2.7261887 16711746
1.8169762 -1.5779855 4.1474957 16711746
1.9257606 -1.0648799 2.8576963 16711746
1.7559421 -1.1084403 2.8841963 16711746
1.9195752 -1.0528994 3.0404778 16711746
1.9440035 -1.4929185 3.6414905 16711746
1.7993293 -0.8148849 2.6908853 16711746
1.4794507 -1.6617732 3.9158435 16711746
1.7741935 -0.9242604 2.7532744 16711746
1.5113535 -1.0292419 3.0064566 16711746
1.5405139 -0.5757878 2.5003893 16711746
2.1346729 -1.5687169 4.2759280 16711746
1.0762250 -0.0507453 2.2748094 16711746
1.5417885 -0.8661994 2.8949628 16711746
-0.0447009 -2.8467853 3.5503738 16711746
2.9444799 -1.9777833 6.4044847 16711746
2.0222573 -1.2062565 3.4064939 16711746
1.8354679 -1.0821924 3.4153864 16711746
1.8940564 -1.2914723 3.3677790 16711746
1.3922503 -1.3675749 3.2658317 16711746
1.7535251 -1.0657846 3.1780996 16711746
1.0652117 -1.1698340 3.0227816 16711746
1.5005295 -0.9730262 2.8586569 16711746
2.0436463 -0.2675480 3.4403028 16711746
0.4631026 -1.2596604 3.1556931 16711746
-1.2636092 -2.1410306 3.3171217 16711746
2.9769621 -0.9095224 4.2556653 16711746
2.1300089 -0.9120567 2.8935862 16711746
1.5711405 -0.9860324 2.9938278 16711746
1.6004213 -1.0276392 2.7581780 16711746
1.3074645 -0.8395985 2.6473286 16711746
3.2113793 -1.5212048 6.5301299 16711746
2.3884068 -1.4101324 4.4921947 16711746
0.4973894 -0.5736591 2.7533529 16711746
1.4881132 -1.9322463 4.1016016 16711746
1.1629342 -0.5731800 2.7109044 16711746
0.8398246 -0.5730066 2.6369183 16711746
0.6960328 -0.8458637 3.0184445 16711746
0.4736987 -0.5699931 2.7736006 16711746
1.0363693 -0.1942717 2.4620521 16711746
0.3250232 -1.2407914 3.1053185 16711746
1.7367700 -1.0801373 3.2940595 16711746
0.3694718 -1.1848862 3.0232275 16711746
1.6687733 -1.1021609 2.8156605 16711746
2.9290402 -1.3481439 5.6914883 16711746
2.9874206 -0.9826025 4.9998832 16711746
1.9946053 -0.8492351 3.7667251 16711746
1.9332848 -1.1953139 4.6005144 16711746
1.9954573 -1.4036752 2.9078867 16711746
1.3057712 -0.5660912 3.2675211 16711746
1.5758885 -1.2448450 3.9505391 16711746
-0.3736257 -1.2526760 3.0549400 16711746
0.5666801 -0.9595237 3.1169386 16711746
0.0309837 -1.5707804 3.0900893 16711746
1.2861686 -3.7777486 4.6951737 16711746
1.6655778 -0.5552778 2.8212149 16711746
1.8347937 -1.3295399 3.2177603 16711746
2.0271063 -1.0341901 3.1627107 16711746
1.2355821 -1.2345561 3.1916299 16711746
-0.0651157 -1.3873650 3.5916004 16711746
1.7738720 -1.1121287 3.0190699 16711746
0.4537112 -0.4543066 3.1306627 16711746
2.0011778 -1.0594405 3.5685911 16711746
2.5853913 -1.3644289 4.6921272 16711746
1.8565209 -1.5728894 3.9067352 16711746
1.9606010 -1.4033448 3.2388837 16711746
1.5828016 -0.9891728 2.7688203 16711746
1.6852450 -1.0276703 3.0137753 16711746
1.5012484 -1.0320348 2.8296275 16711746
1.3377829 -1.3314565 3.0818419 16711746
-0.1841506 -1.5410277 3.7335114 16711746
1.7764143 -2.2525029 3.8403618 16711746
2.1964490 -1.5512464 4.6475625 16711746
1.8312798 -1.1775326 3.7835722 16711746
1.8409810 -1.2095438 3.4681606 16711746
2.1312068 -1.4364748 4.4788704 16711746
1.9058372 -0.9906125 2.8235998 16711746
1.8448920 -1.0111878 2.8269832 16711746
2.6556294 -1.4560218 3.1545501 16711746
1.5498964 -1.4771297 3.6832972 16711746
1.3622668 -1.4293194 3.2603719 16711746
1.7547662 -1.0185921 3.0810583 16711746
1.8639526 -1.4544895 3.4726255 16711746
3.1640050 -1.3778325 4.8483462 16711746
1.8323116 -1.0297558 2.8681169 16711746
3.7831316 -2.1125166 5.0540042 16711746
1.3297164 -1.3743508 3.9308252 16711746
2.1032853 -1.0906421 3.2117774 16711746
1.7852705 -1.0842873 3.5739481 16711746
1.1109052 -0.0290292 2.4024589 16711746
2.3600440 -0.9575894 2.9328210 16711746
0.4556657 -1.4289829 3.5302248 16711746
1.9252007 -1.0224726 2.8386228 16711746
1.4767493 -1.1919043 3.0527630 16711746
1.4741769 -0.7166948 3.5505614 16711746
1.1454542 -1.2407900 3.2131553 16711746
0.6303137 -0.9882596 3.1474266 16711746
1.4751008 -1.1067303 3.0118830 16711746
1.6345503 -0.9358612 2.8351748 16711746
1.6007344 -1.1491083 3.3649724 16711746
0.6736138 -1.0615228 2.9450450 16711746
1.5020844 -1.2098064 3.0749390 16711746
1.5399692 -1.0771027 2.9883494 16711746
1.4663967 -1.1295736 3.0199814 16711746
-0.3961122 -1.3939385 3.6632929 16711746
0.3608452 -1.1531409 3.2805457 16711746
1.5879538 -1.0034258 2.7612774 16711746
1.3441499 -1.1457502 2.9287746 16711746
1.9178973 -0.7272024 3.1609988 16711746
1.3996582 -0.5920166 3.3242018 16711746
1.1487429 -0.4711091 2.8678949 16711746
1.1054007 -0.4579445 2.8365073 16711746
1.8815482 -1.3575675 3.4347069 16711746
1.7567296 -1.3859204 3.7231493 16711746
2.0133905 -0.9584307 2.7844284 16711746
1.2331417 -1.0653114 3.5893316 16711746
1.1033078 -0.9095619 3.0333686 16711746
1.1378713 -1.7223577 3.5907338 16711746
0.6321477 -0.9815234 3.2274859 16711746
2.1270666 -1.0741793 3.0825129 16711746
2.2077460 -1.1977750 3.3543758 16711746
0.0361801 -1.3236883 3.7783599 16711746
2.0130544 -1.6698922 3.4559882 16711746
0.5364351 -1.0771968 2.9201398 16711746
1.7879872 -1.0914764 3.4176543 16711746
2.1060677 -1.5479826 3.4801321 16711746
0.4792642 -1.2022871 2.9569695 16711746
2.5350897 -0.9820835 3.0007396 16711746
2.7366254 -1.2565677 3.0862262 16711746
1.4946074 -1.1531056 3.6882374 16711746
1.4156466 -1.3813189 3.9053321 16711746
1.4536442 -1.2368777 2.9608996 16711746
2.5921819 -2.0553901 3.3084903 16711746
0.0233966 -1.9856621 3.4538884 16711746
1.5247451 -1.6166509 3.6948228 16711746
1.4844973 -1.3021042 3.2223332 16711746
1.4580436 -1.0427902 3.5600610 16711746
1.5388141 -1.3046209 2.9907639 16711746
0.6548234 -0.8681239 3.0890377 16711746
1.9647604 -1.1878258 3.6621182 16711746
1.2885776 -1.8702208 3.2542818 16711746
-0.6341884 -1.1586012 4.4482856 16711746
-1.6888161 -1.9451152 5.8429666 16711746
1.2982477 -1.0558326 3.0192778 16711746
1.0811902 -0.8690904 2.8571155 16711746
1.3479679 -1.1827406 2.9543271 16711746
3.0272284 -1.3683488 6.0663919 16711746
2.8572540 -1.2784904 5.7954106 16711746
3.0671968 -0.8862758 6.2689013 16711746
1.9014939 -1.7071990 3.6646035 16711746
3.5122693 -0.8685570 6.0689473 16711746
3.2888224 -1.4647143 5.0103421 16711746
1.7533315 -1.3932730 3.4176850 16711746
2.0052235 -1.5685238 3.9254701 16711746
1.3391850 -0.8736944 3.0361030 16711746
1.7354696 -1.3375643 4.3311386 16711746
2.7615774 -1.4040573 5.1750045 16711746
1.9887071 -1.3129057 4.2078514 16711746
2.6418912 -0.9746403 4.2627459 16711746
2.0197988 -1.2901206 3.6891522 16711746
1.8874716 -1.0294964 2.9114466 16711746
2.6712320 -1.7758228 4.8886261 16711746
1.9577626 -1.1884832 3.9583428 16711746
1.7478389 -1.0971889 3.4039595 16711746
1.7481833 -1.1665088 3.2333469 16711746
2.5756221 -0.9202866 4.1692462 16711746
1.8868127 -1.1450310 4.0011239 16711746
2.9438436 -1.4662688 4.9043112 16711746
2.6804528 -1.2879812 4.0793033 16711746
1.9171453 -1.2675130 3.3927448 16711746
1.6520840 -1.4287963 3.5855355 16711746
2.1090729 -1.9786067 5.5939441 16711746
1.8109004 -1.2752911 3.3030345 16711746
2.6277912 -1.2464421 4.1812854 16711746
1.6456674 -1.4262153 3.5845480 16711746
2.6407635 -1.0635134 4.0333261 16711746
1.3743159 -1.6341224 3.7669780 16711746
1.6350489 -0.8526643 2.9028428 16711746
3.0977597 -1.3041688 4.7252722 16711746
2.8859210 -1.4322557 4.8226399 16711746
3.1965117 -1.0710951 4.3851957 16711746
3.4070096 -1.1622016 4.5404778 16711746
2.6218758 -1.1879481 4.4318681 16711746
3.8961842 -1.3133577 7.9293532 16711746
2.8657281 -0.8160024 5.8913374 16711746
2.6302061 -1.4897264 4.8878794 16711746
3.0962615 -1.3087126 6.2446189 16711746
1.8722937 -1.2340213 3.4308681 16711746
1.5853260 -1.2955762 3.3560774 16711746
2.5509548 -0.9415470 5.1640615 16711746
1.7911781 -0.7206278 3.4970019 16711746
1.3624425 -0.4184586 2.6739612 16711746
1.4141341 -1.3931623 3.0118265 16711746
1.7760527 -1.2569793 3.1739974 16711746
1.3923467 -1.1964190 3.0205867 16711746
1.3175808 -1.0226529 3.0186820 16711746
1.5864893 -0.9741056 3.0627658 16711746
1.7277379 -1.1155003 3.2482026 16711746
1.6771553 -1.0590603 3.0637257 16711746
1.4849963 -0.8963175 2.9332137 16711746
0.6330388 -0.8898132 3.3698516 16711746
1.4511951 -1.0341413 3.0402005 16711746
1.5261070 -1.3254170 3.0327592 16711746
1.6037505 -1.0229207 3.0867927 16711746
1.5880201 -1.1662519 3.0873671 16711746
1.4441476 -1.0775430 2.9990721 16711746
1.5495836 -1.0723139 3.0393717 16711746
2.6923618 -1.1162072 4.9519458 16711746
2.4817321 -1.4125479 4.4982314 16711746
1.3121104 -1.2177664 3.4118688 16711746
2.1889768 -1.3406286 3.9035175 16711746
1.9385545 -1.1546984 3.8723547 16711746
1.9854699 -1.2639056 3.8022463 16711746
1.5390813 -1.6968869 3.8101037 16711746
2.3192656 -1.3022007 4.1680651 16711746
1.9985094 -1.0577711 3.6719499 16711746
1.9900464 -1.2176608 4.0477152 16711746
1.4221718 -1.3756523 3.5360627 16711746
-8.5161915 -5.2364211 12.4746580 16711746
1.5730956 -0.8916502 3.0288527 16711746
1.3545511 -1.1075749 2.9628544 16711746
1.5383124 -0.8656610 2.8179386 16711746
1.6537380 -1.4160125 3.5804796 16711746
0.4239225 -1.4723343 3.9090192 16711746
1.4560922 -0.4340256 2.7795310 16711746
1.4581046 -0.9844592 3.2252858 16711746
0.4897686 -1.1912724 3.5248556 16711746
1.9076091 -1.1333312 3.5572584 16711746
1.5978652 -0.8985309 2.9834056 16711746
1.5079085 -0.5513054 3.8336740 16711746
1.2622123 -1.2339306 3.2458725 16711746
1.6352345 -0.7713876 3.3331523 16711746
3.9344316 -1.6938652 5.7973075 16711746
2.8562751 -1.6628809 5.0095019 16711746
0.8316229 -1.5947822 3.1490793 16711746
1.4590070 -1.0372251 3.0456321 16711746
1.2162775 -1.0463092 3.2172945 16711746
1.1353127 0.0217505 2.5887260 16711746
1.4939208 -1.2379029 3.1116126 16711746
-0.7872714 -1.2409512 4.8651328 16711746
1.2869940 -0.6777027 3.1000910 16711746
1.3399836 -1.3376600 3.2279096 16711746
3.1363583 -2.1100883 5.7927666 16711746
2.0519905 -2.1127927 3.6505563 16711746
0.1160257 -2.6232171 3.5813694 16711746
2.0865967 -1.1532090 4.3232412 16711746
1.9613814 -1.4202372 3.6437500 16711746
1.7444344 -1.2942523 3.9510326 16711746
0.7219020 -2.2214270 4.4379382 16711746
2.0482571 -1.4276352 4.9706745 16711746
3.1073234 -0.8178878 5.2312398 16711746
2.0624859 -0.9306036 4.3359733 16711746
2.3568902 -1.3678312 4.1636829 16711746
2.4093220 -1.2656994 4.0072522 16711746
2.5274441 -1.3374282 5.8802786 16711746
1.5975600 -1.4733299 3.6790714 16711746
2.4523160 -1.1281844 3.7029343 16711746
0.8571540 -1.7847911 4.1449118 16711746
2.0005896 -1.3129914 3.7751427 16711746
0.7431697 -1.1525446 3.9328554 16711746
2.9207797 -1.7157710 5.0743895 16711746
2.1430128 -1.0043433 3.2526560 16711746
1.3924975 -1.3336320 3.6779864 16711746
1.9943714 -1.3121618 3.7647231 16711746
0.7392488 -1.1380407 3.9110138 16711746
1.5715173 -1.0941509 3.8148940 16711746
1.8328887 -1.0938362 3.8680720 16711746
0.8978513 -1.2174751 3.6260483 16711746
0.5257010 -1.2914711 4.1853952 16711746
0.6501361 -1.4099318 4.1989117 16711746
2.8304393 -0.9244720 3.8164442 16711746
1.8974918 -1.1373037 4.1342363 16711746
0.7381214 -1.1929272 3.7851889 16711746
3.1580310 -1.7252176 4.8059125 16711746
2.1645563 -1.3196577 4.4004054 16711746
1.7828419 -1.4943826 3.7410679 16711746
2.4516695 -1.4843810 4.2870145 16711746
-0.1365250 -1.1348712 3.2952323 16711746
2.0191722 -1.2638108 3.6655443 16711746
2.7163684 -0.9608790 4.3912349 16711746
1.2842523 -1.2192297 3.3666871 16711746
1.0509858 -1.2841028 3.5936370 16711746
1.7048795 -1.2862047 3.5811377 16711746
2.0974240 -1.5166779 4.4789252 16711746
1.1648577 -1.1313412 3.1363335 16711746
2.3483903 -0.9915259 3.4828126 16711746
1.3550111 -1.1627830 3.2875645 16711746
1.4490904 -1.3065475 3.5893803 16711746
2.0056696 -1.5230319 3.6680698 16711746
1.7932701 -1.7312033 3.9335067 16711746
1.9415607 -1.0728185 3.1370997 16711746
1.8552788 -3.0515246 6.5010509 16711746
1.9289309 -1.6271890 3.7413690 16711746
0.9730519 -1.0192676 3.0728261 16711746
2.2356923 -1.1729251 4.2662787 16711746
3.3259153 -1.6755860 5.7489228 16711746
1.4269350 -1.5498220 4.1715212 16711746
2.5434206 -1.4401858 4.7204137 16711746
3.0343502 -1.6892440 5.4896889 16711746
2.0333838 -0.5681591 4.1616154 16711746
0.6289346 -0.7421460 3.2630661 16711746
2.1803219 -0.2079612 3.9733117 16711746
0.7530240 -1.2153958 3.5269887 16711746
1.7867146 -1.3214878 3.5405796 16711746
1.6175928 -1.3825241 3.6660829 16711746
1.7415223 -0.9877961 3.5163724 16711746
1.8552901 -1.0154816 3.6099148 16711746
2.0776858 -0.9603143 4.3677416 16711746
0.4647766 -1.3724979 3.4544394 16711746
1.7486320 -0.8812062 3.4732249 16711746
2.1292524 -1.2367889 3.9226882 16711746
2.0085430 -1.8999134 3.7870584 16711746
1.5543175 -1.0430626 3.7618854 16711746
1.9826002 -1.1943042 4.2305069 16711746
1.7123698 -0.7234969 3.5803626 16711746
1.7204589 -0.9035838 3.6773310 16711746
1.8327570 -0.8036258 3.5231061 16711746
2.0308120 -1.3655541 4.4151092 16711746
1.3007531 -1.1687484 3.8601964 16711746
2.7642505 -1.0611992 5.6034279 16711746
0.6785662 -0.9924662 3.5100825 16711746
1.5578611 -1.0825191 3.8053353 16711746
1.6672175 -1.0008385 3.7511256 16711746
0.0581930 -0.7000202 3.7489672 16711746
1.7812802 -1.0736192 3.9256268 16711746
1.8938692 -1.2302735 4.1508570 16711746
0.8762320 -0.7881196 3.2839265 16711746
0.2315472 -1.6380771 3.9141366 16711746
0.1079379 -1.3611114 3.6929328 16711746
0.3390852 -0.8863865 3.4570241 16711746
1.8660713 -1.3932118 4.1290617 16711746
2.0193598 -1.1304622 3.2585499 16711746
0.3685119 -1.4876063 4.3698268 16711746
1.8721207 -1.1185856 5.2172790 16711746
1.7741555 -1.1509539 4.1212606 16711746
1.7752159 -1.1750746 3.9353302 16711746
1.3177720 -1.2293240 3.9134123 16711746
1.7283455 -1.0529808 4.3260608 16711746
1.7702740 -1.0896575 3.4484458 16711746
0.7624378 -1.3429620 3.8024268 16711746
0.7894352 -1.0671400 3.5316579 16711746
0.7392013 -1.3846906 3.9540217 16711746
2.3056951 -1.1439785 4.0616422 16711746
2.5359597 -1.3891103 4.2834215 16711746
2.6956837 -1.3102925 5.0884776 16711746
3.0844023 -1.4348576 5.9959192 16711746
3.6004195 -2.5617249 8.6538000 16711746
1.2326643 -1.3943776 4.2139096 16711746
2.5730839 -1.3098534 5.1873922 16711746
1.7842467 -1.3843834 4.2224884 16711746
1.9965417 -0.7987545 4.1154761 16711746
1.6455901 -0.8464500 3.2595491 16711746
1.8641627 -0.9493388 4.2271209 16711746
2.1210258 -1.5847857 4.4675817 16711746
1.9368976 -1.1161034 3.6941309 16711746
2.4400704 -0.9148261 3.8817327 16711746
1.4334786 -1.3042885 3.5882301 16711746
2.2254465 -1.1501760 3.7647572 16711746
1.0768466 -1.3444580 3.9295464 16711746
2.2329502 -1.0180812 3.4986696 16711746
1.6818402 -0.6648996 3.5107908 16711746
0.5137768 -0.9917759 3.3794477 16711746
1.4504991 -0.9896724 3.6794236 16711746
2.0983818 -0.7228689 3.4446058 16711746
2.3781326 -1.1423173 3.9401920 16711746
3.0001802 -1.4402509 5.1073370 16711746
0.9578769 -1.4707161 3.6290138 16711746
2.7011797 -0.9059112 3.6404190 16711746
2.8226266 -1.6162467 4.9388752 16711746
1.1609151 -1.2951088 3.8945589 16711746
2.5294592 -1.4041196 4.5571384 16711746
1.3308722 -1.2517562 3.8217933 16711746
5.4017491 -3.8437645 9.9569883 16711746
1.2878939 -0.3786711 3.1778555 16711746
2.3343346 -1.1791459 4.4700193 16711746
1.7180198 -0.9391705 3.3039751 16711746
2.0785434 -1.0246367 3.4345450 16711746
2.1320665 -1.0561448 3.7990463 16711746
2.0523384 -0.8519726 3.4733281 16711746
1.9986050 -0.8917173 3.2850430 16711746
2.1915264 -1.0612280 4.4261088 16711746
2.4903278 -1.1602037 3.8748524 16711746
1.9466306 -0.7840778 3.2224736 16711746
1.7452003 -0.9316411 3.2009702 16711746
1.7493128 -0.9343937 3.5813274 16711746
1.7108521 -0.8058850 3.3224969 16711746
1.1644661 -1.0468234 3.7841372 16711746
1.4982383 -0.7983341 3.1872618 16711746
1.9260325 -1.1266773 4.1350989 16711746
2.2447107 -1.0521057 3.6703398 16711746
2.6494727 -1.1194440 3.8351011 16711746
1.4428025 -1.0565552 3.9365654 16711746
2.2436223 -1.1826631 4.1261530 16711746
2.4164746 -1.1501762 4.1550198 16711746
3.2991285 -1.1612995 5.3909569 16711746
1.9476068 -1.4461787 4.3311381 16711746
1.8344498 -1.0581598 4.0016575 16711746
1.9856666 -0.9911747 4.1297541 16711746
1.3244519 -0.9327139 3.5494149 16711746
1.3373247 -0.5295357 3.3538897 16711746
1.6830426 -1.2572756 3.5686476 16711746
2.3074641 -1.2700331 4.1658158 16711746
1.0672886 -1.2225339 3.8377426 16711746
1.5932454 -1.3022293 3.5011497 16711746
2.2298012 -1.1396521 4.5425696 16711746
1.3955352 -1.1136794 3.5693228 16711746
1.3358694 -0.9689159 3.4748220 16711746
3.3532991 -1.9632274 6.2220449 16711746
1.4139264 -0.9933549 3.7141294 16711746
2.8496859 -1.5481542 5.0991855 16711746
1.3552960 -0.5641298 3.5246003 16711746
1.9462274 -0.4523354 3.4633489 16711746
1.5323604 -0.9464446 3.8022122 16711746
2.2292228 -1.4015265 4.5233498 16711746
2.1805098 -1.0878063 4.0200672 16711746
1.6177335 -0.7517021 3.2362304 16711746
2.3185370 -0.9023345 3.7787521 16711746
2.7920949 -0.9942805 5.6323929 16711746
0.6773725 -0.6886443 3.3877592 16711746
0.9050904 -0.2771516 3.1650176 16711746
0.9544295 -0.7245203 3.4934886 16711746
0.9901803 -0.8196170 3.6143274 16711746
0.4442947 -1.2288172 4.0564861 16711746
1.8250083 -0.7947416 3.4862115 16711746
1.9538419 -0.3816335 4.0528221 16711746
1.8139224 -1.1315470 3.8072255 16711746
0.9195436 -0.9904066 4.2807674 16711746
0.9826578 -0.8443935 3.5701592 16711746
2.3862071 -1.2508327 4.8036771 16711746
2.1421018 -0.9090872 3.4283726 16711746
2.4001245 -1.2428101 4.9026999 16711746
2.2350378 -1.0735675 4.1432900 16711746
2.5240932 -1.8620868 5.0434875 16711746
1.9101559 -1.0819366 3.5232058 16711746
2.0516739 -0.9380500 3.5076931 16711746
1.7774571 -1.0892626 3.4093773 16711746
2.4980273 -1.3779681 5.0592608 16711746
1.9582007 -1.0154793 3.6016827 16711746
1.9820426 -0.7021164 3.2128201 16711746
2.2487631 -1.0686941 3.6872737 16711746
1.7430757 -1.0804002 3.6358998 16711746
2.0312431 -1.0424601 3.6050775 16711746
2.2765303 -0.7162613 3.8354423 16711746
3.1131485 -0.7946409 5.1722698 16711746
2.4270508 -1.0074986 3.8167305 16711746
2.0291061 -1.3644277 4.3698425 16711746
3.0468483 -1.1800127 3.7033870 16711746
0.8168192 -0.8149886 3.7731793 16711746
2.4288080 -1.4793607 4.5548120 16711746
1.4368525 -1.1658487 4.0067511 16711746
0.8420375 -0.8303995 3.6521339 16711746
0.9543244 -0.7114707 3.4832242 16711746
2.0436389 -0.7986941 3.3055770 16711746
3.3488665 -1.0008777 4.4774485 16711746
2.5677962 -0.7597151 4.2981243 16711746
2.5024970 -0.9200504 3.8338835 16711746
1.8663957 -1.1438987 4.0342360 16711746
2.1353631 -0.9820789 3.3782330 16711746
2.1220515 -1.2529413 3.6018827 16711746
0.9043059 -0.7580063 3.6632588 16711746
1.0534738 -0.4607959 3.4212654 16711746
2.2040167 -1.0489271 4.1437516 16711746
2.2170231 -1.1802335 4.0082703 16711746
2.1483986 -0.9364111 3.5871511 16711746
2.1576014 -0.9504666 3.3945100 16711746
2.2336624 -0.7683278 3.5045512 16711746
2.7135327 -1.0536404 4.1926713 16711746
1.8659387 -1.3755113 4.1753254 16711746
2.2148485 -1.0654402 4.3884234 16711746
2.1409614 -0.9710260 3.3694203 16711746
2.4989545 -1.0146104 3.9245508 16711746
0.6560956 -0.9075941 3.9170711 16711746
0.7639987 -0.9136878 3.8777101 16711746
2.0711706 -0.7180515 3.4330547 16711746
2.1628096 -1.1363679 3.9641709 16711746
2.2949424 -1.3011400 4.1553864 16711746
0.8083121 -0.8686944 3.8932395 16711746
0.5578158 -1.0962843 4.1144257 16711746
0.6944874 -1.0430286 4.0008807 16711746
2.0167727 -0.8337251 3.3427198 16711746
0.9354804 -0.7740259 3.5328457 16711746
0.7632883 -0.6924366 3.6958468 16711746
1.5332636 -1.0653673 4.0850253 16711746
2.2145276 -1.1412270 3.7609127 16711746
2.3836937 -1.2578025 3.9425995 16711746
2.2250366 -0.7418867 3.8315537 16711746
0.7752618 -0.6139429 3.6701374 16711746
1.8427502 -0.7832510 4.0550261 16711746
2.3420682 -1.1886824 4.7661414 16711746
2.6395853 -1.3182549 3.7863407 16711746
1.4871577 -0.2736845 3.1579189 16711746
1.5937232 -0.2103691 3.3905582 16711746
1.8359283 -0.4184859 3.7975330 16711746
1.9660293 -1.4884100 5.0129819 16711746
1.3964235 -1.3630804 4.3202190 16711746
1.5868276 -2.9085579 5.6025629 16711746
0.6682399 -0.6716109 3.2144804 16711746
1.8728492 -0.5088757 3.3517432 16711746
1.3019713 0.0822183 2.9187293 16711746
2.2588160 -0.7950408 3.5249379 16711746
1.7681888 -0.4453886 3.1751645 16711746
1.3319596 -0.4784397 3.4008751 16711746
1.5436000 -0.2719737 3.2482781 16711746
1.0422899 -0.4867664 3.1590865 16711746
1.5210170 -0.4217038 3.2340181 16711746
1.5641347 -0.5520120 3.2212856 16711746
1.7443473 -1.0307012 3.9538713 16711746
3.1361647 -1.9276540 5.0201755 16711746
2.7325840 -1.4002670 4.9610596 16711746
2.4725053 -1.1383940 3.6955442 16711746
2.3215117 -1.2063971 4.5861983 16711746
2.5164521 -1.0531459 3.8160329 16711746
1.2738270 -0.1671476 3.1299973 16711746
-13.3139086 -18.2019806 14.6992388 16711746
1.6440938 -0.9414206 3.5861082 16711746
1.3238031 -0.9601443 3.8948295 16711746
2.2978961 -1.1634477 3.8660433 16711746
2.2634206 -1.1224152 3.8363855 16711746
2.2090998 -0.9760223 4.5255299 16711746
2.3380885 -0.9279477 3.8081899 16711746
2.7693796 -1.0789778 4.2273450 16711746
1.0235045 -0.3016438 3.3377600 16711746
1.3464440 -0.3713425 3.4241970 16711746
0.9915470 -0.4099287 3.1476212 16711746
1.2653495 -0.4864546 3.5684183 16711746
1.8912516 -0.9653138 3.5885861 16711746
1.7203888 -0.4618286 3.1475463 16711746
2.0427175 -0.6733142 3.4051781 16711746
1.7415562 -0.8249662 3.6073372 16711746
1.0101235 -1.1579266 3.9573092 16711746
1.2535591 -0.7604257 3.7211456 16711746
1.9333538 -0.8359606 3.4228911 16711746
2.7037027 -1.3695277 4.7323294 16711746
2.4499168 -0.8728329 3.9054966 16711746
1.7600543 -0.7206914 3.9541984 16711746
2.0962143 -0.7136196 3.8039935 16711746
2.3631673 -1.4667560 4.6427412 16711746
1.5489608 -2.0969296 4.8940654 16711746
2.1719863 -1.1074414 3.7704921 16711746
3.2910779 -1.3752009 6.4809890 16711746
1.3134909 -0.7647979 3.3440220 16711746
0.9628846 -0.9213326 3.9534192 16711746
1.0565779 -1.1501331 3.8567538 16711746
1.3333499 -0.8692893 3.5485582 16711746
0.8827069 -1.0858983 3.9941249 16711746
2.1855197 -0.9428235 3.4936457 16711746
2.3135657 -0.7009375 3.9886560 16711746
1.0620720 -1.0179037 3.8578122 16711746
0.9037886 -0.8638570 3.8836176 16711746
0.9749961 -0.8046979 3.7444048 16711746
1.7714154 -0.9221045 3.4962721 16711746
2.0799370 -0.7196809 3.4384785 16711746
1.7637812 -0.8878399 3.4764984 16711746
2.4361062 -1.0870757 3.5225868 16711746
2.0206525 -0.6414298 3.4061286 16711746
2.3671439 -0.7150128 3.2950878 16711746
1.1907220 -0.6365961 3.4860260 16711746
2.4067676 -0.8133370 3.8554008 16711746
1.5834095 -0.8957509 3.5398805 16711746
1.7787251 -0.9914052 3.6787376 16711746
1.9849185 -0.8441151 4.2496328 16711746
2.0322487 -1.0455675 4.0526261 16711746
1.9763554 -1.6851271 4.4293771 16711746
2.5081077 -0.8486784 5.0045581 16711746
1.9805026 -0.9138968 4.0371771 16711746
1.7579845 -0.6782718 3.8394053 16711746
2.4601009 -0.8498197 4.0628142 16711746
1.9473884 -1.0609882 3.6117911 16711746
3.3873422 -1.9398885 6.2352185 16711746
1.8767732 -0.5565751 3.3169649 16711746
1.4634411 -0.6417043 3.4746425 16711746
1.9498415 -0.8722011 3.4773045 16711746
1.9833195 -0.9917204 3.5792196 16711746
0.7431128 -1.2754499 3.7098608 16711746
1.4179103 -1.2848060 4.3953514 16711746
1.8231292 -0.8432389 3.5672479 16711746
1.7041793 -0.3507715 3.2023351 16711746
1.7870289 -0.5514107 3.7839735 16711746
1.8041077 -0.6117210 3.8120024 16711746
1.8758376 -0.9696051 3.5841630 16711746
1.8735458 -0.9323823 3.6101975 16711746
1.0504277 -0.4937604 3.4607706 16711746
1.3648614 -0.4435456 3.5550604 16711746
1.7421666 -3.7847075 7.1272445 16711746
1.6072701 -0.5038232 3.3449879 16711746
1.8700663 -0.9645461 3.6374614 16711746
0.6028890 -1.2624513 3.5708370 16711746
2.7452378 -0.8791811 4.2953839 16711746
2.2571135 -0.6379399 3.7831116 16711746
1.4982378 -0.6275120 3.9971724 16711746
1.9290981 -0.9785622 3.5761533 16711746
1.5965854 -1.0470885 3.8624508 16711746
0.6774285 -1.1658067 3.5261033 16711746
2.3913949 -1.0362811 3.4968181 16711746
1.9497687 -1.0178262 3.5943167 16711746
2.4853656 -1.0538292 3.7493041 16711746
2.3400054 -0.8731169 3.7134287 16711746
2.2448370 -0.8884482 3.4345136 16711746
1.8756977 -1.1325711 4.1246099 16711746
1.6788776 -1.1734098 4.0881896 16711746
1.8106523 -1.3797524 4.1831846 16711746
2.0026360 -0.9959455 3.6016734 16711746
-0.0965237 -1.5115976 4.2019701 16711746
1.7244223 -1.0660007 3.9005201 16711746
2.1945643 -1.1260240 4.5341702 16711746
2.4309340 -0.8598065 3.7910998 16711746
1.7284901 -1.0776361 3.9072299 16711746
2.1915472 -0.6949686 4.0559182 16711746
2.3037803 -0.3203876 3.8530171 16711746
1.7073759 -1.1829849 4.8289356 16711746
2.0480297 -0.9393962 4.5276694 16711746
-0.8214313 -1.1344805 5.1743121 16711746
1.9929584 -1.2246872 5.0397263 16711746
1.6936806 -0.8729606 3.5478961 16711746
2.1496623 -1.0251800 3.6394348 16711746
0.5908284 -1.9408100 3.9484837 16711746
2.6652386 -0.6250591 4.7623048 16711746
2.8405292 -1.0292127 5.7457819 16711746
2.6147556 -0.3231278 4.4422617 16711746
2.5745215 -0.8002241 4.1393776 16711746
1.9450035 -0.6698412 4.1973348 16711746
2.1711190 -0.7761542 3.9321516 16711746
1.6146125 -1.1063534 3.8964441 16711746
2.7786272 -0.8840524 4.7859802 16711746
2.5923202 -1.1887267 4.0075946 16711746
2.4838903 -0.9645751 4.4154215 16711746
2.2363019 -1.0957559 3.7776737 16711746
2.5642011 -1.3970761 5.9175177 16711746
2.5822427 -0.3509633 4.4424710 16711746
2.1724658 -0.9396242 4.6386890 16711746
2.2605169 -1.2544467 4.2035890 16711746
2.0676455 -1.1214147 3.7222373 16711746
2.1421871 -0.2393151 3.7335744 16711746
2.4867895 -0.9829776 3.8260593 16711746
2.1278248 -1.3198284 6.0262070 16711746
1.9070448 -0.9282466 4.1278768 16711746
2.3775725 -1.1454598 3.9975383 16711746
2.3425598 -0.7561094 3.8138595 16711746
3.8623879 -0.7516704 6.2810144 16711746
2.1377633 -1.1460681 4.3507938 16711746
0.7989884 -1.1359805 3.5622506 16711746
1.9221528 -0.8608999 3.5443394 16711746
2.3325169 -1.0108057 3.6933186 16711746
1.7405461 -1.0941331 4.0984440 16711746
1.5537212 -0.5016113 3.7936139 16711746
1.0791157 -0.6580182 4.3522406 16711746
2.0264199 -0.6642729 3.8174202 16711746
0.9664089 -0.8128854 4.4133940 16711746
1.0337772 -0.7294703 4.2347665 16711746
1.5487139 -1.4060386 4.7410207 16711746
1.6532797 -1.0099101 3.9737866 16711746
2.5187874 -1.2249343 4.5627675 16711746
2.3331003 -0.8913850 3.8651183 16711746
1.8890822 -1.0419949 5.5916209 16711746
2.4434974 -1.0188496 3.9584556 16711746
2.7847486 -1.1427785 5.3768668 16711746
3.3538945 -0.9113789 4.4431243 16711746
2.0640411 -0.9725581 4.5562739 16711746
2.2864876 -0.5591573 3.9577663 16711746
1.9342480 -0.6117827 3.9577322 16711746
1.6644210 -0.9948894 3.7600069 16711746
1.7838553 -0.9321725 3.5658674 16711746
2.5484867 -1.4216273 4.4599066 16711746
2.4218605 -1.2594410 4.2787900 16711746
2.9860830 -0.9101408 3.6209030 16711746
3.3085985 -1.3800551 6.5142965 16711746
3.3039734 -1.9751574 7.7490063 16711746
2.0960894 -2.3266680 5.1302838 16711746
1.5272715 -0.2532280 3.9430950 16711746
1.1221328 -0.4795287 3.9565046 16711746
2.2565365 -1.3247266 3.9080637 16711746
1.6804876 -1.2441447 4.1111045 16711746
2.2041004 -1.1430749 3.7937350 16711746
0.3180119 -1.2028335 4.2622495 16711746
