# .PCD v.7 - Point Cloud Data file format
VERSION .7
FIELDS x y z rgb
SIZE 4 4 4 4
TYPE F F F F
COUNT 1 1 1 1
WIDTH 253
HEIGHT 1
VIEWPOINT 0 0 0 1 0 0 0
POINTS 253
DATA ascii

 0.0000000 0.0000000 0.0000000 16777215
 0.0255617 0.0023547 0.0378574 16777215
 0.0278289 0.0017174 0.0419044 16777215
 0.0296826 0.0012034 0.0458537 16777215
 0.0314192 0.0012905 0.0505288 16777215
 0.0362473 0.0067610 0.0659382 16777215
 0.0394953 0.0077797 0.0813104 16777215
 0.0420732 0.0082071 0.0912812 16777215
 0.0417614 0.0096328 0.1104434 16777215
 0.0485918 0.0119557 0.1247145 16777215
 0.0539790 0.0136832 0.1420014 16777215
 0.0615544 0.0129407 0.1539562 16777215
 0.0735499 0.0133068 0.1661448 16777215
 0.0783773 0.0126813 0.1805277 16777215
 0.0818353 0.0171952 0.1952235 16777215
 0.0824539 0.0198678 0.2160335 16777215
 0.0850611 0.0229708 0.2317592 16777215
 0.0901820 0.0235880 0.2480325 16777215
 0.0990630 0.0234054 0.2657381 16777215
 0.1105897 0.0240542 0.2798234 16777215
 0.1157908 0.0269733 0.3015666 16777215
 0.1195865 0.0279328 0.3206855 16777215
 0.1240841 0.0300007 0.3399361 16777215
 0.1316522 0.0319707 0.3592540 16777215
 0.1417349 0.0336804 0.3719226 16777215
 0.1446041 0.0360166 0.3879760 16777215
 0.1480612 0.0394795 0.4087520 16777215
 0.1500124 0.0418757 0.4360173 16777215
 0.1560726 0.0449859 0.4550597 16777215
 0.1642475 0.0470663 0.4733817 16777215
 0.1727627 0.0462625 0.4863343 16777215
 0.1806405 0.0478329 0.5050752 16777215
 0.1849087 0.0512462 0.5315182 16777215
 0.1870225 0.0543580 0.5457358 16777215
 0.1902208 0.0555246 0.5591405 16777215
 0.2071411 0.0580227 0.5883788 16777215
 0.2177302 0.0631266 0.6038086 16777215
 0.2225483 0.0638161 0.6196188 16777215
 0.2237519 0.0664041 0.6356495 16777215
 0.2238977 0.0684665 0.6506244 16777215
 0.2327236 0.0682769 0.6664315 16777215
 0.2482856 0.0703444 0.6836422 16777215
 0.2553526 0.0685808 0.6967078 16777215
 0.2606274 0.0707642 0.7157670 16777215
 0.2591915 0.0711911 0.7327207 16777215
 0.2614307 0.0687489 0.7442986 16777215
 0.2617663 0.0698998 0.7520074 16777215
 0.2638870 0.0703443 0.7565868 16777215
 0.2650715 0.0708901 0.7603058 16777215
 0.2668087 0.0716708 0.7660569 16777215
 0.2669225 0.0720379 0.7702995 16777215
 0.2692156 0.0724233 0.7739325 16777215
 0.2703468 0.0727846 0.7772123 16777215
 0.2701234 0.0726131 0.7774798 16777215
 0.2709594 0.0727778 0.7812191 16777215
 0.2715158 0.0730919 0.7852878 16777215
 0.2716066 0.0731826 0.7880661 16777215
 0.2725129 0.0735824 0.7910427 16777215
 0.2740039 0.0736550 0.7923670 16777215
 0.2749994 0.0737614 0.7934094 16777215
 0.2752566 0.0734743 0.7947206 16777215
 0.2757766 0.0731606 0.7958562 16777215
 0.2758549 0.0729849 0.7962313 16777215
 0.2759098 0.0729297 0.7972963 16777215
 0.2764490 0.0728018 0.7982273 16777215
 0.2768658 0.0729508 0.7997121 16777215
 0.2771961 0.0728412 0.8007094 16777215
 0.2775059 0.0727632 0.8016102 16777215
 0.2778781 0.0726714 0.8028847 16777215
 0.2782647 0.0725237 0.8036234 16777215
 0.2786528 0.0722906 0.8045022 16777215
 0.2795742 0.0722145 0.8058302 16777215
 0.2795425 0.0726118 0.8070542 16777215
 0.2795718 0.0725738 0.8070000 16777215
 0.2797202 0.0725115 0.8074261 16777215
 0.2797824 0.0724901 0.8078595 16777215
 0.2801291 0.0724926 0.8080699 16777215
 0.2802060 0.0725053 0.8082884 16777215
 0.2802631 0.0724927 0.8085903 16777215
 0.2803678 0.0725133 0.8088864 16777215
 0.2804769 0.0725286 0.8091124 16777215
 0.2804532 0.0726268 0.8093573 16777215
 0.2807226 0.0725931 0.8097311 16777215
 0.2808159 0.0725517 0.8098939 16777215
 0.2808672 0.0725966 0.8100950 16777215
 0.2809590 0.0726411 0.8102514 16777215
 0.2809626 0.0726389 0.8106502 16777215
 0.2811736 0.0726562 0.8109169 16777215
 0.2814945 0.0726990 0.8111569 16777215
 0.2816313 0.0726276 0.8113692 16777215
 0.2816262 0.0726781 0.8116230 16777215
 0.2816289 0.0726994 0.8118346 16777215
 0.2816659 0.0726973 0.8120238 16777215
 0.2817604 0.0727361 0.8122213 16777215
 0.2818939 0.0727158 0.8124273 16777215
 0.2820349 0.0727203 0.8125705 16777215
 0.2821499 0.0727252 0.8128437 16777215
 0.2821127 0.0727826 0.8130143 16777215
 0.2821045 0.0728451 0.8131512 16777215
 0.2821612 0.0728471 0.8133154 16777215
 0.2822379 0.0728609 0.8135002 16777215
 0.2824008 0.0728856 0.8137612 16777215
 0.2824911 0.0729028 0.8139939 16777215
 0.2825857 0.0729102 0.8142462 16777215
 0.2826406 0.0729332 0.8144569 16777215
 0.2827106 0.0729507 0.8146533 16777215
 0.2828814 0.0729723 0.8149797 16777215
 0.2829300 0.0729740 0.8151519 16777215
 0.2829905 0.0728986 0.8152534 16777215
 0.2830218 0.0729438 0.8154579 16777215
 0.2830072 0.0729104 0.8156176 16777215
 0.2829779 0.0728850 0.8156374 16777215
 0.2829924 0.0728951 0.8156376 16777215
 0.2829972 0.0728960 0.8156357 16777215
 0.2829986 0.0728910 0.8156432 16777215
 0.2829918 0.0728909 0.8156535 16777215
 0.2829916 0.0728981 0.8156947 16777215
 0.2829962 0.0728816 0.8157443 16777215
 0.2830195 0.0728594 0.8158048 16777215
 0.2829967 0.0728928 0.8157267 16777215
 0.2829468 0.0729092 0.8156116 16777215
 0.2829505 0.0729145 0.8157004 16777215
 0.2829684 0.0729141 0.8157601 16777215
 0.2829812 0.0728745 0.8157555 16777215
 0.2831547 0.0726085 0.8147390 16777215
 0.2829713 0.0728225 0.8158074 16777215
 0.2830002 0.0728885 0.8158196 16777215
 0.2830465 0.0728950 0.8158605 16777215
 0.2830434 0.0728893 0.8158811 16777215
 0.2830451 0.0728916 0.8159000 16777215
 0.2830000 0.0728726 0.8159255 16777215
 0.2829983 0.0728801 0.8159524 16777215
 0.2828596 0.0727991 0.8156799 16777215
 0.2833350 0.0728322 0.8156415 16777215
 0.2829038 0.0728247 0.8158371 16777215
 0.2830957 0.0728461 0.8160819 16777215
 0.2830250 0.0728710 0.8161989 16777215
 0.2830534 0.0728535 0.8161900 16777215
 0.2831131 0.0728940 0.8162698 16777215
 0.2832190 0.0729398 0.8164375 16777215
 0.2832424 0.0729607 0.8165664 16777215
 0.2832845 0.0730111 0.8167272 16777215
 0.2833150 0.0730260 0.8169013 16777215
 0.2834049 0.0730580 0.8170531 16777215
 0.2834776 0.0729966 0.8171145 16777215
 0.2833494 0.0730355 0.8172320 16777215
 0.2833441 0.0730724 0.8172948 16777215
 0.2833521 0.0730577 0.8173914 16777215
 0.2833953 0.0730603 0.8175188 16777215
 0.2834584 0.0730873 0.8176307 16777215
 0.2834796 0.0731135 0.8177429 16777215
 0.2835330 0.0731575 0.8178704 16777215
 0.2835497 0.0731418 0.8179864 16777215
 0.2835602 0.0731538 0.8180747 16777215
 0.2836893 0.0731730 0.8182003 16777215
 0.2837342 0.0731750 0.8183011 16777215
 0.2838019 0.0731915 0.8184336 16777215
 0.2838195 0.0732000 0.8185515 16777215
 0.2838097 0.0732510 0.8186779 16777215
 0.2838524 0.0732702 0.8188137 16777215
 0.2839240 0.0732902 0.8189357 16777215
 0.2839676 0.0733081 0.8190454 16777215
 0.2839970 0.0733267 0.8191535 16777215
 0.2840134 0.0733415 0.8192731 16777215
 0.2840650 0.0733501 0.8193999 16777215
 0.2841620 0.0733523 0.8195328 16777215
 0.2842116 0.0733675 0.8196320 16777215
 0.2842829 0.0733895 0.8198093 16777215
 0.2843208 0.0734056 0.8199167 16777215
 0.2843665 0.0734255 0.8200464 16777215
 0.2844396 0.0734358 0.8201885 16777215
 0.2845209 0.0734585 0.8203051 16777215
 0.2845906 0.0734604 0.8204625 16777215
 0.2845713 0.0734983 0.8206295 16777215
 0.2846071 0.0734993 0.8207242 16777215
 0.2846620 0.0735256 0.8208701 16777215
 0.2847065 0.0735427 0.8209932 16777215
 0.2847392 0.0735495 0.8211700 16777215
 0.2847665 0.0735665 0.8213482 16777215
 0.2848175 0.0735763 0.8214802 16777215
 0.2849105 0.0735858 0.8216309 16777215
 0.2849258 0.0735898 0.8217608 16777215
 0.2849902 0.0736231 0.8219292 16777215
 0.2850104 0.0736350 0.8219984 16777215
 0.2850572 0.0736279 0.8220547 16777215
 0.2850994 0.0736280 0.8221285 16777215
 0.2851309 0.0736307 0.8222097 16777215
 0.2851361 0.0736343 0.8222629 16777215
 0.2851482 0.0736361 0.8223001 16777215
 0.2851731 0.0736337 0.8223453 16777215
 0.2851932 0.0736349 0.8223845 16777215
 0.2852055 0.0736448 0.8224402 16777215
 0.2852067 0.0736500 0.8224760 16777215
 0.2852260 0.0736568 0.8225272 16777215
 0.2852539 0.0736496 0.8225725 16777215
 0.2852699 0.0736516 0.8226099 16777215
 0.2852824 0.0736569 0.8226619 16777215
 0.2852960 0.0736629 0.8226992 16777215
 0.2853293 0.0736629 0.8227496 16777215
 0.2853514 0.0736595 0.8227947 16777215
 0.2853823 0.0736541 0.8228441 16777215
 0.2853867 0.0736569 0.8228850 16777215
 0.2854102 0.0736608 0.8229280 16777215
 0.2854221 0.0736619 0.8229594 16777215
 0.2854268 0.0736509 0.8229800 16777215
 0.2854431 0.0736636 0.8230216 16777215
 0.2854438 0.0736688 0.8230578 16777215
 0.2854550 0.0736688 0.8230880 16777215
 0.2854646 0.0736709 0.8231102 16777215
 0.2854775 0.0736687 0.8231327 16777215
 0.2854812 0.0736716 0.8231620 16777215
 0.2854882 0.0736760 0.8231908 16777215
 0.2855008 0.0736785 0.8232298 16777215
 0.2855147 0.0736782 0.8232486 16777215
 0.2855315 0.0736785 0.8232758 16777215
 0.2855328 0.0736812 0.8233082 16777215
 0.2855404 0.0736766 0.8233278 16777215
 0.2855607 0.0736777 0.8233525 16777215
 0.2855794 0.0736778 0.8233777 16777215
 0.2855894 0.0736774 0.8234011 16777215
 0.2855951 0.0736835 0.8234316 16777215
 0.2855995 0.0736852 0.8234586 16777215
 0.2856152 0.0736834 0.8234787 16777215
 0.2856208 0.0736875 0.8234971 16777215
 0.2856273 0.0736914 0.8235180 16777215
 0.2856332 0.0736906 0.8235360 16777215
 0.2856420 0.0736892 0.8235539 16777215
 0.2856529 0.0736911 0.8235720 16777215
 0.2856600 0.0736912 0.8235866 16777215
 0.2856656 0.0736886 0.8236024 16777215
 0.2856663 0.0736937 0.8236262 16777215
 0.2856731 0.0736924 0.8236430 16777215
 0.2856863 0.0736946 0.8236607 16777215
 0.2856911 0.0736963 0.8236789 16777215
 0.2856922 0.0736966 0.8236957 16777215
 0.2856985 0.0736973 0.8237131 16777215
 0.2857071 0.0736969 0.8237291 16777215
 0.2857169 0.0736967 0.8237482 16777215
 0.2857216 0.0736972 0.8237627 16777215
 0.2857213 0.0736967 0.8237855 16777215
 0.2857267 0.0736973 0.8238024 16777215
 0.2857369 0.0736951 0.8238239 16777215
 0.2857431 0.0736952 0.8238444 16777215
 0.2857454 0.0736976 0.8238606 16777215
 0.2857474 0.0736973 0.8238797 16777215
 0.2857501 0.0736959 0.8238955 16777215
 0.2857568 0.0736969 0.8239087 16777215
 0.2857613 0.0736978 0.8239260 16777215
 0.2857629 0.0736995 0.8239412 16777215
 0.2857658 0.0737004 0.8239560 16777215
 0.2857746 0.0737015 0.8239691 16777215
 0.2857781 0.0737033 0.8239792 16777215
 0.2857811 0.0737033 0.8239916 16777215
