# .PCD v.7 - Point Cloud Data file format
VERSION .7
FIELDS x y z rgb
SIZE 4 4 4 4
TYPE F F F F
COUNT 1 1 1 1
WIDTH 1208
HEIGHT 1
VIEWPOINT 0 0 0 1 0 0 0
POINTS 1208
DATA ascii
0.3367081 0.1963434 0.7076396 16711746
0.1772569 0.2107556 0.7242422 16711746
0.0469261 0.2173950 0.5537754 16711746
0.0480021 0.2146830 0.6079665 16711746
0.9840082 0.0998033 0.9391226 16711746
1.4937372 0.2274112 1.0152347 16711746
1.2889525 -0.1234366 1.1632960 16711746
0.1282225 0.2258469 0.5842753 16711746
0.4988102 0.1320455 1.1182635 16711746
-0.8146065 0.2143565 0.9218072 16711746
0.0397062 0.2210127 0.7053075 16711746
-0.6228673 0.0540606 1.0381279 16711746
0.4479003 -0.3982543 1.0030905 16711746
0.8162314 0.2204832 0.5415624 16711746
0.1177927 0.0829736 1.4992373 16711746
-0.0035518 0.1598509 0.5715107 16711746
-0.5267279 0.0527366 1.5325339 16711746
0.0977045 0.1508612 0.8817499 16711746
0.1932693 0.1956399 0.7735079 16711746
-0.5955216 0.0555743 1.4880183 16711746
-0.5537699 0.1869430 0.9132472 16711746
2.0813093 0.3197104 1.3938128 16711746
0.2159542 -0.3914255 1.1014723 16711746
1.6183494 -0.0355814 1.3180019 16711746
0.1496367 -0.2839660 0.8903387 16711746
0.2279660 -0.1293055 1.2561364 16711746
0.3920883 -0.5235432 1.4225810 16711746
0.3414805 -0.5264736 1.2852235 16711746
0.1280698 0.2190602 0.5713795 16711746
-0.0067492 0.2013739 0.5554952 16711746
-0.1694952 0.1719817 0.7358732 16711746
0.5239049 0.2979176 0.5190902 16711746
-0.1133830 0.1680055 0.5293043 16711746
0.1646177 0.1934635 0.5621792 16711746
-0.4918348 0.2352011 0.6137291 16711746
-0.6256213 -0.1071953 0.5969548 16711746
-0.5113771 -0.1677340 0.4992763 16711746
0.0480967 0.1716928 0.8197855 16711746
0.2244043 0.1892001 0.8207220 16711746
0.8532570 0.2772931 0.8933463 16711746
-0.8380857 0.0471122 1.4119437 16711746
0.4119717 0.2318782 0.5817204 16711746
0.7187914 0.2387883 0.7602236 16711746
-0.5833555 -0.1414984 2.6364748 16711746
0.2164442 0.1760259 0.8890914 16711746
0.1343210 0.2056419 0.8064989 16711746
0.0202292 -0.0755902 0.7266417 16711746
0.7969481 0.1715703 0.8014181 16711746
0.1354546 0.2116773 0.6567944 16711746
-0.9380864 0.2094182 0.9075812 16711746
-0.6866013 0.1883830 0.7269090 16711746
1.7664735 0.2703565 1.1796043 16711746
0.8732135 0.0930658 0.7871045 16711746
0.9810904 0.0965305 0.9335153 16711746
0.0277588 -0.0620483 0.5852205 16711746
-1.0753229 -0.0036257 1.7249994 16711746
0.1637122 0.2065899 0.8491073 16711746
0.1925115 0.1581259 0.9376838 16711746
0.4736249 0.2214612 0.6520422 16711746
0.5234785 0.0407415 1.5238870 16711746
1.5284668 0.0538104 2.1056030 16711746
0.6081489 -0.8393915 1.9304223 16711746
0.7187070 0.0548993 1.8364224 16711746
0.3093450 -0.3089923 1.2796484 16711746
0.3697654 0.2415957 0.6326107 16711746
2.0272880 -1.1862828 2.1170545 16711746
0.2665217 0.2088722 0.7357037 16711746
0.0952829 0.1939048 0.8316505 16711746
-0.3306395 0.1846437 0.5558650 16711746
-0.5384583 0.1602915 0.7085021 16711746
0.1716530 0.2432600 0.6202263 16711746
-0.7001125 -0.2525210 0.8597420 16711746
-0.4821463 0.1237318 0.7534478 16711746
0.0820895 0.2311491 0.6216171 16711746
0.0319912 0.1896463 0.7161440 16711746
0.0588619 0.1872387 0.7413575 16711746
0.1569423 0.2159173 0.7532090 16711746
0.1970984 0.2458461 0.6817758 16711746
0.2081388 0.2317177 0.6363018 16711746
0.0921637 0.1892988 0.8220754 16711746
-0.0626848 0.1962939 0.6170732 16711746
0.0193113 0.0880361 0.7771021 16711746
0.2187046 0.2480614 0.6707933 16711746
-0.3002110 0.1541701 0.4055604 16711746
0.4579869 0.2496428 0.6691768 16711746
-0.5938851 0.0540373 0.7959543 16711746
-0.1948423 0.1953510 0.8236533 16711746
0.0689279 0.1193402 0.8079498 16711746
0.0773099 0.1425625 1.0009712 16711746
-0.6966652 0.0026839 1.4635757 16711746
-0.1120652 0.1566567 1.2305835 16711746
0.6966335 0.2488888 0.6571279 16711746
-0.5057389 -0.0613334 1.6781111 16711746
-0.0848335 0.1262392 1.0376718 16711746
0.6984894 0.1454299 0.5229164 16711746
2.4568403 -1.4762595 2.4923468 16711746
0.1712699 0.1163452 1.1923887 16711746
0.1901325 0.2172100 0.8151469 16711746
-0.4589447 -0.0572395 1.5431567 16711746
-0.7066493 0.0033603 1.4818923 16711746
0.9822580 0.0868665 1.2526581 16711746
0.4002149 0.2406520 0.7028166 16711746
0.2468199 0.1445725 1.0635617 16711746
0.2617181 0.2194390 0.8500990 16711746
-0.6377167 -0.0230403 1.0757537 16711746
-0.4083797 0.2243055 0.6066030 16711746
0.6644924 0.1742621 0.9289169 16711746
-0.7424340 0.0356748 1.2984391 16711746
0.0450520 0.2105577 0.6555129 16711746
-0.5160423 0.1891410 0.8235478 16711746
0.1768116 0.0745485 1.3546180 16711746
0.7073984 0.0955146 1.0769806 16711746
0.1360030 0.1302662 1.0378957 16711746
-0.5168464 0.1141508 1.2174577 16711746
0.5111539 0.2325932 0.4564380 16711746
0.1148828 -0.3230704 1.4414704 16711746
0.2841183 0.1954188 0.6448805 16711746
-0.6874406 0.0662412 0.9600813 16711746
0.2483156 0.1728411 0.8624122 16711746
0.2807642 0.2074608 0.7222991 16711746
0.5491278 0.0496136 1.5999068 16711746
0.5019392 -0.1118188 2.1315591 16711746
0.4986318 -0.3810615 1.6129047 16711746
-0.2509925 0.1492358 0.6367659 16711746
0.3376399 0.2046556 0.6900603 16711746
0.3921120 0.2294465 0.6489359 16711746
-0.4076566 0.1015971 0.7933443 16711746
-0.2816198 0.1714143 0.6624764 16711746
0.0725060 0.1654850 0.6428218 16711746
-0.0658216 0.0147547 0.6417733 16711746
0.2723344 0.1942554 0.9543815 16711746
0.3856107 0.2254090 0.6426594 16711746
0.9214675 0.1358787 0.9073381 16711746
0.0185689 0.1763462 0.8765388 16711746
0.7754602 -0.0000996 0.8976020 16711746
2.0099955 -1.2456084 2.4338591 16711746
-0.6329891 0.1728539 0.8145497 16711746
0.3653875 0.1514741 1.0702450 16711746
-0.2577482 0.0795695 1.3478285 16711746
-0.2396633 0.1973527 0.4148162 16711746
-0.5669225 0.0651648 1.2649595 16711746
-0.2859350 0.1692346 0.7819300 16711746
0.3415103 0.2116968 0.8409443 16711746
0.4357925 0.1913387 0.9290228 16711746
0.4313125 0.1646718 0.8928625 16711746
1.1908169 0.0012194 2.0268774 16711746
-0.6115507 0.1272660 0.8314688 16711746
0.9314339 0.2222951 0.9241213 16711746
-0.1299677 0.1483794 1.0748310 16711746
0.7315279 0.2480143 0.8271088 16711746
0.4871683 0.1896207 0.9983733 16711746
-0.8083537 0.1741189 0.8901677 16711746
-0.5829692 0.1251276 1.1281667 16711746
-0.5757825 0.0235198 1.9881423 16711746
-0.5159099 -0.1392160 2.3920209 16711746
1.2051104 -0.6235810 1.2080472 16711746
0.2865283 0.0016256 1.6687096 16711746
-0.5752839 0.0878976 0.6871375 16711746
0.3497700 0.0129997 1.5043123 16711746
0.4409295 0.2166551 0.8165473 16711746
0.8361372 0.0981028 1.3071460 16711746
0.5010500 -0.5899591 1.3711128 16711746
1.5180303 -1.0336324 1.9413029 16711746
0.3231079 0.1377838 1.1289475 16711746
0.6805840 0.0333710 1.6069415 16711746
0.4078594 -0.1703020 1.4038528 16711746
0.7883533 -0.0251452 2.0717285 16711746
-0.3569657 0.1345531 0.9396813 16711746
-0.4909936 0.0814640 1.0485499 16711746
-0.2473406 0.2352831 0.7129878 16711746
-0.0449742 0.2160982 0.7582779 16711746
0.6670460 0.2303067 0.6174903 16711746
0.6617383 0.2296669 0.6104804 16711746
0.0155773 0.1775761 0.8764533 16711746
-0.4245398 0.2447483 0.7158776 16711746
0.0384223 0.1437435 0.8530121 16711746
-0.3608524 0.2231121 0.7086524 16711746
-0.0145879 0.1097285 1.0032567 16711746
0.7403116 0.2162746 0.7464946 16711746
0.5253218 0.2512340 0.6885470 16711746
-0.5279916 -0.0632580 0.9119720 16711746
0.5383887 0.2507753 0.9862592 16711746
-0.2827324 0.1901013 0.4776686 16711746
-0.1568301 0.1968611 0.6861254 16711746
-0.2730085 0.2190443 0.7659748 16711746
0.3300846 0.2335170 0.6816574 16711746
0.0302633 0.2198585 0.8523678 16711746
-0.3729354 0.0589697 0.7776267 16711746
-0.6630569 -0.1666805 1.5276541 16711746
-1.2060498 -0.0291474 1.8563747 16711746
-0.0387173 0.1770049 0.8509354 16711746
0.4112644 0.1739905 0.8458976 16711746
0.0893548 0.0329035 1.6396040 16711746
0.2732142 0.2020884 0.7715539 16711746
-0.6878145 0.0688178 0.8988512 16711746
-0.6996090 0.0469644 0.9349186 16711746
0.0709336 0.1106651 1.1440816 16711746
0.7038460 0.2369896 0.7962587 16711746
0.3417173 0.1689054 1.0190105 16711746
0.2410371 0.1605472 0.8824358 16711746
0.0779911 0.1339340 0.9491878 16711746
0.0341391 0.1646360 0.9525094 16711746
0.5747576 0.2521813 0.6364528 16711746
0.1724415 0.1806613 0.8230454 16711746
0.3370833 0.1465978 0.9349198 16711746
0.4345685 0.2123840 0.7969564 16711746
0.8324372 0.1990821 0.8258911 16711746
0.2981967 0.1670736 1.1350846 16711746
-0.1012604 0.1674334 0.8999257 16711746
0.2087897 0.1822977 0.8112791 16711746
1.7433864 -1.0239478 2.3079209 16711746
1.2864267 0.0932075 1.9870694 16711746
0.7446498 0.1488622 1.1096557 16711746
0.1955859 0.1951775 0.9492469 16711746
-0.6506903 -0.1729107 2.9612341 16711746
1.0761762 0.0772595 1.5999292 16711746
0.7855688 0.0746445 1.7699280 16711746
1.9626220 -1.0893002 2.4312439 16711746
0.8690573 -0.0702922 1.8059652 16711746
2.3716648 -0.8695652 2.0448015 16711746
0.0930734 0.1933873 0.8111048 16711746
-0.2601342 0.1982055 0.7459351 16711746
-0.6896409 0.0668163 0.9019111 16711746
-0.2292562 0.2159215 0.6769921 16711746
1.1749294 -0.7848510 1.5140560 16711746
0.4009310 0.1467628 1.1216490 16711746
0.1145481 0.2100651 0.7014543 16711746
1.7538517 -1.0709977 1.6231478 16711746
0.4082450 0.0177609 1.7538753 16711746
-0.3779214 0.2116280 0.5400750 16711746
0.4379242 0.1009509 1.2446276 16711746
0.3252173 -0.3225046 1.3289770 16711746
0.9860865 -0.1449002 1.6839795 16711746
1.2563390 -0.1316368 2.4886479 16711746
1.3355855 -0.9113615 1.7103689 16711746
0.1255279 0.2063616 0.7898750 16711746
0.1852549 0.2273102 0.7618641 16711746
0.3226823 0.2248717 0.6670295 16711746
0.3560944 0.1392782 0.7375954 16711746
0.0294056 0.1985157 0.7451567 16711746
0.3874681 0.2362537 0.7889989 16711746
-0.3029589 -0.0417288 1.1469251 16711746
1.0537320 -0.1708065 1.6611768 16711746
0.2588367 0.1332493 0.8918875 16711746
0.8708811 0.1207362 1.0999542 16711746
0.1775322 0.1914422 0.8561476 16711746
-0.6654043 0.2844341 0.9555544 16711746
0.6426619 0.1522639 1.0453346 16711746
-0.5689598 0.2384340 0.9060450 16711746
0.1577060 0.1766228 0.8613561 16711746
0.7622868 0.2121622 0.6569154 16711746
-0.6646804 0.0591365 0.8802343 16711746
-0.5780330 0.0678983 0.9950192 16711746
0.7576690 0.2158784 0.8192974 16711746
-0.1453412 0.1735951 0.9544524 16711746
0.1236657 0.2073726 0.7958592 16711746
-0.1451214 0.1751114 0.9582209 16711746
0.1668149 0.0955274 1.4290709 16711746
0.5782143 0.2018153 0.7347712 16711746
0.1980294 0.1862436 0.7598603 16711746
0.2055846 0.2125758 0.8227260 16711746
-0.4429715 0.1241648 1.0815753 16711746
0.0450080 0.1824664 0.8962815 16711746
0.8383858 0.2291816 0.7234333 16711746
1.3735288 -0.0458494 2.2756317 16711746
2.5158420 -0.8484754 2.2295027 16711746
1.5032372 -0.0328270 2.7074833 16711746
2.6764696 -1.6725827 3.2584751 16711746
0.4891196 0.0247836 2.1297367 16711746
-0.3110287 -0.0782493 1.4852561 16711746
-0.6411598 0.1534881 2.4190557 16711746
0.0905898 -0.2462791 1.0971636 16711746
1.6276907 -1.0136975 2.1665409 16711746
0.1738682 0.1614516 0.9788334 16711746
1.3385320 -0.0771249 2.2873235 16711746
0.2336292 0.2172129 0.7629398 16711746
-0.6353151 0.1433880 0.8942714 16711746
-0.1149378 0.1853199 0.8348060 16711746
-0.0562810 0.2208436 0.8421222 16711746
-0.4514711 0.1928904 0.9705673 16711746
0.0769388 0.1264131 0.9132845 16711746
-0.3741102 0.2318995 0.7334214 16711746
0.1845450 0.2089336 0.7890412 16711746
0.3954183 0.1814602 0.6645351 16711746
0.6659339 0.2097446 0.6672578 16711746
-0.5722660 -0.0226761 0.9006892 16711746
0.2048216 0.1673125 0.7626814 16711746
0.4866921 0.1462100 1.0179155 16711746
-0.6466904 0.1579932 0.9738898 16711746
-0.5644101 0.1410863 1.0137098 16711746
-0.7053443 0.1036989 0.8724862 16711746
0.6007384 0.1933059 0.6770354 16711746
0.0515782 0.1903681 0.8815733 16711746
0.2811917 0.1940426 0.7783676 16711746
0.2225456 0.1886202 0.8769627 16711746
-0.1258585 0.2000430 0.8842294 16711746
-0.1305601 0.1519275 1.0924982 16711746
0.1067712 0.2322691 0.8139552 16711746
0.9854493 0.0484175 1.2069390 16711746
0.2918340 0.2009769 0.7359431 16711746
-0.5696844 0.2425594 0.9354752 16711746
0.7478837 0.1673627 1.0480219 16711746
0.2593155 0.1874863 0.8924433 16711746
0.6774849 0.2008371 0.7239293 16711746
0.0721794 0.1944395 0.8685127 16711746
0.2106395 0.1716177 0.8723355 16711746
0.8551614 0.1062576 1.3028806 16711746
0.0407183 -0.0370527 1.7350243 16711746
-0.3169292 0.1368814 1.1493248 16711746
0.7244657 0.0388884 1.7316737 16711746
0.9845012 -0.1021298 1.4849218 16711746
-0.3469101 0.1192848 1.3612826 16711746
0.6643058 -0.5785746 1.4605575 16711746
1.1135249 -0.2064966 2.4565022 16711746
1.9590005 -1.1513470 2.0484958 16711746
4.7206249 -1.7393526 3.9909711 16711746
1.5255526 -0.9629145 2.7824733 16711746
0.7158257 0.1927466 0.8623695 16711746
0.0759178 0.1920438 0.8715329 16711746
0.3875809 0.1996166 0.7551080 16711746
-0.4757228 0.1390974 1.2648952 16711746
0.6651626 0.1782576 0.9872786 16711746
0.3053747 0.1408150 1.0271456 16711746
-0.8365707 0.1371458 1.0128254 16711746
0.7082590 0.2130943 0.7506680 16711746
0.4339077 0.1840262 0.8725424 16711746
1.0040785 0.1593555 0.9472359 16711746
0.2043849 0.1036253 1.2421111 16711746
-0.7319790 0.1174748 1.3597105 16711746
0.8834492 0.0751088 0.8338030 16711746
0.1262521 0.1722494 0.7802452 16711746
0.6760285 0.0949290 0.6505140 16711746
-0.2793446 0.1665820 0.6888798 16711746
0.7501212 0.2023874 0.9766898 16711746
-0.4924206 0.1014783 0.6521571 16711746
0.2669500 0.1958674 0.9889109 16711746
-0.4527830 0.1533198 0.7147815 16711746
0.0727659 0.1655284 0.7820773 16711746
0.1342334 0.1591115 0.8298088 16711746
0.2121851 0.1642528 0.7578253 16711746
-0.1671232 0.1684068 0.6945711 16711746
-0.5883518 0.0518146 0.8679027 16711746
-0.2406245 0.1695127 0.8912767 16711746
-0.3335074 0.2029295 0.6844044 16711746
-0.3105862 0.0802149 0.5096926 16711746
-0.4949119 0.0180397 1.7355540 16711746
0.2405359 0.1560108 0.8677495 16711746
0.9573629 0.0438050 1.1661654 16711746
-0.5087814 0.2172907 0.9865456 16711746
0.3484195 0.1673249 0.9022920 16711746
-0.4051227 0.0062598 1.8010725 16711746
0.2575031 -0.0066277 1.7959441 16711746
-0.5394697 0.0746990 1.3460926 16711746
0.1990803 0.1517731 0.9581906 16711746
0.2209349 0.1720376 0.9393109 16711746
0.3392422 -0.1315022 2.0146759 16711746
0.1055131 0.1293810 1.0127881 16711746
2.3530891 -1.1621462 1.7618539 16711746
2.5744958 -1.4364206 3.1639011 16711746
0.4121721 -0.5658697 1.3912612 16711746
-0.9574004 -0.0497250 2.0704885 16711746
-0.0185226 -0.0999769 1.0217713 16711746
-0.0197176 -0.1093119 1.0813955 16711746
0.7412499 0.0463101 1.7434072 16711746
0.2978158 0.2097189 0.7558907 16711746
-0.7157663 0.0683035 1.0078501 16711746
0.2227208 0.1902266 0.8259529 16711746
2.1036289 -1.2625318 2.2735343 16711746
2.1658306 -1.1576034 2.3580065 16711746
0.4499046 0.0656404 1.4099813 16711746
0.2116814 0.1674806 0.8002962 16711746
-0.2515519 0.1426692 0.9715914 16711746
0.3408756 0.1609927 0.6816399 16711746
-0.2473655 0.1397941 0.9628564 16711746
0.0042752 0.1460281 0.7887700 16711746
-0.4824236 0.0341450 0.7807282 16711746
0.2387992 0.1681435 0.8040138 16711746
-0.4504491 0.0845016 0.8283533 16711746
-0.6025191 0.0488584 0.8253002 16711746
-0.5215854 -0.0263939 0.8511275 16711746
0.2011341 0.0833698 1.3958610 16711746
0.0624196 0.1849655 0.7496743 16711746
0.0319559 0.1946160 0.7992837 16711746
0.1468804 0.2131702 1.0467985 16711746
-0.6839966 0.1776078 1.1755663 16711746
1.0414811 0.0121909 1.5400776 16711746
0.8065373 0.1857978 0.7552369 16711746
0.0537786 0.1179052 1.1357093 16711746
0.6770955 0.1766528 0.9539429 16711746
0.5292963 0.1394693 0.9520051 16711746
-0.7522491 0.1352474 1.1656514 16711746
1.3039603 -0.0051208 2.0642366 16711746
0.3206924 0.0970862 1.2729700 16711746
0.0549434 0.1649886 0.9918546 16711746
-0.2056601 -0.0744404 1.1362994 16711746
0.6516354 0.1664654 0.7920901 16711746
-0.7191156 0.1001120 0.8017117 16711746
-0.1365929 0.1960551 0.7914131 16711746
0.2137596 0.1690393 0.8233718 16711746
-0.5766941 0.1452314 1.0369415 16711746
0.2436645 0.1665219 0.9000479 16711746
-0.4918200 0.1652647 0.8340587 16711746
0.2651236 0.1240917 0.9550859 16711746
0.4033738 0.1438099 0.9999713 16711746
0.5398571 0.1056964 1.1769648 16711746
0.6985027 0.2254612 0.6841911 16711746
1.2795885 -0.0722465 2.4117577 16711746
0.8699893 -0.3329200 3.3348958 16711746
2.2384048 -1.3368155 2.4036527 16711746
0.8589430 -0.2841256 3.3751023 16711746
-0.5078598 0.0876071 1.1837763 16711746
0.0788914 0.1251255 0.9126858 16711746
-0.0320335 0.1419546 1.1172880 16711746
-0.4544078 0.1012512 0.8758557 16711746
0.6245202 0.2491642 0.7428781 16711746
-0.4393880 0.0891039 0.7168386 16711746
0.1130082 -0.0741076 0.3906013 16711746
-0.0297566 0.1655467 0.7188365 16711746
-0.1343008 0.1490007 0.6420239 16711746
0.1018672 0.1149742 1.0223573 16711746
-0.2885229 0.0926649 1.0026090 16711746
0.4340906 0.1835060 0.7954368 16711746
0.3625174 0.1777717 0.8106918 16711746
0.3930703 0.1792866 0.8878958 16711746
0.0057205 0.1423782 0.7791936 16711746
0.1114766 0.0767700 0.8227650 16711746
0.0635485 0.1880618 1.0822690 16711746
0.3389968 0.1412423 0.9389533 16711746
-0.5411998 0.1280715 0.8544453 16711746
0.4599650 0.1845414 1.0916061 16711746
-0.3047472 0.0783500 0.5142722 16711746
-0.3972303 0.1445047 0.7212301 16711746
0.8010920 0.1170783 0.9291155 16711746
0.1295857 0.1867873 0.8169777 16711746
0.3768269 0.1527950 0.9879401 16711746
0.4289076 0.1595813 1.1048195 16711746
0.2003714 0.1425454 0.7930067 16711746
0.1065033 0.1045307 1.2409832 16711746
0.2321505 0.1436933 1.1490505 16711746
0.6511551 0.2198462 0.9326378 16711746
0.7953108 0.1395197 0.9506620 16711746
-0.4142785 0.1934359 0.7552348 16711746
0.3672491 -0.0278502 1.9402585 16711746
0.9894634 0.0101209 1.4673560 16711746
0.0972499 0.1573081 1.0109447 16711746
0.5725034 -0.0855998 2.2914407 16711746
0.0354408 0.1829836 0.8315275 16711746
0.3588378 -0.2186603 2.0498869 16711746
3.2628479 -1.1920916 2.8276262 16711746
2.2792139 -1.3151655 2.9744508 16711746
-0.2577662 0.1932886 0.7742769 16711746
-0.2866400 0.2087051 0.6987650 16711746
1.2028240 -0.1248596 2.3823681 16711746
1.9596002 -1.1734884 2.6167068 16711746
-1.2828299 -0.0385937 2.0301223 16711746
0.0545574 -0.0264595 1.4518890 16711746
0.7632936 -0.0795875 2.8948438 16711746
-0.6539091 0.0342308 0.9546171 16711746
-0.2493235 0.1842678 0.6576125 16711746
0.4980436 0.2266120 0.8208832 16711746
-0.1333652 0.1932375 0.7794749 16711746
0.0629810 0.1304533 0.8774449 16711746
-0.5608791 0.1715158 0.9208620 16711746
-0.0160670 0.1393657 0.9651397 16711746
-0.0456758 0.1894044 0.7697054 16711746
-0.0091032 0.1745715 0.8695772 16711746
-0.2439302 0.1449658 0.6381489 16711746
-0.1777811 0.1845995 0.8176184 16711746
-0.2638529 0.1582458 0.6603884 16711746
-0.2392287 0.1468847 0.6200790 16711746
-0.0186920 0.0007452 0.6239403 16711746
0.0789481 0.1159315 0.8866702 16711746
0.5847315 0.1549708 0.6524797 16711746
-0.3019337 0.0748186 0.9012298 16711746
0.1377046 0.1648471 0.8892356 16711746
-0.4971586 0.0275468 0.7378970 16711746
0.6830315 0.1802686 0.9659791 16711746
-0.4231147 0.0924171 0.7456414 16711746
0.0542056 0.1114648 1.1191709 16711746
0.0124057 -0.0958554 0.8381802 16711746
-0.2010372 0.1998129 0.7569115 16711746
1.1541269 0.1118444 1.0466676 16711746
-0.0432064 -0.2021765 1.7560775 16711746
-0.1619927 0.1817243 0.7806076 16711746
0.6600993 0.2141447 0.7105896 16711746
1.1949755 -0.4572660 1.1481776 16711746
-1.7638102 -0.0022939 2.7548008 16711746
0.5465826 -0.3310819 0.8136094 16711746
0.2282661 -0.2328316 1.2694527 16711746
-0.4370123 0.1845641 0.8870426 16711746
0.4120369 0.1392010 1.0984941 16711746
-0.2353732 0.1356712 0.9438787 16711746
0.8128027 0.1488299 1.0347619 16711746
0.0461153 0.1527022 0.8610286 16711746
0.4953157 0.1511843 1.0330921 16711746
0.5034969 0.1339906 1.1354264 16711746
0.4489761 0.1892765 0.8827775 16711746
0.0955546 0.1156675 1.1066014 16711746
0.4013528 0.1718068 0.9078028 16711746
0.1215708 0.1591205 0.8968265 16711746
-0.2061798 -0.1849427 2.4840326 16711746
-0.6818984 0.0527950 0.9685018 16711746
-0.5715687 0.1472957 1.0229151 16711746
0.3643022 -0.2296807 2.0999327 16711746
1.5247713 -0.7428995 1.0923260 16711746
0.8544910 0.1439186 1.4263755 16711746
1.7474188 -0.9660211 1.7427163 16711746
1.3724606 -0.1217112 2.6194999 16711746
1.8136938 -0.0753025 3.0052593 16711746
0.5140610 0.1424239 1.1080097 16711746
1.5287222 -0.8698910 2.0076015 16711746
2.2629046 -1.3086005 2.3164916 16711746
0.9085884 -0.2948369 3.5574687 16711746
2.4385369 -1.5116096 2.9333975 16711746
0.6027154 0.0662800 0.5991954 16711746
-0.3210823 0.1251339 0.9435920 16711746
0.5435819 0.1166991 0.6970976 16711746
0.0284143 -0.0346628 0.5759290 16711746
0.1029959 0.1524612 0.9170605 16711746
0.5612892 0.1611789 0.6306549 16711746
0.8169366 0.2034733 0.8987507 16711746
0.6792977 0.2004300 0.7314171 16711746
-0.2477311 0.1726072 0.8932332 16711746
0.3210959 0.1933963 0.8062218 16711746
0.0833436 0.1695410 0.8464055 16711746
-0.0021241 0.1600672 0.8341284 16711746
0.1226527 0.1757948 0.9439675 16711746
0.5823681 0.2377116 0.8486742 16711746
0.9904455 0.1497611 1.0569915 16711746
0.1793787 0.1661270 0.8892350 16711746
0.0406056 0.1503381 0.9096857 16711746
0.6498502 0.2040617 0.7380741 16711746
0.2784314 0.1513774 0.8489164 16711746
1.2313259 0.2088019 1.2707222 16711746
0.3855430 0.1258926 1.0841385 16711746
1.6595900 0.0758918 1.4820852 16711746
-0.2695057 0.1759641 0.7474603 16711746
0.3892051 0.1260122 1.1272191 16711746
0.8724483 0.0577011 1.3070134 16711746
1.5408936 0.0228403 1.4893178 16711746
0.8910136 -0.0019206 1.2525885 16711746
0.5570573 0.1971596 0.9238527 16711746
-0.2102657 0.0712877 1.5816256 16711746
0.1367263 0.1405002 1.0961915 16711746
0.8698882 -0.5053922 1.2213923 16711746
-0.1511214 0.0035056 1.8064600 16711746
0.8051081 0.1798716 0.9227155 16711746
0.8884496 0.0300298 1.0740526 16711746
1.0726842 0.1720468 1.1238323 16711746
0.1757929 0.1120322 1.1807221 16711746
0.1412482 0.1381699 0.9947722 16711746
0.3416603 -0.0474287 2.0890722 16711746
1.1150299 -0.9225795 1.9788945 16711746
0.5862144 0.0876168 1.4981837 16711746
1.1672039 -0.0718849 2.2440271 16711746
1.2875785 -0.8140044 2.3948815 16711746
0.3169213 0.1509003 1.0703001 16711746
0.5120068 -0.6150666 1.6121612 16711746
0.9039684 -1.0323807 2.1066689 16711746
0.3779868 -0.1672405 3.4039347 16711746
0.9649249 0.0720684 1.4186878 16711746
1.3812119 -0.2109033 3.1307161 16711746
2.2746224 -1.1906333 2.4196982 16711746
-0.3930924 0.1654568 0.8478568 16711746
-0.2295098 0.1828716 0.8699218 16711746
-0.3220812 0.0869808 0.7040989 16711746
-0.0103377 0.1781977 0.8768274 16711746
0.0741217 0.1819716 0.8430244 16711746
0.0343142 -0.0749432 0.5412413 16711746
0.9698383 0.1102074 1.2921903 16711746
0.1230398 0.1524546 0.8824294 16711746
0.6503134 0.1562884 1.0490690 16711746
0.2580251 0.0791750 1.1943809 16711746
0.1948434 0.1371328 0.9146361 16711746
0.6619996 0.1610388 1.0691664 16711746
0.7964803 0.1766981 0.9175646 16711746
0.7796747 0.1393842 1.2277771 16711746
0.3699698 0.1581743 0.9138281 16711746
0.3432119 0.0974476 0.9667103 16711746
-0.3470654 0.2035543 0.8605478 16711746
-0.0419159 0.1391800 1.1066372 16711746
-0.0276041 0.1220080 1.0536851 16711746
0.7872297 -0.0183699 0.9229979 16711746
0.2485533 0.0544828 1.4790105 16711746
0.5334561 0.1855312 0.8896005 16711746
0.3469591 0.1664240 0.8946764 16711746
0.4044673 0.1413775 0.9432094 16711746
0.6911064 0.2207921 0.7645991 16711746
0.6659043 -0.0523686 1.0354041 16711746
0.0453521 0.1373055 0.9651938 16711746
0.6248970 0.1955893 0.6797308 16711746
0.3180688 0.1307889 1.1024319 16711746
0.5401005 0.1015795 1.1715020 16711746
1.1077923 -0.6991130 1.5695614 16711746
-0.2173378 0.0759231 1.6413137 16711746
0.5330287 0.1649650 0.9507811 16711746
0.1573683 0.1175045 0.8902277 16711746
-0.3499260 0.1419236 0.9962403 16711746
0.5717130 0.1182153 1.2447129 16711746
0.6883322 -0.1012663 2.4419837 16711746
-0.4825352 -1.5905993 3.5786352 16711746
0.3651419 -0.3649577 1.4840769 16711746
0.5840678 -0.5125155 1.3087026 16711746
0.8832571 -0.1770336 3.0535283 16711746
0.6641741 -0.2548235 2.8550129 16711746
5.7880673 -2.0905399 4.7951584 16711746
-0.6012010 -1.4398798 3.9103341 16711746
-0.1080592 0.1288682 1.0126951 16711746
0.0410472 0.1472349 0.9092303 16711746
-0.5391590 0.0906731 1.0484462 16711746
0.2194249 0.1633667 0.8714730 16711746
-0.3983642 0.1644403 0.8540977 16711746
0.1060523 0.0722208 0.8884547 16711746
-0.4268434 0.1839193 0.9385801 16711746
-0.0474211 0.0872343 1.2930764 16711746
0.4185381 -0.4924513 1.3247043 16711746
1.0205356 -0.0050573 1.1428076 16711746
0.4939952 0.1256287 1.1787808 16711746
0.5452332 -0.6943333 1.6581713 16711746
0.6080501 0.0766309 0.6073179 16711746
0.3868255 0.1437118 1.0245374 16711746
-0.3726267 0.0216505 2.0880153 16711746
0.9173827 -1.3401780 2.5287642 16711746
0.2030871 0.0535471 1.3715054 16711746
0.7849337 -0.1099527 2.4809632 16711746
0.2145244 0.0878963 1.2363985 16711746
0.2244613 0.1420440 0.9440579 16711746
0.3139866 0.1454670 0.9275340 16711746
0.3161582 0.1242770 1.0860889 16711746
0.6426027 0.1630782 0.7176679 16711746
0.3599821 0.1475972 0.8834389 16711746
0.7297838 0.2110044 0.8330082 16711746
-0.1014777 -0.6452270 1.3990806 16711746
0.3665600 0.1544185 0.9038778 16711746
-0.0717616 0.0583836 1.4583989 16711746
0.2138160 -0.1770416 0.7358382 16711746
0.5968155 0.1288268 0.9771649 16711746
0.7018943 0.0971210 0.6577679 16711746
0.4038641 0.1425361 0.9505528 16711746
-0.1024146 -0.1237893 1.4418352 16711746
-1.0877335 0.0698532 1.4989116 16711746
0.1403004 0.1615215 0.8616258 16711746
-0.1715802 0.0560558 1.4495149 16711746
0.7752534 0.1252175 1.1973078 16711746
0.2116584 0.1524728 0.8823359 16711746
-1.2221367 -0.8560970 1.9543961 16711746
1.0282724 0.1458056 1.0284253 16711746
1.2241497 -0.0043878 1.2434677 16711746
0.8855682 -0.7382379 1.6265495 16711746
-0.1372034 0.1174449 1.1496634 16711746
0.7638025 -0.4118117 3.3299134 16711746
1.2595171 -0.1268515 2.4732897 16711746
0.4143095 0.1401155 0.9477012 16711746
0.1345041 0.1599322 1.2667351 16711746
0.1010627 0.1604219 0.9402304 16711746
-0.1952704 0.1034877 1.2150613 16711746
0.5676050 0.2083331 0.9302859 16711746
0.0745739 0.1248405 0.9205188 16711746
0.2831149 0.1705007 0.9093919 16711746
-0.2281235 0.1179771 1.2824725 16711746
-0.0330652 0.1509942 0.8549861 16711746
0.5130161 0.1506768 0.9208220 16711746
0.4256046 0.1641273 0.8941009 16711746
0.2940832 0.1395098 1.1806668 16711746
-0.0944814 0.0982975 1.1551722 16711746
0.3214052 0.0940682 1.2520783 16711746
0.9916105 0.1441306 1.1454219 16711746
0.6069693 -0.7979637 1.7238313 16711746
1.7053030 0.0235858 1.9328583 16711746
0.3243667 0.0188153 1.6192502 16711746
-0.4396398 0.0532455 1.4240943 16711746
0.4681037 0.1022574 1.3157351 16711746
-0.3146807 0.0083393 1.7669516 16711746
0.2074164 -0.1179591 1.3677342 16711746
-0.3057100 -0.0097929 1.6813512 16711746
0.6274421 0.2086818 0.9028833 16711746
0.6600903 0.1774068 0.7717311 16711746
0.1432927 0.1147068 1.0222594 16711746
0.6931674 0.2035114 1.2071985 16711746
0.7183957 -0.0869911 0.9008970 16711746
0.1933131 0.0127146 1.4237233 16711746
0.6173462 -0.7323394 1.8413415 16711746
0.5774940 -0.0661708 2.3329909 16711746
0.7610050 -0.0069390 1.8925681 16711746
0.6449354 -0.5774604 2.4358273 16711746
0.3298806 0.0475440 1.8243103 16711746
1.1595025 -0.1670391 1.6720414 16711746
1.0626311 -0.9239622 1.8243467 16711746
0.8480979 -0.7365757 1.8419852 16711746
0.8081565 0.0014173 1.9820906 16711746
-0.2505988 0.0914263 1.5573330 16711746
1.3212558 -0.2385400 2.9067659 16711746
0.2986872 -0.1760945 2.9706428 16711746
1.3224175 -1.2943935 2.9725544 16711746
0.7810719 0.0153280 1.9953495 16711746
1.9641854 -0.0150302 2.6911776 16711746
2.2633851 -1.4627681 2.9239883 16711746
1.2232604 -0.1857574 2.8394358 16711746
2.7048728 -1.6284443 2.8192074 16711746
0.2809071 -0.1673549 3.3455279 16711746
-0.1044759 0.1288577 0.9469214 16711746
0.2216082 0.1268298 0.9100542 16711746
0.1518152 0.1365507 0.9221583 16711746
0.0903210 0.1172789 0.8207073 16711746
-0.0168284 0.1120929 1.0134057 16711746
0.0298369 0.1104688 1.2218252 16711746
-0.0280463 0.0527706 1.5475503 16711746
0.4870164 0.1555553 1.0696712 16711746
0.3115303 0.1452547 1.0396538 16711746
-0.1858735 0.0366663 1.3000286 16711746
0.6197454 -0.3725033 0.9364139 16711746
-0.1859251 0.0168501 1.7464496 16711746
0.5856428 0.1890913 0.9494429 16711746
-0.6007423 0.0205015 1.4974872 16711746
-0.9313631 -0.0415626 2.0250349 16711746
-1.0306679 -0.0457489 2.5987251 16711746
1.5506002 0.0112816 1.7731148 16711746
0.1979100 0.0752531 1.3369231 16711746
-0.9380516 -0.0370137 2.0151994 16711746
1.7663652 -0.9716239 1.6577498 16711746
0.8392769 0.1191380 1.1960347 16711746
0.7765467 0.1693385 0.8946831 16711746
1.0357903 0.1032426 1.2404879 16711746
0.2520047 0.1515494 0.9064046 16711746
0.1525931 0.1464392 0.9512421 16711746
-0.0101551 0.0920256 1.2409177 16711746
1.0596211 0.1246407 1.2856058 16711746
-0.4558743 -0.2424160 3.6725852 16711746
2.0417089 -1.2873551 2.7040949 16711746
-0.0813812 -0.1893705 2.2181137 16711746
0.9886857 -0.1478636 2.3368807 16711746
-1.2747406 -2.6433177 6.9874706 16711746
1.0161599 -0.6420723 1.8981395 16711746
0.1950999 -0.1655843 2.6966803 16711746
0.6905878 0.1664839 0.8764800 16711746
0.1180491 0.1156125 0.8944108 16711746
-0.0608093 0.0893901 1.0737000 16711746
-0.2212249 0.1305999 1.0441183 16711746
-0.0052026 0.1045268 0.9924805 16711746
0.6608456 0.1659769 0.9434722 16711746
0.5949423 0.1326350 0.7643746 16711746
0.1399252 0.1157290 0.9274490 16711746
-0.0925800 0.1292717 0.8428233 16711746
-0.2308138 0.0955108 1.0004274 16711746
-0.0922520 0.1275150 0.8410389 16711746
0.2453873 0.1339057 0.8716948 16711746
0.2765874 0.1218222 0.8955387 16711746
-0.0910498 0.1268940 0.8394083 16711746
-0.3838297 0.0729022 1.1748301 16711746
0.1249323 0.0945875 0.9200216 16711746
0.2113801 0.0787558 0.9318555 16711746
0.3476396 0.0941848 0.9460949 16711746
-0.2274444 0.0917844 1.1978053 16711746
0.4835026 0.1220975 1.0885280 16711746
0.1966188 0.1332486 0.8964189 16711746
0.3262296 0.1004081 1.2994316 16711746
-0.3191556 0.0452069 1.7130845 16711746
0.2277230 0.1503673 0.9678993 16711746
1.0295093 0.0605887 1.1585436 16711746
0.9736935 0.2031166 1.1988480 16711746
0.5986011 0.0642156 1.6277964 16711746
0.2775401 0.1231267 1.0012971 16711746
0.1970935 0.0110270 1.4286731 16711746
0.2277160 0.1364129 1.1089267 16711746
1.4389349 -0.9904656 1.8985124 16711746
-0.0264971 0.1427482 0.8350511 16711746
0.1106933 0.1426291 0.9487232 16711746
0.1049034 0.1270962 0.9434568 16711746
-0.1114189 0.1340595 0.9617150 16711746
0.1534556 0.1168194 0.8734542 16711746
-0.0762636 0.1324320 0.9639876 16711746
-0.1420919 -0.1268295 1.6789807 16711746
0.2670639 0.1231671 1.0735596 16711746
-0.3031817 -0.0905007 1.7711470 16711746
0.6848962 0.1381730 0.9405522 16711746
-0.0806490 0.1368863 0.9760602 16711746
0.2975780 0.0892828 1.0558970 16711746
-0.2315494 0.0635009 1.3339498 16711746
0.0772026 0.1133383 1.1242793 16711746
-0.3546779 0.0140891 1.6062245 16711746
0.7444305 0.1094314 1.1513679 16711746
-0.3684324 -0.0218724 1.8129752 16711746
1.4664171 -1.1477398 2.0223806 16711746
0.4909455 0.0753454 1.2983395 16711746
1.0330534 -0.1047950 1.4942499 16711746
-0.3569094 0.0663562 1.5394713 16711746
0.0511549 -0.0040022 2.1066151 16711746
5.4804339 -0.4626218 5.1641536 16711746
0.4615366 -0.2951145 3.7467842 16711746
1.3508333 -1.1246822 2.6034713 16711746
0.2481136 -0.0621711 2.5399251 16711746
1.9594346 -1.1594299 2.6119161 16711746
0.4045547 -0.1896212 3.5386059 16711746
0.6738290 0.1342350 0.9662195 16711746
0.1328020 -0.0264208 0.8160515 16711746
0.5889486 0.1220880 0.9717523 16711746
0.5948352 0.1260610 0.9808545 16711746
-0.3592138 0.0679463 1.1490977 16711746
0.1482518 -0.1158672 0.7032996 16711746
0.5020134 -0.0217480 0.9083180 16711746
0.8167220 0.1331182 1.2371204 16711746
0.9414248 0.0428231 1.0751009 16711746
0.4469401 0.1201479 0.9514937 16711746
-0.3582155 0.0017726 1.4878657 16711746
0.2355040 -0.3799030 1.0650132 16711746
0.8059958 0.1089864 1.0129464 16711746
0.8679277 0.0744252 1.0932902 16711746
0.1860646 -0.0094874 1.2008326 16711746
0.7139469 0.1073213 0.8960369 16711746
0.3964269 0.0070637 1.6507219 16711746
0.3649594 -0.0316333 1.9129142 16711746
0.3540522 0.1277303 0.9197583 16711746
0.2391885 0.1238858 0.9981060 16711746
0.8617763 0.0626868 1.0722237 16711746
-0.2543711 -0.0061501 1.6035534 16711746
0.1467348 0.1203072 1.0418248 16711746
-0.5137636 0.0085356 1.3793112 16711746
0.7042105 0.1335234 1.1662920 16711746
0.9082877 -0.0110725 1.2840337 16711746
0.6872048 0.0884440 1.2033285 16711746
0.9472685 0.0949770 1.1598748 16711746
0.7680130 0.1280156 0.9935432 16711746
0.3354263 0.1196300 0.9764629 16711746
0.5040510 0.1435169 0.9041070 16711746
0.1866249 0.1327356 0.9503793 16711746
0.8296576 0.1034463 1.0651910 16711746
-0.8467063 -0.0425318 1.5307224 16711746
0.8897103 -1.1623058 2.2353916 16711746
-0.6895183 0.0582810 1.3697637 16711746
1.2897699 -1.0708772 2.3286633 16711746
-0.7092960 -0.0466761 1.4032067 16711746
1.3980610 -1.1837907 2.6773989 16711746
0.2111983 -0.0574431 2.3406663 16711746
0.8207436 -0.2660447 3.2558758 16711746
0.7128688 -0.3739186 4.2605348 16711746
2.2784166 -1.1993304 2.9089620 16711746
0.5408188 0.1211050 0.9689631 16711746
0.6099254 0.1658272 0.8938847 16711746
-0.3986980 0.1640257 1.0333006 16711746
0.2734531 0.1133473 0.9761358 16711746
0.7067377 0.1352254 1.1683228 16711746
0.5148792 0.1381600 0.9214032 16711746
-0.5954046 0.0907442 1.2867495 16711746
-0.4917787 -0.0110483 1.6881050 16711746
0.7568407 0.1281734 1.0492475 16711746
0.7247149 0.1356014 0.8450002 16711746
-0.3823343 -0.3299540 1.6365548 16711746
-0.1978996 0.1171172 1.0080783 16711746
0.7386717 0.1186526 0.9696261 16711746
0.8047283 0.0893631 1.0017560 16711746
0.8806281 -0.0089778 1.2495979 16711746
0.8895822 0.0247915 1.0837201 16711746
-0.5597954 -0.1453528 1.6833624 16711746
0.8035718 0.0958209 0.9051449 16711746
0.1084604 0.1461272 1.0649717 16711746
0.7575800 0.0777222 1.1935732 16711746
-0.0012471 0.1122900 1.0327666 16711746
0.8325411 0.0771307 1.3621346 16711746
0.4038328 0.1295606 0.9248452 16711746
0.8255179 0.1012860 1.2554500 16711746
0.1730922 0.0710811 1.2799529 16711746
0.1617739 0.0833902 1.1385839 16711746
0.8700414 0.0569289 1.3638614 16711746
0.6670402 0.1556431 0.8591374 16711746
0.8058582 -0.6862770 1.8574667 16711746
0.9254982 -0.0197902 1.1062336 16711746
0.2023688 0.0777321 1.2506832 16711746
0.1067320 0.0294926 1.5347325 16711746
0.6643190 0.1632656 0.9146537 16711746
-0.2761180 0.0391488 1.3555950 16711746
-0.2745949 0.1161756 1.0681953 16711746
0.3902169 0.1206949 0.9803710 16711746
-0.1225138 0.1563541 0.8989198 16711746
-0.5739380 0.0164952 1.4620571 16711746
1.1228753 -0.5883305 1.6115562 16711746
0.9063296 0.0388456 1.0519341 16711746
-0.3009158 -0.0106884 1.6749446 16711746
-0.4174184 -1.5208827 3.1249733 16711746
1.2797056 -1.1577159 2.4473386 16711746
0.8927741 0.0361081 1.0426118 16711746
0.2385879 0.1131425 1.1666020 16711746
0.5447252 0.0694595 1.3671939 16711746
1.1316674 -0.0799113 1.9022930 16711746
1.1814876 -1.1546414 2.6882486 16711746
-0.1048677 -0.1501256 1.7846900 16711746
0.3984196 0.1298442 1.1438733 16711746
2.2544153 -1.2552917 2.3797557 16711746
0.4612670 0.0395013 1.8486090 16711746
0.4084103 0.1391959 1.0248475 16711746
0.7940577 0.1388564 1.0116879 16711746
0.1310593 0.1081208 1.0011984 16711746
0.4357584 0.1443731 0.9938148 16711746
0.6587863 0.1075601 0.7945225 16711746
-0.3715192 0.0326895 1.4300750 16711746
-0.4636209 0.0595628 1.0628974 16711746
0.3743573 0.1322005 1.0374560 16711746
-0.3562392 -0.0714277 1.2757248 16711746
-0.2573299 0.0340571 1.4669460 16711746
-0.3447786 0.0948982 0.9956939 16711746
0.3389086 0.0945210 1.1604261 16711746
0.9716637 -0.0063614 1.5763443 16711746
0.7622256 0.1333272 0.8771559 16711746
1.0016582 -0.0041279 1.6143016 16711746
0.4755095 0.0638165 1.2642261 16711746
-0.2782867 0.1160701 1.0714686 16711746
0.1904676 -0.1071718 0.9719809 16711746
-0.5049211 0.0333411 1.4750564 16711746
0.1406215 0.0983203 1.2397456 16711746
0.6116405 0.0659923 1.2604582 16711746
0.9420981 -0.1160911 1.2615564 16711746
-0.0190317 0.1132923 1.0165774 16711746
0.3744265 0.1072948 1.0951326 16711746
0.7748827 0.0369005 1.0488800 16711746
0.8356676 0.1261392 1.0941120 16711746
0.2306793 0.0720147 1.3309653 16711746
0.1915218 0.0864122 1.1894653 16711746
0.8122442 0.0883681 1.2743709 16711746
0.2280436 0.0668777 1.3054353 16711746
0.7017238 0.0169398 1.4724396 16711746
0.9385215 -0.0148721 1.4776360 16711746
-0.2667884 0.0305017 1.5594083 16711746
0.3878208 0.0057473 1.7120035 16711746
1.2875413 -1.3062934 2.8065286 16711746
0.8744261 -0.0799653 1.8265307 16711746
1.4459908 -1.2169991 2.6549456 16711746
1.3548522 -1.3333291 3.0793219 16711746
3.3957884 -2.0103300 3.3715298 16711746
0.7928162 -0.1116508 2.4516428 16711746
-0.5115500 -0.0053980 1.7267536 16711746
-0.5103645 0.0518097 1.2362679 16711746
0.1384765 0.0952505 1.1782396 16711746
-0.2942549 0.0446878 1.3852357 16711746
-0.2043719 0.0815162 1.1618651 16711746
-0.2803965 0.0948323 1.0436308 16711746
-1.0198067 -0.0483748 2.0243020 16711746
0.2844116 0.0177102 1.5597863 16711746
0.1391568 0.0919038 1.1699979 16711746
0.2765175 0.1137196 1.0858248 16711746
0.1915841 0.0447517 1.4486294 16711746
-0.2862873 0.0983299 1.0517454 16711746
-0.3925811 -0.0022545 1.5769299 16711746
-0.3927558 -0.0972565 1.8334596 16711746
-0.3577379 0.0671835 1.1599513 16711746
-0.3814408 -0.0939510 1.7979027 16711746
0.1857218 -0.1686672 1.5222821 16711746
-0.8935142 -0.1661103 1.9496493 16711746
0.4339277 0.0785303 1.1999546 16711746
0.1829546 0.0594317 1.3363011 16711746
-0.3934180 0.0746774 1.1797003 16711746
-0.1762673 0.0608206 1.3465815 16711746
-0.1858880 0.0935998 1.1636208 16711746
0.1712012 -0.0843660 1.4452393 16711746
-0.3063027 0.0830813 0.9693776 16711746
-0.8768395 0.0451388 1.5457127 16711746
-0.3216186 0.0849464 0.9796922 16711746
0.3433538 -0.1904571 1.6760833 16711746
-0.4097570 0.0064383 1.6152216 16711746
-0.2236489 0.1028559 1.0860858 16711746
0.5443021 0.1019766 1.1702125 16711746
0.3606633 0.0658631 1.3224071 16711746
0.2665865 0.0515109 1.3410766 16711746
-0.3093610 0.1112790 1.1485438 16711746
1.0673883 -0.1232240 1.6278064 16711746
0.3293214 -0.0323147 1.1489850 16711746
0.7254845 0.1559840 1.0271680 16711746
-1.1392647 -1.2173405 2.8982530 16711746
-1.1541827 -1.2336899 2.9297965 16711746
-1.0014586 -1.0724969 2.6136734 16711746
0.0150772 -0.0772338 1.7001084 16711746
0.1725503 0.0601304 1.3475778 16711746
-0.3329146 0.0514156 1.3460447 16711746
0.3781940 0.0004648 1.6982912 16711746
-0.1944285 0.1127051 0.9032052 16711746
-0.1794132 0.0630773 1.3614721 16711746
0.2911547 0.0767439 1.2440168 16711746
0.5989642 0.0344939 1.5079756 16711746
0.5140160 0.0575539 1.2852046 16711746
0.4613073 0.1226933 1.0708026 16711746
0.2703435 0.0530851 1.3484802 16711746
0.6687289 0.1122936 1.1936083 16711746
0.6690112 0.1648157 1.0720246 16711746
0.3377748 0.1001542 1.1755894 16711746
0.4594887 0.1202783 1.0678562 16711746
-0.3211732 0.0358288 1.4372110 16711746
-0.2049720 0.1026460 1.1453525 16711746
1.0910859 -0.1918841 1.9681674 16711746
0.9396591 -0.0177259 1.8136388 16711746
1.2252281 -1.2138789 3.0843570 16711746
0.6541233 -0.0959359 2.2422521 16711746
1.1966122 -1.1640574 2.7290909 16711746
2.0396197 -1.3113101 3.7370398 16711746
0.9397897 -0.2245147 3.4901454 16711746
1.6254343 -1.0320761 3.0040481 16711746
1.8119345 -1.1543621 3.3685637 16711746
2.6431134 -0.1525360 2.9879231 16711746
0.5196880 0.0796612 1.3389732 16711746
-0.1688094 0.0596754 1.3507034 16711746
0.1888893 0.0653767 1.2099057 16711746
0.1101565 0.0598303 1.2830180 16711746
-0.0806831 0.1045831 1.1266757 16711746
0.5481470 0.1091862 1.1873622 16711746
0.2369076 0.0597246 1.2307309 16711746
0.3927715 0.1027207 1.1084924 16711746
0.7905282 0.1918313 1.0891560 16711746
0.0658445 0.0135587 1.4782368 16711746
0.1613182 0.0961266 1.1751839 16711746
0.1456324 0.0841284 1.1855057 16711746
0.0831640 -0.0865626 1.3589555 16711746
-0.2324098 0.0199875 1.4797908 16711746
0.3901474 0.0480697 1.4959551 16711746
-0.5444508 0.0345339 1.4478750 16711746
-1.9355732 -0.5381593 2.6671805 16711746
-1.0317975 -0.1676637 2.4162140 16711746
0.0202416 -0.1559001 1.6159343 16711746
0.1547974 0.1316091 1.2508204 16711746
-0.4187391 0.0571102 1.3130656 16711746
-0.4671004 0.0365463 1.3998185 16711746
0.6247461 0.0312637 1.4773334 16711746
0.1632867 0.0813581 1.2042505 16711746
0.2366707 0.1014349 1.1314552 16711746
-0.5803015 0.0173853 1.5288246 16711746
1.6522167 -0.9109275 2.0342433 16711746
-0.1105192 0.0766997 1.1706533 16711746
0.3938062 0.1038810 1.1136216 16711746
-0.4838343 0.0842013 1.1685063 16711746
0.3582363 0.0604039 1.2924633 16711746
0.2757565 0.1110123 1.0785388 16711746
0.1167442 0.0455262 1.3571790 16711746
-1.9469910 -0.5335715 2.6771832 16711746
0.5259450 0.0347760 1.4384277 16711746
0.1477038 0.0990188 1.0585762 16711746
-0.3172972 0.0930282 1.1281644 16711746
-0.9307268 0.0524960 1.5915624 16711746
-0.5414210 0.0598981 1.2972331 16711746
-0.1853726 0.0256796 1.5579963 16711746
0.2000625 0.0871655 1.1826190 16711746
0.5581083 -0.8457912 2.0329988 16711746
2.2192569 -1.3070556 2.3586257 16711746
0.0875261 -0.4504990 4.3291554 16711746
1.2420384 -1.0828515 2.9867926 16711746
1.2322373 -1.2196329 3.1006560 16711746
0.1035507 -0.1816052 3.0188968 16711746
0.7738611 0.0866415 1.0220490 16711746
0.1969774 0.0669628 1.2983527 16711746
0.1403140 0.0631126 1.2524192 16711746
0.2112228 0.0793705 1.1598872 16711746
-0.0743749 0.1008101 1.1179790 16711746
0.8356134 0.0591574 1.0781856 16711746
0.9774917 0.0988370 1.1986252 16711746
0.1871127 0.0846278 1.3896315 16711746
0.0820879 0.0581956 1.2641079 16711746
-0.7813540 0.0314328 1.4570326 16711746
0.7011451 0.1063179 1.1385740 16711746
0.0826932 0.0555002 1.2579818 16711746
-0.2988176 0.0892205 1.1129200 16711746
0.4321736 0.0915536 1.2049789 16711746
0.4641382 0.0838349 1.2241681 16711746
1.1497194 0.0763302 1.3857642 16711746
0.9631994 -0.0290351 1.6381344 16711746
-0.2869157 0.0437918 1.3856245 16711746
0.9103970 -0.1225250 1.4330364 16711746
0.1802566 -0.0838689 1.4485443 16711746
0.1678462 -0.1273083 1.6697741 16711746
-0.0952221 0.1240502 0.9421345 16711746
0.3132105 0.0843368 1.2294873 16711746
0.4189066 0.0161320 1.5654218 16711746
-0.3595025 0.0441679 1.3164502 16711746
0.2301710 0.0512758 1.3552215 16711746
0.2847825 0.0512120 1.3128214 16711746
0.1844273 0.0646050 1.2559465 16711746
0.0243344 -0.0440550 1.6716464 16711746
0.7473387 0.0556366 1.4836031 16711746
0.2302596 0.0533627 1.3686310 16711746
-0.0190771 -0.1103520 1.8399829 16711746
0.3441707 0.0394218 1.4099463 16711746
-0.6312732 0.0454147 1.4365104 16711746
0.2570430 0.0873526 1.2177758 16711746
0.7348673 0.0275115 1.5595857 16711746
0.5447206 0.0165432 1.5733681 16711746
0.4122347 0.0157802 1.5767283 16711746
1.8983362 -1.2696478 3.3143425 16711746
1.1350424 -0.5554085 2.1046860 16711746
0.8491167 -0.2092480 3.1380990 16711746
0.2381946 -0.2020242 2.8303869 16711746
0.2347114 -0.1299132 2.5731378 16711746
1.7592808 -0.2910481 3.8008840 16711746
0.4042501 0.1024800 1.1064420 16711746
-0.2426676 0.1169887 1.0961272 16711746
0.7480794 0.0833146 1.1089587 16711746
0.1500159 -0.0689489 0.7969685 16711746
0.2800273 0.0495671 1.3446202 16711746
0.0860529 -0.0018326 1.4361327 16711746
0.1061671 0.0922971 1.1186442 16711746
-0.2393352 0.0974952 1.2151847 16711746
0.8458229 0.0627229 1.0886993 16711746
0.0630284 0.0165226 1.5755372 16711746
0.0694845 0.0098745 1.5425868 16711746
0.4291820 0.0467856 1.3241889 16711746
0.6846706 0.0131507 1.4635469 16711746
0.9291734 -0.0169343 1.3545963 16711746
0.1010500 0.0403451 1.3799777 16711746
0.9004671 0.0651316 1.3344065 16711746
0.0644438 0.0139455 1.4680047 16711746
0.0601970 0.0183599 1.5001639 16711746
0.6344822 0.1231635 1.0989964 16711746
-0.0959599 -0.1812523 2.1925237 16711746
1.4782531 -0.8735327 1.6829113 16711746
1.4027900 -0.8286927 1.6124034 16711746
0.2593215 -0.0187817 1.7111312 16711746
0.2262871 0.0285495 1.2942592 16711746
-0.4192221 0.0568188 1.3142781 16711746
0.6396589 0.0394792 1.4428284 16711746
2.6162105 0.0360582 2.5915070 16711746
0.4986082 -0.0573697 2.0832107 16711746
1.1291051 -0.0406987 1.9341583 16711746
0.4260181 0.0850734 1.1774886 16711746
-0.0926856 -0.1576157 1.7711635 16711746
-0.3036893 0.0888321 1.1844987 16711746
1.1211194 -0.9038277 2.1816463 16711746
0.4179751 0.0161904 1.5699801 16711746
1.4026923 -1.1819639 2.6731744 16711746
0.5614036 -0.0891015 2.2502501 16711746
0.8858676 -0.0515749 2.3725185 16711746
0.6729645 -0.3356187 3.6503050 16711746
2.0136683 -0.3140360 4.3755865 16711746
0.8689399 -0.0426157 2.1015258 16711746
-0.1941521 0.1078491 1.2084249 16711746
0.6271663 0.0629095 1.1540362 16711746
0.6568058 0.1094250 1.1133851 16711746
0.0466890 0.0664164 1.2615700 16711746
0.8017585 0.0353406 1.2331505 16711746
0.3371120 0.0887392 1.1499199 16711746
0.7770862 0.0504625 1.1158699 16711746
0.0839383 0.0558328 1.2603915 16711746
0.7276020 0.1180309 1.1679212 16711746
0.2314267 -0.1368901 0.8589188 16711746
0.0547441 -0.0763690 1.5279434 16711746
0.2276663 -0.1833937 0.9790644 16711746
0.1349127 0.0484859 1.3361945 16711746
-0.1959085 0.1041335 1.1241553 16711746
-0.2710387 0.0736334 1.0334239 16711746
0.2346924 0.0043749 1.5511602 16711746
-0.2024125 0.0579434 0.9704367 16711746
0.9181520 -0.0637192 1.7197841 16711746
1.9608353 -1.1285511 1.9109336 16711746
1.8402921 -0.8615857 2.2037263 16711746
0.7432424 0.0920553 1.0166272 16711746
0.5758563 -0.0025201 1.6825744 16711746
0.6759456 -0.0829562 1.6639545 16711746
0.6614708 0.1124586 1.1141057 16711746
0.8038648 0.0392505 1.4179348 16711746
0.6432158 0.0202112 1.4988546 16711746
0.4731814 0.0778353 1.1683009 16711746
1.0468373 0.0593424 1.4289526 16711746
1.0182025 -0.0379137 1.8727067 16711746
1.5216957 -0.1295145 2.2677069 16711746
0.4930545 0.0538396 1.3059465 16711746
-0.2045108 0.0805028 1.2506496 16711746
0.2099527 0.0785974 1.1982429 16711746
0.9890065 -0.0153695 1.5596067 16711746
0.4478390 -0.1381007 1.4096575 16711746
1.4065034 -0.1750896 2.4995584 16711746
2.3831694 -1.2745620 2.6557477 16711746
1.5914919 -1.4476790 3.6274595 16711746
-0.3813851 -1.3418854 3.0555010 16711746
0.8813080 -0.2745576 1.9423697 16711746
2.3869433 -1.6135739 4.1627502 16711746
0.5212662 -0.2402459 1.7122424 16711746
2.7328570 -0.1726605 3.8706992 16711746
0.5267980 0.0975330 1.1480224 16711746
0.1103102 0.0735544 1.1523994 16711746
0.0669307 0.0132604 1.4598790 16711746
0.2161742 -0.0476465 1.4053888 16711746
0.2824754 0.0148776 1.4882326 16711746
-0.2449280 0.0300811 1.0520881 16711746
0.7348537 0.1056593 1.2477721 16711746
0.1194957 0.0581241 1.3611788 16711746
0.0682694 0.0114193 1.4718421 16711746
0.2259627 0.0526123 1.2578698 16711746
0.5816836 0.0447334 1.5153654 16711746
-0.0875532 -0.1781711 2.1238010 16711746
0.3726723 0.0449422 1.3787615 16711746
-0.2547632 -0.0067761 1.6267809 16711746
0.6106828 0.0529724 1.2761167 16711746
0.2561820 0.0440140 1.3881016 16711746
0.3647700 -0.2003925 1.5316103 16711746
0.2662457 -0.0966955 1.3222673 16711746
0.6291700 0.0333428 1.4194032 16711746
1.9587595 -1.1218010 2.6862421 16711746
1.4854444 -1.3724126 2.5865142 16711746
1.9390112 -1.2325029 2.4030569 16711746
0.7584439 0.0822195 1.0053651 16711746
0.8778720 -1.0832285 2.4537182 16711746
0.8744451 0.0448799 1.3142709 16711746
0.7295737 0.0063985 1.4918456 16711746
0.5119123 0.0311112 1.4834464 16711746
0.4053111 0.0489698 1.3158562 16711746
0.9498852 -0.0180438 1.3636931 16711746
1.0726326 -0.0711127 2.0712576 16711746
-1.2897587 -1.2544200 3.2521644 16711746
0.3962251 -0.2688839 1.1852257 16711746
0.7254308 -0.8147588 2.2542808 16711746
1.3055654 -1.1150802 2.2982764 16711746
-0.0394980 0.0750211 1.2427479 16711746
0.8218035 -0.8907019 2.6427128 16711746
0.5104913 0.0719074 1.3094071 16711746
0.4907838 -0.3225426 4.1248083 16711746
1.7453675 -1.4953146 3.6317887 16711746
