# .PCD v.7 - Point Cloud Data file format
VERSION .7
FIELDS x y z rgb
SIZE 4 4 4 4
TYPE F F F F
COUNT 1 1 1 1
WIDTH 1195
HEIGHT 1
VIEWPOINT 0 0 0 1 0 0 0
POINTS 1195
DATA ascii
0.8270576 -0.4550933 3.8174860 16711746
1.1762403 -0.6097277 3.7127843 16711746
1.1180245 -0.4347901 3.7298701 16711746
0.8705258 -0.4338310 3.7529547 16711746
1.3312556 -0.4513250 3.8454058 16711746
1.1374333 -0.4387841 3.7661455 16711746
1.1189597 -0.4467755 3.7774651 16711746
1.0533814 -0.4420501 3.7436810 16711746
1.0987619 -0.4464599 3.7978516 16711746
0.9256415 -0.4449332 3.7795937 16711746
1.3210945 -0.4352268 3.7564864 16711746
0.8528374 -0.4596748 3.7359762 16711746
0.7427498 -0.6907889 3.8901806 16711746
1.1129384 -0.4207418 3.8259692 16711746
1.0381761 -0.4534707 3.8479884 16711746
1.0511374 -0.4767549 3.7043097 16711746
0.9891743 -0.4397189 3.7987938 16711746
1.2262197 -0.4335178 3.7366805 16711746
1.0390205 -0.4915377 3.7037990 16711746
1.0429060 -0.4914061 3.6913280 16711746
1.2423289 -0.4775846 3.7400682 16711746
1.0068333 -0.4567918 3.7849557 16711746
0.6258013 -0.4654606 3.9076116 16711746
0.8650619 -0.4576559 3.8384707 16711746
1.3356117 -0.4294389 3.7554963 16711746
1.1529766 -0.4385484 3.8704309 16711746
1.2189723 -0.4315574 3.7641482 16711746
1.4002165 -0.4805454 3.9915121 16711746
1.1489938 -0.4498799 3.9044344 16711746
1.1809999 -0.4607630 3.9061732 16711746
1.3478345 -0.4991646 3.9602482 16711746
1.2431685 -0.4511282 3.8660150 16711746
1.3437661 -0.4459133 3.9028194 16711746
1.0658919 -0.4493808 3.8317313 16711746
0.8444275 -0.4488930 3.7389212 16711746
1.1339294 -0.4387703 3.7626789 16711746
1.1201060 -0.4409802 3.7799642 16711746
1.1427515 -0.4528745 3.8180907 16711746
1.1520562 -0.4552771 3.8457565 16711746
1.1859037 -0.4318442 3.7898986 16711746
1.3763841 -0.5132241 3.9754469 16711746
1.1305835 -0.4320390 3.7445011 16711746
1.3196062 -0.4243858 3.7591100 16711746
1.2007740 -0.4462059 3.8942785 16711746
0.5552040 -0.4441734 3.9766915 16711746
1.2565966 -0.4478878 3.7358665 16711746
1.3241546 -0.5124025 3.8949645 16711746
1.1312985 -0.4520004 3.8333335 16711746
1.3369685 -0.4849884 3.8285563 16711746
0.7568035 -0.7402020 3.9813786 16711746
1.0644571 -0.4596430 3.7981062 16711746
1.0378139 -0.4442349 3.7746704 16711746
1.4335608 -0.4811337 3.8690255 16711746
1.0737783 -0.4564531 3.8566363 16711746
1.0369848 -0.4790188 4.0330653 16711746
1.1255670 -0.4368263 3.7773292 16711746
1.1998312 -0.6812384 3.8983819 16711746
1.2279209 -0.4398973 3.8183684 16711746
1.3622276 -0.5221153 3.9147246 16711746
1.0947146 -0.5298309 3.7342453 16711746
1.3738376 -0.4842263 4.2681360 16711746
1.0880425 -0.4417619 3.7999525 16711746
1.4255844 -0.5245574 4.2804389 16711746
1.1186236 -0.4372765 3.7611716 16711746
1.3388162 -0.8761565 4.3730025 16711746
0.9190230 -0.8617462 4.4409766 16711746
2.3053341 -0.9374053 4.5803313 16711746
1.3956439 -0.5061008 4.2872925 16711746
1.2655436 -0.4836399 4.0472121 16711746
1.0718319 -0.4531602 3.8132114 16711746
0.9264206 -0.8449420 4.3966498 16711746
1.0379336 -0.9230586 4.4287257 16711746
1.1410387 -0.4481741 3.8939571 16711746
1.1399215 -0.4363115 3.8103514 16711746
1.3263816 -0.8100450 4.3637786 16711746
1.1960382 -0.4672348 4.2161741 16711746
1.3724937 -0.4591833 3.9638097 16711746
1.4009533 -0.5076077 4.0852084 16711746
1.0688536 -0.5197051 3.8244302 16711746
2.1534498 -0.9100236 4.4907050 16711746
1.2910703 -0.5051084 3.9448922 16711746
0.9554857 -0.4431741 3.7579830 16711746
1.3367426 -0.4529127 3.8322260 16711746
2.2241132 -0.8640841 4.5748425 16711746
0.6058004 -0.4971510 4.0618653 16711746
1.2350663 -0.8161085 4.4173865 16711746
1.7607983 -0.7593883 3.8965693 16711746
1.6649982 -0.4473839 4.0695972 16711746
1.0738897 -0.4570169 3.8512917 16711746
1.0083688 -0.4613561 3.9380786 16711746
0.9761893 -0.4467856 3.7687666 16711746
1.1302439 -0.4321564 3.7592452 16711746
1.1255367 -0.4365253 3.7779942 16711746
1.1851851 -0.4320971 3.7879283 16711746
1.0169065 -0.4451692 3.6993999 16711746
1.1617892 -0.4296443 3.8038471 16711746
1.0654780 -0.4467351 3.7460105 16711746
1.0949476 -0.4346682 3.7596235 16711746
1.0597682 -0.4349012 3.7575831 16711746
0.8334079 -0.4594378 3.7767892 16711746
1.0980821 -0.4349331 3.7673600 16711746
0.9751408 -0.4466123 3.7693884 16711746
1.0398949 -0.4505884 3.8306594 16711746
1.1220133 -0.4340771 3.8034027 16711746
0.9578046 -0.4471261 3.6997991 16711746
1.1744804 -0.4369000 3.8003848 16711746
0.5728633 -0.7767518 3.9921796 16711746
1.0416209 -0.4520817 3.8220720 16711746
1.0081255 -0.5055039 3.9664760 16711746
0.9041739 -0.4392796 3.7613523 16711746
0.9114769 -0.4435399 3.7779548 16711746
1.0791955 -0.4444532 3.7711182 16711746
1.0568130 -0.4404365 3.7530949 16711746
0.8658230 -0.4563623 3.7673767 16711746
1.0768851 -0.4393976 3.7447383 16711746
1.0596664 -0.4346035 3.7588625 16711746
1.2650667 -0.4376948 3.8489573 16711746
1.3079591 -0.4254823 3.7426624 16711746
1.0824683 -0.4579953 3.7737980 16711746
0.9347276 -0.4320277 3.7938180 16711746
0.8884548 -0.4434952 3.7285147 16711746
0.8305416 -0.4959657 3.8684776 16711746
1.1474646 -0.5718733 3.6948011 16711746
1.1656199 -0.4487996 3.8278296 16711746
1.2131613 -0.4465070 3.8386588 16711746
0.5780588 -0.5077339 4.3279243 16711746
1.1325994 -0.4544139 3.8595400 16711746
1.1714786 -0.4397839 3.7910471 16711746
1.1769581 -0.4444079 3.7910497 16711746
1.0939523 -0.4577681 3.8230746 16711746
1.1034815 -0.4446037 3.7841322 16711746
1.1046722 -0.4567920 3.8727133 16711746
1.0304866 -0.4638026 4.0308895 16711746
1.5392808 -0.4222694 3.9836638 16711746
1.3718952 -0.4382150 3.9459102 16711746
1.3816103 -0.4208577 3.8545179 16711746
1.0303802 -0.4832286 4.0125189 16711746
1.0858685 -0.4403906 3.7740731 16711746
1.1269313 -0.4274416 3.8132296 16711746
1.2526028 -0.4375882 3.8217311 16711746
1.1472816 -0.4320196 3.8460913 16711746
1.2365360 -0.4436636 3.8360796 16711746
1.0421244 -0.4730964 3.9262619 16711746
1.4491249 -0.7564228 3.9996858 16711746
1.2253267 -0.4552053 3.9294038 16711746
0.6773903 -0.5078728 4.1786509 16711746
0.8124398 -0.4629312 3.7925928 16711746
0.4274017 -0.5892225 4.2763720 16711746
1.0276386 -0.5843573 4.1504636 16711746
1.2825881 -0.4375899 3.8644648 16711746
1.1345929 -0.4413193 3.8079817 16711746
1.1796314 -0.6366603 3.7600543 16711746
1.1756506 -0.4671185 3.9575014 16711746
1.2966502 -0.4169738 3.7566736 16711746
1.1377105 -0.4408875 3.7719200 16711746
1.1396894 -0.4373248 3.7675738 16711746
1.1379374 -0.4477809 3.9082334 16711746
1.2224026 -0.7353775 4.0250611 16711746
0.8666686 -0.4558422 3.7736411 16711746
1.1207387 -0.4482417 3.8221006 16711746
1.3276384 -0.4797640 4.0213637 16711746
1.5720445 -0.8405758 4.1457734 16711746
1.3720980 -0.4371772 3.8484628 16711746
1.3724774 -0.4375180 3.8486936 16711746
1.1516516 -0.4374651 3.7983298 16711746
0.9100270 -0.5452824 4.1348033 16711746
1.2725654 -0.4831420 4.0615087 16711746
0.7227846 -0.5025681 3.8389568 16711746
1.1211684 -0.4709976 4.0335498 16711746
1.4860529 -0.9159392 4.3575702 16711746
1.4732405 -0.4320906 3.9247606 16711746
1.3348517 -0.4869888 4.1660495 16711746
1.1715541 -0.4761394 4.0490327 16711746
0.1904310 -0.9248027 4.1703973 16711746
1.0834063 -0.5178080 4.0480680 16711746
1.6560597 -0.9857466 4.6257172 16711746
1.7441216 -0.9294043 4.7683816 16711746
1.2914674 -0.4911455 4.0786967 16711746
1.1402274 -0.5499386 3.6980231 16711746
1.3941883 -0.4989097 4.2886710 16711746
1.1281919 -0.4431969 3.8386476 16711746
1.1710565 -0.5220605 4.2246995 16711746
1.3694743 -0.4589389 3.9593906 16711746
0.9250908 -0.5254546 4.2689404 16711746
2.3170137 -0.9163079 4.5841217 16711746
1.1479272 -0.5469683 3.9883177 16711746
2.3675601 -0.9248036 5.7305918 16711746
1.6028063 -0.6415983 4.8087392 16711746
1.5691845 -0.4351533 3.8893297 16711746
0.9977385 -0.4760660 4.0154042 16711746
1.1959953 -0.5928962 3.9520049 16711746
0.4228914 -1.1876154 4.6086707 16711746
1.3303111 -0.7560862 4.4446602 16711746
2.2214506 -0.9460131 4.4679294 16711746
1.2823552 -0.4315973 3.8302491 16711746
1.1835054 -0.4424703 3.8357160 16711746
0.7065332 -0.5174249 4.0040579 16711746
0.9964225 -0.4705186 3.9603064 16711746
1.2140784 -0.4348894 3.8344476 16711746
1.2082613 -0.4453552 3.8307452 16711746
0.7384739 -0.4840659 3.9656868 16711746
0.6916587 -0.4930677 3.8829343 16711746
1.0543315 -0.4434335 3.7419639 16711746
1.1796733 -0.4446118 3.8902059 16711746
1.1531649 -0.4346602 3.8118465 16711746
1.1564491 -0.4294229 3.7847562 16711746
1.0794801 -0.4410356 3.7771609 16711746
1.3016599 -0.4304710 3.8986909 16711746
0.9614673 -0.4468541 3.7414143 16711746
1.1268148 -0.4493471 3.7964449 16711746
1.1467030 -0.4407375 3.8556275 16711746
1.0048928 -0.4559073 3.8749037 16711746
1.2963829 -0.4079875 3.7898819 16711746
1.1144044 -0.4706711 3.9449518 16711746
0.8597870 -0.4733858 3.8426499 16711746
0.9946614 -0.4697798 3.9662492 16711746
0.8734182 -0.4753719 3.8503718 16711746
1.0013695 -0.4715485 3.9458790 16711746
1.4190280 -0.4381622 3.8544240 16711746
1.2091581 -0.4383032 3.8218677 16711746
1.2201928 -0.4415870 3.8437221 16711746
0.9518824 -0.4482322 3.7605054 16711746
0.8579507 -0.4732406 3.8773177 16711746
1.1007527 -0.4504907 3.8435469 16711746
1.1163793 -0.4527215 3.8792064 16711746
1.3437490 -0.4282872 3.8143878 16711746
1.0471004 -0.4508532 3.8128088 16711746
0.8796543 -0.4491599 3.7720385 16711746
1.0537056 -0.4425838 3.7747464 16711746
1.3302977 -0.4177911 3.8329382 16711746
1.3412478 -0.4192385 3.8365648 16711746
1.0518091 -0.4794295 3.9869022 16711746
0.7861513 -0.5092811 4.0182872 16711746
1.0504143 -0.4451295 3.8331866 16711746
1.1453396 -0.4429838 3.8457193 16711746
1.0258590 -0.4506854 3.8474820 16711746
1.0282837 -0.4631080 3.8214467 16711746
1.0106994 -0.4633291 3.9288824 16711746
0.6646460 -0.4921087 3.9047053 16711746
1.1146768 -0.4584068 3.8492260 16711746
1.1970448 -0.4406085 3.8408799 16711746
1.0350682 -0.4520828 3.7938864 16711746
1.1709739 -0.4523462 3.8536308 16711746
0.9632860 -0.4375489 3.7865570 16711746
1.3051937 -0.4441049 3.8746333 16711746
1.0396105 -0.4551819 3.8366537 16711746
1.0269336 -0.4709345 3.9123533 16711746
0.8716425 -0.4577810 3.8371038 16711746
0.7666355 -0.5291279 4.0530581 16711746
0.9142101 -0.4503070 3.8040111 16711746
1.2949730 -0.4067492 3.7922924 16711746
1.2062744 -0.4434485 3.8749640 16711746
1.0686979 -0.5117722 3.9649510 16711746
0.8581898 -0.4633008 3.8393853 16711746
1.0702047 -0.4632950 3.8618217 16711746
1.0005788 -0.4445722 3.7342947 16711746
1.0527875 -0.4734700 3.6853354 16711746
1.1396900 -0.4347544 3.8549864 16711746
0.9007610 -0.4344775 3.8058033 16711746
0.8890975 -0.5024992 3.8033447 16711746
0.8343755 -0.4692674 3.8152499 16711746
1.0555832 -0.4820580 3.8636472 16711746
1.2755201 -0.4758711 3.7830479 16711746
0.7344573 -0.5301772 3.9089983 16711746
0.6980309 -0.5046111 3.8887258 16711746
1.1382381 -0.4454939 3.8393283 16711746
1.0098053 -0.4546445 3.9812222 16711746
1.1050512 -0.4482967 3.8296659 16711746
1.1042410 -0.4409423 3.7901735 16711746
1.2277999 -0.4390451 3.8201597 16711746
1.1352910 -0.4419355 3.7766943 16711746
0.9059818 -0.4712672 3.6923344 16711746
1.0539448 -0.4861905 3.8974609 16711746
1.0237844 -0.4864957 4.2365174 16711746
0.9573362 -0.5286989 4.3487310 16711746
0.8314988 -0.4806355 3.8676727 16711746
1.0058637 -0.4943863 4.2345290 16711746
1.1919162 -0.4516954 3.8605680 16711746
1.1654595 -0.4362944 3.8216465 16711746
1.1061707 -0.4425313 3.7850120 16711746
0.9776219 -0.6031944 4.2908196 16711746
0.9705552 -0.5022637 4.1100292 16711746
1.3329904 -0.4486541 3.9893413 16711746
1.2172774 -0.4470809 3.8609228 16711746
0.9635317 -0.5624321 4.3970366 16711746
1.3010968 -0.4312337 3.8528953 16711746
1.1069329 -0.4458707 3.8207338 16711746
0.8845955 -0.4419624 3.7603352 16711746
1.8084066 -0.8934495 4.2814193 16711746
1.2227153 -0.4744086 3.9703724 16711746
1.1153032 -0.4537558 3.8716209 16711746
1.1873308 -0.4509911 3.9411387 16711746
0.5874488 -0.5267419 4.0860772 16711746
1.1734715 -0.4986508 3.9743478 16711746
0.8677619 -0.4753902 3.8426251 16711746
1.3261560 -0.4787374 4.0273976 16711746
0.8841107 -0.5093957 4.2286105 16711746
1.0507305 -0.4466387 3.8041644 16711746
0.9917477 -0.5205723 4.1164913 16711746
0.9660643 -0.4459131 3.7674277 16711746
1.1211574 -0.4404656 3.8025215 16711746
1.1067272 -0.8524207 4.1979709 16711746
0.8450697 -0.4563819 3.7738931 16711746
1.1729112 -0.7997822 4.2164898 16711746
1.0756142 -0.4512241 3.8088346 16711746
1.2199676 -0.4737639 4.1839666 16711746
1.2493216 -0.7767815 4.1600552 16711746
1.2994100 -0.4988065 4.1161237 16711746
1.1099006 -0.4372491 3.7987645 16711746
1.0957719 -0.5285102 3.8580067 16711746
1.1476399 -0.4406815 3.7880347 16711746
1.2864616 -0.4837132 3.8165183 16711746
1.3979170 -0.8969577 4.4781570 16711746
0.9992128 -0.4594388 3.8557987 16711746
1.4761004 -0.8580611 4.3086901 16711746
1.1552236 -0.4740512 4.0317612 16711746
1.2723142 -0.5167273 4.1443930 16711746
1.3976692 -0.8201916 4.4779463 16711746
1.2084526 -0.5171906 4.3048878 16711746
2.1052032 -0.8948238 5.1613812 16711746
0.6075953 -0.5782275 6.1335397 16711746
2.1485419 -0.9676013 5.0954652 16711746
1.2623965 -0.4966777 4.1189795 16711746
1.1520134 -1.0134572 4.4251800 16711746
1.1891143 -0.9498875 4.4641142 16711746
1.2031871 -0.5444183 3.9470489 16711746
1.0052718 -0.4704203 4.0625191 16711746
1.3634229 -0.5665579 4.2313032 16711746
1.0450455 -0.5070683 3.8456991 16711746
2.0923042 -0.8639048 5.5847840 16711746
1.2618098 -0.4334616 3.8355970 16711746
1.0448214 -0.4547429 3.8111417 16711746
1.0366348 -0.4528560 3.7935550 16711746
1.4778202 -0.4253303 3.8777235 16711746
1.2228119 -0.4368766 3.7912235 16711746
1.3024614 -0.4460048 3.8699205 16711746
1.1196214 -0.4442688 3.7737162 16711746
1.2347555 -0.4288886 3.8151693 16711746
1.3790767 -0.4386787 3.8839891 16711746
1.2631848 -0.4588863 3.7498419 16711746
1.0724279 -0.4567308 3.7647507 16711746
0.9751365 -0.4529156 3.7280314 16711746
1.0854452 -0.4534455 3.8178544 16711746
1.2074617 -0.4284700 3.7964995 16711746
0.9875215 -0.4428706 3.7343569 16711746
1.3641574 -0.4411574 3.8272026 16711746
1.0834360 -0.4588690 3.7704592 16711746
1.0150918 -0.4577085 3.8049486 16711746
1.0222492 -0.4619368 3.8283589 16711746
0.8749864 -0.4500428 3.7924197 16711746
1.1308618 -0.4717598 3.7373908 16711746
1.0392977 -0.4474497 3.7705934 16711746
1.0396680 -0.4563870 3.7820060 16711746
1.3343449 -0.4341746 3.8260841 16711746
1.1817576 -0.4461024 3.7941382 16711746
1.0730673 -0.5007516 3.6618962 16711746
1.3144274 -0.4392903 3.8059671 16711746
1.0806010 -0.5034412 3.6708605 16711746
1.0531569 -0.4794482 3.9894609 16711746
1.1335224 -0.4602728 3.9174321 16711746
1.0005544 -0.4673980 3.9185085 16711746
1.1751808 -0.4365817 3.8024263 16711746
0.9632710 -0.5029344 4.1747928 16711746
1.0500823 -0.4780885 4.0065894 16711746
1.1762333 -0.4461119 3.8564348 16711746
1.6958210 -0.6935000 4.0582466 16711746
1.3273958 -0.4325497 3.8708811 16711746
1.2462618 -0.4377320 3.8719585 16711746
1.2004403 -0.4577568 3.9075139 16711746
1.1799386 -0.4402851 3.7874067 16711746
1.4227241 -0.4983721 4.0116057 16711746
1.1812062 -0.4395713 3.7911894 16711746
0.9692180 -0.4497160 3.7338660 16711746
1.1012212 -0.4575168 3.8075337 16711746
1.7774922 -0.7827480 4.1535072 16711746
1.1515845 -0.4662520 4.0670600 16711746
0.6490294 -0.4963032 4.0157490 16711746
1.1431656 -0.7054682 3.9658980 16711746
1.7137543 -0.7465282 4.1435590 16711746
1.3117361 -0.4876970 3.8612647 16711746
1.2351843 -0.4696407 4.0146775 16711746
1.1328725 -0.4379417 3.7956309 16711746
0.6747407 -0.5024071 3.8960488 16711746
0.8520641 -0.5786895 4.5438104 16711746
1.2148131 -0.4443685 3.8335998 16711746
0.4975356 -0.4921254 4.1743622 16711746
1.1900386 -0.4533210 3.8550251 16711746
1.1463103 -0.4438116 3.8383803 16711746
0.8957542 -0.5653558 4.0965796 16711746
1.1760991 -0.4333748 3.8602862 16711746
1.3425825 -0.4411722 3.8675292 16711746
1.4064398 -0.6691285 4.1641345 16711746
1.2910913 -0.7488918 4.1211834 16711746
1.9417007 -0.7661871 4.2664766 16711746
1.3313763 -0.4379266 3.8621471 16711746
1.1364515 -0.4408843 3.8106449 16711746
1.1609327 -0.4652365 4.0021114 16711746
1.4366133 -0.9285748 4.4354720 16711746
1.3905917 -0.7968187 4.2654991 16711746
1.2002859 -0.8336380 4.3286862 16711746
1.1459656 -0.5249887 3.7282777 16711746
1.1699359 -0.4635912 3.9227812 16711746
1.1388187 -0.5743428 3.8672097 16711746
1.2032380 -0.4701699 3.9145219 16711746
2.0828364 -0.8827288 4.4927077 16711746
1.3191370 -0.7310086 4.3670969 16711746
1.9996123 -0.8796200 5.0462780 16711746
1.4359699 -0.8643043 4.2477436 16711746
1.2690082 -0.5082720 4.2173133 16711746
2.2492054 -0.9973696 5.4785233 16711746
1.7030007 -0.8028467 4.3972936 16711746
0.9951938 -0.4705803 3.9608867 16711746
1.2150490 -0.4601361 3.9872715 16711746
1.6134909 -0.5814653 4.8978844 16711746
1.0181139 -0.4547718 3.8329706 16711746
1.6564094 -0.5761341 4.9141812 16711746
1.0549495 -0.4505836 3.8010159 16711746
1.0945704 -0.4396459 3.7890131 16711746
1.3379521 -0.4474726 3.8141854 16711746
1.2985318 -0.4467691 3.8637700 16711746
1.0844131 -0.4504084 3.8277256 16711746
1.3043469 -0.4341300 3.7965455 16711746
1.1078485 -0.4452521 3.8217332 16711746
0.9531548 -0.4665011 3.9116924 16711746
1.1751058 -0.4415172 3.8449767 16711746
1.1791372 -0.4500931 3.8172226 16711746
1.3046682 -0.4356896 3.7708936 16711746
1.0859140 -0.4556513 3.8111658 16711746
1.1948118 -0.4395432 3.8259141 16711746
1.0267590 -0.4686419 3.8106618 16711746
0.9884470 -0.4634219 3.8590736 16711746
1.1198709 -0.4437899 3.8211582 16711746
1.2346009 -0.4422861 3.8158464 16711746
1.2557913 -0.4494562 3.7707107 16711746
1.1855682 -0.4558753 3.7985370 16711746
1.1855714 -0.4311746 3.7887242 16711746
1.2562028 -0.4504062 3.8244991 16711746
1.1400450 -0.4365154 3.7877383 16711746
1.2281349 -0.4375899 3.8727274 16711746
1.0352477 -0.4502189 3.8265440 16711746
1.0928419 -0.4560511 3.7832282 16711746
1.2526011 -0.4198904 3.7646928 16711746
1.2277302 -0.4373772 3.8209050 16711746
1.3999757 -0.4428019 3.8400855 16711746
1.0064001 -0.4495469 3.8075621 16711746
1.2815272 -0.4345754 3.8299375 16711746
1.2292172 -0.4565193 3.7964537 16711746
1.2645988 -0.4342929 3.7328136 16711746
1.0556191 -0.4734963 3.8269379 16711746
1.2218369 -0.4300900 3.8484631 16711746
1.3754615 -0.4397078 3.9080343 16711746
1.0636576 -0.4934161 3.8121388 16711746
1.0747303 -0.4631304 3.7939200 16711746
0.9123561 -0.4622187 3.7537844 16711746
1.2844537 -0.4324568 3.8349657 16711746
1.0505209 -0.4581856 3.7943401 16711746
1.1722416 -0.6026683 3.7917426 16711746
1.3179643 -0.5054432 3.8656085 16711746
1.0283616 -0.4763504 3.8498659 16711746
1.2751288 -0.4741076 3.8675742 16711746
0.8799972 -0.4489212 3.8113244 16711746
1.4697311 -0.4462596 3.8983819 16711746
1.3334147 -0.4344032 3.8302121 16711746
1.2964439 -0.4481238 3.8579266 16711746
1.0461352 -0.4466416 3.7805436 16711746
1.6157877 -0.4764071 3.9889407 16711746
1.1183254 -0.4493716 3.8784003 16711746
1.0511018 -0.4602648 3.8422306 16711746
1.2455374 -0.4362248 3.8357112 16711746
1.0819582 -0.4512946 3.7860544 16711746
1.0440425 -0.4823634 3.9142079 16711746
1.1284050 -0.4411416 3.8236244 16711746
1.4586308 -0.4387974 3.9070823 16711746
1.3197953 -0.4673266 3.9790053 16711746
1.2981215 -0.4330285 3.7915912 16711746
1.2726927 -0.4252036 3.7630272 16711746
1.0052142 -0.4619325 3.9575076 16711746
1.0136224 -0.4816165 3.9634311 16711746
1.3827091 -0.5672129 3.9595644 16711746
1.2953831 -0.4339443 3.7885795 16711746
1.3126575 -0.4427887 3.8019543 16711746
1.0310620 -0.4540230 3.8408897 16711746
1.1585441 -0.4754077 4.0170541 16711746
1.9507804 -0.7717425 4.2638035 16711746
1.2356393 -0.4381552 3.8085361 16711746
0.9997649 -0.4724448 3.9484460 16711746
1.3515807 -0.4917029 3.9465833 16711746
1.2207947 -0.4676244 3.9129405 16711746
1.3283942 -0.4365610 3.9098108 16711746
1.0074657 -0.4683922 3.9843316 16711746
1.0600253 -0.4569400 3.7880361 16711746
1.2557191 -0.7139594 3.9650898 16711746
1.0278864 -0.4626355 3.8264053 16711746
1.2234772 -0.4508580 3.8561389 16711746
1.2359288 -0.4312356 3.8547180 16711746
1.3597783 -0.4412559 3.8968852 16711746
1.4017338 -0.4828945 4.0334382 16711746
1.1331246 -0.4506984 3.8397741 16711746
1.1032991 -0.4455122 3.7826605 16711746
1.3752060 -0.4827776 3.9573958 16711746
1.0149242 -0.4576469 3.8497598 16711746
1.1165951 -0.4631042 4.0274301 16711746
0.7814929 -0.5447059 4.2244725 16711746
1.3693565 -0.4583369 3.9574561 16711746
1.3402183 -0.4564086 4.0724392 16711746
1.1923774 -0.4562140 3.9277558 16711746
1.0206292 -0.4691686 3.9525139 16711746
1.2342689 -0.4684085 3.9511287 16711746
1.1649660 -0.4482128 3.8758607 16711746
1.2365026 -0.4594490 3.8666539 16711746
1.2336464 -0.4895584 4.0358720 16711746
0.8925839 -1.0089976 4.6499043 16711746
1.7829630 -0.8894649 4.4601526 16711746
1.3459802 -0.4781339 3.9825349 16711746
2.0563414 -0.7992275 4.2284455 16711746
1.2690972 -0.4341308 3.8350358 16711746
1.2716774 -0.8058767 4.1823535 16711746
1.0912834 -0.9667248 4.3892183 16711746
1.2374789 -0.8450639 4.2825069 16711746
1.2897629 -0.4265225 3.8345947 16711746
1.2048020 -0.6694678 3.9466538 16711746
2.3003850 -0.8652908 4.3801847 16711746
1.1952448 -0.5414831 3.9134672 16711746
1.5253054 -1.0477021 4.8059645 16711746
0.9689453 -0.4553833 3.8404179 16711746
2.0836699 -1.3171402 5.0872016 16711746
2.2240770 -0.9350514 4.6295438 16711746
1.5069174 -0.8865535 4.6613655 16711746
1.2923679 -0.4344221 3.8271329 16711746
1.1816317 -0.5882511 3.8664207 16711746
0.9207312 -0.5259011 4.2978024 16711746
0.9396330 -0.5129443 4.2121139 16711746
1.5993625 -0.8477413 4.9449224 16711746
1.3610399 -0.7635864 4.3973293 16711746
1.5118101 -0.8812246 4.9482870 16711746
0.9672865 -0.5113855 4.2066641 16711746
1.3394682 -0.9232199 4.5619683 16711746
1.5447934 -0.5980791 4.8027697 16711746
2.2639003 -0.9566543 5.6295943 16711746
0.7630193 -0.5493217 4.3247561 16711746
0.9305169 -0.4918335 3.8982179 16711746
1.2455041 -0.4510879 3.8307865 16711746
1.2739272 -0.4196702 3.7633946 16711746
1.3544199 -0.4701691 3.8449042 16711746
1.1719617 -0.4506689 3.7802372 16711746
1.0591905 -0.4579507 3.8168523 16711746
1.0429302 -0.4495983 3.7801974 16711746
1.1167933 -0.4621671 3.8254457 16711746
1.3500948 -0.4381641 3.8373156 16711746
1.0950066 -0.4500543 3.7867885 16711746
1.0336691 -0.4571493 3.8204374 16711746
1.1290964 -0.4392552 3.8092389 16711746
1.0209841 -0.4633780 3.8559191 16711746
1.0135572 -0.4491487 3.7802188 16711746
1.1538745 -0.4337046 3.8503647 16711746
1.3504105 -0.4470282 3.8550603 16711746
0.9984069 -0.4526377 3.7958956 16711746
1.0484208 -0.4497304 3.7733936 16711746
0.9955627 -0.4671046 3.8148038 16711746
1.2906231 -0.4619673 3.7701080 16711746
1.0161589 -0.4579363 3.8045213 16711746
1.1506248 -0.4417250 3.8148401 16711746
1.0140792 -0.4764726 3.9082909 16711746
1.0596093 -0.4646360 3.8342175 16711746
1.0392528 -0.4578428 3.8816512 16711746
1.1986500 -0.4520952 3.8090668 16711746
1.0148956 -0.4644456 3.9065602 16711746
0.8655214 -0.4857378 3.9665699 16711746
0.9479780 -0.4575668 3.8537750 16711746
1.1689444 -0.4456539 3.8227060 16711746
0.9981596 -0.4553186 3.7923021 16711746
1.2724857 -0.4206041 3.7618954 16711746
1.5535057 -0.4726744 3.9607289 16711746
0.9590241 -0.5040300 4.1200261 16711746
0.9131390 -0.4899686 3.9272027 16711746
1.0652153 -0.4874573 3.8317575 16711746
1.2750865 -0.4284223 3.8197427 16711746
1.0510725 -0.4613284 3.7898891 16711746
1.0218424 -0.4452483 3.8369825 16711746
1.2654616 -0.4547585 3.7414269 16711746
0.9985169 -0.4536663 3.8152032 16711746
1.0030466 -0.4479408 3.8116837 16711746
1.0987514 -0.4461475 3.8011756 16711746
1.3843781 -0.4597555 3.8217940 16711746
1.1341708 -0.4417261 3.8456364 16711746
1.0967876 -0.4672178 3.7939215 16711746
1.2249892 -0.4640002 3.8012397 16711746
1.1490341 -0.4423273 3.8260405 16711746
1.0180337 -0.4579775 3.7820723 16711746
1.0370853 -0.4641216 3.7879586 16711746
1.2677979 -0.4546938 3.7961206 16711746
1.2231640 -0.4466534 3.8258934 16711746
1.2311171 -0.4590425 3.8238242 16711746
1.0730599 -0.4951719 3.8365252 16711746
1.0822049 -0.5023654 3.7618616 16711746
1.0138348 -0.4779848 3.9055622 16711746
1.2605536 -0.6174664 3.7896554 16711746
1.0960652 -0.4543284 3.8392396 16711746
1.3369843 -0.4668099 3.8207729 16711746
1.0448594 -0.4739134 3.9257336 16711746
1.2277158 -0.4710832 3.9407780 16711746
0.8995557 -0.5326738 4.1389613 16711746
1.1876212 -0.4593725 3.9351468 16711746
1.1433382 -0.4564680 3.8799050 16711746
0.8361956 -0.5370697 4.2448750 16711746
1.0687331 -0.4534621 3.8337932 16711746
0.8974682 -0.5330912 4.1443858 16711746
0.9753882 -0.5446494 4.0838370 16711746
1.3149558 -0.4411090 3.8025908 16711746
1.2721045 -0.4300391 3.8046477 16711746
1.1331098 -0.4570360 3.8546920 16711746
1.1443195 -0.4544229 3.8907714 16711746
1.0259951 -0.4797694 3.7790687 16711746
1.2074933 -0.4430223 3.8261743 16711746
1.0409250 -0.4541033 3.8348417 16711746
1.0624446 -0.4517584 3.8219910 16711746
0.9046927 -0.5337163 4.1272993 16711746
1.1104232 -0.4478109 3.8367696 16711746
1.1985883 -0.4646078 3.9071782 16711746
1.2345593 -0.4633006 3.9588494 16711746
1.3234087 -0.4385106 3.8116343 16711746
1.3780158 -0.4948018 4.0566816 16711746
1.0461416 -0.4664662 3.8744011 16711746
0.9177373 -0.5314210 4.0890250 16711746
1.0295657 -0.4588467 3.8368521 16711746
0.9563160 -0.4875528 3.9495101 16711746
1.4578727 -0.4686189 4.0172133 16711746
1.2590165 -0.4422992 3.8472655 16711746
1.2010250 -0.4722704 3.8507149 16711746
0.9747242 -0.4574393 3.9489534 16711746
0.9467568 -0.4935340 4.0336018 16711746
1.2311288 -0.4447240 3.8123791 16711746
1.2151814 -0.6607268 3.9292393 16711746
0.9561603 -0.5613643 4.1276803 16711746
0.9764581 -0.4622124 3.9371040 16711746
1.3330135 -0.4498525 3.8112307 16711746
0.9765760 -0.5874292 4.0718479 16711746
1.2043319 -0.4655909 3.8951004 16711746
0.9983351 -0.4663315 3.9121010 16711746
1.2875677 -0.4458877 3.8547730 16711746
1.1594718 -0.4665795 3.9784918 16711746
1.1462895 -0.4514818 3.8305087 16711746
1.4461440 -0.5167586 4.2006116 16711746
1.2284020 -0.4329931 3.8004239 16711746
1.4033763 -0.4970458 4.1497455 16711746
1.1822425 -0.4736211 3.9532661 16711746
1.3862154 -0.4501648 3.9791307 16711746
1.2864084 -0.4614383 3.9546010 16711746
1.2077677 -0.4568239 3.9141181 16711746
1.3160863 -0.4863322 4.0647249 16711746
0.8005745 -0.4880973 4.0103936 16711746
1.3098150 -0.4385685 3.8463709 16711746
0.9926518 -0.4666092 3.8835895 16711746
1.1506093 -0.4434816 3.8091016 16711746
1.4284738 -0.4804522 3.9260716 16711746
0.8503742 -0.5596865 4.3252892 16711746
1.0223050 -0.4688358 3.9086599 16711746
1.1584501 -0.4462970 3.8218391 16711746
1.1059197 -0.4470909 3.8342116 16711746
1.0205402 -0.4682114 3.9152789 16711746
1.0995327 -0.5168794 3.7197373 16711746
1.3753648 -0.4846291 4.0420403 16711746
1.2932007 -0.4492752 3.8602190 16711746
1.2377093 -0.8442281 4.2849255 16711746
0.9870104 -0.5187845 4.1879854 16711746
1.2371751 -0.4882480 4.0520263 16711746
1.2643642 -0.8454289 4.2895393 16711746
1.2373765 -0.4418352 3.8521738 16711746
0.9932198 -0.5182613 4.1512332 16711746
1.1640760 -0.4707189 4.0731888 16711746
1.1600165 -0.4648258 3.9722242 16711746
1.3674529 -0.5647133 3.9385452 16711746
0.9565406 -0.6037647 4.1676898 16711746
1.0170320 -0.4585155 3.8663075 16711746
1.3434994 -0.4482324 3.8490376 16711746
1.5323658 -1.0582436 4.6423817 16711746
1.3260667 -0.9211615 4.3343182 16711746
1.2982132 -0.4932155 4.1252632 16711746
1.0322204 -0.4549767 3.8376427 16711746
1.4003545 -0.7412927 4.3135266 16711746
1.8112509 -0.6883767 4.0165462 16711746
1.1641239 -0.4492674 3.8675723 16711746
1.4703741 -0.8496135 4.3018970 16711746
1.0793118 -0.5615443 4.2031670 16711746
1.2265632 -0.8152483 4.2247615 16711746
1.1806841 -0.9883252 4.4447665 16711746
1.6129045 -0.7026051 4.3625169 16711746
1.1721786 -0.5042822 4.2221041 16711746
1.3581063 -0.4405235 3.8308740 16711746
1.5790750 -0.9830023 4.6469789 16711746
1.1894406 -0.6475132 3.8842418 16711746
0.7534591 -0.4676127 3.8458066 16711746
0.9917032 -0.4638775 3.8941112 16711746
1.6512212 -0.4799255 4.0464315 16711746
0.9795811 -0.4642295 3.9236894 16711746
1.8038809 -0.7500402 4.8173146 16711746
0.4676637 -1.0101608 4.7012849 16711746
1.1611199 -0.4727026 4.0572333 16711746
2.3381765 -0.9879549 5.7957091 16711746
1.2277735 -0.6159999 4.0824418 16711746
1.0133803 -0.4545690 3.7683804 16711746
1.0372136 -0.4584312 3.8770080 16711746
1.0218982 -0.4745842 3.8731270 16711746
1.3396708 -0.4545896 3.8234067 16711746
1.2539036 -0.4467402 3.7966340 16711746
0.9405698 -0.4736518 3.8763404 16711746
1.0806099 -0.5005872 3.7925851 16711746
0.8752108 -0.4875674 3.9217217 16711746
1.0109117 -0.4557507 3.8212209 16711746
1.3222409 -0.4381724 3.8194473 16711746
1.1724364 -0.4425209 3.8168499 16711746
1.1308841 -0.4470013 3.8196487 16711746
0.9370897 -0.4723083 3.8799949 16711746
1.1641939 -0.4567508 3.8576927 16711746
0.8479797 -0.5365440 4.1600003 16711746
1.0672596 -0.4514556 3.8397462 16711746
1.0588405 -0.4568185 3.8207326 16711746
1.0312058 -0.4617438 3.8336921 16711746
1.2940562 -0.4443882 3.8275900 16711746
1.1173205 -0.4489577 3.8085465 16711746
1.1318427 -0.4502292 3.8167415 16711746
1.1533998 -0.4496429 3.8240790 16711746
1.1427944 -0.4416828 3.8343825 16711746
1.1601441 -0.4444275 3.8020370 16711746
0.9161760 -0.4876533 3.9823928 16711746
1.0985276 -0.4568388 3.8307700 16711746
1.3074385 -0.4564083 3.8568854 16711746
1.0019289 -0.4547096 3.8228271 16711746
1.0698049 -0.4548707 3.7934327 16711746
1.0643700 -0.4530851 3.8168123 16711746
0.9880722 -0.4637308 3.8544271 16711746
1.1042367 -0.4498980 3.8237979 16711746
1.1339023 -0.4440879 3.8355091 16711746
1.1465788 -0.4502233 3.7924268 16711746
0.9457604 -0.4755152 3.8678496 16711746
0.8950760 -0.4891177 3.9618628 16711746
1.0427816 -0.4820323 3.7970972 16711746
1.1102780 -0.4581606 3.8035688 16711746
0.9831273 -0.4590412 3.8330095 16711746
0.9259065 -0.4466269 3.8986433 16711746
1.2119533 -0.4549290 3.8184164 16711746
1.0885448 -0.5050393 3.7433226 16711746
0.9497917 -0.5267304 3.8855214 16711746
0.9667649 -0.4622099 3.8347328 16711746
1.1342026 -0.4761682 3.7740591 16711746
1.2553097 -0.4492495 3.8498013 16711746
1.0435662 -0.4751721 3.7474623 16711746
1.0580014 -0.4801687 3.8536563 16711746
0.9527133 -0.5259771 3.8471308 16711746
1.0678724 -0.5090394 3.8572638 16711746
0.8851104 -0.4882311 3.9771807 16711746
0.9254748 -0.6398860 3.9276078 16711746
1.0539895 -0.4755618 3.8753097 16711746
1.2106270 -0.4632849 3.8870816 16711746
1.0358564 -0.4511231 3.7988048 16711746
0.5274054 -0.5228437 4.0567198 16711746
1.2434751 -0.4571937 3.8780422 16711746
0.8417883 -0.5599949 4.2054186 16711746
0.9392402 -0.5897807 4.0982661 16711746
0.9481187 -0.4790838 4.0018301 16711746
0.9379405 -0.4919275 4.0411987 16711746
1.1516261 -0.4686925 3.8918490 16711746
1.3541452 -0.4465357 3.9239352 16711746
1.0108100 -0.4727394 3.9886708 16711746
1.1655542 -0.4548326 3.8659041 16711746
1.1196823 -0.4457737 3.7973263 16711746
0.8630266 -0.5120189 4.0911632 16711746
1.2883197 -0.4283239 3.8169961 16711746
1.2247158 -0.4508381 3.8392022 16711746
1.7188339 -0.6979222 4.0029850 16711746
1.5054681 -0.4740308 3.9097066 16711746
1.0329601 -0.4521638 3.7842150 16711746
1.1813720 -0.4456646 3.8390007 16711746
1.1023536 -0.4466011 3.7988236 16711746
1.1320850 -0.4486974 3.8231590 16711746
0.9735848 -0.4609680 3.9452662 16711746
1.1757522 -0.4540211 3.8889949 16711746
1.0639662 -0.4466919 3.8168528 16711746
1.2234749 -0.4514770 3.8367164 16711746
1.0438708 -0.4738673 3.8684504 16711746
1.3240215 -0.4458912 3.8334987 16711746
1.1193674 -0.4665125 3.9099612 16711746
0.9672199 -0.4558266 3.8618863 16711746
1.2632793 -0.4286099 3.7791159 16711746
1.1588943 -0.4735714 3.8514602 16711746
1.0551457 -0.4570228 3.8292055 16711746
1.0334214 -0.4658354 3.8822365 16711746
1.0566177 -0.4632213 3.8440390 16711746
0.7392370 -0.5440423 4.3004017 16711746
1.2486204 -0.4863071 3.9125030 16711746
1.0295609 -0.4526433 3.8332155 16711746
1.0054584 -0.4548306 3.8384376 16711746
1.5169573 -0.4631411 3.9390302 16711746
1.1889496 -0.4449104 3.8080671 16711746
1.2494867 -0.4708516 3.9873683 16711746
1.3225427 -0.4466577 3.8593903 16711746
0.8347511 -0.5378590 4.1840234 16711746
1.1738037 -0.4501831 3.8645005 16711746
1.1087189 -0.4525056 3.8322806 16711746
1.4211763 -0.4979943 4.1825576 16711746
0.9968392 -0.4628577 3.8318248 16711746
1.1739281 -0.7659464 4.1185193 16711746
0.9425473 -0.4480710 3.7908566 16711746
0.7805971 -0.5270475 3.9957633 16711746
1.0120751 -0.5230587 3.9288220 16711746
1.3423610 -0.4652825 4.0218163 16711746
1.2462238 -0.4998392 4.0522375 16711746
0.8534597 -0.4709358 3.8760653 16711746
1.1695241 -0.4514709 3.8694229 16711746
1.1840663 -0.4777758 4.0233378 16711746
0.9750925 -0.4537952 3.8093057 16711746
0.8388656 -0.4688429 3.8913946 16711746
1.3113416 -0.4325657 3.8092992 16711746
1.1714435 -0.4428428 3.8327022 16711746
1.2238066 -0.4919972 4.0032907 16711746
1.2168026 -0.4648456 4.0017567 16711746
0.7218164 -0.5109532 4.0705585 16711746
1.2762506 -0.5052405 4.0724840 16711746
1.3101116 -0.4631274 3.9554584 16711746
1.3118862 -0.4240462 3.7973425 16711746
1.4085808 -0.6421300 4.2121344 16711746
1.2772979 -0.4376354 3.8544374 16711746
1.2146094 -0.4908795 4.1811481 16711746
1.1596367 -0.4414141 3.8471699 16711746
1.4788661 -0.7384019 4.4407301 16711746
1.5371320 -1.0924704 4.8427024 16711746
1.3786888 -0.5308561 4.2848592 16711746
0.8497613 -0.5737481 4.1957421 16711746
1.2242566 -0.5053332 4.2652869 16711746
1.2682221 -0.5030655 4.2158270 16711746
1.3110129 -0.5092231 4.0818176 16711746
1.2758304 -0.7130096 4.0262337 16711746
1.3139936 -0.4482118 4.0759587 16711746
0.2751839 -1.0729462 5.2953706 16711746
1.3446946 -0.8739724 4.4044247 16711746
-0.3365159 -0.6609812 5.2007117 16711746
1.9899011 -0.8114048 4.9769039 16711746
1.4298017 -0.7439632 4.4604874 16711746
1.0692447 -0.4968762 4.1529994 16711746
1.5891604 -0.9502137 5.2114959 16711746
1.0749381 -0.5428635 4.0499372 16711746
1.4132893 -0.8164001 4.7704978 16711746
1.0223554 -0.4499370 3.7686589 16711746
1.2074486 -0.4512958 3.8249307 16711746
1.0965085 -0.4546130 3.7961223 16711746
1.1117533 -0.4465039 3.8314242 16711746
1.1304308 -0.4491123 3.8588457 16711746
1.0250601 -0.4607508 3.8295636 16711746
0.9763648 -0.4560032 3.7922144 16711746
0.8969938 -0.4801339 3.8458722 16711746
0.8835822 -0.4844480 3.8924923 16711746
0.8157836 -0.4935125 3.9288511 16711746
1.1551291 -0.4475381 3.8301775 16711746
1.1995288 -0.4485177 3.8692200 16711746
0.9996129 -0.4608173 3.7873425 16711746
1.1509746 -0.4406558 3.8164423 16711746
0.9141560 -0.4703719 3.8386481 16711746
0.9950340 -0.4609855 3.7614293 16711746
1.1337179 -0.4586381 3.8518267 16711746
0.9834215 -0.4781813 3.8953297 16711746
0.9797903 -0.4774398 3.9593689 16711746
0.8419929 -0.4906985 3.9597960 16711746
1.0817626 -0.4562722 3.7897418 16711746
0.9115316 -0.4696550 3.8415322 16711746
1.2608912 -0.4356925 3.8381326 16711746
0.9803267 -0.4867546 3.9304450 16711746
1.1469104 -0.4516481 3.8496964 16711746
1.1425161 -0.4582719 3.8726282 16711746
1.1011126 -0.4537491 3.8292015 16711746
1.1706192 -0.4508622 3.8719721 16711746
1.1150223 -0.4689234 3.9614778 16711746
1.1087512 -0.4503272 3.8379602 16711746
1.0469601 -0.4629888 3.8181872 16711746
1.2241371 -0.4596933 3.8728662 16711746
1.1545391 -0.4806279 3.9769804 16711746
1.0914165 -0.4580140 3.8317561 16711746
0.7562578 -0.4895625 3.9870069 16711746
1.0416759 -0.4560692 3.8083992 16711746
1.0156720 -0.4581186 3.8119490 16711746
1.0297145 -0.4654112 3.8361650 16711746
1.0561763 -0.4548515 3.8278115 16711746
0.7730298 -0.5004942 4.0281959 16711746
1.0998615 -0.4591615 3.8242536 16711746
1.1130111 -0.4534891 3.8138852 16711746
0.8528296 -0.4739877 3.9044344 16711746
0.8437604 -0.5314226 4.0102859 16711746
1.0906357 -0.5040756 3.7797935 16711746
0.7932822 -0.5070031 4.0041919 16711746
0.7548183 -0.5025210 3.9857280 16711746
1.2787317 -0.4628683 3.8198497 16711746
0.9373512 -0.4889357 3.9802847 16711746
1.0092340 -0.4627252 3.8828349 16711746
1.0651637 -0.4715310 3.8495419 16711746
1.0099132 -0.4563467 3.7852743 16711746
1.0138744 -0.4568779 3.8075132 16711746
0.9083882 -0.5344296 4.1248026 16711746
0.6908563 -0.5348784 4.1677847 16711746
1.2363764 -0.4528943 3.8292820 16711746
0.7711754 -0.5951943 4.3253946 16711746
1.2890158 -0.5093508 3.8364308 16711746
1.1229982 -0.5229666 3.9820805 16711746
1.0160173 -0.4623396 3.7752583 16711746
1.2370322 -0.5224771 3.8260643 16711746
1.1517061 -0.4791394 3.8225591 16711746
1.1511664 -0.5022291 4.0881138 16711746
1.2298586 -0.4746462 3.9810736 16711746
0.8956515 -0.4937686 3.9479566 16711746
1.0181706 -0.4815617 3.9857028 16711746
0.7193736 -0.5046108 3.9601791 16711746
1.1955272 -0.4703175 3.9673865 16711746
1.2234248 -0.4568152 3.8378484 16711746
1.4927455 -0.4597483 3.9072347 16711746
1.2955666 -0.4605493 3.9204273 16711746
1.3034834 -0.4701124 3.9315677 16711746
1.0556735 -0.4523784 3.7876678 16711746
1.0827885 -0.5053895 4.0600963 16711746
0.9989191 -0.4644623 3.8436508 16711746
0.6649793 -0.5324065 4.1614289 16711746
1.2320664 -0.4521793 3.8549643 16711746
0.9879333 -0.4632097 3.8100038 16711746
1.0548780 -0.4671962 3.8789940 16711746
0.9405504 -0.5028967 4.2058311 16711746
1.1844646 -0.4438932 3.8378801 16711746
1.0913641 -0.5091137 3.9178660 16711746
1.1118773 -0.4491128 3.8253098 16711746
1.0492200 -0.5106709 3.8817499 16711746
0.9572731 -0.4619668 3.8347642 16711746
1.1193452 -0.4616935 3.9400370 16711746
1.3111852 -0.4940639 3.8892231 16711746
0.7194586 -0.5177779 4.1081619 16711746
1.2380890 -0.4482006 3.8689713 16711746
0.9915106 -0.4568502 3.7968240 16711746
1.0584642 -0.4557870 3.7872767 16711746
0.9463080 -0.4582136 3.8483236 16711746
1.2231951 -0.4402179 3.8138068 16711746
0.7281634 -0.5052644 3.9518943 16711746
1.4491444 -0.8014950 4.1099796 16711746
1.0960431 -0.4947120 4.0235167 16711746
1.1802471 -0.4801780 3.9989607 16711746
1.2743243 -0.4346420 3.8051691 16711746
1.0060014 -0.4544760 3.7881393 16711746
1.0187426 -0.4589103 3.8642893 16711746
0.7669610 -0.5413540 4.2407498 16711746
0.7441004 -0.5527881 4.2425866 16711746
0.9295290 -0.4936717 3.9866207 16711746
1.1340747 -0.5650411 3.8167779 16711746
2.1578801 -0.7765486 4.3592887 16711746
1.1155611 -0.4723337 3.9537268 16711746
0.9188435 -0.4611521 3.8594325 16711746
1.3583549 -0.4642852 3.9989560 16711746
1.3965253 -0.8159834 4.4004970 16711746
1.1827765 -0.8380853 4.3012958 16711746
1.4291688 -0.5351478 4.3362675 16711746
1.0261027 -0.4653130 3.8665197 16711746
0.8272036 -0.4680692 3.8977413 16711746
1.1605692 -0.4647647 3.9663808 16711746
1.5626270 -1.0793900 4.7387919 16711746
1.4253193 -0.8154112 4.4597106 16711746
0.7843255 -0.5367340 4.2094707 16711746
1.1653372 -0.6068926 3.8154757 16711746
0.8775656 -0.4798687 3.9169810 16711746
1.4468979 -0.7239065 4.4293623 16711746
1.1870604 -0.5261273 4.3238120 16711746
1.2047491 -0.4601824 3.9310546 16711746
1.7018294 -0.6096584 4.9923782 16711746
1.4354879 -0.5238794 4.2957721 16711746
1.7198174 -0.5335698 4.6487217 16711746
1.1617881 -0.5433100 4.1798291 16711746
1.9279202 -0.6268832 5.3054423 16711746
1.1858610 -0.4616632 3.9350820 16711746
1.2066368 -0.4681455 3.9737957 16711746
0.9890335 -0.4658432 3.8147459 16711746
1.0546198 -0.4594770 3.7978325 16711746
1.1528417 -0.4573515 3.8470464 16711746
1.1773124 -0.4507214 3.8238118 16711746
1.2767603 -0.4302563 3.8680530 16711746
1.0293202 -0.4677393 3.8387945 16711746
1.0355362 -0.4592642 3.8196163 16711746
0.8605512 -0.4803631 3.9189525 16711746
0.9314933 -0.4946715 3.9283659 16711746
1.1135296 -0.4794539 3.9089820 16711746
1.1693034 -0.4591780 3.8657026 16711746
1.0679085 -0.4539026 3.8036246 16711746
1.0584657 -0.4559327 3.7965636 16711746
1.1640825 -0.4519710 3.8341429 16711746
1.2357932 -0.4506711 3.8387282 16711746
0.8379456 -0.4908181 3.9649470 16711746
1.2911946 -0.4355560 3.8245368 16711746
1.0181748 -0.4567373 3.7864680 16711746
0.9930122 -0.4573165 3.7953892 16711746
1.2959299 -0.4334893 3.8295557 16711746
1.0850365 -0.4581876 3.8645339 16711746
1.2124882 -0.4517439 3.8435905 16711746
0.8883708 -0.4755448 3.8420217 16711746
1.1300623 -0.4543312 3.8420141 16711746
1.3917140 -0.4553112 3.9279721 16711746
1.1668816 -0.4473028 3.8485005 16711746
1.3504219 -0.4386888 3.8709066 16711746
1.3425553 -0.4527833 3.8686793 16711746
1.0008389 -0.4665910 3.8095968 16711746
1.0171462 -0.4517246 3.7739778 16711746
1.1079108 -0.4625446 3.8185747 16711746
1.0088487 -0.4591258 3.7878795 16711746
1.0164803 -0.4686279 3.8227975 16711746
1.0010360 -0.4540583 3.8086460 16711746
1.0804907 -0.5297032 3.7919614 16711746
0.7534207 -0.4781572 4.0500755 16711746
0.7261866 -0.5355816 4.0363126 16711746
0.7305048 -0.4871300 4.0108843 16711746
0.8563175 -0.4791567 3.9345648 16711746
1.1194665 -0.4997966 3.8109705 16711746
1.0977056 -0.5240083 4.1006846 16711746
1.1070445 -0.4553781 3.8514700 16711746
1.2243354 -0.4930899 3.9246478 16711746
1.3619492 -0.4525457 3.9100289 16711746
1.2083908 -0.4683165 3.9554958 16711746
1.1787916 -0.4529471 3.8492067 16711746
1.3153419 -0.4909794 3.8792119 16711746
1.0101863 -0.4663195 3.8834057 16711746
0.7540329 -0.5619821 4.2962933 16711746
0.9922404 -0.4667179 3.8566079 16711746
1.0984738 -0.4977747 3.9721901 16711746
1.1346456 -0.4501089 3.8391457 16711746
1.0540605 -0.4639589 3.8296700 16711746
1.0470020 -0.4629353 3.8198333 16711746
1.0077808 -0.4522125 3.7566817 16711746
1.1853161 -0.4614896 3.8933215 16711746
1.2343661 -0.4692383 3.9588454 16711746
0.9365912 -0.4664411 3.7867160 16711746
1.3786913 -0.4422376 3.9041007 16711746
1.2852770 -0.4385110 3.8596377 16711746
1.0425425 -0.4641954 3.8322222 16711746
1.3475504 -0.4405426 3.8895557 16711746
0.9263623 -0.4647860 3.8215702 16711746
1.2083375 -0.4656099 3.8830109 16711746
1.3510327 -0.5059939 3.9371457 16711746
0.7418025 -0.5307933 4.0606885 16711746
0.6415859 -0.5168998 4.1393056 16711746
0.9976311 -0.4699897 3.8877096 16711746
1.4498899 -0.9383852 4.3170977 16711746
1.5082424 -0.8935734 4.2231297 16711746
1.0690570 -0.4553514 3.8102326 16711746
1.1705984 -0.5068049 4.0966744 16711746
1.9333671 -0.8225878 4.3486757 16711746
1.1822975 -0.4439968 3.8428769 16711746
0.9155738 -0.5677489 4.1509447 16711746
1.0210561 -0.4795451 3.8411095 16711746
1.2013168 -0.4643256 3.9358854 16711746
1.3414609 -0.4776427 3.9318666 16711746
1.9521384 -0.7693985 4.2563028 16711746
1.2080281 -0.4765983 4.0725718 16711746
1.3173568 -0.5053645 4.1481299 16711746
1.2457145 -0.4720899 3.9756224 16711746
1.2601759 -0.4658441 3.9570711 16711746
1.2607069 -0.4755687 4.0403552 16711746
0.8826040 -0.5030802 5.0233088 16711746
0.7154533 -0.4921050 3.9141707 16711746
1.9146514 -0.8419905 4.7770367 16711746
1.2438070 -0.4466625 3.8669295 16711746
1.8304459 -0.7714986 4.8194146 16711746
1.2379110 -0.5331268 4.4149265 16711746
0.8982559 -0.5761216 4.0306149 16711746
1.8345945 -0.7464076 4.8917627 16711746
0.9810597 -0.5324948 4.3291821 16711746
1.8463054 -0.6159831 5.1335530 16711746
1.4930512 -0.9002091 4.9528069 16711746
0.9947297 -0.4824281 3.9299030 16711746
2.0993426 -0.9280708 5.5636840 16711746
1.1923200 -0.4509205 3.8607919 16711746
1.0974516 -0.4606916 3.8261039 16711746
1.2008791 -0.4465981 3.8694820 16711746
0.9043069 -0.4809959 3.8539114 16711746
1.1958137 -0.4468756 3.8725719 16711746
1.2802087 -0.4313535 3.8287382 16711746
1.0037521 -0.4548095 3.7899225 16711746
1.2988310 -0.4424193 3.8355041 16711746
1.1343704 -0.4687949 3.8660412 16711746
1.1899021 -0.4652673 3.8691487 16711746
1.1880172 -0.4666776 3.8633628 16711746
1.2947568 -0.4489087 3.8378127 16711746
1.1954103 -0.4489242 3.8411126 16711746
1.1990583 -0.4487283 3.8634980 16711746
1.1183490 -0.4563609 3.8492780 16711746
1.1843903 -0.4631819 3.8863895 16711746
0.9095651 -0.4755951 3.8635275 16711746
1.0603864 -0.4618137 3.8249123 16711746
1.0311480 -0.4728636 3.8630700 16711746
0.9367917 -0.4683801 3.8245494 16711746
1.1345191 -0.4582300 3.8532586 16711746
1.2365247 -0.4417108 3.8509924 16711746
0.9896799 -0.4680837 3.8480971 16711746
0.7893946 -0.5364881 4.1902552 16711746
1.0496136 -0.4681528 3.8387792 16711746
0.9800137 -0.4645646 3.8100126 16711746
0.7427111 -0.4827802 3.9750826 16711746
1.2939728 -0.4628239 3.9190161 16711746
0.9373602 -0.4959606 3.9189572 16711746
1.0808945 -0.4738858 3.8275366 16711746
1.2589519 -0.4648411 3.7618401 16711746
1.3533596 -0.4689037 3.8836114 16711746
0.9908652 -0.4722158 3.8714402 16711746
1.1477160 -0.4733044 3.9449620 16711746
1.2087411 -0.4691574 3.9502423 16711746
0.9890289 -0.4715967 3.8747981 16711746
0.7875877 -0.4983651 4.0083604 16711746
1.0122709 -0.4539022 3.7812796 16711746
0.9115507 -0.5322837 4.2094421 16711746
1.1191123 -0.4671126 3.9107554 16711746
1.3013786 -0.4446658 3.8393724 16711746
1.0939578 -0.4835264 3.9476054 16711746
1.1483126 -0.7160982 4.0078106 16711746
0.9035321 -0.4893235 3.9308169 16711746
1.3931513 -0.4912030 4.0510235 16711746
1.6590865 -0.6951963 4.1216497 16711746
1.0896224 -0.4760742 4.0018525 16711746
1.2359227 -0.4503392 3.8633387 16711746
1.6880550 -0.7402883 4.1406012 16711746
1.1306401 -0.4967306 4.0096545 16711746
0.6818320 -0.5323841 4.1721725 16711746
0.9944078 -0.4688842 3.8094165 16711746
0.9972207 -0.4619523 3.8038929 16711746
1.6016114 -0.7610316 4.0088820 16711746
1.0897328 -0.5038044 3.9676361 16711746
0.8398460 -0.5117589 4.1251674 16711746
1.2567627 -0.6408495 3.9328377 16711746
0.9295992 -0.4878324 3.9644213 16711746
1.1734139 -0.4470184 3.9026120 16711746
1.2284342 -0.4860314 4.0433230 16711746
1.1459750 -0.5267687 4.1272554 16711746
1.3267584 -0.4859944 4.0440583 16711746
0.7165940 -0.5319906 4.1035471 16711746
1.1303979 -0.5108850 4.0394788 16711746
0.9747079 -0.4753372 3.9085991 16711746
1.0168540 -0.4668901 3.8605475 16711746
1.4031926 -0.7941722 4.0658078 16711746
1.1708410 -0.4640597 3.8756330 16711746
1.2227371 -0.4696703 3.9210463 16711746
1.1450262 -0.5795943 3.9190509 16711746
1.2486123 -0.4861705 4.0881982 16711746
1.1831335 -0.4782400 4.0144715 16711746
1.2328411 -0.7938714 4.2007036 16711746
0.9672098 -0.4652210 3.8239419 16711746
1.2865798 -0.4308912 3.8503625 16711746
1.4387696 -0.5141373 4.1429954 16711746
1.3021116 -0.4376105 3.8527756 16711746
1.2564713 -0.4918121 4.0391259 16711746
1.0200601 -0.4722706 3.8721340 16711746
0.3652098 -0.6286669 4.8110709 16711746
2.0491991 -0.8616472 4.4786081 16711746
1.2980168 -0.5066245 4.0985451 16711746
1.2402537 -0.8010518 4.2511673 16711746
0.9477432 -0.4733832 3.9244063 16711746
1.2917250 -0.4669701 3.9927077 16711746
1.3253485 -0.5048380 4.1645966 16711746
1.2785327 -0.4730099 3.9615321 16711746
1.3424439 -0.5120942 4.2957587 16711746
1.4045871 -0.5185314 4.1520629 16711746
1.4144737 -0.7874514 4.4590240 16711746
2.9275656 -1.0351925 5.1902876 16711746
1.2648118 -0.4785198 4.1056366 16711746
1.4711838 -1.0040058 4.6464400 16711746
1.0015402 -0.5306451 4.2395420 16711746
1.8771907 -0.7564297 4.8952894 16711746
1.2712173 -0.7098853 4.1583176 16711746
1.0144987 -0.5275099 4.3247018 16711746
1.0465832 -0.4988661 4.1344037 16711746
1.3171232 -0.4758824 3.8875933 16711746
0.8992378 -0.5765761 4.0445466 16711746
0.9737636 -0.5903106 4.0842614 16711746
1.5958357 -0.9987828 5.1491270 16711746
1.0822246 -0.5204570 4.4024420 16711746
2.1802316 -0.9322898 5.3507056 16711746
1.1925427 -0.5928259 3.8994303 16711746
1.5109972 -0.9024755 5.0232420 16711746
1.4292204 -0.9522399 4.6259232 16711746
1.2628042 -0.4602968 3.9373941 16711746
1.2718569 -0.4714248 3.9791002 16711746
1.1739533 -0.4663720 3.8980856 16711746
1.2709187 -0.4413685 3.8179190 16711746
1.0061730 -0.4715668 3.8576601 16711746
1.0014290 -0.4545948 3.8110099 16711746
0.9282092 -0.4761570 3.8640554 16711746
1.3117726 -0.4812848 3.9823170 16711746
1.0602041 -0.4648563 3.8352628 16711746
1.1833400 -0.4581123 3.9153953 16711746
1.1130942 -0.4556163 3.8599358 16711746
1.3095045 -0.4543360 3.9797781 16711746
1.3457243 -0.4645202 3.9297400 16711746
1.2214832 -0.4709648 3.9438319 16711746
1.2736048 -0.4443175 3.8367805 16711746
0.9780651 -0.4635058 3.8333318 16711746
1.1676078 -0.4673021 3.8748994 16711746
1.2175500 -0.4709121 3.9107976 16711746
1.1164005 -0.4721590 3.9258046 16711746
1.3394712 -0.4892902 3.9091146 16711746
