# .PCD v.7 - Point Cloud Data file format
VERSION .7
FIELDS x y z rgb
SIZE 4 4 4 4
TYPE F F F F
COUNT 1 1 1 1
WIDTH 198
HEIGHT 1
VIEWPOINT 0 0 0 1 0 0 0
POINTS 198
DATA ascii

 0.0577512 -0.0138122 -0.0705558 16777215
 0.0579095 -0.0125525 -0.0699518 16777215
 0.0578486 -0.0122382 -0.0700410 16777215
 0.0578510 -0.0122355 -0.0700400 16777215
 0.0578490 -0.0122376 -0.0700407 16777215
 0.0578508 -0.0122356 -0.0700400 16777215
 0.0578508 -0.0122356 -0.0700400 16777215
 0.0577689 -0.0123362 -0.0701048 16777215
 0.0578521 -0.0122344 -0.0700394 16777215
 0.0578460 -0.0122410 -0.0700418 16777215
 0.0576581 -0.0124432 -0.0700690 16777215
 0.0576564 -0.0124616 -0.0700705 16777215
 0.0578358 -0.0122519 -0.0700457 16777215
 0.0577699 -0.0123622 -0.0700542 16777215
 0.0578142 -0.0122542 -0.0700395 16777215
 0.0578399 -0.0122485 -0.0700442 16777215
 0.0578250 -0.0122640 -0.0700479 16777215
 0.0577284 -0.0123189 -0.0700619 16777215
 0.0577494 -0.0123088 -0.0700738 16777215
 0.0576880 -0.0124023 -0.0700885 16777215
 0.0576036 -0.0124089 -0.0700119 16777215
 0.0578451 -0.0122167 -0.0699971 16777215
 0.0577978 -0.0122561 -0.0700498 16777215
 0.0573567 -0.0120457 -0.0700322 16777215
 0.0577679 -0.0122160 -0.0700287 16777215
 0.0578909 -0.0121403 -0.0700537 16777215
 0.0577661 -0.0122888 -0.0698265 16777215
 0.0577808 -0.0122924 -0.0698385 16777215
 0.0578542 -0.0119679 -0.0699872 16777215
 0.0578823 -0.0119379 -0.0699735 16777215
 0.0578770 -0.0119647 -0.0699732 16777215
 0.0579156 -0.0121221 -0.0700235 16777215
 0.0578201 -0.0117775 -0.0699731 16777215
 0.0577918 -0.0119133 -0.0698756 16777215
 0.0577918 -0.0119133 -0.0698756 16777215
 0.0574734 -0.0107338 -0.0702413 16777215
 0.0575829 -0.0112824 -0.0701653 16777215
 0.0573782 -0.0106434 -0.0700517 16777215
 0.0574114 -0.0106269 -0.0701363 16777215
 0.0576521 -0.0121054 -0.0700626 16777215
 0.0572631 -0.0112289 -0.0703842 16777215
 0.0574122 -0.0117536 -0.0697567 16777215
 0.0570109 -0.0110393 -0.0698781 16777215
 0.0476111 -0.0166084 -0.0637008 16777215
 0.0395461 -0.0196421 -0.0637738 16777215
 0.0400894 -0.0199971 -0.0649509 16777215
 0.0418496 -0.0203651 -0.0647767 16777215
 0.0463504 -0.0195888 -0.0641371 16777215
 0.0532865 -0.0185365 -0.0662306 16777215
 0.0540773 -0.0191839 -0.0658441 16777215
 0.0468473 -0.0187159 -0.0657727 16777215
 0.0393464 -0.0184557 -0.0642605 16777215
 0.0397970 -0.0172403 -0.0637104 16777215
 0.0447480 -0.0141798 -0.0651675 16777215
 0.0796202 -0.0233521 -0.0194581 16777215
 0.0850967 -0.0771433 0.0291287 16777215
 0.1193725 -0.1368582 0.1217688 16777215
 0.1673970 -0.2271264 0.2234932 16777215
 0.2178395 -0.2718339 0.3399273 16777215
 0.2487199 -0.3450591 0.4126701 16777215
 0.3118301 -0.4698899 0.5469913 16777215
 0.2635656 -0.5107421 0.7759681 16777215
 0.3414437 -0.5776911 0.8474871 16777215
 0.4033872 -0.7168325 0.8795425 16777215
 0.4586720 -0.7690679 1.0830013 16777215
 0.5370293 -0.8750330 1.1983075 16777215
 0.5895891 -0.9546534 1.2710292 16777215
 0.5629445 -0.9858384 1.5325685 16777215
 0.5712359 -1.0619873 1.5165626 16777215
 0.6260980 -1.1119378 1.7469018 16777215
 0.6515388 -1.1935961 1.9184048 16777215
 0.6437038 -1.2855754 2.0439065 16777215
 0.7427186 -1.4643098 1.9734713 16777215
 0.7581400 -1.4917712 1.9908811 16777215
 0.7511230 -1.4967463 2.0451677 16777215
 0.7531288 -1.5105867 2.0725827 16777215
 0.8374294 -1.6314614 2.1122768 16777215
 0.8968119 -1.7703555 2.1521199 16777215
 0.7633427 -1.5866771 2.2927716 16777215
 0.9797938 -1.5712795 2.6725249 16777215
 0.9724292 -1.7728612 2.6736190 16777215
 0.9245803 -1.6196642 2.6742089 16777215
 0.9007820 -1.8156055 2.7183471 16777215
 1.0074270 -1.7365109 2.8360643 16777215
 1.0723488 -1.9474851 2.8805501 16777215
 1.1035221 -1.9924242 3.0211821 16777215
 1.0578192 -2.1076527 3.0949700 16777215
 1.2871472 -2.0339539 3.2862864 16777215
 0.8902339 -3.0475798 3.3332899 16777215
 0.1595004 -1.6259294 3.6096148 16777215
 0.6336290 -2.6135523 3.5736158 16777215
 0.9599628 -2.8443677 3.5652797 16777215
 1.1398592 -2.0558257 3.5479641 16777215
 1.1836728 -2.1057420 3.7163651 16777215
 1.2644694 -2.1290779 3.7640967 16777215
 1.3014554 -2.1736052 3.8358393 16777215
 1.2857974 -2.2188337 3.8733187 16777215
 1.3392220 -2.2315850 3.9149814 16777215
 1.3324041 -2.2692444 3.9383841 16777215
 1.3215172 -2.2409205 4.0527735 16777215
 1.2730753 -2.3478048 4.2119536 16777215
 1.3597724 -2.4195099 4.2853332 16777215
 1.4075804 -2.4451518 4.5287018 16777215
 1.3780302 -2.5522895 4.5660958 16777215
 1.3926935 -2.5995045 4.6112332 16777215
 1.3956817 -2.6047299 4.6120119 16777215
 1.3995094 -2.5637693 4.6642795 16777215
 1.4438260 -2.5909009 4.8197789 16777215
 1.3854948 -2.6215951 4.9303365 16777215
 1.4304085 -2.7750926 5.0335360 16777215
 1.4042537 -2.6085515 5.0758481 16777215
 1.3739067 -2.5594220 5.2167196 16777215
 1.4612198 -2.7243004 5.2807312 16777215
 1.4371558 -2.7800400 5.3757296 16777215
 1.5093349 -2.9112520 5.4469819 16777215
 1.2893553 -2.7930827 5.5449986 16777215
 1.5834666 -2.7133393 5.6615744 16777215
 1.4394413 -2.9380155 5.6250811 16777215
 1.4483986 -3.0215154 5.7395315 16777215
 1.4911888 -2.9888549 5.8621469 16777215
 1.5013232 -2.9313869 5.9667683 16777215
 1.5059240 -2.9369965 6.0423851 16777215
 1.5250417 -2.9435384 6.1356626 16777215
 1.5537462 -3.0401714 6.2108507 16777215
 1.5438101 -3.0598035 6.3363132 16777215
 1.6101391 -2.9859610 6.3817091 16777215
 1.6261668 -3.0977747 6.4504304 16777215
 1.6698748 -3.1625903 6.5190678 16777215
 1.6680683 -3.1781571 6.5987234 16777215
 1.6872572 -3.2147274 6.7321658 16777215
 1.6989461 -3.2731802 6.8451672 16777215
 1.7079655 -3.3485501 6.9234028 16777215
 1.8029941 -3.3756299 7.0990176 16777215
 1.6379727 -3.3931880 7.2658753 16777215
 1.6981176 -3.4080291 7.4557991 16777215
 1.7039784 -3.4572508 7.5041804 16777215
 1.6877868 -3.4386809 7.7483950 16777215
 1.7334012 -3.3705070 7.7372108 16777215
 1.7295357 -3.4674704 7.7964764 16777215
 1.7441711 -3.3039904 7.8265734 16777215
 1.7262502 -3.2359829 7.8862686 16777215
 1.7121962 -3.2315228 7.9434166 16777215
 1.6150020 -3.3418109 8.1294689 16777215
 1.6222087 -3.5161691 8.1950731 16777215
 1.7209530 -3.5690231 8.4889727 16777215
 1.7685834 -3.5340896 8.4766378 16777215
 1.8669674 -3.6372313 8.5016451 16777215
 1.6930467 -3.0920119 8.8050632 16777215
 1.8513007 -3.1647010 8.9620209 16777215
 1.7537678 -3.1941106 9.1393700 16777215
 1.7962679 -3.2452140 9.1542654 16777215
 1.7647738 -3.2646914 9.2105064 16777215
 1.7911586 -3.3433404 9.2988749 16777215
 1.8970530 -3.4979992 9.4006853 16777215
 1.9307215 -3.4944906 9.4212856 16777215
 1.7424066 -3.3427904 9.5139694 16777215
 1.5670514 -3.4459565 9.6400232 16777215
 1.5247366 -3.3776631 9.5147829 16777215
 1.5158036 -3.3921707 9.5148125 16777215
 1.5383570 -3.3980873 9.6151543 16777215
 1.5569189 -3.4743078 9.6787891 16777215
 1.5154290 -3.4206946 9.8212843 16777215
 1.5743442 -3.3421841 9.8812561 16777215
 1.5710030 -3.3600819 9.8855114 16777215
 1.5703435 -3.3637235 9.8864822 16777215
 1.5816875 -3.3604989 9.8968620 16777215
 1.6016006 -3.2920361 9.9532022 16777215
 1.5855422 -3.2941930 9.9707222 16777215
 1.5623639 -3.3202276 9.9917545 16777215
 1.5451543 -3.3069324 10.0309153 16777215
 1.5285628 -3.3482890 10.0806446 16777215
 1.5224698 -3.3622026 10.1175079 16777215
 1.5519602 -3.2522948 10.1879749 16777215
 1.5084975 -3.2974346 10.3404675 16777215
 1.5657296 -3.1866026 10.3726273 16777215
 1.5396750 -3.2125459 10.4287529 16777215
 1.5480630 -3.1738868 10.4502659 16777215
 1.4783492 -3.0910046 10.5421505 16777215
 1.4885147 -3.0167420 10.6018162 16777215
 1.4984825 -3.1095190 10.6209269 16777215
 1.4903843 -3.1399851 10.7255859 16777215
 1.5070817 -3.1469545 10.7803659 16777215
 1.4912724 -3.1627660 10.8189697 16777215
 1.5367322 -3.1847510 10.8509769 16777215
 1.5074074 -3.1696107 10.8491087 16777215
 1.5114949 -3.1695580 10.8506374 16777215
 1.5176041 -3.1742182 10.8539248 16777215
 1.5154953 -3.1720767 10.8546715 16777215
 1.5188556 -3.1675143 10.8545685 16777215
 1.5197818 -3.1663229 10.8580627 16777215
 1.5183601 -3.1668048 10.8563843 16777215
 1.5230381 -3.1675315 10.8611984 16777215
 1.5195208 -3.1693089 10.8627825 16777215
 1.5358655 -3.1564066 10.8711567 16777215
 1.5303411 -3.1624482 10.8733444 16777215
 1.5234656 -3.1703570 10.8683634 16777215
 1.5250087 -3.1747804 10.8675938 16777215
 1.5325747 -3.1655354 10.8786325 16777215
