# .PCD v.7 - Point Cloud Data file format
VERSION .7
FIELDS x y z rgb
SIZE 4 4 4 4
TYPE F F F F
COUNT 1 1 1 1
WIDTH 1169
HEIGHT 1
VIEWPOINT 0 0 0 1 0 0 0
POINTS 1169
DATA ascii
-66.7867279 -47.6424446 0.6322225 16711746
2.1899407 -5.0857768 9.4868193 16711746
2.0309176 -6.5391655 8.5450401 16711746
1.4542768 -6.1480961 8.1553106 16711746
1.9410394 -6.7889504 8.4919243 16711746
2.4132152 -6.8148913 8.2074146 16711746
0.0134062 -5.6225533 7.6930857 16711746
2.4300234 -6.5995417 8.1155205 16711746
2.0518014 -3.9457185 8.1774206 16711746
1.7143496 -6.2167439 8.3432751 16711746
2.5036724 -6.0205832 8.0822687 16711746
0.8949067 -5.9894857 7.6033888 16711746
0.6778245 -5.2840414 7.4361153 16711746
1.5635984 -6.2449965 8.3324375 16711746
0.4123087 -5.3303609 7.8151560 16711746
0.4244128 -5.5059385 8.1168442 16711746
0.6686247 -5.1392593 7.1682000 16711746
2.7344847 -5.8043742 7.8623881 16711746
0.4205063 -5.2543626 8.0642977 16711746
0.8208383 -5.3251424 7.4617047 16711746
1.8254577 -4.1105342 8.2466116 16711746
-0.5198755 -6.7034807 8.8195314 16711746
0.5061216 -5.1124902 7.8751931 16711746
2.3068938 -6.5253167 8.0027227 16711746
0.6809192 -5.1791854 7.7060137 16711746
1.5126883 -5.1766005 7.6753306 16711746
0.6091683 -5.2992129 7.7581477 16711746
0.1449401 -5.6328945 8.3139114 16711746
0.5582458 -4.9961209 7.6327891 16711746
3.1711519 -6.3520241 8.0604839 16711746
3.4465461 -7.2882328 8.7174273 16711746
2.7952785 -5.5719047 8.1087236 16711746
2.7538104 -5.4625378 8.0449181 16711746
0.8820239 -4.9299679 7.6127448 16711746
1.1312760 -5.0609002 7.6500473 16711746
2.4282501 -5.4512625 7.8778181 16711746
0.2799138 -5.0802565 7.6056399 16711746
2.4655933 -5.4400759 8.0509005 16711746
1.4815946 -5.0543666 7.6149664 16711746
1.8990448 -5.3077087 7.7443557 16711746
1.8783833 -5.4484143 8.1493196 16711746
1.5517192 -5.5682449 8.0617409 16711746
2.0350521 -4.6525798 8.6092100 16711746
1.0379736 -5.5377493 7.4042573 16711746
2.1338682 -4.9331732 8.5068760 16711746
1.6338613 -5.5127420 8.2313948 16711746
1.7819604 -5.2400737 7.8519659 16711746
2.8605754 -5.6066794 8.0293407 16711746
2.8101039 -5.2344232 7.9190021 16711746
1.0231810 -4.7395048 7.6360593 16711746
1.0622623 -4.8840661 7.6065984 16711746
1.8121237 -5.2655892 7.7483225 16711746
2.0116186 -5.1118288 8.4794836 16711746
0.6215016 -5.0843544 7.4791474 16711746
0.9452006 -5.4335966 7.6302891 16711746
2.1929827 -5.1310663 8.3938465 16711746
1.9005949 -5.3170633 7.7441826 16711746
2.0308859 -4.5828719 8.5594368 16711746
2.5776970 -5.4619565 8.1381350 16711746
0.5845637 -4.8888769 7.8880906 16711746
1.4948605 -5.0099382 7.6154656 16711746
1.8054827 -5.0338726 7.8389759 16711746
1.9145167 -5.0622983 7.7433577 16711746
1.5705355 -4.2010159 8.1339426 16711746
0.8095745 -5.0350637 7.6078882 16711746
2.7575586 -5.4429164 8.4361076 16711746
2.7403698 -5.1629076 8.1471405 16711746
2.3848875 -5.4651623 8.0623732 16711746
2.8166349 -4.9135404 8.4138556 16711746
1.8018247 -3.7502563 7.9257874 16711746
1.7645334 -4.9171114 7.7574644 16711746
2.4266448 -5.2732472 7.9392138 16711746
1.6586837 -4.9274693 8.6290894 16711746
2.6394248 -4.9100447 8.0954657 16711746
1.8852147 -4.6715727 8.0175066 16711746
0.3609462 -5.0454617 7.1288257 16711746
0.9045544 -5.5222383 7.5659647 16711746
2.7569549 -5.6930342 7.8440342 16711746
0.9787136 -5.2941570 7.7986703 16711746
1.8795171 -5.2258711 7.8918934 16711746
2.1344631 -4.9273553 8.5007410 16711746
1.4047129 -5.0680203 7.5203042 16711746
2.2555804 -5.6620474 7.7563233 16711746
2.1841688 -5.0999179 8.6583366 16711746
2.9037950 -5.5323606 8.0139799 16711746
1.4616525 -5.5550780 8.1630230 16711746
0.9579478 -4.8150930 7.6210175 16711746
2.7840586 -5.7775097 7.8457074 16711746
2.2786617 -5.7338309 7.8903794 16711746
0.5703439 -5.1591082 7.4655852 16711746
2.5943236 -5.1832104 8.4015684 16711746
1.7508175 -5.2023473 7.7994943 16711746
1.9031886 -5.3585553 7.7421761 16711746
1.0884808 -5.7155809 7.5270514 16711746
0.6942747 -5.0567999 7.2869449 16711746
3.0343275 -6.0577397 8.0524950 16711746
2.2915936 -6.2157888 8.0249119 16711746
1.3162534 -5.1804652 8.3220615 16711746
2.6672566 -5.1836333 8.5611324 16711746
1.9132360 -5.4847178 8.3031645 16711746
5.0808082 -7.2757726 8.3531380 16711746
2.6344700 -5.8684244 8.2377853 16711746
0.5702874 -5.3597202 8.3206987 16711746
1.7701303 -5.6708498 8.2875519 16711746
2.1122591 -5.4256721 8.5079727 16711746
4.4942060 -6.5571809 8.4641113 16711746
2.2179060 -5.8295794 8.0384436 16711746
-0.4187185 -5.3210316 8.9017181 16711746
1.3732847 -5.9169064 8.2271261 16711746
0.5598122 -5.3799744 8.3277845 16711746
2.6918566 -6.1580772 8.4330397 16711746
0.7047845 -5.5826902 7.4725833 16711746
0.0509882 -5.2890754 7.5839257 16711746
4.8333836 -7.0132861 8.5490475 16711746
1.0224403 -5.6661363 7.6138496 16711746
0.8757767 -5.8392110 7.5336552 16711746
-0.0300029 -5.8730688 8.5586729 16711746
5.0078177 -7.6856132 8.5665331 16711746
0.5188562 -5.0753136 7.6135969 16711746
0.6979571 -5.1676517 7.6968260 16711746
3.5144901 -6.7844930 8.9523201 16711746
0.2815143 -5.4262633 8.0970697 16711746
3.1334202 -6.2687411 8.2471733 16711746
0.8016240 -5.4191303 7.4877181 16711746
0.6096147 -5.2644200 7.7676368 16711746
2.7366703 -6.6399016 8.6859255 16711746
1.6504990 -5.5783381 8.4676056 16711746
3.5159123 -6.7172904 8.4732914 16711746
2.4145255 -6.1501384 8.0692825 16711746
2.9905198 -6.0825253 10.0890703 16711746
3.0064414 -6.8800111 8.6056023 16711746
-0.1276632 -5.0057878 7.0955329 16711746
2.7623117 -6.7625351 8.7229834 16711746
2.7194345 -6.9061122 9.4762850 16711746
2.1598394 -5.5087075 8.8391724 16711746
1.6908754 -5.4592609 7.8217406 16711746
-0.1408600 -4.8916173 7.1543107 16711746
3.8253171 -6.5465016 8.4526997 16711746
0.5192501 -5.3594956 7.9159398 16711746
4.2671771 -6.8539424 8.3578014 16711746
2.6908867 -6.4345031 8.5295124 16711746
3.6016276 -6.2813201 8.4548960 16711746
0.3415752 -5.3961926 8.2088089 16711746
4.1950030 -6.3767433 8.7123747 16711746
2.4105225 -6.5379519 8.0880480 16711746
0.8631760 -5.6305065 7.5227542 16711746
1.7700039 -3.5734017 7.7789335 16711746
5.5548773 -7.5941315 8.6308422 16711746
0.8393148 -6.0113029 7.6514530 16711746
0.6032915 -5.2341661 7.8052630 16711746
0.9171366 -5.8301115 7.6483817 16711746
2.8895388 -6.4083171 8.0815420 16711746
1.2995844 -4.0959082 8.1246595 16711746
0.1176965 -5.5560799 7.7486515 16711746
2.0743699 -4.1570950 8.3786449 16711746
0.6337532 -5.5173745 7.2832685 16711746
2.9057777 -6.0823627 8.0857210 16711746
0.7682083 -5.8413363 7.5106435 16711746
2.1285889 -5.3573608 9.4460754 16711746
4.2122416 -7.0570297 9.3225603 16711746
3.6481833 -6.8751903 9.0061941 16711746
0.7859869 -9.9582310 12.2645054 16711746
-2.1149366 -6.7300920 9.6896124 16711746
4.2697868 -6.7819300 8.3708200 16711746
2.3915865 -5.9316387 7.8759637 16711746
4.4220176 -7.0686369 9.9235678 16711746
4.7586999 -7.2655916 8.8329296 16711746
1.8536866 -6.8422856 8.6438847 16711746
4.7241035 -7.1512012 8.6811209 16711746
2.4089839 -9.8319092 12.4511328 16711746
1.6385120 -3.7186735 7.7544112 16711746
4.3365369 -6.8712659 8.5729189 16711746
1.7506583 -4.2844520 7.8514829 16711746
0.3875012 -7.0763168 9.3541508 16711746
1.8382487 -6.6516175 8.4407215 16711746
-0.5254728 -6.8865948 8.9930935 16711746
2.1854012 -4.9412475 8.9068289 16711746
0.0817667 -13.7992125 14.9851007 16711746
1.8561835 -4.0728898 8.2523632 16711746
1.1366955 -6.3663492 8.2087860 16711746
1.1556683 -4.2631474 7.8492885 16711746
4.5498447 -9.8745623 8.6928568 16711746
0.5683002 -4.9995313 8.2824545 16711746
2.7973924 -5.3717284 8.1375351 16711746
2.5092216 -6.7468886 9.9363689 16711746
1.4545635 -3.8634620 8.0202541 16711746
0.6022903 -2.1918890 -0.8155289 16711746
1.6781884 -3.2217169 -0.9633160 16711746
1.1805977 -3.7412689 -0.8643703 16711746
0.5509799 -3.0108395 -0.5319652 16711746
1.0609556 -2.8203015 0.1453433 16711746
1.4057161 -2.1997006 -0.5532505 16711746
-0.3929104 -2.3045528 -0.1357990 16711746
-0.8401950 -1.8046235 -0.3161196 16711746
-0.4122947 -2.2930813 -0.1738713 16711746
-0.2504208 -2.1537709 -0.1006998 16711746
1.0157863 -3.0494194 -0.9960087 16711746
0.6364207 -2.3917775 -0.7844052 16711746
-0.7394825 -2.8777308 -0.2904936 16711746
1.2494386 -3.6385827 -1.6124496 16711746
-0.2974671 -2.1546345 -0.6590192 16711746
0.0046726 -3.4849992 -1.2600539 16711746
-0.7653000 -2.7901855 -0.7831579 16711746
0.2881996 -2.6646488 -0.3639010 16711746
-0.4448783 -3.1067185 -0.7215429 16711746
-1.9581001 -3.7987227 -1.0021968 16711746
0.1699302 -2.0819674 -0.7937406 16711746
-0.0540600 -1.9742041 -0.8046107 16711746
0.5035850 -3.6576684 -0.6112835 16711746
-1.5965141 -2.5286279 -0.6549719 16711746
-1.0231808 -3.2538342 -0.7406079 16711746
0.3843508 -3.4285252 -1.2653990 16711746
-0.8263271 -2.4435382 -0.7201074 16711746
0.6133537 -3.2504885 -0.3898637 16711746
-0.3420370 -3.2633235 -0.4230310 16711746
-0.4483051 -2.6026230 -1.0062368 16711746
0.3215742 -0.9552247 -0.2331872 16711746
-0.4478462 -2.2450004 0.1673478 16711746
0.0454027 -2.3422909 0.3333456 16711746
1.0499719 -2.6615288 0.6187254 16711746
0.5455409 -2.4817755 -0.3673954 16711746
0.5296232 -1.2946858 -0.3255409 16711746
-0.4602323 -0.5703676 -0.2811108 16711746
1.5398606 -1.7566994 0.2126921 16711746
0.6283607 -1.7844094 0.1414826 16711746
0.1057005 -1.0509931 -0.4673021 16711746
0.3856031 -2.7331114 -0.4728888 16711746
-0.6054134 -0.9220841 -0.2604060 16711746
0.6898953 -1.8611956 -0.2340338 16711746
0.9456324 -2.8755946 -0.3241379 16711746
0.4928595 -2.1314561 -0.7173626 16711746
0.0801229 -0.0436571 -0.0586003 16711746
0.7708607 -1.8469392 -1.0076984 16711746
0.4015114 -2.6946678 -0.8740966 16711746
-0.7330266 -2.5743432 -0.9312957 16711746
-1.1299602 -1.1706409 0.1894021 16711746
1.2356890 -1.1289226 -0.8075234 16711746
0.5467741 -2.5007596 -1.3938452 16711746
-0.3123009 -2.9417205 -0.2399464 16711746
-0.9095045 -2.4508431 0.0078553 16711746
-0.8451627 -2.2237847 -0.3706456 16711746
-1.1332721 -1.7012575 0.1336359 16711746
-0.5132747 -2.8698933 -0.2282988 16711746
-1.1187850 -1.5199660 0.1958389 16711746
-1.0499460 -1.0248997 0.1211863 16711746
0.1083983 -2.2083805 -0.1139173 16711746
0.6492290 -3.0273371 0.1022634 16711746
-0.8653694 -2.5241745 -0.6133966 16711746
1.1727588 -1.4187410 -0.9518957 16711746
1.1856170 -1.3842195 -0.9873723 16711746
1.2956481 -2.3720376 -0.9626233 16711746
1.1146897 -2.1238129 -0.9643975 16711746
1.4215680 -2.3938828 -0.8124968 16711746
0.2012619 -2.6370575 -1.2096796 16711746
-1.1665293 -1.5792515 -0.1620673 16711746
1.5920678 -2.0463188 -0.4466381 16711746
1.7697548 -1.7961317 -0.7628989 16711746
0.7214345 -2.8394902 -0.9274692 16711746
-0.0736953 -2.6513596 -0.8898285 16711746
-0.4991594 -2.2943320 -0.4983681 16711746
-0.5284032 -2.6991775 -0.7173514 16711746
1.1340718 -2.2449660 -1.0757294 16711746
-0.6016634 -2.8325820 -0.0454686 16711746
-0.6038893 -2.2071254 -1.1145158 16711746
0.9396094 -2.7345257 -0.5913681 16711746
1.1690414 -2.1487000 -0.6418293 16711746
-0.7499605 -2.3612010 -1.0238012 16711746
1.1683116 -2.5565801 -0.8374217 16711746
-0.8779556 -2.3637660 0.1425257 16711746
1.3839103 -1.8105140 -0.9096355 16711746
1.2311410 -2.0575948 -0.9797546 16711746
0.5310523 -2.9439220 -1.1253762 16711746
0.3420681 -2.9479651 -1.1005799 16711746
0.5133410 -1.3627231 0.0616924 16711746
-0.1261930 -1.2048414 -0.1362612 16711746
-0.0417531 -0.7277764 0.2013189 16711746
0.3507172 -1.1682194 0.1229263 16711746
-0.2070179 -0.7932889 0.1081613 16711746
0.2843075 -1.1719252 0.0750979 16711746
0.2565242 -1.0502764 0.1011013 16711746
0.8508272 -2.3346887 -0.9574085 16711746
-0.4378950 -2.8771415 -0.2815901 16711746
-0.3378172 -2.5307736 -1.0419347 16711746
1.1695930 -2.1118357 -1.2601897 16711746
0.9580356 -2.3400481 -1.2527794 16711746
1.1834751 -0.9715738 -0.6244769 16711746
-1.1967744 -1.2433609 -0.0957924 16711746
0.3269860 -2.7130301 -1.0931991 16711746
0.1124486 -2.3514574 -0.1160385 16711746
1.0820073 -2.4494379 -0.1120187 16711746
-1.1819022 -1.3619446 -0.0018748 16711746
-1.0773333 -0.9742573 0.1601641 16711746
0.6019965 -2.5988863 -1.3325800 16711746
0.2894182 -2.3115196 -1.1194704 16711746
0.2756956 -2.3112035 -1.1945139 16711746
-1.0999618 -1.6450399 -0.0238138 16711746
1.3099345 -1.1382467 -0.7591872 16711746
1.1824450 -0.8532592 -0.5837651 16711746
-1.0180085 -1.5375899 0.1136832 16711746
-0.8821310 -2.1208589 0.1942766 16711746
-0.6716974 -2.5453429 -0.3176625 16711746
1.2318151 -2.3245547 -0.8607035 16711746
-1.2945943 -1.5285587 -0.2021444 16711746
-1.2256594 -1.4954082 -0.2278919 16711746
-1.2755299 -1.7133405 -0.1715588 16711746
0.9470779 -2.4920564 -1.1375303 16711746
0.1481413 -3.0917480 -0.8659328 16711746
-1.0213004 -1.9932188 -0.5410897 16711746
1.0633816 -2.2696676 -0.9692979 16711746
-0.8457018 -2.4562781 -1.0291834 16711746
-0.8700857 -2.2016582 -1.0412130 16711746
1.1066655 -2.8294864 -0.6413664 16711746
0.6474011 -2.8910842 -0.2449366 16711746
0.5126560 -2.9476779 -0.4056818 16711746
1.2725090 -2.2334423 -1.1139313 16711746
-0.3963707 -2.5575786 -0.9947589 16711746
1.0563484 -2.4572473 -1.1396092 16711746
0.4712673 -2.9385600 -0.6739042 16711746
0.7314454 -2.9791830 -0.7572398 16711746
0.4157061 -2.5398166 -0.6388149 16711746
-1.1972750 -2.3763027 -0.4497445 16711746
1.7268614 -2.2624836 -0.6537068 16711746
0.8447930 -2.5666008 -1.3940871 16711746
0.5254568 -1.9289744 -1.0564407 16711746
1.4557489 -1.8632293 -0.7325990 16711746
1.0234519 -1.4636579 -0.9024538 16711746
1.1527780 -1.7954047 -1.0839070 16711746
1.1569960 -1.7727692 -1.1158061 16711746
0.7934036 -2.5048599 -0.9056996 16711746
0.1596529 -2.3431017 -1.2320944 16711746
-0.7238144 -2.2751815 -0.7040688 16711746
-0.7252542 -2.8031192 -0.7150970 16711746
-0.3886330 -2.5191407 -0.7723854 16711746
-0.5635892 -2.2860122 -0.6550673 16711746
1.0298071 -2.7455344 -0.4262691 16711746
1.5454328 -1.3377609 -0.5940239 16711746
-0.6895307 -2.4876578 -1.2523474 16711746
-0.9189860 -1.5224024 -0.5959712 16711746
-0.5577573 -2.7786920 -0.4353975 16711746
-0.3323629 -2.7774017 -0.3306055 16711746
-0.5411507 -2.6463625 -0.2303165 16711746
-0.4007593 -2.7285705 -0.5265636 16711746
-0.4941263 -2.8036077 -0.6614854 16711746
0.5193477 -3.0268445 -0.8163361 16711746
-0.5447540 -2.5302091 -0.0188732 16711746
-0.4523203 -2.5366340 -0.1264533 16711746
1.4495976 -1.2018415 -0.7137043 16711746
-0.9757831 -1.3450718 0.1457168 16711746
-0.7660491 -1.5401131 0.2299228 16711746
1.5513779 -2.6345370 -0.1718991 16711746
-1.1283457 -2.0372424 0.0607923 16711746
-1.1569741 -1.9656157 -0.0246010 16711746
1.2669288 -1.5559849 -1.0362278 16711746
-0.2684637 -2.9077995 -0.3952669 16711746
0.2438221 -3.1242554 -0.3241658 16711746
-1.1040671 -1.3083522 -0.1822348 16711746
1.2100779 -2.2909546 -0.8423352 16711746
1.2323124 -2.8181231 -0.5640656 16711746
1.0260797 -2.1630442 -0.5888842 16711746
-0.7715386 -2.6286247 -0.2277067 16711746
-0.7780954 -2.4780459 0.0636530 16711746
1.4721451 -2.7270463 -0.0826782 16711746
0.2523933 -3.0316834 0.1787257 16711746
0.9877081 -1.9069453 -0.9881259 16711746
0.1184117 -2.6192679 -0.7953372 16711746
-0.9921098 -2.5740149 -1.2864583 16711746
-0.3978150 -2.7663765 0.1247513 16711746
0.8188331 -2.1249032 -1.0896101 16711746
0.7032676 -2.5768201 -1.3068043 16711746
0.6661467 -2.2249835 -1.1973461 16711746
1.4022415 -2.2348900 -0.9651905 16711746
-1.3213283 -1.6446084 -0.3002481 16711746
-1.1922411 -1.5776999 -0.3763762 16711746
-0.2606090 -2.2029641 -0.5510261 16711746
-0.8688405 -2.3279748 0.1396719 16711746
1.5680912 -2.1565027 -0.4638076 16711746
-0.4980790 -2.6282077 -1.0548869 16711746
-0.5585858 -2.6360486 -1.0932622 16711746
-0.7253107 -2.5824451 -1.0623250 16711746
-1.2014205 -2.3359652 -0.4006025 16711746
-0.9558032 -1.9258860 -0.4237613 16711746
0.0404919 -2.8627722 -1.3649778 16711746
0.1340681 -2.7282386 -1.3491435 16711746
0.0733395 -2.8790991 -1.4741406 16711746
1.7155581 -2.4543412 0.1153566 16711746
1.7513868 -2.0517626 -0.7369093 16711746
1.5113256 -1.9368076 -0.6521502 16711746
-0.0816147 -2.5523396 -0.5712011 16711746
0.9576857 -2.5224445 -0.8773022 16711746
-0.7644259 -2.6340575 -1.2574228 16711746
1.1307991 -1.9130882 -0.9130298 16711746
1.2773125 -2.2379167 -1.1197007 16711746
0.8322307 -2.7302341 0.0828803 16711746
1.6232040 -1.5540276 -0.8446401 16711746
-0.9042824 -2.3684974 -0.6157657 16711746
1.2511442 -2.2739508 -0.7306023 16711746
-0.5510916 -2.4707749 -0.5382369 16711746
1.4406557 -2.1610785 -0.6874664 16711746
0.2070816 -2.1856587 -0.9465526 16711746
-0.0274421 -2.2742109 -0.9992118 16711746
1.5751939 -1.5988144 -0.6867072 16711746
-1.0810587 -2.1647575 0.0339565 16711746
-1.2246195 -2.0542614 -0.7890151 16711746
-0.7597774 -2.0473011 0.4709243 16711746
-0.7166106 -2.5120184 -0.8560790 16711746
-0.6525359 -2.4673135 -0.5535150 16711746
1.3531653 -1.4405007 -0.8148727 16711746
1.3196758 -1.1469309 -0.7625457 16711746
1.3541316 -2.2981322 -1.0855848 16711746
1.4415133 -2.5271902 -1.2616957 16711746
1.2950842 -1.4194218 -0.7056949 16711746
0.9813668 -1.3364953 -0.6664759 16711746
1.4179194 -2.2227135 -0.5309752 16711746
-0.9021064 -2.6169987 -1.0947481 16711746
-1.2147019 -1.7915353 -0.4077768 16711746
-0.4382791 -2.2269347 -1.0511093 16711746
-0.7585565 -2.6023123 -1.2454139 16711746
1.3618430 -2.6022880 -1.1712672 16711746
0.0608545 -0.0409006 -0.0724774 16711746
1.4506323 -0.9343240 -0.6248442 16711746
1.2981977 -0.9802065 -0.5558559 16711746
-0.1448088 -2.6678631 -0.6749550 16711746
-0.3384454 -2.7190189 -0.6652932 16711746
1.3551682 -2.2568028 -0.9444216 16711746
-0.2138589 -2.6899140 -0.8469551 16711746
-0.2032399 -2.9976683 -1.0842990 16711746
-0.9798476 -2.3754652 -1.0972807 16711746
-0.7480899 -2.0841036 -1.0277351 16711746
-1.3170315 -1.4652975 -0.5228992 16711746
-0.3475436 -2.2655492 -1.0250036 16711746
1.6866770 -1.4691395 -0.6452004 16711746
1.7197421 -1.6543046 -0.7815486 16711746
-0.9229107 -2.3893666 0.1487293 16711746
-0.5545580 -2.4647052 -0.7790644 16711746
0.6441240 -2.1473868 -0.8862975 16711746
-1.3515097 -2.0154099 -0.8356869 16711746
-1.0415620 -1.4670610 -0.6113808 16711746
0.3827500 -2.7506037 -0.4726911 16711746
1.4732487 -2.1660671 -1.2374641 16711746
1.4166418 -2.2525198 -1.2602124 16711746
0.9901615 -3.0504966 -0.0893492 16711746
0.9688467 -2.5138388 -1.2275668 16711746
-1.0779268 -1.9004616 -0.4537362 16711746
1.5985984 -2.2018750 -0.4722714 16711746
0.8117332 -2.5958872 -0.9393818 16711746
1.3975711 -2.2012665 -0.7872196 16711746
0.8856191 -3.0587990 -0.8415344 16711746
0.8704826 -2.5917304 -0.8376240 16711746
0.5075189 -2.6510510 -0.5816450 16711746
0.3600289 -2.7484198 -0.6046536 16711746
-1.2829190 -1.7128251 -0.6615538 16711746
0.4852954 -2.8006289 -1.0816399 16711746
1.3597254 -2.2493396 -0.6002997 16711746
1.6294122 -1.6973134 -0.5700024 16711746
-0.5368304 -2.4365499 -0.5346268 16711746
-0.3729475 -2.5093856 -0.6603550 16711746
-1.0292639 -1.7168099 -0.1790588 16711746
0.2676353 -2.3443124 -0.9583210 16711746
0.6317086 -2.7758789 -1.4256204 16711746
-0.2947915 -2.7607434 -0.7969035 16711746
-0.9281982 -2.3571718 -1.1136566 16711746
1.3625798 -1.4101733 -0.8166424 16711746
0.7403973 -2.7849090 -0.9060141 16711746
0.4822803 -2.7905552 -0.3875416 16711746
1.3652982 -0.9329497 -0.5396926 16711746
0.9043761 -0.7135127 -0.3847978 16711746
1.0258864 -1.9795069 -1.0290598 16711746
1.1347932 -1.5226485 -0.3892419 16711746
0.8183168 -2.4431069 -0.7319242 16711746
0.7195788 -2.1818497 -0.0255375 16711746
-0.6828105 -2.8041856 -1.0984539 16711746
-0.8196458 -1.9194728 0.1219678 16711746
0.5821899 -3.0196280 -0.3608665 16711746
-1.4051884 -1.5472636 -0.6304111 16711746
-0.3011236 -2.7703960 -0.5032716 16711746
-0.2479272 -2.7248039 -0.6193163 16711746
0.3033474 -3.2119005 -1.2295406 16711746
0.0964499 -2.6387303 -1.0125419 16711746
0.0840174 -1.4791409 -0.6228334 16711746
0.6614605 -3.0972979 -1.0779823 16711746
1.4962844 -2.3823285 -0.7444203 16711746
0.1310348 -0.1392267 -0.0607696 16711746
1.3366727 -2.2927027 -0.0692642 16711746
1.5205923 -2.3776946 -0.9524410 16711746
1.3305284 -2.5147939 -0.9225346 16711746
1.4919535 -2.4646754 -1.0390069 16711746
1.7361422 -1.5601609 -0.5566697 16711746
1.7054756 -1.7396922 -0.5882550 16711746
-0.5236043 -2.4076731 -0.0240476 16711746
-1.1638373 -2.0420952 -0.4861343 16711746
-1.2706755 -2.0042481 -0.5545588 16711746
-0.9588839 -1.3793255 -0.4898510 16711746
-0.4798997 -2.4736967 -0.1659312 16711746
1.5543488 -1.4872632 -0.7085301 16711746
0.4952389 -2.8832319 -0.7992647 16711746
1.4342002 -2.3366547 -0.6267011 16711746
0.5702700 -2.7124622 -0.5288635 16711746
-0.6191724 -2.6073732 -0.6412325 16711746
-0.6030346 -2.3552403 -0.2442060 16711746
-0.2892025 -3.0909834 -0.4183542 16711746
-0.9627158 -2.4179437 -0.7050574 16711746
-0.4096995 -2.7585850 -0.8321248 16711746
1.2720681 -1.5912153 -0.4550160 16711746
1.5616490 -2.1673455 -0.1928794 16711746
1.6900793 -2.1225498 -0.3266139 16711746
1.8183331 -1.5321383 -0.3326819 16711746
0.3099236 -2.8269162 -0.3814777 16711746
0.9433442 -2.2441902 -0.5191374 16711746
0.3710662 -2.7651725 -0.1374346 16711746
1.4269409 -1.0201832 -0.6954973 16711746
1.3753887 -1.4372196 -0.8982189 16711746
1.6767439 -1.8200741 -0.1054567 16711746
0.6994411 -2.9776156 -0.7545310 16711746
0.6029936 -3.0259080 -0.9438350 16711746
-1.0053757 -1.2891961 -0.3963607 16711746
1.0878198 -2.6591570 -0.6463587 16711746
1.8731456 -1.6324986 -0.5452034 16711746
1.6208061 -1.3524343 -0.4999708 16711746
1.6970682 -2.3428297 -0.4480434 16711746
-0.4933296 -2.1688366 -0.6938277 16711746
-0.2164448 -2.0826406 -0.6074494 16711746
1.7420319 -2.1298521 -0.0981723 16711746
1.5938598 -2.3298872 -0.0769492 16711746
-0.5681253 -2.3023181 0.1404368 16711746
1.7950065 -1.6947608 -0.2910044 16711746
1.8547884 -1.9635510 -0.3496146 16711746
1.1882710 -1.7347093 -1.0016131 16711746
0.7826789 -2.8994408 -0.6852310 16711746
1.9092621 -1.4534264 -0.3057131 16711746
1.7868789 -1.5176905 -0.3326079 16711746
1.3254385 -1.2820574 -0.6100742 16711746
1.3899798 -1.3391931 -0.6729120 16711746
1.8102276 -1.9772621 -0.4113608 16711746
0.5614131 -2.8831034 -0.6524493 16711746
-1.1234889 -2.4882786 -0.5928714 16711746
1.6808311 -2.0050886 -0.7315457 16711746
1.1422434 -1.6199545 -0.5733837 16711746
-0.4767985 -2.7949176 -0.6003075 16711746
-0.3050556 -2.8818760 -0.7210258 16711746
1.4004450 -1.7849088 0.0887261 16711746
0.4381993 -3.0860698 -0.9055859 16711746
1.0848305 -1.9876362 -0.6490623 16711746
1.3086233 -1.2155205 -0.6929618 16711746
-1.2308542 -1.8275808 -0.4199868 16711746
-0.4335200 -2.5972505 -0.2461957 16711746
-1.1014723 -2.2044048 -0.3381539 16711746
-1.0778967 -2.3049347 -0.3858773 16711746
-0.6914610 -2.4956086 -0.0646402 16711746
-0.7569067 -2.5483382 -0.2224861 16711746
-0.4015703 -2.7100163 -0.0992471 16711746
-1.2400668 -2.0673738 -0.2586600 16711746
-1.1040210 -1.2971377 -0.1816129 16711746
-1.1289732 -1.9028789 -0.0272078 16711746
-1.1792938 -1.5928125 -0.1197287 16711746
-0.3340308 -2.2300014 -1.0096389 16711746
-0.3961556 -2.1560197 -0.8736962 16711746
1.6620446 -2.3300071 -0.1979138 16711746
1.7623901 -2.2367949 -0.3390581 16711746
0.3403566 -3.0478904 -0.6112846 16711746
1.1832685 -0.8822819 -0.5617726 16711746
0.0778694 -2.3280013 -0.9425392 16711746
0.2460797 -2.3182378 -1.0458581 16711746
0.7682685 -2.2009442 -0.9638969 16711746
-0.2355731 -2.5784235 0.8094865 16711746
-0.4467221 -2.5074775 0.0255946 16711746
1.4734805 -2.3505700 0.5393032 16711746
0.2247829 -2.9361024 0.4486749 16711746
1.1626482 -2.5905392 0.6272839 16711746
1.3150445 -1.4157747 -0.6521189 16711746
-0.8519296 -2.7976618 -0.2441624 16711746
0.5808463 -3.3872037 -0.3030021 16711746
-1.1037815 -1.0141002 -0.4408790 16711746
-1.5135515 -1.7206573 -0.6583298 16711746
-0.2995915 -2.1558981 -0.7582447 16711746
-1.2113215 -2.0665464 -0.6538597 16711746
-0.5380196 -2.9887104 -0.6225704 16711746
0.0950805 -2.3028033 -0.9984611 16711746
-0.6524910 -2.5329485 0.1040622 16711746
-0.6106802 -2.6885006 0.0523643 16711746
1.2474467 -1.7489634 -0.0213985 16711746
-0.6853660 -2.6142006 0.0075428 16711746
-1.1489179 -2.7052770 -0.1387596 16711746
-1.0378993 -1.5961884 -0.6572480 16711746
1.3203369 -1.1235615 -0.2682713 16711746
0.2124843 -3.1503830 -0.0748772 16711746
1.1769125 -1.5034274 -0.6895464 16711746
1.3964330 -1.6873616 -0.9915934 16711746
1.1030152 -1.9669391 -0.9919776 16711746
1.1822314 -0.9385135 -0.5034055 16711746
0.2492117 -3.1511056 -0.8387999 16711746
0.4513900 -2.8368144 -0.9223207 16711746
-0.9456949 -2.2389464 0.2175098 16711746
-0.8852346 -2.3120055 0.1275315 16711746
-0.4726610 -2.6168809 0.0319004 16711746
-1.0152541 -1.9106417 0.3140083 16711746
1.5206859 -2.7111285 0.8345794 16711746
1.4012460 -1.2156520 -0.4334162 16711746
1.0454410 -1.8046060 -0.6774596 16711746
0.7915198 -2.1409149 -0.3866301 16711746
0.9450504 -0.9298097 -0.2723942 16711746
0.6508423 -2.0627947 -0.6565830 16711746
-0.8352388 -2.9340498 0.0732586 16711746
0.8408303 -2.3194754 -0.1175713 16711746
-0.4577830 -2.1268785 -0.5781776 16711746
0.3723498 -2.2225056 -0.6278725 16711746
-1.1910819 -1.6189559 -0.1202582 16711746
-0.9500522 -1.5100454 -0.5165703 16711746
-1.0880916 -1.4583527 -0.6053678 16711746
-1.2515663 -1.2659638 -0.3813771 16711746
0.2753160 -2.2848108 -0.4734031 16711746
0.9686249 -1.8269129 -0.8449035 16711746
1.3100845 -1.4437194 -0.7205719 16711746
1.3318843 -1.5594208 -0.5874066 16711746
1.3065103 -1.1738715 -0.5738946 16711746
0.4122480 -2.6971233 -0.6532265 16711746
0.6706841 -2.2046192 -0.5922945 16711746
-0.6407352 -2.4386907 0.7525298 16711746
-0.8665516 -2.0891750 0.7383972 16711746
-0.4598193 -2.6657841 0.2244698 16711746
-0.5152484 -2.8929493 0.0505008 16711746
-0.7767200 -2.5328200 0.4539445 16711746
1.1046493 -1.7142411 0.0652295 16711746
0.2324306 -3.0984380 0.4703047 16711746
0.4077006 -1.3869112 0.0336664 16711746
0.4807158 -1.5501758 -0.0074301 16711746
0.5486944 -1.2588255 0.2513309 16711746
-0.2283294 -0.6399468 0.0144050 16711746
0.2630577 -0.4721617 0.1069334 16711746
-0.0719130 -0.8129600 0.1165877 16711746
0.3402729 -1.1527965 0.1181609 16711746
0.3824055 -1.2927134 0.0274408 16711746
-0.1359198 -0.9502047 -0.0309558 16711746
0.3037784 -0.9071451 0.1558259 16711746
0.4660286 -1.2051986 0.1687092 16711746
-0.1553286 -0.6312188 0.0715616 16711746
0.2187043 -0.8145611 0.1268812 16711746
-0.1032053 -1.2405572 -0.2533707 16711746
0.4404677 -0.4481061 -0.0258562 16711746
-0.1012638 -0.7567698 0.0311670 16711746
-0.1584318 -0.9648439 0.0375889 16711746
0.2247011 -1.1150781 0.0974890 16711746
0.6700704 -1.0284359 0.0427882 16711746
0.5011096 -1.3048010 0.1891830 16711746
0.2564383 -1.0255140 -0.1245568 16711746
0.0944886 -1.2476857 -0.0244057 16711746
0.9433528 -1.2277882 -0.0217197 16711746
0.1577540 -0.6380555 0.0764596 16711746
0.0466610 -0.0501541 -0.0621620 16711746
-0.5592600 -0.9642478 -0.3738163 16711746
-0.0927701 -0.5321972 0.1494563 16711746
0.0356798 -0.6314951 -0.0172918 16711746
0.2413706 -0.5644350 0.1747403 16711746
0.3056498 -1.3276520 0.0102091 16711746
0.0466222 -0.0501973 -0.0622672 16711746
0.3753584 -1.2556062 0.0243622 16711746
-0.1751008 -0.9264792 0.1005594 16711746
0.2721448 -0.9107566 -0.1723176 16711746
0.3456514 -1.0421143 0.1619013 16711746
-0.3059593 -1.1933906 -0.4693402 16711746
0.3276082 -1.1407418 0.1586014 16711746
0.6086812 -0.7133000 -0.0225960 16711746
-0.1213314 -0.6947918 -0.0971169 16711746
-0.1884615 -0.7282243 -0.0040138 16711746
-0.1541064 -1.3122824 -0.1618834 16711746
-0.1075901 -0.8020744 -0.1304854 16711746
-0.1552431 -0.7452093 0.1795636 16711746
0.0348501 -1.0400072 0.0113910 16711746
1.0128635 -1.0674622 0.0310654 16711746
0.6603777 -1.0456084 0.1421772 16711746
0.3149661 -1.3766327 0.0100683 16711746
0.6106035 -1.4211727 0.0307433 16711746
0.4889684 -0.8912272 0.2418810 16711746
0.3652113 -0.9448724 0.2011977 16711746
-0.3678384 -0.6227941 -0.2242860 16711746
0.3041116 -1.2649900 -0.1441471 16711746
0.3138348 -0.7998421 -0.0777819 16711746
-0.1937381 -0.9095758 -0.1530637 16711746
-0.1217896 -1.0315629 0.0985491 16711746
0.2330891 -1.0694519 0.1829328 16711746
0.2563795 -0.7836592 0.1658361 16711746
0.1371633 -0.7001210 0.1928976 16711746
0.7082099 -1.0879565 0.0475968 16711746
0.6358726 -1.0425166 0.1157274 16711746
0.2675660 -1.1118203 0.0641322 16711746
0.2820484 -1.2235926 0.0024404 16711746
0.4928241 -1.2850565 0.1817789 16711746
0.3256026 -0.9857374 0.1056611 16711746
0.7044752 -1.0609862 -0.0279245 16711746
-0.1372742 -0.6051558 0.0222435 16711746
0.4164804 -1.2469242 -0.4497891 16711746
-0.0781302 -1.2964219 -0.4399547 16711746
-0.1876076 -1.0528888 -0.2794534 16711746
-0.3548415 -0.8639553 -0.0454414 16711746
-0.4324682 -0.5341987 -0.0374858 16711746
0.1923507 -0.6657306 -0.1220385 16711746
-0.1171146 -0.4490903 0.0963813 16711746
0.0444544 -1.8892107 0.1377600 16711746
-0.3838297 -0.6353338 0.0091380 16711746
0.6444355 -1.0040022 0.1915916 16711746
0.8963195 -1.3271732 0.0093884 16711746
0.8038580 -1.1247407 0.1111026 16711746
0.0798388 -0.9684888 -0.0304980 16711746
0.2968098 -0.8280842 -0.0449991 16711746
0.0846176 -0.8165236 0.0273811 16711746
-0.2322675 -0.9547104 -0.0604143 16711746
-0.1299521 -0.9814423 -0.2372948 16711746
1.0288908 -1.2886131 -0.2214457 16711746
0.3020769 -1.1106753 -0.1222370 16711746
-0.5175093 -0.8082049 0.2472688 16711746
-0.2127125 -1.0536178 0.1239808 16711746
-0.1167911 -0.9530009 0.0744236 16711746
0.6094874 -0.7513816 0.1264243 16711746
0.5724105 -1.2583038 0.3139478 16711746
0.2825588 -0.7558409 0.2406029 16711746
0.5614429 -0.8845977 0.1081745 16711746
0.0791243 -1.4328336 0.0424891 16711746
-0.1612856 -0.3082578 0.0503583 16711746
-0.1296622 -0.3452074 -0.0043847 16711746
-0.2889867 -0.3802606 -0.1793847 16711746
-0.0379776 -0.7522135 -0.1434130 16711746
0.3597104 -0.8815650 -0.1143008 16711746
0.3844492 -1.2647973 -0.2123332 16711746
0.1284340 -1.0291270 -0.1084307 16711746
0.0997619 -1.1717669 0.0730557 16711746
0.1124122 -1.1527418 0.1687100 16711746
-0.1916387 -0.8809054 -0.3471110 16711746
-0.2990560 -1.0151576 -0.3439691 16711746
-0.1448022 -0.9440711 -0.1917604 16711746
0.0556162 -0.7255268 0.1613378 16711746
-0.1755434 -0.3069581 0.0376760 16711746
-0.1253986 -1.0635126 -0.2053019 16711746
0.5436068 -1.2835478 -0.2335140 16711746
-0.0920773 -1.1110693 -0.3176995 16711746
0.5277481 -1.4400254 -0.6583320 16711746
0.0349848 -1.8654044 -0.9585322 16711746
1.0248808 -0.8963574 -0.7161521 16711746
0.8267857 -0.8051154 -0.6134564 16711746
1.0255438 -1.3623648 -0.8875362 16711746
1.2336253 -1.2214721 -0.7694826 16711746
0.1551240 -2.1995056 0.5811846 16711746
0.9909928 -1.0659778 0.1001789 16711746
1.2763379 -1.9434749 0.0953527 16711746
-0.0567978 -2.2465739 -0.7688653 16711746
0.5014471 -1.5640712 -0.7976681 16711746
1.1340102 -1.0322756 -0.7440403 16711746
-0.8913921 -1.8199857 -0.5087252 16711746
1.1727242 -1.4291642 -0.4517461 16711746
1.2759728 -1.1877415 -0.5021930 16711746
1.2380528 -1.3467267 -0.6768713 16711746
-0.6413238 -0.6535227 0.3508169 16711746
1.2238044 -0.9177797 -0.5202854 16711746
0.8360622 -1.3846389 -0.6598536 16711746
-0.4353851 -2.0357444 -0.4612517 16711746
0.4907577 -2.2420254 -0.6662381 16711746
1.2066174 -1.1287600 -0.4391866 16711746
0.2410105 -2.2000902 -0.9444172 16711746
-0.3479195 -2.1788886 -0.5573679 16711746
-0.0934218 -1.0613919 -0.3202921 16711746
-0.9600025 -0.8744785 -0.2910651 16711746
-0.8098360 -1.1315953 0.1150439 16711746
0.9029394 -1.6786498 0.6620811 16711746
-0.0448602 -0.7243888 0.2208504 16711746
0.1411467 -0.7481772 0.0619190 16711746
0.3146898 -1.0889758 0.1482523 16711746
0.2507688 -0.8386629 -0.1595915 16711746
0.2413190 -0.9782987 0.0505851 16711746
-0.0750947 -0.7842203 0.0666504 16711746
0.0474700 -0.0413340 -0.0610921 16711746
0.0399596 -0.9612718 -0.1081273 16711746
0.1677547 -0.7659136 -0.1786489 16711746
0.4288033 -0.9191195 0.2070232 16711746
0.5750983 -0.6728432 -0.0385530 16711746
-0.1524086 -0.7982736 -0.0232368 16711746
-0.1731240 -0.7086207 0.0771594 16711746
-0.1351794 -0.9122080 -0.1678174 16711746
0.2788803 -0.8229083 0.1341650 16711746
-0.1636587 -0.9804409 -0.1219699 16711746
-0.0757080 -0.6564761 -0.0232641 16711746
0.2779050 -0.9359186 0.1942048 16711746
0.2267518 -0.8026880 0.1183027 16711746
-0.1669745 -0.5068550 0.1286492 16711746
0.6697422 -0.8436399 0.1176137 16711746
0.3009643 -1.0094250 0.0942603 16711746
0.0739833 -0.7087998 0.0004153 16711746
-0.2719534 -0.5898920 -0.1848249 16711746
0.3210824 -0.7852790 0.2623222 16711746
0.3158634 -1.0223194 -0.0884594 16711746
0.6124737 -0.8100135 0.0859923 16711746
0.0738274 -0.7852296 -0.0359389 16711746
0.3274179 -0.9050081 0.1308994 16711746
0.2565299 -0.8325920 0.1948774 16711746
0.2080012 -0.8195375 0.0988741 16711746
0.2242141 -0.8812950 -0.1906539 16711746
-0.1466915 -0.3089571 -0.1338891 16711746
0.1430754 -1.0039797 -0.0423642 16711746
-0.4155371 -0.5936164 -0.1602975 16711746
-0.8546296 -1.4933475 -0.4863844 16711746
-0.3123928 -1.8650962 -0.1130785 16711746
0.7930707 -1.8670708 0.8484222 16711746
0.7141943 -2.0629940 0.4937013 16711746
-0.6309429 -1.7307705 0.3891084 16711746
1.1226635 -1.1655159 -0.5593560 16711746
0.7223836 -2.0238724 0.5213716 16711746
-1.0675468 -1.4142240 -0.3429449 16711746
-0.2391669 -1.9206192 -0.3943819 16711746
-0.5433946 -1.5896337 0.5116991 16711746
-0.6329735 -0.7688906 0.3515348 16711746
0.1813015 -1.8360721 0.5784695 16711746
1.3996942 -1.7852821 0.4681717 16711746
-0.1785139 -1.7302512 0.6608918 16711746
-0.7846004 -1.0182456 -0.3238503 16711746
-0.9885080 -1.0923328 -0.4770739 16711746
0.5563750 -1.8252020 -0.7212579 16711746
-0.6179656 -1.9157121 -0.5074865 16711746
-0.4929002 -1.8430138 -0.7247815 16711746
-1.0078936 -1.0780308 -0.4269414 16711746
1.0852113 -0.9313186 -0.5433709 16711746
-0.1539686 -1.8415177 0.5640296 16711746
1.2460624 -1.3451067 0.4436392 16711746
-0.0354063 -0.4298843 -0.0463910 16711746
0.2335936 -0.6172609 0.1736298 16711746
0.3060807 -0.7382690 0.2466657 16711746
-0.7433041 -1.4177619 0.4347503 16711746
-0.7890597 -0.9515349 0.2856770 16711746
-1.0317780 -1.2940500 -0.2672797 16711746
0.7608812 -1.8582542 0.8367923 16711746
-0.6769080 -1.5865860 0.4798168 16711746
-0.6192939 -1.6796361 0.3770700 16711746
-0.8603707 -1.2383796 0.3526124 16711746
-0.0157469 -0.4664777 0.1199645 16711746
0.1272662 -0.6181828 0.1621450 16711746
0.4601881 -0.8374686 0.2245275 16711746
0.1834095 -0.5856145 -0.0890603 16711746
0.0733449 -0.5907694 0.1056807 16711746
0.2863619 -0.6207882 0.2471077 16711746
0.4399762 -0.7647849 0.1500403 16711746
-0.0757570 -0.4026504 -0.0445245 16711746
0.2784599 -0.6026991 0.2251435 16711746
0.4677489 -0.6307890 -0.0008843 16711746
-0.7686339 -0.7715499 0.0611795 16711746
0.2387291 -1.5092924 0.5126655 16711746
-0.4665679 -1.4127924 0.3234904 16711746
1.1582813 -1.3349243 0.3818470 16711746
-0.3988249 -1.1961471 0.3918356 16711746
-0.3187542 -1.3678929 0.3936099 16711746
-0.2089418 -1.8131202 0.3380828 16711746
-0.2725720 -1.7887059 0.3121846 16711746
-0.2640373 -1.6449571 0.1350043 16711746
0.6850857 -1.7976390 0.2811685 16711746
-0.3895906 -1.9737371 0.1064079 16711746
-0.4443992 -1.7666513 0.1346365 16711746
1.0594327 -1.6499224 0.1051333 16711746
0.8152045 -1.8674045 0.3594630 16711746
0.1692017 -1.5486705 0.4732433 16711746
-0.6734555 -1.2147323 0.1319380 16711746
-0.8705459 -1.1932864 0.1771411 16711746
0.6003910 -1.5167451 0.5276178 16711746
-0.5783346 -1.4306878 0.2405251 16711746
0.4493173 -1.4879962 0.4315465 16711746
0.5512227 -2.0299852 0.5027339 16711746
-0.7185924 -1.0729562 0.2936689 16711746
-0.5096458 -1.4990054 0.4822890 16711746
-0.7899002 -1.0667053 -0.0557728 16711746
-0.8504358 -0.9716718 -0.0247168 16711746
0.0165437 -2.0820532 0.2651918 16711746
0.7411392 -1.6234297 0.4213548 16711746
-0.7130706 -1.6130972 0.1535629 16711746
-0.6580641 -1.8115234 -0.0111922 16711746
0.3125507 -1.8544493 0.3039074 16711746
0.1585972 -1.7983150 0.2492623 16711746
1.1545539 -1.4826107 0.2764199 16711746
-0.4407901 -1.5400845 0.2454220 16711746
-0.9856588 -1.3227004 -0.1061754 16711746
-0.4580640 -1.7465260 0.1918380 16711746
0.3890997 -1.6479064 0.3511930 16711746
-0.8428400 -1.4367917 -0.1680266 16711746
-0.4094782 -1.2233891 0.4021582 16711746
0.4517742 -1.3013252 0.6162347 16711746
0.1870940 -1.3019217 0.5528858 16711746
-0.6264741 -0.9886079 0.2774688 16711746
0.7601081 -1.3506024 0.5271879 16711746
-0.2819129 -1.6479576 0.3110752 16711746
0.0955125 -1.8716218 0.4144742 16711746
-0.9571241 -1.2931530 -0.1050995 16711746
-0.9763774 -1.1862751 -0.1371680 16711746
-0.7271550 -0.7841063 0.1026580 16711746
-0.6232997 -0.8608710 0.2330699 16711746
-0.7084995 -1.6023554 -0.2007054 16711746
-0.3312396 -2.0277860 0.2184157 16711746
0.6000214 -1.7961980 0.3126972 16711746
0.7803207 -1.4803007 0.4450815 16711746
-0.1615277 -1.8935549 0.5774301 16711746
0.3833628 -1.7717158 0.3967533 16711746
0.3810982 -2.1092293 0.3029263 16711746
-0.4941031 -1.7123246 0.2790966 16711746
1.2380482 -1.3432206 0.0174855 16711746
-0.4237238 -1.7519308 0.1057865 16711746
0.6300830 -1.4813519 -0.0139025 16711746
0.9145818 -1.6472539 -0.1424886 16711746
-0.9010128 -0.8944431 0.0798663 16711746
0.1633213 -1.3906078 0.4206305 16711746
1.1823310 -1.4977616 0.3755637 16711746
0.1508746 -1.8046582 0.2502596 16711746
-0.4436541 -1.9223573 0.0947428 16711746
0.6527345 -1.5243703 0.3178764 16711746
0.8247803 -1.8960912 0.3674814 16711746
-0.4042742 -1.7467195 0.2935692 16711746
-0.3784855 -1.7370098 0.2513537 16711746
0.5197313 -1.2807083 -0.1323361 16711746
-0.6292428 -1.5540870 -0.0997503 16711746
-0.1288729 -1.4035685 0.5297976 16711746
0.0420443 -2.3889832 0.1494500 16711746
-0.8167679 -0.8140249 0.0653360 16711746
0.9701046 -1.9232163 0.6752572 16711746
0.6606126 -1.5349129 0.6872787 16711746
0.6775285 -1.5764709 0.0915049 16711746
0.1421507 -1.5901504 0.2587802 16711746
-0.2009172 -1.9234521 -0.7341663 16711746
0.9747327 -1.4173293 0.1305943 16711746
0.7971569 -1.2310107 0.1137126 16711746
1.0449567 -1.3133227 0.1161016 16711746
-0.6960735 -1.1958535 -0.0904330 16711746
-0.1966488 -1.6558657 0.3033870 16711746
0.9599920 -1.7904263 0.7066412 16711746
0.4775366 -2.0794330 0.1724591 16711746
-0.1870238 -1.9239128 0.5035667 16711746
-0.2764896 -1.3172199 0.0806376 16711746
-0.5579818 -0.8505238 0.1850751 16711746
1.2386931 -0.9957156 0.1540816 16711746
0.7974181 -1.8597318 0.3535931 16711746
-0.3414568 -1.4411310 0.5246629 16711746
-0.1656799 -1.0135652 -0.4339528 16711746
-0.7252312 -2.0041633 -0.2760688 16711746
-1.0992819 -1.4043514 -0.6380816 16711746
-0.6647388 -1.4442014 0.0540540 16711746
0.7822616 -1.5408039 0.5015197 16711746
1.1155248 -1.5514203 0.0470404 16711746
-0.9749513 -1.1762607 -0.1375146 16711746
0.0659951 -1.5729321 0.2728980 16711746
-0.2073730 -1.5412550 0.2730206 16711746
1.2080960 -0.9826934 0.3290087 16711746
-0.5108394 -1.0430841 0.1365958 16711746
1.1299649 -1.5808979 0.0001053 16711746
0.5907063 -1.8664145 0.1011261 16711746
-0.5534118 -0.5244114 0.0758589 16711746
1.0473443 -1.8647784 0.2243623 16711746
-0.2290841 -2.2475295 -0.1627921 16711746
0.1666086 -1.6768268 0.1188823 16711746
1.2406377 -1.5320365 0.1880595 16711746
1.1336446 -1.7936232 0.0613629 16711746
1.2322222 -1.5525212 0.0287794 16711746
0.3114015 -1.8298446 0.1227847 16711746
0.8617886 -1.5256555 0.3701999 16711746
0.2078441 -2.0917723 -0.1273749 16711746
-0.5168048 -1.4013691 0.0631400 16711746
0.5340459 -1.3883318 0.2444340 16711746
-0.9955781 -1.4652765 -0.3824604 16711746
0.2978956 -2.1747103 -0.1221589 16711746
0.6186450 -1.9383099 -0.1661521 16711746
0.1493859 -1.8274814 0.0911508 16711746
0.0302280 -1.7189286 0.0770161 16711746
0.2316252 -1.7370871 0.0391740 16711746
1.1781799 -1.3108323 0.0874603 16711746
-0.4365648 -1.0824213 0.3552968 16711746
-0.1961202 -0.9288506 0.3106977 16711746
-0.2329164 -0.3893613 0.1362276 16711746
0.7661791 -1.3126737 0.3737032 16711746
0.8162400 -1.6056986 0.5534233 16711746
-0.3985916 -1.3280796 0.1765471 16711746
1.1001009 -1.5482184 0.1800895 16711746
0.1626289 -2.0233667 0.0639036 16711746
-0.3431038 -0.7772084 0.2762545 16711746
0.9312007 -1.6350888 0.1882257 16711746
-0.9722169 -1.3056762 -0.1056966 16711746
-0.8042663 -0.9536642 -0.0202265 16711746
0.2009835 -2.1615055 -0.3808463 16711746
-0.5349320 -1.6732715 0.0446352 16711746
0.1420957 -1.7289330 0.1448140 16711746
-1.0752947 -1.4541948 -0.4651625 16711746
0.6183774 -1.5938073 0.0574868 16711746
-0.3140775 -1.9372263 -0.1531737 16711746
0.5856275 -1.5666509 -0.1067012 16711746
-0.7713320 -1.7018247 -0.3044904 16711746
-0.9460472 -1.6237249 -0.0311511 16711746
-0.7946855 -0.9358796 -0.0200990 16711746
0.4433802 -2.2540350 -0.1001229 16711746
0.0503786 -2.1786311 -0.1171407 16711746
0.2069214 -1.2168159 0.4033677 16711746
0.5255029 -1.4758158 0.5378796 16711746
-0.9945353 -1.2044748 -0.1380136 16711746
0.2706202 -1.5973845 0.2500526 16711746
0.2677452 -1.4203901 0.1840622 16711746
1.1382846 -1.2433547 0.1460958 16711746
-0.2450197 -1.6784110 -0.0866645 16711746
1.0151083 -1.7791866 -0.3407609 16711746
0.2261696 -1.8325915 -0.0235781 16711746
-0.5783756 -0.8042095 0.2122371 16711746
-0.3014881 -1.3278980 0.2310287 16711746
-0.6049433 -0.8713644 0.0773132 16711746
-0.5758585 -0.6242001 0.0769984 16711746
1.0383941 -1.2828480 0.3142836 16711746
-0.1427333 -0.3286396 -0.1508081 16711746
-0.4482751 -1.9930433 -0.5451387 16711746
0.2711387 -1.4851650 -0.2312915 16711746
-0.5946898 -1.3524171 -0.0405262 16711746
-0.6163379 -1.0068734 0.2767211 16711746
-0.3488864 -1.2410679 0.1895267 16711746
-0.4352781 -0.9151399 0.1130276 16711746
0.3532483 -1.4183593 0.2006589 16711746
0.3547308 -2.1919489 -0.2749386 16711746
-0.6419869 -1.0121845 -0.1334949 16711746
-0.4150934 -1.0592731 0.2907989 16711746
0.1198443 -1.4664322 0.3580452 16711746
0.4211584 -1.7725301 0.2689060 16711746
-0.2659778 -1.9963276 -0.1610879 16711746
-0.9209113 -1.4161485 -0.3443576 16711746
0.8385875 -1.4277415 -0.0648292 16711746
0.2037114 -2.1452453 -0.3736783 16711746
0.8018832 -1.8775556 -0.0806569 16711746
-0.0922746 -1.1827384 0.2846962 16711746
-0.2469425 -1.6946368 0.3557820 16711746
-0.4083099 -1.3039337 0.1826751 16711746
0.1315658 -2.2080820 0.0034198 16711746
-0.4366456 -1.3517236 0.1338811 16711746
-0.1303665 -1.4638721 0.3643042 16711746
0.6007392 -1.7613436 0.1935933 16711746
1.2883152 -1.8309095 -0.1382607 16711746
0.1344295 -1.5167274 0.1227885 16711746
0.8467165 -2.2489347 -0.4704742 16711746
0.6279989 -2.2819943 -0.4498535 16711746
0.6790797 -2.4038432 -0.0483878 16711746
1.0947046 -1.6521254 -0.4314188 16711746
0.3693806 -2.2815504 -0.2526118 16711746
-0.3311642 -1.4873229 0.0352775 16711746
1.2514571 -1.5566175 0.0792705 16711746
-0.4932486 -0.7702274 0.1607127 16711746
0.2385330 -1.9679704 -0.0204703 16711746
0.2191951 -1.7191364 0.1754988 16711746
-1.0974441 -1.2856681 -0.2392610 16711746
0.9686857 -2.0449717 -0.4759642 16711746
0.1400936 -1.6989939 0.0378172 16711746
-0.8455289 -1.2805933 -0.1081698 16711746
-0.2877997 -1.3041095 0.0214273 16711746
-0.7014421 -1.4344281 -0.4176434 16711746
1.2539145 -1.6901979 -0.0483585 16711746
0.4994659 -1.5662618 0.2057790 16711746
0.4384181 -1.8671693 -0.3451587 16711746
0.4986888 -1.7948693 0.1553885 16711746
0.6700564 -2.1023204 -0.5132120 16711746
-0.5928851 -0.8523335 0.1063554 16711746
0.8351803 -1.3263960 0.1961537 16711746
0.2982345 -1.3254687 0.2826436 16711746
0.4084153 -1.7332125 0.1429397 16711746
0.0573457 -2.1252429 -0.1137563 16711746
-0.2686506 -1.2739245 0.1927444 16711746
1.0725638 -1.6921197 -0.0083644 16711746
0.5141242 -2.1320808 -0.3150934 16711746
0.5293248 -1.4540702 0.2517035 16711746
-0.2964766 -1.4818088 0.1409497 16711746
0.4629756 -1.4491113 0.1883764 16711746
0.3386544 -2.0943208 -0.2373697 16711746
0.8235617 -1.2398032 -0.0798170 16711746
1.1972848 -1.8495822 -0.2036600 16711746
-0.2334734 -0.3453994 0.1136205 16711746
0.5431139 -1.9560555 0.1756833 16711746
0.9560126 -1.2702402 0.1079029 16711746
0.4845976 -1.4279271 0.2388791 16711746
-0.5340402 -2.0709743 -0.6943030 16711746
-0.2971342 -1.4857999 -0.0749049 16711746
-1.0060800 -1.2263802 0.0245277 16711746
-0.6465248 -0.6909369 0.0934187 16711746
-0.8226868 -1.4728022 -0.3708870 16711746
-0.3489169 -1.5056000 0.2721970 16711746
-0.1853671 -1.4400764 0.2505193 16711746
0.8376456 -1.3599461 0.2088344 16711746
-0.5338358 -2.2208319 -0.3284025 16711746
1.2417752 -1.2238518 -0.1085391 16711746
1.1448967 -1.7980788 0.3941402 16711746
0.6254172 -1.8137623 0.1378296 16711746
1.1862341 -1.8023001 -0.0883925 16711746
0.6044614 -1.4132740 0.3102578 16711746
1.2074355 -1.7257514 -0.0709115 16711746
-0.3390495 -2.6316843 -0.5304180 16711746
0.1288773 -1.9259346 -0.0755580 16711746
0.3375949 -1.6673825 0.3338240 16711746
1.4751967 -2.0934551 -0.1567120 16711746
-0.3274184 -1.2890302 -0.0605358 16711746
-0.6194263 -2.2145431 -0.8243683 16711746
1.7107447 -1.6938707 -0.1395338 16711746
0.4431210 -2.4961269 -0.2391857 16711746
0.3418630 -1.7029319 -0.2248530 16711746
0.6791916 -2.5452917 -0.5996884 16711746
1.3435028 -1.6265621 -0.0822409 16711746
1.3021779 -1.6506339 0.0784185 16711746
-0.7460176 -1.0895561 0.0606316 16711746
0.8949228 -2.5574036 -0.4884803 16711746
1.3918121 -1.7441716 -0.0525099 16711746
0.9652447 -1.4226875 0.0947190 16711746
1.0362772 -2.5147693 -0.2795119 16711746
-0.2431182 -1.1374723 0.0678877 16711746
-0.4536260 -0.7172137 0.1457918 16711746
0.3009728 -1.7436000 0.1172972 16711746
0.6622210 -1.9989136 -0.2659016 16711746
0.9307324 -2.1880319 -0.1098641 16711746
-0.2285786 -1.7339635 -0.0607670 16711746
0.6311256 -1.6763587 0.1789378 16711746
-0.4309220 -1.9835776 -0.6977187 16711746
-0.5916971 -2.5955141 -0.6983147 16711746
1.4719453 -1.6054890 -0.3418540 16711746
-0.8426175 -2.1820679 -0.5751210 16711746
-0.5892076 -0.6334202 0.0802842 16711746
-0.5900617 -1.5474628 -0.4675775 16711746
1.0562218 -1.2242435 0.0593127 16711746
0.2884403 -2.0992033 -0.1217416 16711746
-0.5575632 -0.5744574 0.0354985 16711746
1.6179398 -1.7295842 0.0645208 16711746
0.2987239 -1.7754517 0.1118421 16711746
0.8785262 -2.0817528 0.1520414 16711746
-0.0733789 -0.7160395 0.0884406 16711746
0.3446136 -0.9511438 0.0455358 16711746
0.6627211 -0.9068922 -0.0242349 16711746
0.2757181 -0.8616692 -0.0928260 16711746
0.6770176 -0.8394502 0.0069507 16711746
-0.1380135 -0.6067032 0.0372752 16711746
0.0794580 -0.6595495 0.1213660 16711746
0.0844508 -0.6127647 0.1339531 16711746
0.1371666 -0.7441323 0.0624615 16711746
-0.1474820 -0.4658480 0.0125860 16711746
0.6240577 -0.6722865 0.0157840 16711746
0.1486317 -1.0643547 -0.0379313 16711746
0.2641654 -0.9085447 -0.0871401 16711746
-0.1224969 -0.6527049 0.0778816 16711746
0.2639391 -0.9462413 -0.1126913 16711746
0.2181535 -0.9656956 -0.2462348 16711746
0.3058416 -0.8230842 0.1530464 16711746
-0.0678774 -0.6843517 0.1060226 16711746
0.2747355 -0.6148469 -0.0408988 16711746
0.3290561 -1.0806812 -0.1277239 16711746
0.2334143 -0.6495041 -0.0802980 16711746
1.6859205 -1.6650954 -0.1484000 16711746
0.8964625 -2.1076324 -0.3457769 16711746
1.7670832 -1.4566530 -0.1142012 16711746
-0.8722446 -1.2175689 0.0373170 16711746
1.4892045 -1.9632709 -0.1260199 16711746
-0.9487048 -1.5197546 -0.1269470 16711746
0.4126939 -2.0246489 -0.2944758 16711746
1.3382648 -1.8027682 -0.0487415 16711746
-0.3747716 -2.5012121 -0.7562119 16711746
0.1104010 -1.8471459 -0.7321768 16711746
0.1527432 -1.0035375 0.4089859 16711746
1.6068430 -1.4445947 -0.4308293 16711746
0.4602609 -1.5984449 -0.3367051 16711746
-0.5296983 -2.6298316 -0.8887348 16711746
-0.2473435 -2.2996552 -0.4247441 16711746
-0.5820726 -1.8015193 -0.7894715 16711746
-0.6221795 -1.9171289 -0.5640186 16711746
-0.1355592 -2.4781375 -0.6472791 16711746
-0.2860329 -1.8879783 -0.5469895 16711746
-0.4186284 -1.2860038 0.1274817 16711746
-0.6177775 -0.8945615 0.0823550 16711746
-0.2574824 -1.1155317 0.2993462 16711746
1.7653961 -1.7723770 -0.1071191 16711746
-0.3717889 -2.6263642 -0.5527073 16711746
0.8476220 -1.9020445 -0.0651864 16711746
0.6641101 -2.3044472 -1.1644052 16711746
0.5766328 -0.3857816 -0.2683443 16711746
1.4629250 -3.1573703 -0.6697384 16711746
1.1375659 -2.0118291 -0.3789082 16711746
-0.3107019 -0.9128141 0.1731600 16711746
