# .PCD v.7 - Point Cloud Data file format
VERSION .7
FIELDS x y z rgb
SIZE 4 4 4 4
TYPE F F F F
COUNT 1 1 1 1
WIDTH 96
HEIGHT 1
VIEWPOINT 0 0 0 1 0 0 0
POINTS 96
DATA ascii

 0.0302861 -0.0282990 -0.0830922 16777215
 0.2235322 0.1863363 1.2096258 16777215
2.0206914 -1.3033022 1.8647243 16711746
2.0754843 -1.3191841 1.8105181 16711746
1.3231566 -0.9538274 1.5853192 16711746
1.7426004 -1.1299211 2.1898263 16711746
1.7257103 -1.4181633 2.0599785 16711746
0.2878222 0.9915491 2.1876094 16711746
0.8747703 -0.9474820 1.8628906 16711746
0.8586892 -0.9500110 1.8750663 16711746
0.1767866 -1.0216320 1.7678471 16711746
1.4911009 -1.0694985 2.3467627 16711746
1.7818165 -1.2117220 2.1208484 16711746
1.4831055 1.0458558 1.6414706 16711746
0.9140502 -0.9526251 2.0720301 16711746
1.9112405 -0.9998500 1.9483212 16711746
0.4792526 -1.0240172 2.3346837 16711746
1.6231761 -1.0565839 2.2377434 16711746
1.5470383 -1.0644815 2.3005850 16711746
-0.0846918 -1.4480245 2.4170194 16711746
2.1143413 -1.1318535 1.8526261 16711746
-0.0133959 -1.3995508 2.4138556 16711746
0.7041017 0.9046887 1.8552798 16711746
1.0466242 1.0585462 2.5605600 16711746
-0.4329062 -1.1999434 2.0082090 16711746
-0.0660972 -1.4640619 2.3722086 16711746
1.7960534 -1.0722156 2.1413641 16711746
0.0995971 -1.3238692 2.4012191 16711746
2.0306957 -1.0406468 1.9665900 16711746
1.9042270 -1.2205794 1.9977620 16711746
1.3942319 -0.9899116 1.4403598 16711746
1.3313041 -0.9847010 1.4985090 16711746
2.0849702 -0.9634984 1.7165170 16711746
1.6840689 -1.1372615 2.2507503 16711746
0.1633728 -1.4414790 2.4206607 16711746
0.1535632 -1.3982954 2.2381618 16711746
1.0271326 -0.9997091 1.7622395 16711746
2.0953255 -1.0849125 1.8720907 16711746
1.9114853 -0.9688830 1.8336625 16711746
1.9719368 -1.1402260 1.9661626 16711746
2.0491226 -1.1578034 1.8978819 16711746
2.1757417 -1.0676742 1.8084037 16711746
0.5926356 -1.0544331 2.1928060 16711746
1.9538552 -1.0630913 1.9910700 16711746
1.8554865 -1.1611696 2.0664654 16711746
1.5575197 -1.1414903 2.3591645 16711746
0.4140857 -1.0973846 2.3403845 16711746
0.8247105 -1.1908214 1.7975956 16711746
1.9408202 -1.3192241 1.9197717 16711746
0.1309378 -1.4111320 2.5178773 16711746
1.8453379 -1.1858206 2.0675144 16711746
1.9237325 -1.2092395 1.9851097 16711746
0.7593069 -1.0785006 1.9979032 16711746
-0.2913700 -0.9979891 2.0200450 16711746
-0.4754045 -1.5012116 2.2703450 16711746
0.7831900 -1.0876607 1.8983434 16711746
0.8168961 -1.1024284 1.9132552 16711746
1.6480311 -1.0930307 2.2960742 16711746
1.6902423 -1.1011271 2.2421157 16711746
1.7067802 -1.0499538 2.2279959 16711746
1.9923142 -1.2541991 1.9086930 16711746
2.0602653 -1.2671851 1.8501433 16711746
2.0171278 -1.2823950 1.8768682 16711746
0.9040790 0.9024319 1.6007600 16711746
0.0352806 1.0316085 2.2077746 16711746
1.6861296 -1.2482769 2.2069452 16711746
2.0241082 -1.3661417 1.8137091 16711746
1.8956476 -1.3793542 1.9145905 16711746
1.7708883 -1.4560336 1.9811881 16711746
1.0174927 1.0551734 2.5301328 16711746
1.0248893 1.0211720 2.3188286 16711746
1.3006306 -1.0870874 2.5114083 16711746
2.1889610 -0.9797608 1.7330842 16711746
-3.1206415 -17.3832951 2.0444975 16711746
-2.4633017 -15.0387554 1.9666866 16711746
-2.6828923 -14.5651426 1.8260587 16711746
-1.5410850 -2.5122414 0.8213136 16711746
-2.3868666 -10.4518328 1.4834130 16711746
-2.6530094 -12.9684429 1.6914889 16711746
-1.9101448 -6.2903056 1.2079291 16711746
-2.7164075 -13.8411226 1.4654371 16711746
-1.9612408 -6.8247294 1.0577928 16711746
-1.5258826 -2.3718569 0.8080069 16711746
-3.6495612 -23.6361961 2.4057944 16711746
-1.8930484 -6.1805625 1.1979216 16711746
-3.1205859 -17.4258671 2.0911663 16711746
-2.0499551 -7.1359696 1.0909148 16711746
-2.8006203 -14.9956322 1.8484651 16711746
-3.9390912 -24.9064121 2.4515047 16711746
-1.8590178 -5.9180627 1.1871096 16711746
-2.4981782 -12.4110231 1.6666926 16711746
-1.5248723 -2.3599741 0.8157951 16711746
-2.2960234 -8.1449413 1.0720724 16711746
-0.4592032 -1.7887372 0.1003254 16711746
-2.7779448 -15.0306120 1.8459603 16711746
0.4211960 -8.0171576 0.8452363 16711746
