# .PCD v.7 - Point Cloud Data file format
VERSION .7
FIELDS x y z rgb
SIZE 4 4 4 4
TYPE F F F F
COUNT 1 1 1 1
WIDTH 1175
HEIGHT 1
VIEWPOINT 0 0 0 1 0 0 0
POINTS 1175
DATA ascii
-0.0061718 -0.8275176 8.2390833 16711746
-0.0729702 -0.7965779 7.9496455 16711746
-0.0018832 -0.8286650 8.1112518 16711746
-0.0794028 -0.8218247 8.0376234 16711746
-0.0748572 -0.8291455 8.1242876 16711746
-0.1856924 -0.8055639 7.9943204 16711746
-0.2310092 -0.9228022 8.7187595 16711746
-0.2057330 -0.8451208 8.2181787 16711746
-0.0422900 -0.8525769 8.3268585 16711746
-0.1159476 -0.8178997 8.0729599 16711746
0.3470886 -0.8406430 8.2359219 16711746
0.1062977 -0.8442979 8.1641874 16711746
-0.1916806 -0.9159418 8.5908756 16711746
-0.0678471 -0.8326790 8.1933365 16711746
-0.3466344 -0.9391050 9.0002975 16711746
-0.6128652 -0.9242029 8.7007113 16711746
-2.7100170 -1.7514867 9.4522057 16711746
-0.1419422 -0.8153731 8.0209904 16711746
-0.2153662 -0.8210570 7.8753448 16711746
0.0625666 -0.8065370 7.9715538 16711746
0.0277800 -0.8506116 8.2101231 16711746
-0.1065894 -0.8219616 8.0850220 16711746
-0.0691964 -0.8394011 8.2076845 16711746
0.0453272 -0.8604289 8.2419186 16711746
0.2443461 -0.8562058 8.2827301 16711746
-0.4002372 -0.7765660 7.8799167 16711746
-0.4403986 -0.8361022 8.2462606 16711746
0.0495497 -0.8221064 8.0202465 16711746
-0.3474873 -0.8443325 8.2624483 16711746
-0.2670797 -0.8319300 8.1091290 16711746
-0.1259254 -0.8365176 8.1247349 16711746
-0.0870981 -0.8046371 7.9894223 16711746
0.3807459 -0.8531207 8.2427254 16711746
-0.2882897 -0.8211082 8.0762081 16711746
-0.3403142 -0.8229787 8.1308403 16711746
-0.1454522 -0.8124738 7.9354458 16711746
0.1739652 -0.8040021 7.9567413 16711746
0.0794299 -0.8571429 8.2072830 16711746
-0.2434230 -0.8429232 8.1084003 16711746
-0.0291519 -0.8041389 8.0166779 16711746
0.0737358 -0.8331677 8.0932436 16711746
0.0986033 -0.8379945 8.1380749 16711746
0.0909942 -0.8258078 8.0590296 16711746
0.0091007 -0.8270691 8.1037531 16711746
0.1561806 -0.8016184 7.9215207 16711746
0.1518480 -0.8197658 7.9827623 16711746
-0.3742242 -0.8260077 8.1813831 16711746
-0.0435052 -0.8241877 8.1356764 16711746
-0.1006326 -0.8240023 8.1098728 16711746
0.1683441 -0.8621464 8.2308674 16711746
0.2960821 -0.8848746 8.3807983 16711746
-0.2661527 -0.8337016 8.1044197 16711746
-0.0018967 -0.8307841 8.1001549 16711746
0.0189985 -0.7956378 7.9648223 16711746
-0.2553837 -0.7995397 7.9501595 16711746
-0.1777528 -0.8235529 7.9683332 16711746
-0.1504469 -0.8030249 8.0781898 16711746
0.1586967 -0.9445920 8.2633305 16711746
-0.3692030 -0.8319711 8.1617765 16711746
0.1672048 -0.8521597 8.2022877 16711746
0.0806410 -0.8285471 8.1096725 16711746
-0.3127536 -0.8255458 8.1008015 16711746
-0.2215350 -0.7993982 7.9902668 16711746
-0.3040920 -0.8497275 8.1892586 16711746
-0.2577519 -0.8178686 8.0286980 16711746
0.0845329 -0.8311915 8.0479813 16711746
-0.2279206 -0.8159320 7.9652100 16711746
0.0548434 -0.8473433 8.1650410 16711746
-0.1830813 -0.8087906 7.9822750 16711746
0.3161510 -0.8247343 8.2721539 16711746
0.2233744 -0.8566465 8.0200205 16711746
-0.4048088 -0.7809197 7.9066782 16711746
-0.3836407 -0.7784872 7.9000983 16711746
0.1281964 -0.8246155 8.0074482 16711746
-0.0569762 -0.8038400 7.9936833 16711746
-0.0183636 -0.8435390 8.2028170 16711746
-0.3146303 -0.8400505 8.2331409 16711746
0.2978236 -0.8692418 8.4025631 16711746
-0.0028813 -0.7938324 7.9293394 16711746
-0.2087129 -0.8432160 8.2280064 16711746
-0.1205666 -0.8517104 8.3170776 16711746
-0.1653858 -0.8127253 8.0372019 16711746
-0.0266204 -0.7931297 7.9642262 16711746
-0.0713422 -0.8007932 7.9686217 16711746
-0.1995401 -0.8049527 7.9659300 16711746
-0.0727001 -0.8152674 8.0594940 16711746
0.0240248 -0.8639570 8.3412981 16711746
-0.3771108 -0.8270298 8.1799240 16711746
0.3026381 -0.8428283 8.2097883 16711746
-0.2166882 -0.8058048 7.9513917 16711746
-0.0600530 -0.8345149 8.1624441 16711746
0.0000313 -0.8140887 8.0011482 16711746
-0.1449358 -0.8198388 8.0367022 16711746
-0.1658587 -0.8135953 8.0352602 16711746
-0.4287506 -0.8420876 8.2798767 16711746
0.1919502 -0.8013090 7.9496245 16711746
-0.1956724 -0.8093879 7.9359441 16711746
0.0247861 -0.8220484 8.0326042 16711746
-0.2751830 -0.9854389 8.1163692 16711746
-0.0464383 -0.8357176 8.1515999 16711746
-0.2927116 -0.8235951 8.0896196 16711746
-0.3381535 -0.8239012 8.1291761 16711746
0.8084430 -1.4144322 8.7608557 16711746
-1.3182322 -1.0850278 8.3943033 16711746
-0.2460384 -0.8192758 7.9430866 16711746
0.0294889 -0.8141132 8.0232897 16711746
0.0024513 -0.8631253 8.2659121 16711746
-0.1046935 -0.8214386 8.0763206 16711746
-1.3658202 -1.0740614 8.5506315 16711746
0.0635669 -0.8341248 8.1148529 16711746
-1.2387592 -1.1004614 8.2623949 16711746
0.0488125 -0.8884723 8.0417929 16711746
-0.2465838 -0.7952666 8.0078802 16711746
-0.4662835 -0.9415203 8.4036884 16711746
-0.2152305 -0.8760642 8.4412031 16711746
0.2853869 -0.8730506 8.4760818 16711746
-0.0076989 -0.8760771 8.4962292 16711746
0.1405456 -0.8242554 8.0324125 16711746
-0.1617350 -0.7990928 7.9256840 16711746
-0.1229576 -0.8079064 7.9877067 16711746
0.0464172 -0.8336086 8.1297922 16711746
0.1249097 -0.8222636 8.0091076 16711746
-0.2910535 -0.8216303 8.0747375 16711746
-0.1615899 -0.8069586 7.9943171 16711746
0.0291369 -0.8215986 8.0920830 16711746
-0.2545673 -0.8207627 8.0196772 16711746
-0.1617654 -0.8098938 7.9882693 16711746
0.0223501 -0.8509739 8.2084627 16711746
-0.2080681 -0.8459727 8.2239733 16711746
-0.2492290 -0.8872624 8.1595945 16711746
0.1330314 -0.8360377 7.9621453 16711746
-0.1637714 -0.8416979 8.0112438 16711746
-0.1693075 -0.8558570 8.3201981 16711746
-0.3978236 -0.7859195 7.8999906 16711746
-0.2612022 -0.8899177 8.5396614 16711746
-0.0156525 -0.8606505 8.3589687 16711746
-0.0602152 -0.8141357 8.0533495 16711746
-2.6034024 -1.1922610 9.3876610 16711746
0.0971275 -0.8153571 7.9739447 16711746
-0.0947535 -0.8663834 8.4671078 16711746
0.1504745 -0.8888128 8.5212536 16711746
-0.1628192 -0.8010684 7.9661236 16711746
-0.0108677 -0.8327693 8.1385508 16711746
-0.3043160 -1.6880674 9.4320316 16711746
0.0328437 -0.9984429 9.1752605 16711746
0.0783419 -0.8581797 8.2929049 16711746
-1.5146108 -1.3621958 9.7860470 16711746
-0.1715368 -1.3377935 9.3675470 16711746
-0.1267448 -0.8192123 8.0443516 16711746
0.1333938 -0.8464229 8.1786289 16711746
0.3036457 -0.8285462 8.0706282 16711746
0.1006503 -0.8264848 8.0625048 16711746
-0.0327749 -0.8146933 8.0424309 16711746
-0.0846533 -0.8064718 8.0387592 16711746
-0.1221767 -0.8065171 7.9904909 16711746
0.4339317 -0.9751007 8.2266369 16711746
-0.2360831 -0.8078375 7.9554882 16711746
0.2788165 -0.8434411 8.1629601 16711746
0.2156527 -0.8297266 8.0520296 16711746
-0.2928160 -0.8091446 7.9793010 16711746
-0.0136753 -0.8022745 7.9921212 16711746
0.0078981 -0.8196083 8.0737791 16711746
0.1669296 -0.8162743 7.9216647 16711746
0.1648020 -0.7963584 7.9422870 16711746
0.0036778 -0.8106230 8.0710182 16711746
-0.2506646 -0.8033522 7.9942331 16711746
-0.0204878 -0.8039407 7.9952421 16711746
0.2865075 -0.8411763 8.1661358 16711746
-0.0220712 -0.8130151 8.0670528 16711746
-0.0657755 -0.8024729 8.0171614 16711746
-0.5289884 -0.8037868 7.9669762 16711746
0.0680918 -0.8281098 8.1098061 16711746
-0.0424898 -0.7983596 7.9825892 16711746
-0.1636244 -0.8147660 8.0324221 16711746
-0.2186836 -0.8088148 7.9539528 16711746
0.3901365 -0.8619199 8.2367630 16711746
-0.3707412 -0.8290903 8.2222939 16711746
-0.2646073 -0.8113155 7.9838285 16711746
-0.1371621 -0.8151418 8.0185938 16711746
-0.1361209 -0.8160799 8.0420084 16711746
-0.2534379 -0.8218091 8.0607090 16711746
0.1497678 -0.8247958 7.9815040 16711746
0.1283192 -0.8408213 8.1597109 16711746
-0.2976129 -0.8202834 8.0666046 16711746
0.0154030 -0.8580315 8.1496887 16711746
0.3327076 -0.8150189 8.1614141 16711746
0.3581198 -1.2117239 8.2757788 16711746
-0.2979783 -0.7998930 7.9915771 16711746
0.0050299 -0.8704039 8.3744164 16711746
-0.0561424 -0.8101621 8.0258331 16711746
-0.2784691 -0.8099836 8.0550900 16711746
-0.2439708 -0.8552132 8.2201214 16711746
0.1816545 -0.9106567 8.7004004 16711746
0.1243806 -0.8377469 8.1417570 16711746
0.2013438 -0.8522277 8.1887875 16711746
0.0416375 -0.8139600 8.0250673 16711746
-0.1275685 -0.8179851 8.0483665 16711746
-0.1461744 -0.8165163 8.0459414 16711746
-0.0856119 -0.8056194 7.9996576 16711746
0.0065397 -0.8533170 8.3039732 16711746
-0.0235434 -0.8267590 8.1201668 16711746
-0.2869112 -0.8199720 8.0771761 16711746
-0.6666149 -0.9199457 8.5829039 16711746
0.0608638 -0.8367160 8.1521130 16711746
-0.5194830 -0.8621120 8.3582811 16711746
-0.2213196 -0.8177025 8.0706406 16711746
-0.1090488 -0.8358964 8.1248455 16711746
-0.0755519 -0.8235911 8.1394978 16711746
-0.1025897 -0.8139299 8.0356369 16711746
0.0107153 -0.8066122 7.9922924 16711746
0.0061257 -0.8151473 8.0337143 16711746
0.1028918 -0.8481536 8.1754723 16711746
-0.2177031 -0.8430747 8.1219845 16711746
-0.3267725 -0.8322281 8.2669725 16711746
0.3947452 -0.8579888 8.2851067 16711746
-0.1215455 -0.8261093 8.0758343 16711746
-0.3952487 -0.8586521 8.3365164 16711746
-0.6466799 -0.8902306 8.5987301 16711746
-0.2102786 -0.8375350 8.1454277 16711746
0.0070880 -0.8218809 8.0502872 16711746
0.0779335 -0.8230338 7.9981923 16711746
-0.1350187 -0.8115090 8.0097542 16711746
-0.5457684 -0.9243730 8.5747557 16711746
-0.3589442 -0.8769217 8.2397490 16711746
-0.5689426 -0.9015785 8.4693289 16711746
-0.3177770 -0.8387639 8.4371939 16711746
0.1252288 -0.8636482 8.1896429 16711746
-0.1994080 -0.8191934 8.0466347 16711746
-0.1352732 -0.8133985 8.0198822 16711746
-0.2904920 -0.8256921 8.0829725 16711746
-0.2552758 -0.8196771 8.0697851 16711746
-0.4373747 -0.8456844 8.2399006 16711746
-0.0508305 -0.8284253 8.2369633 16711746
-0.3453137 -0.8224955 8.3041058 16711746
-0.6765864 -0.9351199 8.8149261 16711746
0.1722179 -0.9249918 8.7628756 16711746
0.1338753 -0.8223372 7.9942098 16711746
0.2264165 -0.8474025 8.1752796 16711746
-0.2661228 -0.8556265 8.4397640 16711746
0.1037077 -0.8248312 8.1086817 16711746
0.0189341 -0.8281192 8.1487503 16711746
-0.4275885 -0.8428119 8.2784624 16711746
-0.0876275 -0.8348956 8.1987438 16711746
-0.0424385 -0.8529909 8.3254585 16711746
-0.0664144 -0.8233560 8.0730877 16711746
-0.1254473 -0.8350963 8.0787239 16711746
0.0636404 -0.8993515 8.4999399 16711746
-0.1292621 -0.8400165 8.2617788 16711746
-0.2821585 -0.8613096 8.3124189 16711746
-0.1668157 -0.8214880 8.2984076 16711746
0.2831758 -1.1822046 8.3685598 16711746
0.1734245 -0.8245019 7.9751968 16711746
-0.2299941 -0.9193074 8.7413301 16711746
0.4789737 -0.8750319 8.4079943 16711746
-0.1972467 -0.8875279 8.8182354 16711746
-0.0793833 -0.8151011 8.0554886 16711746
0.0864976 -0.9006234 8.4966784 16711746
-0.2741687 -1.5224026 9.0227203 16711746
-0.0950560 -0.8758331 8.5471992 16711746
0.0026897 -0.8599576 8.2857475 16711746
-1.4863225 -1.3582253 9.7234173 16711746
0.4154601 -0.9438915 8.2394037 16711746
0.1920003 -0.8242918 8.0233202 16711746
0.0993646 -0.8272015 8.0593443 16711746
-0.2152886 -0.8423963 8.1076097 16711746
-0.2561868 -0.8072674 7.9630904 16711746
0.0885232 -0.8044713 7.9793577 16711746
-0.0880297 -0.8364863 8.1918373 16711746
0.1767140 -0.8264447 8.1169815 16711746
-0.0766951 -0.8257677 8.1309576 16711746
0.0677862 -0.8663241 8.3287354 16711746
-0.2276697 -0.8071039 8.0132351 16711746
0.0285546 -0.8366969 8.1677017 16711746
0.0437782 -0.8083657 7.9906044 16711746
-0.1450092 -0.8401176 8.0890608 16711746
0.0258138 -0.8217670 8.0351372 16711746
0.1781908 -0.8108078 7.9776287 16711746
-0.0199118 -0.8023624 8.0018864 16711746
0.3072396 -0.8269475 8.0766840 16711746
0.1551982 -0.8483679 8.1705170 16711746
-0.2679140 -0.8097253 8.0126095 16711746
-0.1551121 -0.8476465 8.2323217 16711746
-0.3502960 -0.8031149 8.0174599 16711746
-0.3335676 -0.8151857 8.0686274 16711746
-0.1623460 -0.8133179 7.9987435 16711746
0.0324963 -0.8321800 8.1813707 16711746
-0.3287119 -0.8132112 8.0559778 16711746
-0.0471685 -0.8171993 8.0831385 16711746
-0.3767549 -0.8268433 8.1792870 16711746
0.2784730 -0.8446112 8.1544485 16711746
0.5656127 -0.8789654 8.2292852 16711746
-0.2526398 -0.8374785 8.1308165 16711746
0.5129352 -0.8655223 8.4496775 16711746
0.1177031 -0.8667082 8.1758614 16711746
0.1712103 -0.8312008 8.0581894 16711746
-0.3360327 -0.8136249 8.0714693 16711746
-0.4308860 -0.8184306 8.1087084 16711746
0.3069794 -0.8335395 8.1032419 16711746
0.2554299 -0.8308509 8.1247034 16711746
-0.0409964 -0.8002203 8.0209675 16711746
0.0309021 -0.8342089 8.1732569 16711746
-0.0725582 -0.8164620 8.0569668 16711746
0.0670233 -0.8342002 8.1565304 16711746
-0.4771088 -0.8249531 8.1400118 16711746
-0.2521549 -0.8391812 8.1287022 16711746
0.6088871 -0.8973409 8.6676369 16711746
0.2725171 -0.8409576 8.0782270 16711746
-0.5835254 -0.8490245 8.2631741 16711746
-0.0875891 -0.8433726 8.2436152 16711746
-0.0905463 -0.8423862 8.1907701 16711746
-0.3067400 -0.7992539 8.0310879 16711746
-0.2947689 -0.8337349 8.1412191 16711746
0.0526042 -0.8193153 8.0284004 16711746
-0.1524468 -0.8278704 8.0483742 16711746
0.2296271 -0.8184858 8.0352650 16711746
0.1189791 -0.8422276 8.1773043 16711746
0.2478147 -0.8558072 8.2832375 16711746
0.1654870 -0.8137876 7.9998040 16711746
-0.1017894 -0.8226703 8.0734034 16711746
-0.3295279 -0.8061181 7.9879198 16711746
0.1553554 -0.9334826 8.3554420 16711746
0.0747218 -0.8255254 7.9954391 16711746
-0.1574455 -0.8287017 8.0863199 16711746
-0.3479789 -0.8182450 8.1445799 16711746
0.0378959 -0.9570386 8.2099171 16711746
-0.1473256 -0.7793481 8.1722889 16711746
-0.3434081 -0.8219563 8.1337280 16711746
0.0521152 -0.9015779 8.5387001 16711746
-0.5183296 -0.8616382 8.3575640 16711746
-0.2891349 -0.8367606 8.1296482 16711746
0.3729502 -0.8721616 8.3252487 16711746
-0.1183579 -0.8531829 8.1240864 16711746
-0.2083014 -0.8269714 8.0718975 16711746
0.0682933 -0.8572298 8.2698917 16711746
0.0074686 -0.8220376 8.0661640 16711746
-0.0942437 -0.8073578 8.0192032 16711746
-0.1344280 -0.8068877 8.0204897 16711746
-0.2699080 -0.8062030 7.9892182 16711746
-0.0944807 -0.8189147 8.0826073 16711746
-0.5518084 -0.8603661 8.3219347 16711746
-0.5675221 -0.8802403 8.4374609 16711746
0.2516094 -0.8122693 8.0247860 16711746
0.1508905 -0.8441432 8.0929403 16711746
-0.2029810 -0.8461944 8.1144714 16711746
-0.2348241 -0.8259895 8.0852785 16711746
-0.3902320 -0.8374735 8.2278681 16711746
-0.0985689 -0.8438893 8.2662468 16711746
-0.1049581 -0.8088208 8.0229330 16711746
-0.1320514 -0.8151899 8.0050144 16711746
-0.1003905 -0.8282398 8.1010113 16711746
-0.2505751 -0.8482541 8.2110605 16711746
0.3422135 -0.8454489 8.2252207 16711746
0.1228376 -0.8394375 8.1386776 16711746
-0.1759677 -0.8354958 8.1289206 16711746
-0.0988067 -0.8461379 8.2586994 16711746
-0.1585400 -0.8403855 8.2438345 16711746
-0.0148944 -0.8439391 8.1022301 16711746
-0.0141545 -0.8105645 8.0451880 16711746
0.0305087 -0.8152774 8.0108547 16711746
-0.1872004 -0.8484191 8.2234917 16711746
0.1622131 -0.8178881 7.9942460 16711746
-0.2642313 -0.8474352 8.1243134 16711746
0.0528073 -0.8804788 8.3865681 16711746
-0.0126679 -0.8047894 8.0562172 16711746
-0.0850848 -0.8272300 8.3598099 16711746
-0.2675206 -0.9896349 8.0975847 16711746
-0.2567297 -1.0486535 7.9797397 16711746
0.1274105 -0.8060858 7.9682450 16711746
-0.0565278 -0.8508180 8.2837715 16711746
0.0074611 -0.8267633 8.1066122 16711746
0.0131273 -0.8181683 8.0440254 16711746
-0.3112614 -0.8279736 8.0995378 16711746
0.0458917 -0.8642362 8.2714500 16711746
0.0372051 -0.8643224 8.2223234 16711746
0.5339572 -1.2675513 8.6711473 16711746
0.0233870 -0.8489873 8.2595253 16711746
0.1278046 -0.8231786 7.9953542 16711746
-0.1490702 -0.8424249 8.1968250 16711746
-0.5083833 -0.8513350 8.4025497 16711746
-0.3142758 -0.9150034 8.4823933 16711746
-0.0863463 -0.8168840 8.0823889 16711746
-0.0871189 -0.8166788 8.0821486 16711746
0.0621991 -0.8291442 8.1188116 16711746
0.0016983 -0.8442171 8.2312784 16711746
0.1572109 -0.8460352 8.1740932 16711746
-0.1441087 -0.8697412 8.5415878 16711746
-0.2059990 -0.8488520 8.2732744 16711746
-0.1984210 -0.9058412 8.8049889 16711746
0.2774015 -0.8606008 8.3782845 16711746
0.1458510 -0.8888499 8.5154781 16711746
0.0091017 -0.8640825 8.2805338 16711746
-0.1337131 -0.8130821 8.0533161 16711746
-0.0398861 -0.9210107 8.8788977 16711746
0.0701380 -0.8560324 8.2274704 16711746
-1.4016405 -2.9889150 12.4613543 16711746
0.1387343 -0.8564843 8.3086729 16711746
-0.2168439 -0.8290721 8.0941401 16711746
-0.2343011 -0.8252770 8.0863590 16711746
0.0362604 -0.8038791 7.9806089 16711746
0.1179202 -0.8301191 8.0129375 16711746
0.0262803 -0.8520778 8.2045641 16711746
-0.2996322 -0.8014883 7.9949217 16711746
-0.3547856 -0.7966042 8.0027304 16711746
-0.1776594 -0.8315884 8.0910959 16711746
-0.4073881 -0.8226771 8.1199951 16711746
0.1074996 -0.8385933 8.1681547 16711746
-0.1680504 -0.8227217 8.0838718 16711746
-0.0548338 -0.8093651 8.1121817 16711746
-0.1272300 -0.8308814 8.0988321 16711746
-0.1029530 -0.8136045 8.0365572 16711746
-0.5635105 -0.8567630 8.1486378 16711746
0.3318447 -0.8499145 8.0859852 16711746
-0.3361357 -0.8152246 8.0856295 16711746
0.0842067 -0.8229464 8.0304327 16711746
-0.0566290 -0.8159504 8.0949621 16711746
-0.0042093 -0.8054543 8.0249252 16711746
-0.0028384 -0.8356062 8.1399775 16711746
-0.1259741 -0.8450857 8.1212406 16711746
-0.3833208 -0.8370804 8.2451754 16711746
-0.7350788 -0.8562595 8.3531189 16711746
-0.5341879 -0.8265753 8.1343241 16711746
0.1756509 -0.8475197 8.2017717 16711746
-0.5115690 -0.8449600 8.2365685 16711746
-0.1971888 -0.8521712 8.1413603 16711746
0.0461274 -0.8325236 8.1374788 16711746
-0.1440549 -0.8205324 8.0565834 16711746
-0.1280371 -0.8165932 8.0342922 16711746
0.0068398 -0.8323038 8.0904131 16711746
-0.2519405 -0.8470246 8.2148600 16711746
-0.8537615 -0.8669376 8.5373621 16711746
0.1912888 -0.8118709 7.9954925 16711746
-0.1854619 -0.8301394 8.0953484 16711746
-0.0562872 -0.8121051 8.1049337 16711746
-0.1441766 -0.8416892 8.0865221 16711746
0.1281654 -0.8093783 7.9654188 16711746
-0.1099397 -0.8272637 8.1491404 16711746
0.0567897 -0.8407488 8.1397820 16711746
-0.0978872 -0.8445085 8.2612200 16711746
0.0464808 -0.8423734 8.1568747 16711746
-0.3354574 -0.7970207 8.0356159 16711746
-0.0918759 -0.8260857 8.0446787 16711746
-0.2463693 -1.1194075 8.0292931 16711746
-0.3872180 -0.8101135 8.0615625 16711746
0.0796055 -0.8187163 8.0270700 16711746
-0.4517682 -0.8432053 8.2155123 16711746
0.0608287 -0.7972896 8.1064692 16711746
-0.2232466 -1.1005058 7.9758620 16711746
-0.3887753 -0.8254461 8.1398125 16711746
-0.3829671 -0.8121839 8.0575752 16711746
0.0329650 -0.8359989 8.0361233 16711746
-0.4566655 -1.1143236 8.1893263 16711746
0.1672776 -0.8550756 8.2488451 16711746
-0.3871033 -0.8105756 8.0600872 16711746
0.2692908 -0.8270964 8.0950260 16711746
-0.4959825 -0.8708798 8.4515238 16711746
0.1720663 -0.8041880 7.9547777 16711746
-0.2147095 -0.8187857 8.0835295 16711746
0.0338375 -0.8129581 8.0165205 16711746
-0.2612589 -0.9853078 8.0816460 16711746
-0.4779454 -0.8628418 8.3862343 16711746
-0.0449464 -0.8718826 8.4614458 16711746
0.0867690 -0.8857485 8.5925579 16711746
-0.3995688 -0.8167048 8.1265831 16711746
0.2903734 -0.8167189 8.0483503 16711746
0.0807299 -0.8500290 8.1951685 16711746
-0.1619287 -0.8734787 8.4397650 16711746
-0.3187290 -0.8044046 8.0184364 16711746
-0.0065433 -0.8378628 8.1876945 16711746
-0.1686160 -0.8213882 8.0586500 16711746
-0.7471188 -1.2060722 8.5988302 16711746
-0.2636032 -0.8473597 8.1242628 16711746
-0.2608652 -0.8785574 8.4354210 16711746
0.1738730 -0.8330904 8.0789165 16711746
0.0244453 -0.8283672 8.1177769 16711746
0.5902276 -0.8739874 8.2541952 16711746
-0.1040782 -0.8336499 8.1604252 16711746
0.0490425 -0.8335296 8.1324024 16711746
0.3960083 -0.9872733 9.5125999 16711746
-1.3031310 -1.2069248 9.0889568 16711746
-0.6075094 -0.9175256 8.7009802 16711746
0.2803637 -0.8484399 8.2125578 16711746
0.1133113 -0.8784349 8.3955202 16711746
0.1272572 -0.8335784 8.0921078 16711746
0.1749527 -0.8279473 8.1168985 16711746
0.0307784 -0.8385490 8.1612215 16711746
-0.3560144 -0.8180230 8.1046915 16711746
0.2223710 -0.8205770 8.0300922 16711746
-0.1456639 -0.8437449 8.3815155 16711746
0.1623556 -0.8617358 8.2318649 16711746
-0.0822123 -0.8197934 8.4020777 16711746
0.0443757 -0.8160901 8.0713415 16711746
-0.2662115 -0.9205364 8.0974321 16711746
-0.1417906 -0.8149501 8.0216026 16711746
0.0493107 -0.8777511 8.4085045 16711746
-0.0435989 -0.8542114 8.3190460 16711746
0.1323791 -0.8302421 8.0761166 16711746
0.1076106 -0.8681817 8.3392849 16711746
0.1913581 -0.8439265 8.1785660 16711746
-0.2700124 -0.8214493 8.0730476 16711746
0.0255975 -0.8381967 8.1896086 16711746
0.0654491 -0.8951690 8.6329260 16711746
0.1452108 -0.8906844 8.5144005 16711746
-0.1184138 -0.8426301 8.1299782 16711746
-0.1254953 -0.8939598 8.7102222 16711746
0.3765541 -0.8452072 8.2455540 16711746
-0.0124503 -0.9149053 8.7373304 16711746
0.0114074 -0.8519406 8.2471972 16711746
-0.2239313 -0.8541413 8.2802134 16711746
0.1162337 -0.8479616 8.1359272 16711746
0.8049642 -1.4712672 9.3068066 16711746
0.1059303 -1.0782969 8.6983404 16711746
-0.0846246 -0.8094831 8.0320139 16711746
-0.0307749 -0.8470970 8.2206564 16711746
-2.2449436 -1.5032257 9.7755938 16711746
-0.5389426 -0.8206500 8.0889730 16711746
-0.2761679 -1.1364207 8.0944872 16711746
-0.0931664 -0.8122152 8.0468445 16711746
-1.8876247 -1.2352282 9.9754057 16711746
-0.3205213 -0.9797408 9.0529194 16711746
-2.3942678 -1.5877458 10.1437874 16711746
-0.5554830 -0.8694693 8.4620161 16711746
-1.8399382 -1.4270623 10.1407328 16711746
0.1424063 -0.8063052 7.9672604 16711746
-0.4719662 -0.8183065 8.1084929 16711746
-0.2039100 -0.8421815 8.1214542 16711746
-0.5128056 -0.8448108 8.2374907 16711746
-0.2357912 -0.8232445 8.0894842 16711746
-0.2905163 -0.8363539 8.1307564 16711746
-0.3749444 -0.8262051 8.1801453 16711746
0.0474184 -0.8182796 8.0726538 16711746
-0.4073302 -0.8166467 8.0898972 16711746
-0.1451687 -0.8398030 8.0881758 16711746
-0.2111445 -0.8368338 8.0764074 16711746
-0.4331034 -0.8127163 8.0558777 16711746
0.0440171 -0.8227227 8.0649099 16711746
-0.0793170 -0.8180783 8.0769949 16711746
-0.2052338 -0.8406352 8.1249743 16711746
-0.5653194 -0.8369016 8.1969786 16711746
-0.2892331 -0.8553044 8.1605873 16711746
-0.1428483 -0.8092019 8.0325365 16711746
-0.0048960 -0.8083907 8.0858259 16711746
-0.3894916 -0.8098235 8.0580378 16711746
-0.4131005 -0.8006855 8.0400200 16711746
-0.1072103 -0.8248588 8.0937262 16711746
-0.1253668 -0.8382638 8.1360598 16711746
0.2684060 -0.8643995 8.3576536 16711746
-0.4763454 -0.8161143 8.1122665 16711746
0.0865623 -0.8596869 8.3205433 16711746
-0.4723283 -0.8192708 8.1075106 16711746
-0.2478233 -0.8666249 8.1476727 16711746
0.1642768 -0.8658450 8.2261400 16711746
-0.4497275 -0.8402208 8.1789818 16711746
0.0957090 -0.8393567 8.1687632 16711746
0.1125442 -0.8229967 8.1102810 16711746
-0.1990297 -0.8493155 8.1477060 16711746
-0.0283471 -0.8338604 8.1596527 16711746
-0.2540456 -0.8101431 8.0731230 16711746
-0.1270434 -0.8415455 8.1975107 16711746
-0.3931797 -0.8037476 8.0129681 16711746
-0.2914008 -0.8358361 8.1333294 16711746
-0.0659837 -0.7969763 8.1636667 16711746
0.0653472 -0.8457683 8.1710129 16711746
0.1338479 -0.8362538 8.1720953 16711746
0.2355554 -0.8310531 8.2088499 16711746
-0.4870457 -0.8104163 8.0369949 16711746
-0.3954646 -0.8038753 8.0136776 16711746
0.1063767 -0.8457125 8.1815557 16711746
-0.1840109 -0.8372813 8.0755939 16711746
0.0877519 -0.8378240 8.1544666 16711746
-0.5124366 -0.8254889 8.1106625 16711746
0.0374685 -0.8395562 8.1015186 16711746
0.2106041 -1.1172782 8.1843185 16711746
-0.3040344 -0.8185294 8.0512171 16711746
-0.1651994 -0.8263679 8.0731916 16711746
-0.2575679 -0.8130007 8.0463896 16711746
-0.0432337 -0.8386831 8.1813498 16711746
-0.8548810 -0.8822677 8.6294899 16711746
-0.4101168 -0.8025310 8.0371437 16711746
-0.2145558 -0.8528888 8.2836218 16711746
0.0543108 -0.8137054 8.0181446 16711746
-0.3440298 -0.8888839 8.5218649 16711746
-0.0084281 -0.8411267 8.1798458 16711746
0.0622999 -0.8542202 8.2022219 16711746
-0.1538824 -0.8605821 8.3553715 16711746
-0.0563597 -0.8301483 8.1495256 16711746
-0.1380142 -0.8408831 8.1890230 16711746
-1.3283643 -1.0225608 8.9188271 16711746
-0.0569286 -0.8555800 8.4338636 16711746
-0.2407729 -0.8206989 8.0621090 16711746
-0.0465290 -0.8166537 8.0511179 16711746
-0.0664108 -0.8195740 8.0853767 16711746
0.1810472 -0.8241718 8.1438780 16711746
-0.3253174 -0.8181722 8.1047201 16711746
0.0496384 -0.8250068 8.0954418 16711746
-0.0180049 -0.8200189 8.1191187 16711746
-0.2724221 -0.8401240 8.1458807 16711746
0.2794362 -0.8311829 8.0781069 16711746
-0.5820077 -0.8306553 8.2581720 16711746
-0.1238960 -0.8220888 8.1473036 16711746
-0.1762468 -0.8583040 8.3122959 16711746
-0.1187145 -0.8657631 8.2653780 16711746
-0.8212996 -1.2762789 8.4869680 16711746
-0.5991684 -0.8525921 8.2927475 16711746
-0.6053954 -0.8428383 8.2785158 16711746
-0.3105306 -0.8874752 8.4819326 16711746
-0.2963870 -0.8417825 8.1309309 16711746
0.1938854 -0.8315862 8.1504793 16711746
0.0917120 -0.9499254 8.4915638 16711746
-0.5264731 -0.8833042 8.4385691 16711746
0.4016153 -0.8557050 8.2930002 16711746
-0.0028384 -0.8445502 8.2161636 16711746
-0.0686663 -0.8178276 8.1047277 16711746
-0.0416458 -0.8194779 8.0968609 16711746
0.4332749 -0.8811796 8.4833326 16711746
-0.4230721 -0.8189608 8.2020464 16711746
-0.1089143 -0.8355816 8.1847878 16711746
-0.3261181 -0.8538489 8.2224064 16711746
0.0711676 -0.8845177 8.4563675 16711746
-0.0998207 -0.8531772 8.2610073 16711746
-0.6525534 -0.8485204 8.2879953 16711746
-0.5558031 -0.8443827 8.2527504 16711746
0.0488794 -0.8648828 8.2791471 16711746
-0.2654463 -0.8342547 8.1024828 16711746
-0.2062616 -0.8520863 8.3027229 16711746
0.1377938 -0.8921415 8.4923067 16711746
-0.2041742 -0.8560557 8.2918100 16711746
-0.2983251 -0.9262066 8.7261267 16711746
1.2182750 -1.5637745 9.4647369 16711746
-0.0416043 -0.8344300 8.2169333 16711746
-0.2481147 -0.9170638 8.8361197 16711746
0.1506389 -1.1235034 8.1712818 16711746
-0.3257771 -1.3663322 8.8991385 16711746
-0.8572221 -0.8212242 8.2197390 16711746
-0.5875556 -0.8322431 8.0897684 16711746
0.0018064 -0.9515550 9.4414053 16711746
3.0547552 -2.6351271 13.8361168 16711746
-0.5109122 -2.1543648 11.1324949 16711746
-1.4668468 -1.3838305 9.0249500 16711746
-1.3131546 -1.0208127 8.9107389 16711746
0.0032892 -0.9502929 9.4556170 16711746
-1.2373731 -0.9049020 8.7188883 16711746
-0.3146467 -0.9301402 8.4606314 16711746
-0.5902772 -0.8741729 8.4039927 16711746
-0.2901484 -0.8186989 8.0712624 16711746
-0.3818168 -0.8176957 8.1006880 16711746
-0.0033115 -0.8585268 8.2992020 16711746
0.0780317 -0.8567045 8.2447405 16711746
0.0500660 -0.8604451 8.2483253 16711746
-0.1153600 -0.8635682 8.4085016 16711746
0.0070346 -0.8204176 8.0971308 16711746
-0.1274420 -0.8467141 8.2317085 16711746
-0.1196547 -0.8546827 8.3045206 16711746
-0.1265432 -0.8381137 8.1371174 16711746
0.0388453 -0.8306146 8.1515665 16711746
-0.2911488 -0.8212811 8.0900946 16711746
0.0467118 -0.8598487 8.2456703 16711746
-0.2242938 -0.8530062 8.2847376 16711746
-0.3141431 -0.9304854 8.4652853 16711746
-0.4801733 -0.8446523 8.2418833 16711746
-0.3737611 -0.8107083 8.0495377 16711746
-0.5935987 -0.8358777 8.1970177 16711746
-0.4706174 -0.8454837 8.3183012 16711746
-0.1056399 -0.8365036 8.2289934 16711746
-0.0458277 -0.8400394 8.1924286 16711746
-0.3545181 -0.9061376 8.5943880 16711746
-0.8034492 -0.8566315 8.3665981 16711746
-0.0611934 -0.8353799 8.1614561 16711746
-0.0672749 -0.8379555 8.2114096 16711746
-0.4977318 -0.8133489 8.1004429 16711746
-0.2527947 -0.8743386 8.4037390 16711746
0.3574875 -0.8649661 8.3751860 16711746
-0.3196013 -0.8240984 8.1260414 16711746
-0.5357410 -0.8318926 8.1891384 16711746
0.2509052 -0.8543643 8.2874775 16711746
-0.2676456 -0.9157165 8.4469109 16711746
-0.4056013 -0.8305460 8.1801910 16711746
-0.1523563 -0.8705432 8.4473696 16711746
-0.2017404 -0.8632479 8.3812523 16711746
-0.1697013 -0.8574886 8.3151989 16711746
-0.2788212 -0.8605455 8.3257265 16711746
-0.0069892 -0.8480633 8.2175283 16711746
-0.5951239 -0.8334526 8.1983147 16711746
0.0761217 -0.8296601 8.1021500 16711746
-0.0321178 -0.8320791 8.1389894 16711746
0.1465872 -0.8371670 8.1857958 16711746
-0.5336773 -0.8226277 8.0828829 16711746
-0.4680434 -0.8593096 8.3944969 16711746
-0.2749128 -0.8571563 8.3048344 16711746
-0.4799594 -0.8299747 8.1194963 16711746
-0.3792506 -0.8195162 8.0978642 16711746
-0.5183070 -0.8616800 8.3569698 16711746
0.0670115 -0.8366861 8.1514721 16711746
-0.1059227 -0.8365697 8.1970348 16711746
-0.0230222 -0.8326295 8.1605682 16711746
0.0219952 -0.8430051 8.2070913 16711746
-0.4841005 -0.8209264 8.0438242 16711746
0.0813494 -0.8173726 8.1154413 16711746
-0.4044651 -0.8210350 8.1521578 16711746
-0.0918518 -0.8129756 8.0703917 16711746
0.0780020 -0.8558712 8.2437057 16711746
-0.4887573 -0.8582926 8.3715219 16711746
0.5025718 -1.2552460 8.3707123 16711746
-0.0957026 -0.8294551 8.1672792 16711746
-0.3590762 -0.8521487 8.2741318 16711746
0.3991871 -0.8342752 8.2911081 16711746
-0.1907476 -0.8443180 8.2361155 16711746
-0.5665604 -0.8405592 8.2610893 16711746
-0.0601871 -0.8386138 8.1938171 16711746
-0.3787327 -0.8144676 7.9995456 16711746
-0.4189832 -0.8136542 8.0188532 16711746
-0.1276491 -0.8418778 8.1970787 16711746
0.0086121 -0.8538122 8.2425871 16711746
-0.4367777 -0.8104364 8.0755882 16711746
0.0380941 -0.9072294 8.6578426 16711746
-0.0507675 -0.8777766 8.5332470 16711746
-0.3504896 -0.8191684 8.1000528 16711746
-0.2944114 -0.9313362 8.2458506 16711746
-0.4195020 -0.8131719 8.0182438 16711746
-0.1513786 -0.8220440 8.0903521 16711746
-0.4086690 -0.8163633 8.1608686 16711746
-0.3588730 -0.8372471 8.2005215 16711746
-0.1941787 -0.8224401 8.0758896 16711746
-0.1219497 -0.8337951 8.1159811 16711746
-0.4825764 -0.8224626 8.1472063 16711746
-0.5043951 -0.8283851 8.1045418 16711746
0.1806949 -0.8224344 8.0783224 16711746
-0.0117518 -0.7988630 8.1841373 16711746
-0.1980919 -0.9180197 8.0373402 16711746
-0.2851601 -0.8580948 8.3176384 16711746
-0.1982453 -0.8638472 8.0539036 16711746
-0.1918748 -0.8607478 8.3299904 16711746
0.2524526 -0.8518909 8.0544071 16711746
0.0678092 -1.0770329 8.0009480 16711746
-0.3451884 -0.8566286 8.3882742 16711746
-0.0622095 -0.8333377 8.2260132 16711746
0.0475292 -0.8580961 8.1365652 16711746
-0.0360716 -0.8935230 8.1451664 16711746
0.2161495 -1.1296062 8.1144152 16711746
0.1234330 -0.8724062 8.1355228 16711746
-0.2139683 -0.8252933 8.1486206 16711746
-0.0611887 -0.8937820 8.6122494 16711746
-0.0604965 -0.8377358 8.1942234 16711746
-1.3235724 -0.9407277 9.1132393 16711746
-0.1936304 -0.8586044 8.3361692 16711746
0.0015020 -0.8592623 8.2551451 16711746
-0.1531334 -0.8610227 8.3549089 16711746
-0.0456060 -0.8698010 8.5873413 16711746
-0.1637066 -0.8363351 8.2578058 16711746
-0.0306619 -0.8423811 8.2025909 16711746
-1.4312577 -1.2778875 8.9070663 16711746
-0.0427682 -0.8232879 8.1027212 16711746
-0.3069504 -0.9050977 8.1768618 16711746
-0.2753776 -0.8895680 8.4507036 16711746
-0.3134054 -0.8291393 8.1171322 16711746
-0.1796780 -0.8263980 8.0876570 16711746
0.0722339 -0.8794030 8.3843412 16711746
0.1035928 -0.8410783 8.1643705 16711746
-0.3338519 -0.9119093 8.8721981 16711746
0.0924999 -0.8577631 8.1940689 16711746
-0.0425797 -0.8486612 8.2450590 16711746
-3.1972437 -1.7536951 10.7053833 16711746
-0.0844573 -0.9564533 9.2463541 16711746
-0.2395262 -0.8717673 8.1376219 16711746
-1.4081770 -1.2766069 9.5033331 16711746
-1.3266453 -1.3981398 9.4427891 16711746
-0.7709244 -1.8643919 10.2648487 16711746
0.1760904 -0.8246726 8.1432858 16711746
-0.3449950 -0.8230339 8.1564522 16711746
-0.1547140 -0.8272655 8.0941629 16711746
-0.3337553 -0.8066889 8.0553370 16711746
-0.1085666 -0.8251079 8.0939493 16711746
0.0108230 -0.8284938 8.1494656 16711746
-0.4238156 -0.8383936 8.2296448 16711746
-0.3691936 -0.8278506 8.1765823 16711746
-0.0971728 -0.8356625 8.1819324 16711746
0.0010053 -0.8351905 8.1863546 16711746
-0.2603988 -0.8479044 8.2379427 16711746
-0.6469548 -0.8346987 8.2465324 16711746
0.1337060 -0.8600543 8.2918501 16711746
0.1008331 -0.8580584 8.2158051 16711746
-0.3944619 -0.7970697 7.9940820 16711746
0.1331891 -0.8292502 8.1598492 16711746
-0.3683802 -0.8182146 8.1414289 16711746
-0.2044600 -0.8486722 8.2188568 16711746
0.0170445 -0.8507843 8.2257214 16711746
-0.2915837 -0.8204693 8.0912533 16711746
-0.0042676 -0.8343087 8.1946688 16711746
-0.0881546 -0.8352401 8.1953907 16711746
0.0555796 -0.8580766 8.2985916 16711746
-0.5068606 -0.8266072 8.1058512 16711746
-0.1599288 -0.8420400 8.1674719 16711746
0.2785197 -0.8415592 8.2391844 16711746
-0.2249554 -0.8527198 8.0847044 16711746
0.3451909 -0.8687521 8.3580694 16711746
-0.2384159 -0.8702764 8.1403923 16711746
-0.2631875 -0.8469801 8.1251125 16711746
0.0975298 -0.8126603 8.1296043 16711746
-0.2137372 -0.8203364 8.0771112 16711746
0.4146391 -0.8512398 8.3054199 16711746
0.2509163 -0.8332781 8.2143078 16711746
0.3177514 -0.8357731 8.2331285 16711746
0.1631595 -0.8017788 8.1286421 16711746
-0.2898647 -0.8177863 8.0717850 16711746
-0.2692052 -0.8309113 8.1088915 16711746
-0.8057892 -0.9015067 8.8129816 16711746
0.7468181 -0.9027200 8.6744270 16711746
-0.5844247 -0.8740926 8.4013929 16711746
0.2514545 -0.8337844 8.2173529 16711746
-0.2490165 -0.8486830 8.2387962 16711746
0.1305815 -0.8296593 8.1584482 16711746
-0.2854241 -0.8610786 8.2320023 16711746
-0.0640036 -0.8189282 8.1275091 16711746
-0.0015125 -0.8227768 8.1270723 16711746
-0.4277901 -0.8417477 8.2344513 16711746
-0.0401905 -0.8481214 8.2517109 16711746
-0.5649955 -0.8375232 8.2404366 16711746
-0.2482681 -0.8495650 8.2392807 16711746
-0.4083165 -0.8257402 7.9630046 16711746
-0.4442251 -0.8096974 8.1225653 16711746
-0.1210440 -0.8209423 8.1188755 16711746
0.0104119 -0.8228751 8.1118183 16711746
-0.2553063 -0.8257018 8.1043053 16711746
0.0468671 -0.8402405 8.1585140 16711746
-0.1848947 -0.8316701 8.0918703 16711746
0.0950947 -0.8317620 8.1662550 16711746
-0.3292856 -0.8483354 8.2390575 16711746
-0.2442517 -0.8466166 8.1129580 16711746
-0.1890049 -0.8225858 8.1103344 16711746
-0.2392236 -0.8964000 8.1251030 16711746
-0.2035877 -0.8453887 8.1180630 16711746
-0.0104506 -0.8255606 8.1976547 16711746
0.0482968 -0.8412266 8.1588564 16711746
0.3553364 -0.8161564 8.3065128 16711746
0.1065930 -0.9642720 8.1612463 16711746
-0.2609579 -0.8352250 8.1343203 16711746
-0.4383460 -0.8021411 8.0870714 16711746
-0.2624042 -0.8952505 8.1756916 16711746
-0.0626031 -0.8400685 8.1679955 16711746
-0.1992068 -0.8411883 8.1133671 16711746
-0.2018614 -0.8531122 8.1135893 16711746
-0.5799617 -1.0665606 8.0791807 16711746
-0.4257027 -0.8326613 8.1871519 16711746
-0.1888293 -0.8749963 8.0614443 16711746
-0.1714027 -0.8422105 8.1796732 16711746
-0.3896543 -0.8624431 8.2166033 16711746
0.2504236 -0.8528795 8.2938795 16711746
-0.2401605 -1.0275494 8.0431881 16711746
-0.5070501 -0.8295481 8.1045847 16711746
-0.5632664 -0.8340111 8.1351309 16711746
-0.6392191 -0.8490445 8.3001347 16711746
-0.5476532 -0.8238570 8.0788317 16711746
-0.4745969 -0.8113170 8.0493488 16711746
0.0504625 -0.8777976 8.4046192 16711746
-0.0793679 -0.8200819 8.1010695 16711746
-0.0151666 -0.8634134 8.3565464 16711746
-0.2003096 -0.8542694 8.2591152 16711746
-0.0312946 -0.8477104 8.2184353 16711746
0.0426592 -0.8345930 8.1647882 16711746
0.0304555 -0.8362895 8.1779270 16711746
0.8534274 -0.9274895 8.7691259 16711746
-0.9536869 -0.8491089 8.2090607 16711746
0.7678002 -0.9353074 8.6806917 16711746
-0.2040454 -0.8512721 8.2661104 16711746
-0.6218641 -0.8599604 8.3582067 16711746
0.0384836 -0.8395863 8.1513329 16711746
-0.0819612 -0.8484331 8.2683401 16711746
-0.0593075 -0.8560538 8.4326773 16711746
-0.2057993 -0.8349865 8.1094542 16711746
0.0945527 -0.9417861 8.1397400 16711746
0.8198786 -1.0903831 8.8898659 16711746
-0.1642173 -0.8508102 8.1776485 16711746
-0.0416843 -0.8411103 8.2690544 16711746
-1.6602901 -1.0017498 9.0252800 16711746
-0.2640022 -0.8549653 8.1905603 16711746
0.1439722 -0.8928764 8.5075903 16711746
-0.1460899 -0.8477011 8.1792231 16711746
0.1158942 -0.8844602 8.4049644 16711746
0.0091539 -0.8508406 8.3083086 16711746
-0.3590969 -0.8256515 8.1692028 16711746
-0.1002220 -0.8438481 8.2658863 16711746
-0.0635599 -0.8459334 8.2620029 16711746
-0.3198387 -0.8061364 8.1271267 16711746
-0.4490360 -0.8446318 8.2143564 16711746
-0.2246744 -0.8795994 8.4843054 16711746
-0.5006273 -0.8255465 8.1704903 16711746
-0.1580578 -0.9103115 8.7387457 16711746
0.0345956 -0.9094113 8.6568413 16711746
-0.1904557 -0.8439826 8.2107258 16711746
-0.3039451 -0.9502397 8.8248329 16711746
1.6944246 -2.0360577 10.0015926 16711746
-0.4329480 -0.8276860 8.1368160 16711746
-0.5417007 -0.8520498 8.3132830 16711746
-0.1513616 -0.8475434 8.2742672 16711746
0.0018303 -0.8645906 8.2674313 16711746
-0.0011758 -1.0521456 8.8482199 16711746
4.2508402 -1.8550274 13.2664938 16711746
-3.2282116 -1.9406151 10.1667204 16711746
-0.0073819 -0.8460191 8.2557116 16711746
-0.2091634 -0.8496752 8.1932850 16711746
0.0280615 -0.8251796 8.1325750 16711746
0.0003441 -0.8195521 8.1336899 16711746
0.1467504 -0.8471274 8.2133617 16711746
0.3023040 -0.8419162 8.2156315 16711746
0.0476279 -0.8608250 8.2951555 16711746
-0.4743210 -0.8119224 8.0816927 16711746
-0.1325255 -0.8355496 8.1703119 16711746
-0.1524514 -0.8457064 8.2099056 16711746
0.0496036 -0.8480418 8.1988058 16711746
0.2448540 -0.8420067 8.2445631 16711746
0.3199714 -0.8418767 8.2678223 16711746
0.1464509 -0.8174121 8.1275959 16711746
-0.0275486 -0.8275484 8.1535959 16711746
0.3277310 -0.8499282 8.1887426 16711746
-0.0071518 -0.8284107 8.1388226 16711746
-0.3650343 -0.8053455 8.0509892 16711746
0.1094026 -0.8369800 8.1716413 16711746
-0.0282845 -0.8534406 8.2814302 16711746
-0.0958980 -0.8367037 8.1512508 16711746
-0.0756320 -0.8478439 8.2119799 16711746
-0.3000600 -0.8310254 8.1223087 16711746
-0.2339663 -0.8544731 8.1627502 16711746
-0.3415760 -0.8101487 8.0926361 16711746
-0.4707015 -0.8249612 8.0922375 16711746
0.0276681 -0.8252407 8.1316652 16711746
-0.3933993 -0.8246645 7.9860015 16711746
-0.2966590 -0.8218015 8.1005354 16711746
-0.4361766 -0.8150266 8.1137571 16711746
-0.0062218 -0.8281471 8.1383295 16711746
-0.0284888 -0.8287817 8.1517029 16711746
-0.4878058 -0.8357548 8.2142935 16711746
-0.5205929 -0.8325081 8.1992035 16711746
0.1828628 -0.9431009 8.3481464 16711746
0.3326336 -0.8693720 8.1942205 16711746
-0.2923105 -0.8431560 8.0981007 16711746
-0.2086322 -0.8464568 8.1991768 16711746
-0.4605883 -0.8158641 8.0586042 16711746
0.1663849 -0.8648126 8.2310858 16711746
0.3214003 -0.8814350 8.3307886 16711746
0.0649406 -0.8699151 8.3228979 16711746
-0.0152457 -0.8691007 8.1998539 16711746
0.0065205 -0.8409159 8.1369543 16711746
-0.1410251 -0.8468415 8.2402248 16711746
-0.5533296 -0.8366847 8.0802937 16711746
-0.4367185 -0.8129876 8.0558968 16711746
0.1678092 -0.8307263 8.1296186 16711746
-0.2665631 -0.9868823 8.1005383 16711746
-0.2529379 -0.9415187 8.0915184 16711746
-0.3676893 -0.8680208 8.2193775 16711746
-0.4473956 -1.1061072 8.1364498 16711746
0.4771590 -0.8741366 8.4604435 16711746
0.1302750 -0.9086484 8.6799374 16711746
0.1001115 -0.8529592 8.2027874 16711746
-0.2136823 -0.8316304 8.0880423 16711746
-0.4889659 -0.8488476 8.2855892 16711746
0.0904848 -0.8461297 8.1756248 16711746
-0.1588902 -0.8421997 8.1662855 16711746
-0.0977393 -0.8571395 8.3390102 16711746
0.0276601 -0.8404235 8.1674728 16711746
0.4887592 -0.8920598 8.3637552 16711746
-0.0064154 -0.8787766 8.4813032 16711746
0.0062287 -0.8887954 8.5306034 16711746
-0.1160380 -0.8641168 8.4010220 16711746
-0.3892765 -0.8206775 8.0693750 16711746
0.0993950 -0.8531387 8.2029057 16711746
-0.1277796 -0.8568809 8.3419800 16711746
-0.0576449 -0.8319089 8.1685934 16711746
-0.4843529 -0.8072761 8.0542145 16711746
-0.1885865 -0.8466071 8.2238541 16711746
-0.0811668 -0.8481421 8.2681694 16711746
-0.0753043 -0.8625754 8.3886356 16711746
-0.1921119 -0.8606277 8.3298731 16711746
0.0966947 -0.8541266 8.2002687 16711746
-0.2875325 -0.8568873 8.3192253 16711746
-0.1517723 -0.8484769 8.2690878 16711746
-0.2043909 -0.8540925 8.2966356 16711746
-0.2969257 -0.8486367 8.3519640 16711746
-0.1313850 -0.8651707 8.4307804 16711746
-0.4928940 -0.8172846 8.0481405 16711746
-0.4630819 -0.8139240 8.0596800 16711746
-0.2271276 -0.8331751 8.1452913 16711746
-0.0017250 -0.8409653 8.2238035 16711746
-0.1142753 -0.8678203 8.3980188 16711746
-0.4098920 -0.8544511 8.3158665 16711746
-0.1882781 -0.8499655 8.1698532 16711746
-0.1182981 -0.8577270 8.2951250 16711746
0.0080885 -0.8405339 8.2251272 16711746
-0.2968939 -0.9134515 8.4129782 16711746
0.0562558 -0.9063207 8.5589685 16711746
-0.0155122 -0.8639912 8.3449221 16711746
0.0616483 -0.8945464 8.4095230 16711746
-0.6409688 -0.8439440 8.5891981 16711746
-0.2717497 -0.8910381 8.4768486 16711746
-1.0745471 -1.3428749 8.4588470 16711746
-0.1634597 -0.8590714 8.3107729 16711746
-0.2565372 -0.8877151 8.1689587 16711746
-1.2125202 -1.2711657 8.7074862 16711746
0.0467390 -0.9384477 8.7703390 16711746
1.2675432 -1.3843122 9.2947168 16711746
0.0495625 -0.8416443 8.1741648 16711746
-0.4310217 -0.8421304 8.2313080 16711746
-0.5264112 -0.8729999 8.4153843 16711746
-0.0316757 -0.8429483 8.2016239 16711746
-0.4627899 -0.8339590 8.1952267 16711746
-0.0613546 -0.8534483 8.2368565 16711746
-0.4884239 -0.8637784 8.4208450 16711746
1.7555761 -1.5215001 9.8334341 16711746
-0.5561390 -0.8437643 8.2484875 16711746
-0.0606114 -0.8622199 8.4083366 16711746
-0.2176261 -0.8861606 8.4995613 16711746
-0.0070087 -0.8485316 8.2191916 16711746
-2.7627225 -1.7240570 11.1218739 16711746
-0.2084874 -0.8472555 8.0878124 16711746
-0.4008969 -0.8389519 8.1916265 16711746
0.0262792 -0.8662850 8.3272715 16711746
0.0375058 -0.8515196 8.2214651 16711746
0.0823188 -0.8541448 8.2501135 16711746
-0.4487011 -0.8077797 8.1262703 16711746
-0.3802617 -0.8056664 8.0841017 16711746
-0.1807430 -0.8437908 8.1586056 16711746
-0.1974081 -0.8512688 8.1429987 16711746
0.4671461 -0.8588480 8.4343319 16711746
-0.1926886 -0.8388178 8.1914835 16711746
-0.2312312 -0.8442746 8.1701946 16711746
-0.4291600 -0.8425788 8.2809296 16711746
-0.5294843 -0.8385114 8.2544022 16711746
0.1003609 -0.8570747 8.3088350 16711746
-0.0452259 -0.8363284 8.1524334 16711746
-0.1288745 -0.8366773 8.1945333 16711746
-0.0563603 -0.8518460 8.2821426 16711746
0.0691254 -0.8443636 8.1738243 16711746
-0.2338805 -0.8411387 8.1780787 16711746
0.1776395 -0.8266704 8.1640749 16711746
0.1443481 -0.8685403 8.3306732 16711746
-0.4258120 -0.8372033 8.2320871 16711746
-0.4254137 -0.7844130 8.0900278 16711746
-0.1534111 -0.8426504 8.2005005 16711746
-0.4551331 -0.8396214 8.2530365 16711746
-0.0295647 -0.8450878 8.2240448 16711746
0.4704409 -0.8755953 8.4548454 16711746
-0.5203618 -0.8192153 8.1152134 16711746
0.3889959 -0.8656515 8.3496084 16711746
-0.2155782 -0.8342614 8.1551762 16711746
-0.3272358 -0.8443515 8.2111835 16711746
0.1540900 -0.8790336 8.4004440 16711746
-0.5936018 -0.8424818 8.2605515 16711746
0.6188705 -0.9232496 8.6967373 16711746
-0.8437055 -0.8478448 8.3715467 16711746
-0.3189687 -0.8444324 8.2079144 16711746
-0.0665233 -0.8660941 8.1723108 16711746
-0.3470239 -0.8266816 8.1491032 16711746
0.0653171 -0.8610162 8.2147942 16711746
-0.2466897 -0.8790783 8.2143478 16711746
-0.1444043 -0.8469114 8.1500216 16711746
-0.2884838 -0.9019747 8.1142607 16711746
-0.2347847 -0.9502781 8.0618620 16711746
0.2432586 -0.9292276 8.3367062 16711746
-0.6004643 -1.0790446 8.0806179 16711746
-0.7623006 -1.0573444 8.2337046 16711746
0.1612331 -0.8112178 8.1340046 16711746
0.1601070 -0.8757613 8.4105463 16711746
-0.0013016 -0.8748528 8.3946819 16711746
-0.4269704 -0.8184333 8.0147047 16711746
-0.0862912 -0.8472731 8.2649498 16711746
-0.0280965 -0.8337175 8.2174854 16711746
-0.7812595 -0.8814062 8.4985800 16711746
0.3356124 -0.8349003 8.2809887 16711746
-0.0000903 -0.8734914 8.4014730 16711746
-0.4853801 -0.8413807 8.2522116 16711746
0.0621686 -0.9080231 8.5673733 16711746
0.0786432 -0.8862098 8.4616518 16711746
-0.0266991 -0.8520063 8.2839813 16711746
-0.0428442 -0.8535053 8.3207140 16711746
-0.0499894 -0.8584581 8.3365211 16711746
-0.0713868 -0.8360225 8.1913300 16711746
-0.1505349 -0.8504761 8.2608833 16711746
0.2410375 -0.9082750 8.5924749 16711746
-0.3899815 -0.8163579 8.1218624 16711746
-0.3048435 -0.8518211 8.3408794 16711746
-0.4380437 -0.8069154 8.0447130 16711746
-0.1494401 -0.8591828 8.2955494 16711746
-0.0149587 -0.8225742 8.1609373 16711746
0.2639768 -0.9158533 8.6644411 16711746
-0.3861613 -0.8194763 8.1168909 16711746
-0.1776913 -0.8719827 8.4174004 16711746
-0.2274750 -0.8588675 8.3248329 16711746
0.0764171 -0.8426554 8.1737537 16711746
-0.3247209 -0.8818440 8.4448442 16711746
0.2477689 -0.9005986 8.5691700 16711746
0.3188368 -0.8370652 8.3264685 16711746
-0.0237202 -0.8551126 8.2814150 16711746
-0.1488823 -0.8354049 8.2080193 16711746
-0.2408672 -0.8777981 8.1352177 16711746
-0.3878259 -0.8287130 8.1361227 16711746
-1.0245284 -1.3147041 8.6228609 16711746
-0.5683655 -0.8314922 8.0927944 16711746
-0.1560506 -0.8466744 8.3280935 16711746
-0.0850245 -0.8364515 8.3016701 16711746
-0.0852191 -0.8590598 8.2702627 16711746
-0.0901187 -0.8951083 8.3815680 16711746
0.1932100 -0.8874156 8.5043955 16711746
-0.3565938 -0.8143293 8.1089430 16711746
-0.0991982 -0.8471342 8.2593660 16711746
-0.4414222 -0.8107843 8.0237207 16711746
-0.0795659 -0.8432924 8.2440119 16711746
-0.2205765 -0.8828992 8.4641953 16711746
-0.0594795 -0.8344890 8.2018080 16711746
-0.0018978 -0.8786126 8.4165773 16711746
-0.4522473 -0.8010839 8.0711985 16711746
0.1178287 -0.9554587 8.2905369 16711746
-0.4232592 -0.8086860 8.1038618 16711746
-1.2504814 -1.4438400 8.9874058 16711746
-1.2972319 -1.4764719 8.7137260 16711746
-0.9808013 -1.3164437 8.6550035 16711746
-1.4963970 -1.3811002 8.9583321 16711746
-0.1276842 -0.8809186 8.6111250 16711746
-0.8786759 -0.8644775 8.3310442 16711746
-0.7785134 -1.2925481 8.4931812 16711746
-1.0141515 -0.8934551 8.5619040 16711746
-0.1099070 -0.8847384 8.5483828 16711746
-0.0937303 -0.8674392 8.4638586 16711746
-0.5218531 -0.8563959 8.3120289 16711746
-0.2416735 -0.8700786 8.4481544 16711746
0.0054397 -0.8702742 8.3715076 16711746
-0.2513484 -0.8668068 8.1542349 16711746
-0.4511168 -0.8424752 8.2215338 16711746
-0.3399577 -0.8876387 8.5589323 16711746
-0.5831817 -0.8779389 8.3928175 16711746
-0.3116827 -0.9328179 8.4555149 16711746
-0.2286452 -0.8602992 8.3560982 16711746
-0.1290093 -0.8409893 8.1973305 16711746
0.0061332 -0.8655443 8.3591499 16711746
0.0648446 -0.8806100 8.4049225 16711746
-0.2531513 -1.0932007 8.0650072 16711746
-0.3956442 -0.9617536 9.3698864 16711746
0.7340610 -1.3550479 8.8601770 16711746
-0.5046304 -2.1929593 10.8670321 16711746
-3.3138542 -2.0435040 12.2271576 16711746
-0.1510649 -0.8492091 8.2639198 16711746
-0.2933874 -0.8589867 8.3068018 16711746
0.0663362 -0.8361125 8.1526785 16711746
-0.5718584 -0.8524602 8.1554518 16711746
-0.2323941 -0.8429245 8.1721258 16711746
-0.6054882 -0.8484730 8.2982626 16711746
-0.1563309 -0.8490927 8.2474928 16711746
-0.0078306 -0.8548321 8.2558556 16711746
-0.0481649 -0.8371835 8.2068357 16711746
0.1469972 -0.8212169 8.1464081 16711746
-0.5053309 -0.8631138 8.2933760 16711746
-0.1285278 -0.8358709 8.1971655 16711746
-0.1590605 -0.8428483 8.1657572 16711746
-0.4515542 -0.8303991 8.1952305 16711746
0.1054117 -0.8784382 8.2883987 16711746
-0.0801563 -0.8513004 8.2249794 16711746
-0.1561557 -0.8505681 8.2922335 16711746
-0.3141240 -0.8538928 8.1701193 16711746
-0.3733160 -0.7992967 8.1292543 16711746
-0.2552507 -0.8447534 8.1784687 16711746
-0.1990484 -0.8481621 8.1477165 16711746
0.1864741 -0.8554217 8.1364660 16711746
-0.3192041 -0.8252137 8.1241465 16711746
-0.1296415 -0.8392634 8.1989889 16711746
-0.0953430 -0.8473706 8.2967815 16711746
-0.1149641 -0.8503761 8.2559433 16711746
0.0735082 -0.8780783 8.3867311 16711746
0.3070766 -0.8601365 8.3236856 16711746
0.0058274 -0.8614939 8.2260466 16711746
-0.2432867 -0.9909889 8.0586491 16711746
-0.3218743 -0.8721535 8.3270531 16711746
0.0998410 -0.8564857 8.2198076 16711746
-0.1915078 -0.8398912 8.2442551 16711746
0.3909169 -0.8797030 8.3529491 16711746
0.3150445 -0.9239613 8.7167292 16711746
0.1543141 -0.8974317 8.7694159 16711746
-0.1818534 -0.8455510 8.2018843 16711746
-0.1938287 -0.8594183 8.3340845 16711746
