# .PCD v.7 - Point Cloud Data file format
VERSION .7
FIELDS x y z rgb
SIZE 4 4 4 4
TYPE F F F F
COUNT 1 1 1 1
WIDTH 179
HEIGHT 1
VIEWPOINT 0 0 0 1 0 0 0
POINTS 179
DATA ascii

 0.0517652 -0.0411656 0.0072929 16777215
 0.0501623 -0.0380734 0.0100903 16777215
 0.0517844 -0.0410509 0.0074602 16777215
 0.0524333 -0.0416595 0.0063553 16777215
 0.0527372 -0.0421300 0.0060152 16777215
 0.0526012 -0.0426753 0.0065928 16777215
 0.0534851 -0.0502408 0.0139133 16777215
 0.0506194 -0.0547250 0.0170482 16777215
 0.0503820 -0.0646883 0.0135034 16777215
 0.0503286 -0.0668799 0.0142391 16777215
 0.0511233 -0.0689753 0.0164694 16777215
 0.0525126 -0.0691855 0.0202136 16777215
 0.0560418 -0.0748768 0.0256721 16777215
 0.0620465 -0.0903183 0.0444672 16777215
 0.0697922 -0.1330781 0.0728687 16777215
 0.0803026 -0.1656845 0.0845477 16777215
 0.0861885 -0.2115346 0.1068078 16777215
 0.0491543 -0.2545581 0.1374353 16777215
 0.0493959 -0.2624487 0.1533377 16777215
 0.0394875 -0.2740272 0.1782343 16777215
 0.0354468 -0.3038085 0.2149184 16777215
 0.0116364 -0.4213145 0.3194804 16777215
 0.0213713 -0.4302882 0.3435484 16777215
 0.0267219 -0.4506444 0.3761127 16777215
 0.0280194 -0.4625212 0.3946589 16777215
 0.0234883 -0.4905591 0.4407706 16777215
 0.0317537 -0.5412180 0.4915667 16777215
 0.0242960 -0.5520137 0.5205786 16777215
 0.0468603 -0.5891761 0.5845160 16777215
 0.0459384 -0.5999631 0.5933089 16777215
 0.0330101 -0.5946442 0.6037919 16777215
 0.0434573 -0.6194332 0.6353701 16777215
 0.0392027 -0.6701643 0.6951914 16777215
 0.0374159 -0.6816006 0.7102544 16777215
 0.0350361 -0.7075318 0.7510922 16777215
 0.0320036 -0.7208571 0.7767044 16777215
 -0.0210992 -0.7875636 0.8355554 16777215
 -0.0088988 -0.7943968 0.8593121 16777215
 -0.0057671 -0.8697287 0.9289684 16777215
 0.0378759 -0.8429748 1.0213144 16777215
 0.0291477 -0.8968128 1.0964664 16777215
 0.0142978 -0.9230894 1.1316878 16777215
 0.0021266 -0.9827525 1.2466217 16777215
 0.0564523 -1.0653112 1.3549975 16777215
 0.0500277 -1.1035094 1.4285263 16777215
 0.0256784 -1.1333412 1.4883261 16777215
 0.0087073 -1.2071371 1.5462075 16777215
 -0.0005749 -1.2227930 1.5923905 16777215
 -0.0077572 -1.2437165 1.6259997 16777215
 -0.0237667 -1.2637056 1.6638303 16777215
 -0.0034597 -1.2826219 1.7026005 16777215
 -0.0216224 -1.3297120 1.7124475 16777215
 -0.0776743 -1.3910469 1.8836015 16777215
 -0.0780290 -1.3999486 1.8982141 16777215
 -0.0338423 -1.3974078 1.9448254 16777215
 -0.0844656 -1.4489670 1.9921317 16777215
 -0.0764893 -1.4789743 2.0597072 16777215
 -0.0750360 -1.5005345 2.0993824 16777215
 -0.0538319 -1.5423120 2.1594684 16777215
 -0.0954211 -1.6613445 2.4367604 16777215
 -0.1007218 -1.6669987 2.4347949 16777215
 -0.1028205 -1.6826583 2.4544971 16777215
 -0.0970446 -1.6833875 2.4583848 16777215
 -0.1301787 -1.7860889 2.6297679 16777215
 -0.1178568 -1.7913067 2.6061859 16777215
 -0.1204067 -1.8019397 2.6222956 16777215
 -0.1255824 -1.8220503 2.6477671 16777215
 -0.1128249 -1.8318286 2.6653595 16777215
 -0.1914294 -1.8947651 2.8637784 16777215
 -0.1866450 -1.9259874 2.8745070 16777215
 -0.1868642 -1.9433450 2.8895187 16777215
 -0.1842403 -1.9532228 2.9088826 16777215
 -0.1851797 -1.9606974 2.9283960 16777215
 -0.1851000 -1.9784408 2.9796011 16777215
 -0.1796370 -1.9853039 3.0033412 16777215
 -0.1853635 -1.9960902 3.0333176 16777215
 -0.1900049 -2.0252569 3.0882890 16777215
 -0.1908638 -2.0347195 3.1097693 16777215
 -0.1967834 -2.0419652 3.1437094 16777215
 -0.2593894 -2.1471398 3.3451698 16777215
 -0.2539299 -2.1577661 3.3658025 16777215
 -0.2800612 -2.1729155 3.4044657 16777215
 -0.2815488 -2.1908200 3.4463484 16777215
 -0.2697052 -2.2142770 3.4897542 16777215
 -0.2824540 -2.2088678 3.5217078 16777215
 -0.2489307 -2.2471671 3.5700285 16777215
 -0.2462352 -2.2747743 3.6327031 16777215
 -0.2443720 -2.2875018 3.6747386 16777215
 -0.2522938 -2.2654974 3.7391000 16777215
 -0.2662899 -2.2855101 3.7757230 16777215
 -0.2585442 -2.3125267 3.8160253 16777215
 -0.2913862 -2.3272312 3.8553617 16777215
 -0.2954733 -2.3535161 3.9370894 16777215
 -0.3072995 -2.3984327 3.9611068 16777215
 -0.4079930 -2.3926780 4.0002708 16777215
 -0.3320028 -2.3910155 4.0368447 16777215
 -0.3763995 -2.4482832 4.1046634 16777215
 -0.3832498 -2.4998007 4.1971631 16777215
 -0.3977859 -2.4641049 4.2380638 16777215
 -0.3126786 -2.4667175 4.2952509 16777215
 -0.3524290 -2.6611340 4.3769832 16777215
 -0.3323371 -2.5869973 4.4219933 16777215
 -0.4099568 -2.6014130 4.4898515 16777215
 -0.4117281 -2.6092932 4.5718899 16777215
 -0.4595079 -2.6677291 4.6467266 16777215
 -0.4412171 -2.6895044 4.7624226 16777215
 -0.4773020 -2.6866062 4.7762213 16777215
 -0.5005565 -2.6814482 4.7877436 16777215
 -0.4540300 -2.6622300 4.8331356 16777215
 -0.3270984 -2.6378114 4.8508263 16777215
 -0.4940456 -2.6703544 4.9286780 16777215
 -0.4650307 -2.7258873 4.9604130 16777215
 -0.4641969 -2.7282403 4.9754062 16777215
 -0.4537671 -2.7249424 4.9920421 16777215
 -0.4622202 -2.7496161 5.0451698 16777215
 -0.4626514 -2.7554944 5.0773621 16777215
 -0.4702241 -2.7688999 5.1204095 16777215
 -0.5460003 -2.8182325 5.2514300 16777215
 -0.5557691 -2.8357105 5.4025688 16777215
 -0.5594017 -2.8452065 5.4203973 16777215
 -0.5705101 -2.8561385 5.4489112 16777215
 -0.5720162 -2.8583653 5.4741778 16777215
 -0.5742067 -2.8757098 5.4999208 16777215
 -0.5818025 -2.8918498 5.5326705 16777215
 -0.5823987 -2.9018190 5.5664005 16777215
 -0.5809556 -2.9052589 5.5972695 16777215
 -0.5667497 -2.9081013 5.6347299 16777215
 -0.6202953 -2.9741457 5.7617702 16777215
 -0.6398344 -2.9812481 5.7906075 16777215
 -0.6345044 -2.9989872 5.8435807 16777215
 -0.6289976 -3.0055394 5.8655095 16777215
 -0.6169490 -3.0063875 5.8902931 16777215
 -0.6167781 -3.0288339 5.9265184 16777215
 -0.6238371 -3.0365815 5.9810557 16777215
 -0.6373832 -3.0447288 6.0354972 16777215
 -0.6305118 -3.0924897 6.0856695 16777215
 -0.6334163 -3.0801127 6.1096735 16777215
 -0.6301885 -3.0790205 6.1493325 16777215
 -0.6395063 -3.1092622 6.2101598 16777215
 -0.6436054 -3.1112103 6.2369604 16777215
 -0.6427242 -3.1255128 6.2766194 16777215
 -0.6421675 -3.1344121 6.3187008 16777215
 -0.6555924 -3.1500101 6.3822398 16777215
 -0.6640656 -3.1602151 6.4371581 16777215
 -0.6750296 -3.1645429 6.4693222 16777215
 -0.6655459 -3.1707072 6.4920688 16777215
 -0.6929625 -3.1928220 6.5693297 16777215
 -0.6819538 -3.1714189 6.5917253 16777215
 -0.7741315 -3.1985269 6.8323979 16777215
 -0.7730664 -3.2012904 6.8463006 16777215
 -0.7935274 -3.2030606 6.8901792 16777215
 -0.7972723 -3.2152190 6.9151196 16777215
 -0.7957021 -3.2210526 6.9255247 16777215
 -0.7978529 -3.2332067 6.9543314 16777215
 -0.8028513 -3.2356467 6.9661574 16777215
 -0.8114828 -3.2460785 7.0092092 16777215
 -0.8120928 -3.2537031 7.0362053 16777215
 -0.8084229 -3.2601895 7.0370693 16777215
 -0.8092121 -3.2701671 7.0594444 16777215
 -0.8142399 -3.2775109 7.0895495 16777215
 -0.8152390 -3.2953739 7.1227803 16777215
 -0.8204578 -3.2975833 7.1474686 16777215
 -0.8393025 -3.3405223 7.2441969 16777215
 -0.8406422 -3.3308032 7.2757916 16777215
 -0.8340595 -3.3348351 7.2935648 16777215
 -0.8211817 -3.3286409 7.2999897 16777215
 -0.8208371 -3.3311205 7.4185905 16777215
 -0.8218395 -3.3341036 7.4447613 16777215
 -0.8180946 -3.3336697 7.4415956 16777215
 -0.8505470 -3.3526502 7.5669141 16777215
 -0.9009937 -3.3392673 7.7532072 16777215
 -0.8969952 -3.3431356 7.7548103 16777215
 -0.8955253 -3.3467331 7.7650347 16777215
 -0.8986865 -3.3466530 7.7692904 16777215
 -0.8995771 -3.3520660 7.7806120 16777215
 -0.9066209 -3.3510106 7.8036013 16777215
 -0.9103288 -3.3616252 7.8272567 16777215
 -0.9228157 -3.3590932 7.8715425 16777215
 -0.9144156 -3.3752744 7.8827639 16777215
