# .PCD v.7 - Point Cloud Data file format
VERSION .7
FIELDS x y z rgb
SIZE 4 4 4 4
TYPE F F F F
COUNT 1 1 1 1
WIDTH 186
HEIGHT 1
VIEWPOINT 0 0 0 1 0 0 0
POINTS 186
DATA ascii

 -23.4162521 -6.5773878 92.5669632 16777215
 1.1022128 1.1875949 -5.1580768 16777215
-2.6406240 -2.5604665 -7.5998378 16711746
0.5932102 2.3888659 -7.5335326 16711746
0.5313513 2.4652219 -7.5963783 16711746
-0.4492032 -1.2473085 -6.4123082 16711746
3.0939658 2.5684321 -6.6296968 16711746
3.2339602 2.7282672 -7.2617369 16711746
0.9621679 1.9426472 -6.8948212 16711746
0.4560949 1.6461731 -5.0604711 16711746
1.7881569 -1.5641253 -4.9451427 16711746
2.0303614 -1.7063584 -5.5603771 16711746
3.3075128 3.0002730 -4.8255086 16711746
4.8285756 3.3047442 -5.2184377 16711746
0.6793838 -1.3968403 -7.4349060 16711746
3.2967238 2.6521969 -5.0659933 16711746
3.1536779 2.5871620 -4.6790490 16711746
-0.8082073 2.4248075 -6.1479745 16711746
1.7546747 -0.5498302 -5.0923152 16711746
1.9824804 -0.6293004 -5.7429104 16711746
0.3201224 2.0298340 -5.9694996 16711746
0.2718512 3.1367779 -6.2659621 16711746
3.5262346 3.1070392 -5.6154590 16711746
3.0233166 2.8683653 -6.4108186 16711746
0.8367406 2.2284005 -6.8587198 16711746
-1.8289629 -1.8723969 -5.6516871 16711746
-1.0782675 -2.7361197 -7.4893866 16711746
0.7854114 -0.8164380 -5.2585726 16711746
1.4239339 -0.5246655 -5.6187792 16711746
1.7610855 -0.4931417 -4.7988629 16711746
3.5753412 -0.5364742 -4.9395461 16711746
1.6597252 2.2312632 -7.5341468 16711746
4.8667150 -0.5104664 -3.9066229 16711746
2.3118358 -0.8936217 -6.3118682 16711746
1.5527591 2.6832023 -5.7258811 16711746
1.3295251 2.1998255 -4.9195337 16711746
1.9765728 -0.4944529 -5.5299792 16711746
1.9766254 -0.5178470 -5.7330770 16711746
1.9768490 -0.5139273 -5.4528813 16711746
-1.6974796 1.8498713 -5.9378424 16711746
-1.8869576 1.8271894 -7.6690607 16711746
-0.1038514 -1.1535580 -4.9446359 16711746
2.5486002 1.0200064 -3.8417969 16711746
3.0807385 1.0822293 -4.1514735 16711746
1.3851254 -0.6270491 -5.8860693 16711746
2.9023216 2.6120670 -3.7343171 16711746
-0.0470041 0.5570654 -6.0031066 16711746
-0.7953772 1.7861974 -6.6518054 16711746
-2.5604725 -2.1841331 -7.5728979 16711746
-2.3556774 1.7562755 -7.4269938 16711746
-1.2888969 2.2883756 -5.8717818 16711746
-1.3956956 2.0074894 -6.7461600 16711746
4.2872181 2.9876266 -4.6478229 16711746
2.4196119 2.2737434 -4.6365113 16711746
4.1432085 2.8928890 -5.6227360 16711746
-0.2818961 2.3833675 -6.5127344 16711746
3.2604613 -0.6441175 -5.0461717 16711746
3.1380401 -0.6110968 -4.6085777 16711746
0.5194656 2.3225131 -7.9827089 16711746
0.7171999 3.0222387 -6.9797926 16711746
2.2045138 3.3472667 -6.9143949 16711746
1.2847774 -0.8035392 -5.3020363 16711746
1.4829646 0.7305300 -5.5897684 16711746
-1.7475451 1.8564476 -5.4939308 16711746
0.3790395 1.7703258 -6.3672938 16711746
-2.5255973 1.8365420 -5.4357548 16711746
1.3297234 -0.3147488 -4.8451195 16711746
1.0646772 0.6781214 -4.6037593 16711746
0.8341414 1.8586359 -6.2149878 16711746
0.7513285 2.1344240 -7.4639063 16711746
0.9672432 1.9939501 -6.7661190 16711746
2.1261392 -1.3590026 -4.0334029 16711746
-1.6053363 1.9676192 -7.0475144 16711746
3.9836197 2.9288213 -5.1228042 16711746
3.6148696 -0.5478378 -5.0762286 16711746
0.7395206 2.2959633 -5.6760435 16711746
1.1082762 2.8696866 -7.0788279 16711746
4.2638335 3.1859019 -5.6039042 16711746
-0.5359579 -1.6875509 -5.9836092 16711746
-0.3124767 -1.5160534 -5.7520957 16711746
-1.3493550 3.0134473 -6.5208602 16711746
-0.6115781 2.0199485 -5.8328805 16711746
1.5317585 -0.7115825 -6.7061887 16711746
4.0366888 3.3684521 -6.5109839 16711746
3.2962410 2.8369315 -4.9220991 16711746
0.4066608 2.3045239 -6.0872393 16711746
0.6806816 2.4884205 -6.8937187 16711746
2.7812839 -0.4970007 -5.1145506 16711746
2.9401958 3.0412395 -6.1703558 16711746
2.8266923 2.8405817 -5.6157522 16711746
1.3562171 0.7025877 -5.2326169 16711746
1.9497126 2.0200000 -4.7685609 16711746
-1.3639539 1.8609385 -7.0904117 16711746
-0.5086867 -1.3776922 -6.5146070 16711746
-0.2071998 -1.1367781 -5.0548139 16711746
-0.5834728 2.2452931 -7.4354029 16711746
3.9647362 -0.5232394 -4.4519644 16711746
4.8096342 -0.5450774 -5.5308442 16711746
-0.2472656 1.8856409 -5.6597886 16711746
2.6737063 2.5163667 -4.8881326 16711746
2.1687603 2.6926067 -5.5202489 16711746
3.7640147 -0.7820637 -4.9496007 16711746
3.0946882 -0.6535997 -4.4607344 16711746
3.0476544 -0.5451891 -4.2615247 16711746
0.6028666 -1.2757682 -5.6116834 16711746
-0.6422117 2.0153434 -8.0397511 16711746
-0.3467099 2.0296896 -7.4504266 16711746
2.1856627 2.1193924 -5.1549249 16711746
-2.4089541 1.7725660 -7.3790894 16711746
0.0531438 -1.3687468 -5.2945027 16711746
-0.3440844 -1.7482146 -7.3534327 16711746
0.3208255 -1.3936490 -6.1892333 16711746
-0.8600315 -1.7887999 -6.3286529 16711746
-0.0760204 -2.0145309 -6.1214366 16711746
-0.3376595 -2.1128616 -7.2794442 16711746
-1.1132112 -2.3708680 -7.6784625 16711746
-1.5367070 -1.7484604 -7.5338035 16711746
-2.0021789 -1.8669474 -7.8470592 16711746
-1.1366074 -1.5821992 -7.1619754 16711746
-0.6727504 -1.3424120 -6.6565166 16711746
-0.8354299 -1.5240579 -6.8791795 16711746
-3.4297240 -2.2718716 -6.2997508 16711746
0.2895733 -2.2032318 -4.3866663 16711746
-1.6226655 -2.7919941 -5.9870849 16711746
-2.9263954 -3.1207492 -6.7959318 16711746
-0.0765756 -2.0557072 -5.5165577 16711746
0.1433037 -2.6071994 -7.5890636 16711746
-0.1095439 -1.9427809 -4.7529202 16711746
-3.7256446 -3.3801174 -6.6191769 16711746
4.6478086 -1.2968652 -4.3347988 16711746
3.2305210 -0.7593575 -3.4402912 16711746
2.9157326 -0.8795287 -3.5256398 16711746
5.2392898 -0.9094189 -4.5434394 16711746
5.0552340 -1.2081007 -4.0279016 16711746
1.0598272 -1.3122362 -5.2541609 16711746
1.5784099 -1.2815216 -5.0747623 16711746
0.6922597 -1.8520609 -7.3944459 16711746
1.0051566 -1.1403897 -5.4784656 16711746
2.0174239 -1.9405998 -6.3216162 16711746
0.6421337 -1.8976383 -6.4344621 16711746
0.4599258 -1.2768562 -4.6722751 16711746
2.6746159 -1.7868909 -6.6898899 16711746
3.0680182 -1.6362804 -5.4337745 16711746
2.0248456 -1.2999240 -4.7168641 16711746
1.2747071 -1.0014340 -6.5535092 16711746
1.4677483 -1.0999331 -5.8821144 16711746
1.7223779 -1.1747756 -6.0939317 16711746
1.1271831 -1.1913121 -5.9686227 16711746
2.9540622 -1.0365243 -6.2782063 16711746
1.7867703 -0.7686291 -5.0258665 16711746
2.6201653 -0.8478895 -6.0355067 16711746
2.2279649 -0.8226316 -4.5395851 16711746
2.3366656 -1.1475780 -6.7445979 16711746
1.9900737 -0.7661662 -4.5618978 16711746
0.8671373 -2.6395321 -4.7966342 16711746
1.4650327 -1.8821205 -5.6691556 16711746
0.8244757 -1.3574442 -3.9731159 16711746
0.8966769 -2.7619829 -6.5610247 16711746
2.2628179 -2.2556179 -5.9294038 16711746
2.2299442 -2.0571935 -5.3702936 16711746
2.8140273 -2.1211319 -5.0035028 16711746
2.3918741 -2.3737092 -5.2412491 16711746
-0.1678363 1.7499567 -5.8591700 16711746
-0.1452094 1.9771000 -7.1540256 16711746
-0.1106285 2.0380628 -6.9492731 16711746
4.7324924 3.1579986 -5.2242360 16711746
3.6868470 2.9118533 -6.1657872 16711746
5.2909346 3.6467662 -5.4819622 16711746
3.6743221 2.9773498 -6.1155119 16711746
1.2574595 1.6788051 -5.2122035 16711746
1.0763708 2.2653396 -7.5473518 16711746
3.1112754 3.5472245 -6.4087620 16711746
2.2119555 2.5728762 -5.6227040 16711746
3.8239977 -0.5946352 -3.9581928 16711746
2.2651448 0.9024362 -4.7308297 16711746
2.9314330 -0.4903631 -4.5114484 16711746
5.0014114 -0.5650654 -4.3666868 16711746
4.8666887 -0.5343879 -4.0935597 16711746
1.4057759 -0.6339195 -5.7878957 16711746
1.4625672 -0.5690990 -5.4384012 16711746
1.2504990 -0.8181877 -6.5781379 16711746
1.9607974 -0.6458998 -6.2472124 16711746
1.9797093 -0.4906473 -5.0286217 16711746
1.0383972 1.8708148 -6.6130886 16711746
0.7577224 1.9659604 -7.7745805 16711746
2.1883745 -0.4114537 -3.9744372 16711746
