# .PCD v0.7 - Point Cloud Data file format
VERSION 0.7
FIELDS x y z rgb
SIZE 4 4 4 4
TYPE F F F F
COUNT 1 1 1 1
WIDTH 1196
HEIGHT 1
VIEWPOINT 0 0 0 1 0 0 0
POINTS 1196
DATA ascii
0.65136594 -2.2976763 1.2916012 16711746
16.927698 -12.477888 1.9840909 16711746
14.451751 -11.239007 1.3655745 16711746
10.595325 -16.956495 4.4605374 16711746
5.1582866 -6.7899265 2.9525592 16711746
2.6983502 -5.0494514 0.036677986 16711746
2.5715928 -4.9690399 0.44839758 16711746
12.107077 -19.689442 6.1348472 16711746
4.5093412 -9.3103075 1.3543953 16711746
-7.1156893 -8.77806 9.4662313 16711746
8.3651161 -11.790149 6.0763421 16711746
-6.0314651 -7.0648146 8.2409773 16711746
2.8772483 -6.4008222 1.2624482 16711746
9.5796728 -15.8302 6.1831927 16711746
-5.3700857 -5.5849218 6.9975343 16711746
6.7848296 -12.942795 0.46209705 16711746
8.634326 -20.597076 -0.31668758 16711746
1.788183 -4.7623506 0.36717457 16711746
8.4587488 -19.67697 3.5887339 16711746
5.50774 -7.2112756 4.5833521 16711746
12.273377 -16.228052 7.0805526 16711746
5.8263793 -7.4168963 4.7049608 16711746
8.29284 -15.191822 3.4484401 16711746
10.656585 -17.905016 6.8816657 16711746
2.4668109 -5.1397586 0.078456335 16711746
1.1453516 -3.7583656 0.097920589 16711746
-2.0448024 -3.7733128 1.2144111 16711746
-3.8276932 -5.2180266 2.6399159 16711746
-1.9111834 -3.9659007 0.8452428 16711746
-3.4311032 -3.992166 2.2462909 16711746
-0.58265567 -6.6052685 1.0733049 16711746
2.8012583 -6.2511702 0.72078812 16711746
-8.6229906 -11.703468 5.5129933 16711746
6.9804254 -9.4413853 3.8879526 16711746
5.6057239 -11.676444 0.10241699 16711746
8.5344744 -8.6338444 4.0309906 16711746
-9.0004139 -12.951601 4.1351161 16711746
1.4623286 -4.5993886 2.1655986 16711746
-4.2150249 -18.740061 1.9435875 16711746
4.2964692 -7.7438431 1.8034211 16711746
-0.34845945 -7.1211939 1.4382304 16711746
4.0156274 -19.669653 0.76926893 16711746
8.1551037 -14.325055 1.012381 16711746
0.86105227 -5.1544795 1.9418894 16711746
-11.894538 -17.304857 6.1597643 16711746
11.200277 -11.950305 2.9831326 16711746
14.669221 -16.646994 6.0097694 16711746
10.420456 -10.389525 3.0606694 16711746
6.4378648 -15.000713 -0.6937663 16711746
3.2626107 -11.351217 0.78453499 16711746
18.415598 -18.899647 3.7417319 16711746
-6.4438677 -10.627584 3.0268245 16711746
7.2612848 -12.531472 -1.0443202 16711746
1.2895919 -3.5379934 1.7479314 16711746
15.887815 -17.073643 10.580694 16711746
5.9623985 -10.159513 3.7328033 16711746
12.465422 -17.183308 5.9225292 16711746
17.600937 -19.090685 11.725623 16711746
9.9082232 -9.9546223 4.579946 16711746
13.170973 -17.352364 7.8807631 16711746
12.033728 -17.906797 5.5221653 16711746
-8.4283457 -11.500623 4.5093312 16711746
20.651396 -20.769571 8.925765 16711746
11.905997 -11.832739 3.3935905 16711746
7.1940932 -13.870728 8.8882875 16711746
6.890923 -10.188305 3.3615012 16711746
7.2508717 -10.091854 0.22492856 16711746
18.205748 -18.219469 1.3930897 16711746
12.423169 -20.212486 6.3066025 16711746
15.269485 -16.45261 10.181511 16711746
-12.325744 -15.609281 5.7917261 16711746
13.488222 -20.300535 6.4510455 16711746
7.4801807 -22.202969 9.5596161 16711746
11.015621 -16.860754 2.40486 16711746
10.934978 -17.888605 -2.2320623 16711746
21.607365 -18.074108 6.3395171 16711746
20.099606 -19.116924 3.6877472 16711746
14.902164 -17.683834 -1.591278 16711746
27.077961 -21.948496 10.432407 16711746
18.867235 -17.510408 -1.6072674 16711746
-5.7188678 -20.159828 2.2067254 16711746
3.0134976 -17.308067 2.5070858 16711746
18.935087 -17.784674 4.5456996 16711746
3.8294916 -14.337563 5.2488112 16711746
27.054399 -22.380821 7.2907519 16711746
12.238823 -20.107792 1.5748945 16711746
18.895151 -32.064964 3.2041903 16711746
20.722925 -19.449789 4.7720265 16711746
12.65813 -18.224226 -3.2080963 16711746
16.913849 -18.581776 -0.10003885 16711746
31.191011 -24.936232 7.5514545 16711746
19.241463 -30.567469 7.2385321 16711746
18.994032 -18.230614 3.7338448 16711746
12.996097 -18.865908 -2.676266 16711746
5.6649504 -16.750795 7.4443693 16711746
22.756811 -19.013533 12.577997 16711746
18.210432 -22.189112 8.9842663 16711746
11.58445 -20.823429 2.501569 16711746
19.381962 -26.233326 2.1808946 16711746
9.6784601 -22.944822 -3.6477857 16711746
15.76253 -22.054928 7.3124528 16711746
9.3732605 -17.49225 -2.4033697 16711746
11.592614 -20.438494 2.8597536 16711746
21.119116 -22.831713 13.551308 16711746
17.184416 -20.151945 7.4999151 16711746
16.970186 -22.980986 2.0590463 16711746
12.002365 -20.414274 4.3049407 16711746
9.6295242 -19.072218 5.687398 16711746
11.780263 -29.342548 3.4501531 16711746
13.083601 -21.665937 7.8033147 16711746
9.4559698 -21.272816 2.9393206 16711746
11.806889 -12.388823 0.56253117 16711746
8.4037304 -14.6251 2.8610525 16711746
3.4532309 -11.43072 5.6272354 16711746
16.890358 -37.890186 3.2274354 16711746
10.306831 -16.308897 0.31526679 16711746
24.042942 -19.632673 -1.884039 16711746
15.694197 -31.212076 8.0679884 16711746
22.779612 -37.821999 2.7230816 16711746
3.7685287 -15.216012 6.964386 16711746
19.819305 -40.447109 8.1208019 16711746
16.232229 -30.114738 4.0044222 16711746
19.311501 -19.278734 4.6780996 16711746
17.793329 -21.854523 0.75571311 16711746
14.70116 -25.363144 -1.3871405 16711746
9.7833977 -30.389154 11.383349 16711746
7.8396878 -19.091843 3.0357792 16711746
11.214245 -19.746096 2.0049453 16711746
15.813423 -34.509575 -1.4022278 16711746
15.878312 -24.132187 6.6028819 16711746
11.677796 -14.556369 -1.7458487 16711746
11.24581 -20.883671 1.6650422 16711746
13.303112 -32.480965 4.0035434 16711746
26.698462 -21.742487 -2.4925826 16711746
20.06628 -18.462702 -1.8349642 16711746
14.940719 -21.972452 -2.5580952 16711746
13.825959 -25.674805 5.1147871 16711746
14.451581 -29.149391 7.5926938 16711746
18.346334 -32.204762 0.040354464 16711746
11.303968 -20.399847 1.1156675 16711746
16.488422 -21.25946 12.869293 16711746
11.532948 -17.221296 -1.6913749 16711746
17.793081 -18.34523 3.7659535 16711746
-12.00528 -17.097736 5.7306709 16711746
17.631849 -18.857582 11.491219 16711746
10.429711 -20.103125 3.8381708 16711746
20.368134 -28.837549 9.1268921 16711746
18.84446 -20.119745 12.421618 16711746
18.809258 -34.543396 1.1697654 16711746
16.970047 -28.498804 9.6565342 16711746
19.559887 -39.023788 8.2982302 16711746
15.647644 -28.910166 1.5574112 16711746
22.95904 -21.277647 16.962585 16711746
18.124889 -25.459579 9.677331 16711746
6.1484237 -19.41147 8.1581869 16711746
6.8356681 -20.21546 9.1651897 16711746
12.95838 -17.841398 6.9263444 16711746
18.491941 -21.088217 11.769251 16711746
10.11076 -36.020084 1.2257118 16711746
30.187515 -24.57234 7.7368355 16711746
19.221678 -40.030865 0.082639642 16711746
12.038638 -20.691467 -0.00039317031 16711746
14.103848 -30.344652 -0.2318749 16711746
13.194021 -44.673862 5.7080655 16711746
4.7396302 -23.866297 3.951484 16711746
18.84812 -28.900942 -1.3343947 16711746
10.892071 -19.100151 -2.6136589 16711746
27.879644 -30.840157 6.9737949 16711746
14.075182 -28.957365 4.67871 16711746
20.756781 -33.621159 9.1089916 16711746
19.060362 -40.960926 4.4153018 16711746
5.5766649 -35.537979 8.6116028 16711746
16.324528 -25.395605 6.2941179 16711746
23.831854 -29.186205 0.19641466 16711746
26.429052 -52.653107 10.026966 16711746
16.361069 -27.549658 5.7150388 16711746
10.857137 -18.830149 -1.8460374 16711746
26.942257 -28.763807 17.33132 16711746
13.175817 -22.215406 5.0170703 16711746
18.706896 -23.06624 10.337775 16711746
17.709997 -35.354877 2.3169484 16711746
19.03001 -25.599436 2.4454226 16711746
13.744752 -33.637573 4.0040379 16711746
15.237045 -21.161745 7.2877316 16711746
7.8137341 -31.622871 6.6553516 16711746
17.923006 -28.969225 6.737937 16711746
14.647196 -60.70813 22.458422 16711746
8.5410671 -50.64698 20.252853 16711746
31.752638 -30.682903 13.514394 16711746
6.4606361 -25.293299 5.7966642 16711746
15.217243 -24.760778 5.9833083 16711746
16.731174 -24.62723 2.5557072 16711746
18.016895 -45.356098 0.9264968 16711746
15.796356 -27.903185 0.73923302 16711746
6.6603546 -38.922585 18.272543 16711746
14.750153 -36.408241 2.1596594 16711746
13.530783 -31.710264 2.5293298 16711746
9.3369036 -19.247559 7.3717523 16711746
19.82625 -34.131344 8.1700325 16711746
15.245533 -26.915112 2.2656772 16711746
18.522556 -31.104963 6.26367 16711746
19.298557 -36.655106 5.1077404 16711746
4.0213666 -33.912212 9.1559801 16711746
17.733093 -36.39172 2.4090636 16711746
14.679102 -31.585438 -0.25800136 16711746
40.760025 -72.241867 12.484639 16711746
19.82122 -24.896383 2.9869564 16711746
2.4400957 -38.174118 11.162209 16711746
6.3091536 -39.894203 18.381977 16711746
14.883404 -25.103914 5.5247202 16711746
2.0576611 -44.484074 12.285588 16711746
0.27950379 -48.937328 10.455461 16711746
2.7755883 -43.224762 11.817358 16711746
12.828526 -23.070978 2.4508073 16711746
6.2027063 -27.488297 12.586765 16711746
25.80592 -35.480675 2.6417789 16711746
2.3470113 -28.314539 5.4946799 16711746
11.765262 -24.909721 7.3578248 16711746
6.8316679 -27.765331 2.4533517 16711746
23.048237 -30.157938 7.7543688 16711746
9.9366751 -27.774151 19.704699 16711746
2.3222153 -28.91967 9.8544683 16711746
9.8578062 -44.184097 4.7770276 16711746
9.5488672 -35.782978 -0.1072487 16711746
6.167026 -27.318262 7.9319386 16711746
3.4461462 -25.102774 4.1274643 16711746
13.054004 -30.575396 5.2506762 16711746
8.6112471 -39.664913 16.005522 16711746
5.8249936 -18.621506 3.7121906 16711746
18.359268 -27.19795 3.4332721 16711746
1.9325985 -46.106056 12.083237 16711746
4.0035219 -28.786856 9.3284702 16711746
10.199799 -24.205278 5.1055188 16711746
6.4492469 -40.091656 3.1745453 16711746
13.314979 -26.760185 7.9988761 16711746
7.8350945 -27.786957 2.3902259 16711746
9.2078056 -40.30611 10.276886 16711746
-1.8857486 -32.90686 6.985116 16711746
19.860741 -34.17551 -0.1367189 16711746
14.99656 -17.638643 4.5155592 16711746
15.858421 -44.074406 -4.5582361 16711746
19.536827 -39.029461 4.2844014 16711746
24.974646 -47.112839 -3.1647098 16711746
14.762778 -54.71912 -8.4408712 16711746
22.110994 -25.90271 -8.0601521 16711746
17.088207 -36.082329 1.9880525 16711746
25.134024 -30.209688 12.003528 16711746
19.226898 -33.469589 -1.4952458 16711746
3.3405812 -28.945917 8.6641378 16711746
24.801239 -39.614044 0.014108149 16711746
18.430876 -44.369667 1.6358989 16711746
4.6433163 -44.305786 7.7975221 16711746
7.9754515 -45.026287 20.37668 16711746
16.264277 -58.072346 17.156105 16711746
18.388302 -38.102032 0.32573977 16711746
12.54072 -26.011721 -0.017016886 16711746
5.6931057 -43.15456 4.5671492 16711746
8.2578659 -49.451897 13.696614 16711746
27.706333 -28.667742 17.072092 16711746
7.7355127 -44.701969 5.5022912 16711746
20.20425 -28.125879 3.2910707 16711746
2.7486231 -28.161922 9.2591076 16711746
13.625484 -54.49881 11.455629 16711746
12.660736 -41.791077 14.556844 16711746
28.326004 -29.577682 17.341999 16711746
19.998821 -32.79644 6.9761081 16711746
16.721893 -31.086813 6.1129727 16711746
26.969248 -37.190472 10.731581 16711746
1.0973378 -12.724984 4.5204601 16711746
22.256332 -39.344513 6.416018 16711746
24.61274 -25.609596 15.950877 16711746
7.4919443 -12.170122 6.6809206 16711746
29.702654 -28.794458 12.877777 16711746
25.491762 -20.548109 -5.0213981 16711746
7.7511163 -30.913109 1.8526857 16711746
-1.7726039 -30.190767 9.7971087 16711746
5.7586088 -34.073021 9.1081619 16711746
3.8842826 -38.199066 7.6385059 16711746
21.556736 -30.270241 9.2684326 16711746
4.4760551 -21.574919 5.0434847 16711746
2.035948 -34.181713 13.342535 16711746
3.5434451 -32.811687 8.4469414 16711746
17.886929 -37.373802 1.2257619 16711746
14.362387 -31.684069 3.1383705 16711746
4.2683969 -34.357006 6.9724889 16711746
11.835957 -27.33473 5.2187743 16711746
16.301172 -22.684017 3.5585034 16711746
11.595949 -29.177895 4.9161601 16711746
-1.0544016 -37.199497 5.5280447 16711746
6.8484511 -34.726128 4.4845901 16711746
1.3775355 -17.410641 8.4635992 16711746
3.9105322 -21.860598 2.6728449 16711746
-4.5151072 -29.124691 8.062068 16711746
5.9618979 -34.790821 9.070365 16711746
18.571482 -37.558407 -2.7474024 16711746
7.5718083 -42.921543 10.343883 16711746
19.143026 -34.28059 2.6906452 16711746
10.575573 -36.857338 14.437432 16711746
18.007385 -29.676439 2.7621543 16711746
15.197209 -25.224453 9.6163263 16711746
6.1616564 -35.900459 -0.79669744 16711746
3.1462057 -31.570774 7.9121795 16711746
18.294775 -23.224871 1.8263164 16711746
3.3241301 -6.8699989 4.5946827 16711746
5.4263172 -12.875225 4.2870464 16711746
1.216486 -24.385069 9.1595526 16711746
30.122566 -37.59948 13.964988 16711746
13.557715 -38.13472 4.632165 16711746
7.9962435 -8.199852 1.6151401 16711746
2.89679 -18.001453 4.1242733 16711746
15.405987 -41.612686 -2.6528528 16711746
-2.6182098 -25.929729 9.0167274 16711746
-3.112107 -20.961895 10.410941 16711746
-3.9133794 -18.172247 7.6047521 16711746
4.2974038 -12.618124 5.5042009 16711746
1.4695725 -7.564456 7.1840405 16711746
2.8645976 -36.128887 5.9914193 16711746
2.6992228 -14.524173 8.8417778 16711746
0.061786637 -16.357021 5.9440928 16711746
-3.9480753 -18.805809 8.4764729 16711746
3.7659998 -22.837839 4.5069041 16711746
2.8181095 -13.453172 8.3777618 16711746
0.53599244 -32.150726 6.7973237 16711746
5.2466846 -30.640003 4.0195961 16711746
16.533752 -29.349483 10.550476 16711746
20.994045 -21.192942 14.867905 16711746
-3.1789525 -30.637983 5.0493507 16711746
3.6345239 -38.091473 1.602825 16711746
-9.845191 -53.173801 9.1807823 16711746
15.372047 -34.834057 4.1929803 16711746
-7.8729634 -37.763802 8.3537121 16711746
16.281481 -27.390469 3.7951124 16711746
18.555948 -50.321777 -3.139945 16711746
2.4555666 -37.407234 4.6389575 16711746
-1.7595156 -16.461161 8.2354517 16711746
-5.7191114 -30.630205 8.8270388 16711746
-7.0851598 -24.719622 9.8541508 16711746
-5.1532111 -24.821217 8.9133968 16711746
19.437698 -37.552223 -1.2413731 16711746
31.091122 -36.382931 13.707357 16711746
19.720615 -36.839252 23.044022 16711746
-9.5517979 -31.015194 10.641844 16711746
-7.4467626 -31.422901 9.7504301 16711746
5.9769211 -45.723709 6.2734847 16711746
-11.072208 -60.509701 8.9262323 16711746
-3.3775904 -30.562029 8.3157864 16711746
-5.4950228 -29.918665 8.8824406 16711746
-4.6636539 -34.350765 8.5006733 16711746
-8.3695984 -23.053949 9.7229519 16711746
13.07968 -23.018503 5.9896598 16711746
15.611293 -27.44245 5.8307776 16711746
118.20167 -131.99831 33.987705 16711746
14.209985 -23.598824 2.8209412 16711746
1.0217602 -6.2420735 6.4561672 16711746
20.279797 -33.794647 9.3687544 16711746
24.736948 -28.006569 4.1226115 16711746
36.766815 -33.53059 14.140159 16711746
48.133984 -68.075546 4.9319735 16711746
0.86006856 -4.7269702 6.9247789 16711746
13.551165 -9.7415943 5.8491478 16711746
6.4635024 -8.3519707 8.0270262 16711746
5.1449761 -10.029347 6.505137 16711746
2.728277 -14.820183 8.5345364 16711746
-5.4564114 -85.186111 39.15694 16711746
9.3060179 -9.4837933 10.52517 16711746
23.445419 -64.064949 40.490868 16711746
16.983671 -20.009392 3.6306002 16711746
30.498798 -83.669334 -6.489378 16711746
5.1176109 -9.0178537 9.7996807 16711746
54.303673 -55.58028 25.822231 16711746
8.7844992 -70.92849 2.4512236 16711746
11.624724 -99.573692 0.57993501 16711746
16.003746 -45.581432 29.662872 16711746
9.0311823 -6.5370135 8.9990644 16711746
3.3290932 -14.926437 9.2124624 16711746
9.0132017 -8.7039852 6.6804442 16711746
19.914984 -25.332973 21.34997 16711746
-0.041701887 -18.385572 10.552657 16711746
12.289557 -16.21719 7.9617796 16711746
-0.48974761 -29.733849 14.945039 16711746
-26.046934 -74.937965 63.514786 16711746
-9.7522097 -25.780134 14.50168 16711746
3.9438932 -31.620987 7.6318989 16711746
8.4249144 -10.926643 7.8525162 16711746
4.7737584 -21.477293 10.358701 16711746
0.56894016 -10.351882 14.326933 16711746
2.763221 -29.383354 8.2764854 16711746
29.487328 -71.943604 -3.3023877 16711746
10.832073 -29.527786 8.5925026 16711746
9.4431295 -25.287241 12.200746 16711746
2.8034685 -16.571741 13.7672 16711746
17.128748 -48.95134 2.3850057 16711746
14.266458 -29.535244 9.4404774 16711746
17.309183 -43.437111 8.8374357 16711746
3.3312802 -20.52298 9.6230145 16711746
26.176765 -55.334705 -3.2747059 16711746
27.185476 -58.65683 -6.619267 16711746
19.208326 -32.29644 5.0559072 16711746
12.056541 -38.118446 9.2105207 16711746
-0.71205163 -30.171227 16.507458 16711746
10.687944 -27.711271 10.897849 16711746
19.036499 -47.140923 8.5847902 16711746
17.800194 -33.807774 16.231899 16711746
11.332273 -44.958866 4.6663504 16711746
7.4304552 -25.886686 8.3331089 16711746
1.1736945 -39.868889 20.662706 16711746
0.99821085 -13.380825 11.908679 16711746
12.358971 -23.984247 13.038656 16711746
10.287832 -24.296041 12.492486 16711746
1.1882888 -14.607904 12.956006 16711746
11.099896 -34.025795 4.5683947 16711746
7.570199 -18.389975 13.399485 16711746
31.29409 -57.017334 -6.0000014 16711746
6.1293392 -19.416918 13.128764 16711746
4.2452288 -78.724701 2.6092761 16711746
20.783306 -98.796387 -8.6133614 16711746
6.0534935 -26.953146 11.530718 16711746
4.3814492 -20.95137 11.17966 16711746
8.1747999 -25.625433 8.1570187 16711746
22.530886 -50.685722 -2.5147159 16711746
1.2048165 -29.963097 8.3036842 16711746
0.61668223 -33.875721 7.769269 16711746
13.672819 -30.537807 13.448402 16711746
9.1830454 -28.657907 11.188035 16711746
17.739237 -50.948597 2.0601499 16711746
2.8241346 -18.770943 9.5136518 16711746
6.6575909 -32.630527 9.4129219 16711746
23.15387 -39.056538 0.84464556 16711746
9.7529268 -17.698284 11.867516 16711746
12.477798 -23.778559 13.055501 16711746
9.4023781 -24.61907 10.894669 16711746
3.7364256 -21.881311 14.868362 16711746
14.603789 -27.154785 6.8752041 16711746
-0.13638049 -8.5619602 12.870666 16711746
16.226826 -33.724392 6.5798869 16711746
0.19692667 -13.498163 12.06946 16711746
4.0530667 -34.404385 14.911775 16711746
2.9584117 -27.525507 18.471258 16711746
0.88593 -26.459888 10.33095 16711746
12.052763 -21.117023 11.876574 16711746
7.5770388 -22.814169 14.561721 16711746
0.19894882 -15.959947 13.010648 16711746
-0.27968308 -10.638435 12.430212 16711746
0.74173057 -24.182159 10.510185 16711746
12.464307 -23.845057 7.5604057 16711746
33.074051 -28.68795 1.7538909 16711746
22.592989 -19.537897 0.70796645 16711746
-1.2237263 -13.916537 14.117042 16711746
13.997158 -23.080505 13.720088 16711746
7.086246 -21.164127 8.2318268 16711746
1.4209852 -32.126575 12.912026 16711746
4.1210675 -25.542448 15.81554 16711746
14.69866 -19.365404 12.262003 16711746
0.91943163 -9.826787 13.316792 16711746
0.21880367 -7.7077799 12.801601 16711746
-1.0918634 -13.13093 13.523081 16711746
11.320007 -28.583551 13.983891 16711746
11.892745 -34.650673 14.539865 16711746
2.6427705 -38.722855 23.22249 16711746
-6.5719323 -94.819122 13.130618 16711746
13.512831 -30.035364 12.655798 16711746
10.018557 -33.915924 7.2317195 16711746
16.14332 -76.406258 3.8094287 16711746
9.7768745 -31.162924 9.7710152 16711746
10.849695 -20.347542 9.0302763 16711746
12.576672 -9.7750025 12.908399 16711746
-0.16758923 -28.040621 16.219631 16711746
-0.090842493 -10.227089 12.797049 16711746
-0.21246283 -37.131035 17.141945 16711746
10.246733 -17.859612 12.304622 16711746
16.432991 -20.767021 13.577188 16711746
15.015331 -21.323885 13.746623 16711746
-1.9901356 -27.100765 15.403576 16711746
17.522896 -20.868633 4.185533 16711746
-1.1126777 -11.482202 13.605967 16711746
23.627064 -36.498482 5.418972 16711746
26.322277 -32.362362 4.3139534 16711746
22.175337 -27.78466 3.9998884 16711746
8.045578 -39.329659 9.2249775 16711746
2.6193328 -18.980757 10.696353 16711746
-7.5435419 -55.559566 18.294279 16711746
1.1878011 -6.4381618 12.553723 16711746
8.0108452 -21.554636 11.068651 16711746
0.16091877 -7.4094114 12.703877 16711746
8.8096533 -18.170555 12.579724 16711746
34.666847 -49.162632 -4.2297707 16711746
-0.85147876 -15.146379 13.716007 16711746
-1.6290152 -18.878382 13.934391 16711746
14.611341 -20.956337 6.819706 16711746
2.6081808 -42.335018 24.444082 16711746
-0.15342736 -7.2098155 12.817136 16711746
0.0089860857 -18.047678 11.964777 16711746
0.35615754 -20.981869 10.934374 16711746
-7.3865805 -55.828659 18.129486 16711746
-10.199636 -27.269743 16.562082 16711746
16.774982 -21.065821 13.526434 16711746
60.182999 -45.278069 -5.9068947 16711746
5.2690859 -17.78964 11.441893 16711746
2.8874638 -18.760675 12.431142 16711746
21.357794 -31.594503 25.516747 16711746
40.082691 -24.036068 13.475255 16711746
29.226484 -21.223988 10.800096 16711746
14.675009 -30.111246 18.165701 16711746
11.223392 -21.000961 14.940625 16711746
2.5461864 -29.449852 9.4903851 16711746
4.1688561 -35.56992 6.8920765 16711746
10.750415 -25.655336 11.719739 16711746
4.4901857 -27.766768 10.168629 16711746
5.4312706 -17.148012 13.255758 16711746
16.027342 -31.406984 15.388895 16711746
8.2287855 -20.701988 14.45592 16711746
-1.1556851 -34.595669 14.461238 16711746
-6.8243308 -47.504871 10.399252 16711746
9.1904898 -22.601376 11.75854 16711746
9.7964039 -26.393599 23.786711 16711746
8.5207462 -20.265619 18.290419 16711746
8.5983019 -22.08634 14.84737 16711746
7.0392618 -22.667284 9.6812696 16711746
9.6934357 -23.746826 11.522564 16711746
-29.356285 -79.530022 18.337214 16711746
1.8439935 -27.157553 11.756875 16711746
-7.2390394 -44.006985 14.937039 16711746
6.6083546 -27.417318 15.386236 16711746
-14.250888 -65.793381 15.340294 16711746
-1.3237997 -43.977165 14.250706 16711746
8.231638 -22.695316 13.932968 16711746
9.8664742 -32.157032 14.902865 16711746
7.8422403 -24.783731 10.818133 16711746
35.909992 -36.8251 3.4044671 16711746
19.746883 -32.787815 17.016933 16711746
5.2830067 -42.268295 12.606572 16711746
2.0720458 -42.926224 18.073456 16711746
3.4981449 -31.900839 7.4863262 16711746
10.179439 -22.045174 23.109629 16711746
9.0888481 -38.032574 11.409884 16711746
4.7174411 -12.340919 15.709606 16711746
11.870646 -21.251875 16.690176 16711746
9.3198576 -23.514147 18.931963 16711746
-0.61622548 -24.828522 9.0613012 16711746
10.452108 -22.076042 13.988564 16711746
10.505929 -24.556828 13.899889 16711746
8.0987377 -21.508904 11.733789 16711746
9.2719803 -25.379726 23.141628 16711746
7.6078973 -23.436398 12.352328 16711746
7.8854351 -30.403105 10.474364 16711746
-0.26181784 -25.057047 13.383079 16711746
6.1445627 -25.523865 8.854948 16711746
5.522337 -27.468719 7.7211266 16711746
-6.9137797 -48.707867 17.265308 16711746
6.6211314 -20.643911 8.4504442 16711746
-8.4654026 -51.028767 15.331631 16711746
3.5441601 -22.103945 12.689466 16711746
10.943168 -22.709415 24.187922 16711746
13.325108 -21.611452 16.234655 16711746
6.1879458 -12.524323 15.754538 16711746
11.13201 -18.968237 18.875502 16711746
6.6652784 -17.427113 13.981647 16711746
3.018719 -22.535439 16.938559 16711746
6.714201 -20.514084 14.304262 16711746
14.334064 -30.721987 16.762701 16711746
9.2455616 -20.092155 12.542238 16711746
12.155254 -31.64724 14.227214 16711746
9.6493301 -26.727247 8.9512339 16711746
15.683538 -35.258156 10.767604 16711746
10.72196 -15.777782 16.59915 16711746
-6.7963943 -50.519394 17.736017 16711746
1.0658449 -24.204062 9.0664387 16711746
-6.4416208 -37.748863 14.365093 16711746
12.972234 -21.204077 12.933257 16711746
13.82253 -41.261177 10.001945 16711746
10.273024 -21.520134 23.447521 16711746
12.267751 -20.114437 15.921165 16711746
5.3743486 -14.409356 16.155533 16711746
8.9446468 -22.056427 13.804126 16711746
11.846723 -24.088236 8.3591413 16711746
-3.3538759 -36.24052 9.2526712 16711746
10.056215 -17.941069 12.921864 16711746
-1.910862 -43.142014 20.529013 16711746
5.0927033 -30.573738 9.9205723 16711746
8.7317314 -25.934013 7.4753957 16711746
-0.83247435 -27.763945 19.380518 16711746
5.5538445 -25.969257 16.036583 16711746
9.4456511 -29.146111 6.4201756 16711746
22.817587 -29.751181 21.950483 16711746
1.6703669 -21.10675 14.957958 16711746
-22.451399 -78.99839 18.580513 16711746
20.17658 -27.567616 4.8900876 16711746
10.363967 -18.530008 13.00714 16711746
-9.625968 -47.711288 21.569578 16711746
-4.2120242 -48.934235 19.970385 16711746
11.495801 -23.817884 12.715444 16711746
2.2379575 -29.079283 11.689429 16711746
3.5519414 -32.260376 14.872366 16711746
-1.4386179 -55.283703 27.616938 16711746
-0.22003433 -20.925924 11.340671 16711746
7.663918 -33.845039 17.436474 16711746
9.9553652 -15.520935 19.558472 16711746
7.8211818 -17.690395 15.254501 16711746
17.629114 -23.86832 19.709568 16711746
18.634493 -30.77422 23.405079 16711746
-9.0766859 -42.948002 14.432036 16711746
-1.5460635 -35.691692 13.705389 16711746
8.7386904 -25.523294 8.3181887 16711746
11.10232 -24.361937 8.0818386 16711746
7.7349114 -19.751238 8.6672468 16711746
15.888584 -24.007776 5.646688 16711746
3.4433892 -31.940779 14.884154 16711746
-5.5376549 -21.87315 12.193998 16711746
-15.912275 -42.253029 13.830903 16711746
22.819565 -28.223986 12.432923 16711746
9.6402159 -39.214386 20.460732 16711746
10.900981 -24.1488 15.384729 16711746
23.667074 -22.558445 21.409019 16711746
8.4391918 -18.373682 21.554232 16711746
15.677461 -16.27869 13.685245 16711746
14.878908 -23.730793 16.868185 16711746
11.075246 -24.892086 19.835758 16711746
16.998384 -27.330462 5.4361858 16711746
6.186213 -26.878811 16.158161 16711746
16.37101 -19.457163 4.8297458 16711746
-23.411058 -101.02691 31.814007 16711746
-3.9369254 -24.266823 15.017943 16711746
6.3630829 -14.890567 19.352821 16711746
8.6540308 -25.121927 23.998991 16711746
-1.072238 -31.171158 20.171848 16711746
7.6821113 -32.629917 10.99525 16711746
3.0697229 -39.002743 11.671202 16711746
19.082125 -31.077042 23.485149 16711746
7.5338526 -14.079677 15.30409 16711746
10.999177 -19.290014 13.931905 16711746
17.126238 -21.972412 12.30033 16711746
9.1934433 -16.335188 9.6498985 16711746
17.351501 -25.439884 4.9217248 16711746
13.664057 -20.084974 12.073926 16711746
7.7334414 -13.22938 17.382727 16711746
26.877537 -34.498421 23.696108 16711746
11.496116 -14.59816 15.661684 16711746
12.445197 -16.893984 15.502065 16711746
12.034227 -16.967512 11.919037 16711746
12.968266 -22.341574 14.437406 16711746
14.846832 -23.898752 13.752005 16711746
15.97498 -29.629772 6.3876715 16711746
5.3287792 -11.146432 15.231863 16711746
14.867463 -33.17004 13.525261 16711746
10.087454 -21.24939 23.233017 16711746
13.356993 -20.3071 21.184275 16711746
18.010017 -27.26866 18.499607 16711746
23.021011 -35.386654 21.951242 16711746
8.9286957 -15.587687 14.792572 16711746
10.111404 -24.246622 7.6384597 16711746
10.907279 -29.115313 7.8910613 16711746
8.1512871 -18.25069 9.6357117 16711746
6.1323891 -12.260776 9.0657244 16711746
18.890133 -27.799263 6.6874809 16711746
17.691683 -20.621996 15.651525 16711746
15.942155 -18.754181 13.678964 16711746
14.090704 -20.180372 22.404945 16711746
16.645969 -27.575089 15.198895 16711746
8.3033075 -13.934228 15.005968 16711746
4.4301658 -24.076698 9.3661327 16711746
10.234487 -23.240219 12.611011 16711746
10.094925 -13.232514 7.4027567 16711746
17.288084 -15.207357 16.1427 16711746
15.752668 -17.547129 11.993085 16711746
13.558002 -16.74519 21.757011 16711746
14.910226 -15.190189 18.108717 16711746
8.4927483 -14.244737 15.204499 16711746
11.066164 -13.542097 11.367812 16711746
7.6894336 -21.798388 10.311265 16711746
7.1581225 -13.02711 8.3944979 16711746
6.6851993 -14.419344 21.284311 16711746
15.398128 -11.291265 16.84543 16711746
0.26858544 -8.8786497 12.981996 16711746
13.624948 -11.311149 12.675262 16711746
14.900384 -13.16421 19.472961 16711746
14.061357 -15.525684 23.117926 16711746
13.425104 -14.551896 15.553989 16711746
15.853329 -14.194173 15.822992 16711746
10.733625 -17.457853 14.920588 16711746
4.787292 -20.282616 14.310563 16711746
7.5991402 -21.351635 21.364695 16711746
8.8171968 -24.725321 15.654059 16711746
15.934252 -24.259184 11.625958 16711746
13.409525 -27.716892 10.648372 16711746
10.045617 -17.157736 16.095516 16711746
16.223253 -31.496023 15.405307 16711746
6.3049045 -35.955257 9.8658724 16711746
9.376687 -13.52781 12.044096 16711746
9.5057459 -21.375736 8.6489849 16711746
1.57838 -33.52132 8.4565802 16711746
15.9051 -28.064222 13.808628 16711746
2.6612122 -35.363823 20.995441 16711746
14.150604 -17.420694 12.242531 16711746
12.850348 -20.823767 12.184925 16711746
36.769917 -31.255836 2.1477933 16711746
8.2378778 -23.457142 12.99789 16711746
6.5686994 -26.337255 10.622899 16711746
6.6453099 -23.122393 9.3846712 16711746
4.9245038 -20.139952 10.066394 16711746
18.939291 -21.466843 13.881787 16711746
8.4407177 -18.77689 23.631245 16711746
13.453577 -29.269659 20.926331 16711746
10.662429 -17.878323 18.918894 16711746
10.951468 -18.115618 14.69464 16711746
4.9278965 -42.417694 22.124826 16711746
6.8631129 -14.474187 21.362228 16711746
8.0122662 -19.282631 15.629812 16711746
6.291687 -35.077301 7.7674837 16711746
9.8627138 -18.325468 13.275196 16711746
9.9860086 -20.639042 13.961674 16711746
12.873949 -30.643246 15.173429 16711746
-0.70401764 -3.9836178 12.045294 16711746
10.135393 -21.580969 17.586952 16711746
9.6780243 -21.888142 18.426062 16711746
6.8094711 -25.982752 17.943264 16711746
6.5835667 -14.22556 12.538368 16711746
13.445501 -17.976147 12.237413 16711746
16.288097 -17.616049 10.251517 16711746
14.737988 -15.872441 5.6525702 16711746
1.1017588 -39.906219 28.36792 16711746
15.987889 -18.911434 15.273388 16711746
2.9854822 -14.295549 15.745655 16711746
24.313412 -25.354084 9.3318796 16711746
36.080845 -28.436159 1.6100382 16711746
4.4579697 -19.386631 10.578562 16711746
1.6002657 -59.086037 37.055141 16711746
33.0173 -37.045895 29.501028 16711746
-8.6462841 -56.57864 21.552235 16711746
20.315536 -59.386314 16.891201 16711746
18.598564 -20.679281 4.4701829 16711746
1.118457 -37.825832 27.366108 16711746
3.7043331 -32.00935 25.069386 16711746
-0.010235345 -36.458973 29.102598 16711746
13.919776 -21.187191 21.689983 16711746
5.0350304 -12.749761 19.070896 16711746
16.872894 -16.044506 13.850372 16711746
7.754468 -15.246232 14.892451 16711746
24.040834 -15.088852 15.013994 16711746
11.420283 -14.47257 15.646708 16711746
14.218328 -14.98987 17.349232 16711746
10.692256 -12.026364 16.050568 16711746
10.783018 -13.495118 16.060837 16711746
16.460197 -20.65213 19.863077 16711746
15.420736 -22.788879 22.591949 16711746
17.688511 -21.302376 7.0962138 16711746
13.355615 -12.127485 17.420668 16711746
15.541073 -20.651564 14.469901 16711746
15.742329 -15.818254 18.498152 16711746
11.244521 -12.665082 14.95376 16711746
6.2468586 -14.829816 9.2147589 16711746
12.692523 -15.802797 21.14439 16711746
14.842238 -16.639797 12.057667 16711746
7.1771564 -16.961304 20.051315 16711746
15.909429 -15.73465 15.300347 16711746
18.481258 -28.090714 18.743959 16711746
23.394447 -17.16033 13.371017 16711746
22.691639 -22.439083 18.147665 16711746
11.563951 -16.055212 7.6100097 16711746
10.264925 -13.684901 9.2711029 16711746
20.153238 -24.528378 17.562311 16711746
41.680286 -26.92083 11.715706 16711746
20.516514 -20.337404 17.203518 16711746
-8.020813 -17.247318 19.954025 16711746
9.3874187 -8.7216368 14.235829 16711746
14.123425 -13.992682 13.541618 16711746
-6.2177949 -18.445545 15.172572 16711746
18.614056 -16.07967 16.461838 16711746
2.3264074 -20.965103 9.5591154 16711746
16.846001 -12.193675 6.1252122 16711746
17.391634 -18.67576 10.220012 16711746
5.2067266 -23.640944 11.199533 16711746
8.5869617 -11.619942 12.798667 16711746
7.9341168 -22.339155 12.007874 16711746
14.814382 -20.094095 14.278874 16711746
16.471745 -28.033752 14.388396 16711746
-4.9023571 -26.885916 14.519908 16711746
-0.48949549 -22.281904 11.699766 16711746
-1.1348342 -15.004088 14.245501 16711746
19.426424 -19.191427 6.0630598 16711746
4.2051854 -18.882229 9.0583963 16711746
10.99618 -14.610333 11.789387 16711746
6.5442691 -21.802418 7.9969668 16711746
8.9880581 -17.058933 13.148075 16711746
8.7400961 -22.876534 8.4751101 16711746
8.7160101 -20.877542 9.9139833 16711746
1.6257929 -19.749048 9.6768198 16711746
4.5392213 -9.9926243 10.494706 16711746
6.2147641 -20.702845 11.429039 16711746
6.2222147 -16.870874 9.2686892 16711746
5.7140675 -23.539299 9.1713791 16711746
-4.5285301 -40.484695 14.675878 16711746
10.739577 -14.486822 6.2103519 16711746
4.2157106 -19.542675 9.0453701 16711746
5.1782842 -21.29422 9.0163746 16711746
2.1261725 -14.07879 14.604538 16711746
9.3433018 -14.662523 12.110664 16711746
12.435197 -16.219454 5.384819 16711746
4.759191 -24.075668 10.932838 16711746
10.860557 -14.939421 15.072474 16711746
7.76723 -23.070362 6.6956758 16711746
12.281738 -22.328106 17.186501 16711746
4.3645768 -23.57514 10.570889 16711746
11.659234 -25.465584 7.9443722 16711746
-1.7330353 -10.206907 19.432722 16711746
-11.36885 -23.764894 14.159419 16711746
13.407384 -25.53208 14.988826 16711746
18.501812 -26.310532 3.7719314 16711746
19.917574 -13.152404 14.455165 16711746
15.424348 -17.619537 12.618687 16711746
15.42639 -24.144144 15.680909 16711746
15.493668 -15.059785 16.210892 16711746
15.435828 -18.857653 12.370379 16711746
19.598284 -16.132309 19.887861 16711746
18.866011 -16.291561 16.597403 16711746
19.290104 -12.920133 14.471824 16711746
13.178507 -16.299681 16.152431 16711746
21.456173 -24.566837 22.833233 16711746
10.418629 -21.236666 14.452987 16711746
9.4313221 -23.915966 14.456676 16711746
8.8560953 -21.851124 14.181142 16711746
28.662306 -13.170609 17.32795 16711746
-2.4329042 -23.518026 13.836693 16711746
-8.1609955 -31.105875 15.504386 16711746
16.026268 -19.043573 23.770542 16711746
-7.5154419 -37.114922 20.146545 16711746
6.2632928 -11.935332 16.158234 16711746
-12.957758 -44.619614 21.161831 16711746
0.9549244 -13.245329 12.041626 16711746
-4.0007024 -23.398027 22.827389 16711746
0.3280172 -16.199352 17.851233 16711746
11.453267 -20.2257 24.418306 16711746
-1.6186873 -13.813589 17.223515 16711746
9.3312864 -11.022355 18.516214 16711746
-0.038271852 -30.42984 22.757484 16711746
-3.5474663 -33.060291 19.755299 16711746
6.2647719 -18.354473 22.557892 16711746
-3.6132214 -21.45056 22.493097 16711746
-0.027028522 -18.064289 24.380367 16711746
5.9278536 -18.629316 11.010549 16711746
-11.08015 -34.061829 20.940157 16711746
1.3821476 -8.5102406 13.858172 16711746
-4.2881126 -32.571014 25.827259 16711746
6.947504 -22.093748 16.830156 16711746
1.8007506 -8.5106964 14.497335 16711746
1.2898585 -7.3852382 13.606234 16711746
-2.2744305 -29.251051 23.756256 16711746
2.1767831 -9.3307419 15.336052 16711746
22.324888 -22.617628 26.20075 16711746
-8.8533382 -30.235853 16.362617 16711746
7.2833605 -21.128799 11.903665 16711746
8.2413788 -26.381853 10.621714 16711746
-6.749496 -26.674465 15.152526 16711746
-10.947267 -30.158953 17.593742 16711746
3.9373548 -16.094906 17.624147 16711746
15.638186 -24.547146 15.661526 16711746
4.165812 -20.702538 11.128424 16711746
6.4874816 -18.319941 10.874662 16711746
0.13755588 -15.347466 11.987203 16711746
5.2587271 -9.5378447 15.744234 16711746
9.4750404 -26.616146 11.87254 16711746
-14.036915 -40.215267 15.110021 16711746
-0.05241771 -23.875376 20.776951 16711746
8.120018 -18.780426 10.522997 16711746
-7.9519753 -25.270285 18.92576 16711746
5.925416 -23.685614 18.513811 16711746
12.741197 -20.911455 8.7925863 16711746
-15.348277 -47.963825 15.0624 16711746
-13.431592 -39.477463 21.428085 16711746
10.694475 -27.906284 24.417601 16711746
14.127139 -13.442594 12.354542 16711746
11.483752 -27.658525 26.07851 16711746
28.721573 -46.737259 3.1571245 16711746
-6.8772907 -42.848824 19.109032 16711746
8.4341946 -12.840775 13.647217 16711746
12.163985 -17.045528 14.35934 16711746
7.2594476 -22.068981 9.5509672 16711746
6.381588 -19.643454 8.6853876 16711746
17.199066 -30.681482 16.525537 16711746
15.393843 -21.870579 12.234407 16711746
4.8691649 -17.582541 12.4838 16711746
2.9238255 -15.106046 11.764898 16711746
0.089302875 -16.95278 14.884697 16711746
0.75600916 -5.6578479 13.055754 16711746
0.77180213 -14.587752 18.034271 16711746
6.9662681 -20.559931 12.99578 16711746
3.4063203 -17.770031 11.206354 16711746
4.6892891 -22.073761 13.536504 16711746
8.4038401 -17.437429 11.698408 16711746
14.174618 -20.887367 13.985757 16711746
-0.086383291 -19.347708 13.227924 16711746
14.564651 -19.804888 12.05693 16711746
7.8623462 -20.94462 14.506677 16711746
1.3481004 -15.968216 14.796356 16711746
-0.52585989 -12.334334 12.786522 16711746
6.0362844 -21.425867 9.9000349 16711746
13.818258 -14.25458 15.363077 16711746
6.217526 -22.108465 12.652348 16711746
4.8584146 -26.125124 13.826151 16711746
13.236621 -30.533461 10.47863 16711746
3.0456514 -25.356562 12.515128 16711746
3.6209197 -20.148121 12.521751 16711746
15.322245 -18.505524 9.0727682 16711746
14.002744 -19.231516 14.55134 16711746
6.6206017 -25.416981 19.078659 16711746
12.603836 -20.408915 13.673829 16711746
16.572126 -30.276619 16.51869 16711746
-3.7267075 -26.259079 19.680193 16711746
-7.2613187 -23.541199 18.321758 16711746
14.164128 -29.974987 16.307009 16711746
12.257816 -21.510735 14.0123 16711746
19.291981 -22.15427 14.842309 16711746
20.785877 -31.768393 15.223557 16711746
-7.3626785 -26.680101 17.294329 16711746
15.236271 -26.049339 14.341896 16711746
3.5118945 -19.732174 13.849705 16711746
4.867435 -27.747862 10.600384 16711746
7.4799862 -28.346037 21.199745 16711746
3.0879803 -19.603327 12.895532 16711746
8.4022865 -26.14579 17.921631 16711746
7.6493311 -16.843525 9.9494047 16711746
7.1608353 -30.821917 20.951733 16711746
16.922964 -25.600523 16.603996 16711746
13.791615 -21.019331 8.4158926 16711746
18.60887 -21.706484 18.483255 16711746
8.8328676 -21.257097 22.485588 16711746
17.972561 -28.027245 20.343216 16711746
13.017666 -17.460968 12.251423 16711746
7.1818724 -27.775829 9.542099 16711746
8.3892775 -39.27618 19.19591 16711746
-6.0033512 -26.902407 13.20716 16711746
-9.1912537 -20.146048 14.560017 16711746
16.221163 -19.388653 10.079111 16711746
9.1509752 -28.261003 18.408861 16711746
13.985778 -20.567787 9.1414165 16711746
7.1319046 -12.87819 10.544751 16711746
3.5075173 -19.558407 25.617428 16711746
15.669518 -15.00467 14.011685 16711746
8.4225559 -24.778259 21.303143 16711746
9.983386 -37.085587 25.029444 16711746
-5.5657797 -21.324797 16.312771 16711746
11.63892 -26.339085 14.780834 16711746
-3.4357686 -25.082167 16.1164 16711746
-4.4401402 -27.570045 15.279567 16711746
-7.0040245 -22.773542 18.030544 16711746
-9.8117695 -20.766636 17.346045 16711746
-10.485392 -28.331432 17.432947 16711746
6.3569617 -17.32275 14.398343 16711746
7.8660684 -27.816442 16.826262 16711746
18.895977 -20.465931 16.846222 16711746
2.5944593 -17.680759 14.214056 16711746
14.999777 -18.112507 16.751698 16711746
22.483849 -25.479105 12.815483 16711746
21.679335 -27.011883 17.356922 16711746
8.182724 -24.81102 14.791981 16711746
13.999119 -50.432144 29.574677 16711746
22.075951 -34.328835 21.762972 16711746
13.787054 -16.685585 10.391212 16711746
14.397057 -19.501812 13.589596 16711746
-5.9470749 -34.155766 22.668848 16711746
0.12840964 -28.831903 15.754766 16711746
-6.7152915 -18.855377 14.034536 16711746
-8.7982941 -19.063238 16.854916 16711746
19.156399 -18.616489 12.478529 16711746
13.806918 -26.225552 13.30743 16711746
10.850172 -33.178284 19.573694 16711746
14.199881 -21.944212 8.1142569 16711746
12.644121 -25.985659 12.92996 16711746
25.339529 -34.645523 27.875195 16711746
23.77038 -32.725456 26.916811 16711746
22.911976 -26.807798 24.556118 16711746
28.89152 -32.357635 26.789841 16711746
18.627874 -19.592089 26.638578 16711746
-0.22653741 -16.388243 12.574655 16711746
23.863102 -28.517561 24.592426 16711746
19.675587 -25.959558 20.502604 16711746
-9.4499464 -28.903461 14.595871 16711746
18.160856 -20.069721 15.328066 16711746
3.0871353 -6.0263128 12.774217 16711746
9.7377119 -26.768396 8.8959188 16711746
17.903933 -30.944063 15.37487 16711746
9.432354 -36.429264 21.976898 16711746
12.905691 -16.649153 15.955338 16711746
15.210306 -23.248064 16.218571 16711746
11.342363 -25.180342 17.697561 16711746
6.8594947 -26.498997 20.52836 16711746
9.2821817 -24.505768 26.862986 16711746
20.579029 -25.435478 22.931711 16711746
8.264801 -36.391277 24.488501 16711746
24.598814 -24.783175 27.618345 16711746
13.064394 -25.037914 12.638475 16711746
-5.3760624 -30.364544 14.841343 16711746
10.427291 -27.346531 9.044898 16711746
-14.601082 -31.55789 15.520769 16711746
8.7942457 -27.383944 18.272507 16711746
16.206867 -25.01136 18.092798 16711746
12.711249 -24.41379 15.202217 16711746
6.6574154 -25.343834 20.648378 16711746
9.5710011 -24.977552 23.41247 16711746
7.7137127 -20.467993 14.874884 16711746
9.7829418 -18.734549 11.377579 16711746
7.8994689 -34.724014 23.94545 16711746
4.061204 -26.127735 12.07548 16711746
10.961039 -18.817665 18.853121 16711746
9.5549688 -33.789249 23.782408 16711746
-11.272941 -39.466274 14.335764 16711746
10.73552 -28.209204 9.6494799 16711746
7.2734427 -24.467026 18.778038 16711746
11.159803 -28.179003 24.670866 16711746
13.662816 -20.151651 20.549936 16711746
16.64872 -25.748255 21.112116 16711746
5.0556154 -23.029062 14.981575 16711746
23.098297 -31.991892 26.567888 16711746
14.214719 -16.583979 9.7210007 16711746
8.4815512 -22.514441 14.330781 16711746
22.910851 -24.316715 16.091757 16711746
6.7171531 -32.299519 18.215513 16711746
10.263437 -12.710417 10.585572 16711746
6.5937657 -28.796021 16.873329 16711746
6.255353 -25.253899 15.641077 16711746
-14.304 -25.594233 20.909189 16711746
13.651868 -20.609812 12.219069 16711746
-10.309626 -19.633051 18.681755 16711746
7.5207376 -25.110298 18.962244 16711746
11.894522 -24.119762 14.567253 16711746
14.780167 -29.00976 20.031719 16711746
-10.676674 -28.572323 16.8302 16711746
18.043484 -31.201403 15.864152 16711746
17.6859 -25.731617 20.390921 16711746
9.1751051 -39.257645 23.897285 16711746
-12.58189 -33.453579 33.816372 16711746
-13.763817 -36.094246 35.816154 16711746
12.559086 -15.282086 21.338871 16711746
-7.2420444 -26.00288 15.119098 16711746
-4.2492609 -23.799192 14.306355 16711746
3.1724238 -28.49678 17.599846 16711746
18.275562 -20.767298 11.852654 16711746
5.1954956 -22.759474 14.569848 16711746
-2.5054193 -29.471092 23.764004 16711746
-7.1122479 -47.632256 36.251217 16711746
18.030794 -21.145653 12.609935 16711746
-1.9241617 -34.876427 21.325094 16711746
-1.4959726 -24.297329 17.033421 16711746
18.081644 -25.7913 8.2705402 16711746
10.555508 -17.097025 12.974356 16711746
0.72558987 -4.5960917 12.740272 16711746
-9.5876131 -28.827427 14.471877 16711746
18.943073 -24.891716 20.581501 16711746
0.49437422 -38.552921 20.308355 16711746
25.095873 -32.267166 22.916765 16711746
1.7488577 -6.4268122 14.331491 16711746
20.923891 -26.248566 12.020553 16711746
10.091551 -27.834934 12.991444 16711746
10.668858 -29.871761 12.968007 16711746
19.312149 -27.867706 18.053459 16711746
16.869776 -21.856838 15.08779 16711746
12.063092 -22.41469 12.910666 16711746
8.8193302 -28.973755 14.994144 16711746
3.3368332 -15.153659 23.920536 16711746
9.6452065 -31.925995 12.887173 16711746
8.0320826 -27.947361 13.18224 16711746
10.982406 -13.233436 9.3477726 16711746
4.7213173 -26.914757 14.204196 16711746
5.5283985 -28.058861 15.397021 16711746
9.4888973 -30.027431 17.391111 16711746
21.583418 -22.576414 17.240913 16711746
9.0551186 -18.704485 11.972633 16711746
14.287436 -17.721954 24.46348 16711746
17.09523 -24.22901 24.555712 16711746
8.3456097 -32.224262 15.448121 16711746
9.0588245 -28.763311 14.990107 16711746
13.616842 -21.70896 8.9789228 16711746
7.031714 -31.059908 24.288223 16711746
15.331785 -22.757816 16.942085 16711746
9.5522938 -21.346464 10.954978 16711746
17.092165 -20.794594 26.758839 16711746
7.3338385 -31.22053 24.3013 16711746
7.5651197 -31.610247 23.440796 16711746
7.6678977 -31.34491 13.737025 16711746
15.076429 -22.89617 8.1457043 16711746
6.2495785 -43.803638 22.773483 16711746
7.6766624 -22.006809 11.752787 16711746
20.649645 -19.842113 12.33965 16711746
15.25351 -12.185383 7.3811016 16711746
7.0433073 -21.121714 12.926888 16711746
10.82179 -25.350843 27.270689 16711746
14.262306 -29.555519 18.211977 16711746
7.3057275 -19.441702 12.29606 16711746
13.551513 -30.249144 12.538019 16711746
16.918436 -22.308208 14.955838 16711746
22.225212 -24.790739 14.953824 16711746
3.4553118 -34.195145 26.256283 16711746
14.309443 -17.947258 24.620146 16711746
19.575165 -18.052256 17.991631 16711746
11.544661 -30.390074 17.057131 16711746
9.4698029 -44.681526 29.467241 16711746
2.8336425 -27.204502 27.018318 16711746
7.6238613 -29.471287 25.358423 16711746
18.876879 -17.465752 17.656126 16711746
20.920752 -14.29699 17.9489 16711746
18.260542 -17.379219 19.656832 16711746
18.543591 -31.031389 16.811111 16711746
3.3619075 -31.798447 22.028616 16711746
20.262793 -29.536081 18.405388 16711746
12.700755 -24.872629 11.93027 16711746
4.3595085 -15.369915 12.7802 16711746
8.2149229 -33.24078 17.129469 16711746
16.250006 -33.621632 15.123523 16711746
11.212522 -34.952808 10.493336 16711746
8.1136293 -24.068939 10.731838 16711746
4.8836484 -34.9165 14.124663 16711746
5.1885958 -32.722008 16.31884 16711746
15.209576 -21.799294 13.21496 16711746
8.8884659 -36.741463 20.10993 16711746
13.046625 -30.127289 14.881875 16711746
4.6485949 -22.103621 18.038626 16711746
26.36375 -22.246029 8.1854696 16711746
10.832173 -20.458328 11.431339 16711746
17.174231 -28.530449 16.825327 16711746
13.451004 -23.184761 14.580727 16711746
10.726667 -31.830759 8.5079994 16711746
14.102642 -29.797058 15.019383 16711746
5.8127351 -27.151363 17.240091 16711746
21.152641 -23.914011 14.916294 16711746
16.197868 -28.643332 14.133027 16711746
10.615385 -28.837898 25.190636 16711746
4.5524707 -20.253597 17.141384 16711746
7.3563237 -25.62286 12.044628 16711746
4.6070108 -29.493881 12.620284 16711746
4.7529488 -38.378559 12.302054 16711746
8.2421122 -28.089411 14.898864 16711746
13.73127 -45.262947 10.707573 16711746
14.170874 -27.467417 11.648767 16711746
19.265408 -35.497734 16.549217 16711746
2.5847657 -27.203815 16.027199 16711746
1.1571891 -26.981894 18.189653 16711746
9.8471613 -20.210577 17.490021 16711746
12.715609 -20.795063 20.442087 16711746
3.7210553 -30.167673 15.328737 16711746
16.414997 -19.058691 12.837035 16711746
-1.7750798 -30.048492 18.49345 16711746
6.5281911 -22.884554 15.883739 16711746
2.1157455 -32.347363 13.715301 16711746
7.2784548 -22.487906 27.030247 16711746
18.598274 -31.676945 17.141352 16711746
5.5898614 -29.314007 19.290792 16711746
7.4342847 -26.128773 14.000689 16711746
13.148459 -17.616608 12.869337 16711746
3.6059844 -43.130104 46.700306 16711746
3.8745286 -22.282402 23.915236 16711746
1.96014 -24.462498 32.187107 16711746
12.294139 -35.88541 14.095314 16711746
14.014492 -30.391663 17.493608 16711746
12.006013 -26.432297 11.20201 16711746
0.82190782 -27.263718 34.399441 16711746
19.904377 -23.947927 29.251839 16711746
8.0550547 -28.395681 15.081344 16711746
5.3211265 -42.975327 25.79582 16711746
3.2406001 -28.642303 27.892603 16711746
16.410675 -19.183075 16.175432 16711746
14.393989 -29.378689 11.725842 16711746
2.2618732 -28.971006 19.678974 16711746
0.47213191 -46.4613 30.059633 16711746
22.460871 -35.551727 16.889496 16711746
12.095774 -27.728828 14.135779 16711746
4.2200246 -22.482006 14.713183 16711746
-11.061857 -27.768988 37.300514 16711746
11.628004 -27.249596 12.669086 16711746
13.823231 -21.727972 12.934349 16711746
11.481309 -26.593346 12.705909 16711746
-3.9923968 -28.019567 17.310276 16711746
18.097433 -32.585663 13.532855 16711746
23.82147 -27.597986 32.453655 16711746
19.489351 -33.873627 16.676865 16711746
18.34272 -33.370529 13.498472 16711746
-0.83199745 -33.299374 20.106411 16711746
-2.7081828 -23.188925 18.750546 16711746
-4.3975639 -30.738461 20.263664 16711746
0.89699042 -8.3696566 18.306225 16711746
29.566212 -32.393818 27.012247 16711746
32.420151 -46.236286 22.225311 16711746
19.489283 -23.571463 17.459431 16711746
-13.552586 -37.218681 19.678381 16711746
26.80192 -26.967716 18.129 16711746
6.2621646 -29.934877 19.522463 16711746
-14.017649 -40.381474 18.797705 16711746
-14.743684 -46.247219 19.187365 16711746
-8.289031 -39.6404 20.516994 16711746
23.769466 -25.001984 19.245556 16711746
4.1926117 -17.986305 13.579377 16711746
1.5116076 -16.790049 15.102804 16711746
-14.930436 -44.525494 21.923 16711746
30.304771 -33.131054 25.679354 16711746
-14.279922 -39.658234 18.731174 16711746
-0.56854749 -23.779242 16.093039 16711746
19.56098 -29.454147 14.851913 16711746
1.9229733 -23.606358 15.360388 16711746
