# .PCD v.7 - Point Cloud Data file format
VERSION .7
FIELDS x y z rgb
SIZE 4 4 4 4
TYPE F F F F
COUNT 1 1 1 1
WIDTH 84
HEIGHT 1
VIEWPOINT 0 0 0 1 0 0 0
POINTS 84
DATA ascii

 -52.5365410 50.2268906 101.2442017 16777215
 -0.6046834 0.5781336 1.1642467 16777215
-0.4968294 0.2727273 1.4497066 16711746
0.1330486 -0.2053705 1.5312313 16711746
0.0015447 -0.3004476 1.3084631 16711746
-0.0306763 -0.2953241 1.3206156 16711746
0.2993786 -0.1825136 1.3594294 16711746
0.0497793 -0.4695591 1.0047917 16711746
-0.2414412 -0.3817640 1.5307376 16711746
-0.2993823 -0.3466524 1.5310853 16711746
-0.5024381 -0.7426232 1.3541934 16711746
-0.5418320 -0.5415677 1.3330925 16711746
-0.2164642 -0.2360264 1.4837223 16711746
0.1191139 -0.3563586 1.3793138 16711746
-0.7210951 1.0402392 0.5293577 16711746
-0.2038556 -0.1043364 1.4777414 16711746
-0.4728172 -0.3585899 1.4059640 16711746
-0.7457600 -0.5989263 1.5712271 16711746
-0.0977927 -0.3672140 1.2395105 16711746
0.8832467 0.0905822 1.0588492 16711746
-0.6721452 -0.4499693 1.5105792 16711746
0.4304321 -0.1477771 1.4065913 16711746
-0.2763945 -0.6910881 1.2260604 16711746
-0.5323740 -0.5580726 1.5644758 16711746
-0.4581930 0.0492433 1.5059848 16711746
-0.4465697 -0.5371009 1.3544807 16711746
-0.3182080 -0.0262120 1.5283074 16711746
-0.4374840 -0.4348533 1.4455295 16711746
-0.1706287 -0.3790400 1.3061396 16711746
-0.1261774 -0.5067117 1.3161697 16711746
0.1862181 -0.3224063 1.4367260 16711746
-0.6859294 0.9756685 0.4871789 16711746
-0.1479970 -0.7069608 1.2436292 16711746
-0.3037933 -0.6050583 1.3361306 16711746
0.1536351 -0.4381919 1.2880222 16711746
-0.5747757 -0.5673929 1.5550072 16711746
-0.0813743 -0.4707753 1.2188203 16711746
-0.0764014 -0.4919714 1.1909320 16711746
-0.2983422 -0.3654793 1.5210755 16711746
0.3687967 -0.2845785 1.0990125 16711746
0.1174702 -0.5279693 1.1422775 16711746
0.3023451 -0.5269089 0.9257943 16711746
-0.3504997 -0.3690774 1.5042725 16711746
0.0620794 -0.5753193 1.0423752 16711746
-0.2949096 -0.4698263 1.4563739 16711746
-0.2456260 0.0932912 1.4115936 16711746
0.2108642 -0.4665090 1.2580054 16711746
0.2873251 -0.5492256 0.8216407 16711746
0.0628867 -0.6190122 1.1726760 16711746
0.0029156 -0.5931759 1.2296622 16711746
-0.1339111 0.1427455 1.4964136 16711746
-0.6552543 1.0948176 0.5124655 16711746
-0.5490997 -0.0144356 1.6287405 16711746
-0.4936417 0.2321852 1.5090858 16711746
-0.3877306 0.0338365 1.6456351 16711746
-0.7016578 1.0276027 0.6772550 16711746
-0.2746281 0.0962871 1.4692190 16711746
-0.5042179 0.0940527 1.5106305 16711746
-0.4570575 0.1211959 1.5084687 16711746
-0.9386173 0.8762371 0.6108359 16711746
-0.7650879 0.8289924 0.6975035 16711746
-0.7904312 0.8134620 0.7076185 16711746
-0.8174711 0.8379482 0.7220978 16711746
0.2132959 -0.2775570 1.3543792 16711746
0.0187761 -0.2930681 1.3166637 16711746
-0.2000664 -0.5590411 1.4102660 16711746
-0.4868030 -0.4047652 1.5527351 16711746
-0.5796618 -0.4739579 1.4113481 16711746
-0.6592262 -0.4613382 1.4400604 16711746
-0.5697161 -0.2801801 1.5784236 16711746
-0.4463916 -0.0551415 1.4342223 16711746
1223.5341797 -1322.0502930 -132.3049622 16711746
-1328.2657471 -5034.5185547 2935.3085938 16711746
189.1177979 -222.8814697 126.0169830 16711746
3916.2932129 -3969.2456055 188.7433929 16711746
3475.6254883 -3867.0002441 451.7573242 16711746
4298.6088867 -4832.4238281 2885.2443848 16711746
-371.1145630 -5019.0805664 1689.6282959 16711746
-279.3411865 -756.8134766 441.9362183 16711746
1309.8438721 -4691.3203125 1328.2984619 16711746
1059.5748291 -5798.0292969 1359.1184082 16711746
-351.8775940 -2341.2246094 2867.4570312 16711746
140.6486206 -25.0354137 8.5923691 16711746
1309.8413086 -4691.3120117 1328.2961426 16711746
