# .PCD v.7 - Point Cloud Data file format
VERSION .7
FIELDS x y z rgb
SIZE 4 4 4 4
TYPE F F F F
COUNT 1 1 1 1
WIDTH 367
HEIGHT 1
VIEWPOINT 0 0 0 1 0 0 0
POINTS 367
DATA ascii

 0.0000000 0.0000000 0.0000000 16777215
 -0.0064291 -0.0018836 0.0014412 16777215
 -0.0063742 -0.0020683 0.0009589 16777215
 -0.0064698 -0.0021088 0.0008916 16777215
 -0.0063395 -0.0018431 0.0012760 16777215
 -0.0063486 -0.0018538 0.0012136 16777215
 -0.0064172 -0.0018936 0.0013800 16777215
 -0.0063423 -0.0017695 0.0016921 16777215
 -0.0064102 -0.0015639 0.0015749 16777215
 -0.0065028 -0.0015118 0.0017895 16777215
 -0.0065567 -0.0014902 0.0024821 16777215
 -0.0066370 -0.0013683 0.0027432 16777215
 -0.0064770 -0.0006715 0.0038740 16777215
 -0.0062436 -0.0005479 0.0047083 16777215
 -0.0049249 -0.0000396 0.0054123 16777215
 -0.0048892 -0.0001969 0.0048880 16777215
 -0.0031940 0.0009693 0.0044714 16777215
 -0.0036409 0.0012359 0.0021397 16777215
 -0.0036123 0.0014245 -0.0004297 16777215
 -0.0060427 0.0009470 -0.0000084 16777215
 -0.0084225 0.0001220 -0.0006077 16777215
 -0.0108092 0.0006876 0.0014513 16777215
 -0.0091444 0.0013276 0.0059117 16777215
 -0.0086180 0.0023279 0.0084703 16777215
 -0.0074405 0.0035979 0.0119680 16777215
 -0.0064561 0.0033485 0.0169346 16777215
 -0.0049112 0.0030815 0.0235261 16777215
 -0.0020850 0.0045926 0.0312680 16777215
 -0.0012315 0.0056272 0.0416645 16777215
 0.0008405 0.0064559 0.0474732 16777215
 0.0029991 0.0074355 0.0550202 16777215
 0.0070327 0.0078345 0.0606964 16777215
 0.0084584 0.0073442 0.0637976 16777215
 0.0100321 0.0084029 0.0698887 16777215
 0.0114848 0.0092714 0.0762868 16777215
 0.0112154 0.0108279 0.0812272 16777215
 0.0126329 0.0114623 0.0867650 16777215
 0.0167024 0.0129650 0.0937755 16777215
 0.0232558 0.0144995 0.1051273 16777215
 0.0286540 0.0104737 0.1141438 16777215
 0.0309060 0.0085981 0.1198303 16777215
 0.0324088 0.0092402 0.1257947 16777215
 0.0332477 0.0087423 0.1340526 16777215
 0.0363710 0.0070192 0.1421028 16777215
 0.0395466 0.0080454 0.1488074 16777215
 0.0426578 0.0083540 0.1516221 16777215
 0.0435661 0.0073580 0.1593746 16777215
 0.0443494 0.0079124 0.1668192 16777215
 0.0464308 0.0109784 0.1761217 16777215
 0.0490003 0.0122346 0.1824612 16777215
 0.0526452 0.0123712 0.1899553 16777215
 0.0575643 0.0125109 0.1962966 16777215
 0.0606109 0.0128578 0.1988320 16777215
 0.0626029 0.0139774 0.2070918 16777215
 0.0638830 0.0152444 0.2119421 16777215
 0.0645932 0.0168897 0.2227346 16777215
 0.0683409 0.0195764 0.2250316 16777215
 0.0686190 0.0210214 0.2357611 16777215
 0.0711687 0.0215536 0.2447011 16777215
 0.0766097 0.0225781 0.2536961 16777215
 0.0842412 0.0232376 0.2634314 16777215
 0.0829221 0.0258541 0.2692902 16777215
 0.0828665 0.0275952 0.2825585 16777215
 0.0813608 0.0310858 0.2930719 16777215
 0.0809900 0.0324354 0.2951131 16777215
 0.0841901 0.0334080 0.3010640 16777215
 0.0925666 0.0350454 0.3099524 16777215
 0.0976180 0.0341601 0.3187419 16777215
 0.0994451 0.0354688 0.3277774 16777215
 0.1004515 0.0364506 0.3358957 16777215
 0.0993077 0.0381371 0.3410961 16777215
 0.1021398 0.0395200 0.3509085 16777215
 0.1076449 0.0391949 0.3597771 16777215
 0.1106617 0.0392153 0.3650016 16777215
 0.1124917 0.0399890 0.3704773 16777215
 0.1135809 0.0421725 0.3813725 16777215
 0.1123962 0.0431087 0.3890847 16777215
 0.1145403 0.0439036 0.3954987 16777215
 0.1183137 0.0451076 0.4045660 16777215
 0.1225589 0.0447166 0.4117558 16777215
 0.1243441 0.0452743 0.4178925 16777215
 0.1259065 0.0471294 0.4241362 16777215
 0.1244591 0.0485972 0.4329990 16777215
 0.1283205 0.0491077 0.4383075 16777215
 0.1301479 0.0502446 0.4425312 16777215
 0.1350685 0.0499576 0.4473063 16777215
 0.1358456 0.0507174 0.4527848 16777215
 0.1385304 0.0512768 0.4589560 16777215
 0.1380487 0.0527223 0.4661443 16777215
 0.1391644 0.0540087 0.4700513 16777215
 0.1394727 0.0549285 0.4755906 16777215
 0.1431273 0.0554701 0.4829488 16777215
 0.1446414 0.0567198 0.4867706 16777215
 0.1457956 0.0568079 0.4914649 16777215
 0.1482168 0.0576073 0.4974941 16777215
 0.1470823 0.0585861 0.5012366 16777215
 0.1477383 0.0589551 0.5058504 16777215
 0.1481194 0.0594093 0.5088754 16777215
 0.1515360 0.0605085 0.5159226 16777215
 0.1543752 0.0600681 0.5196517 16777215
 0.1564452 0.0600062 0.5245867 16777215
 0.1592743 0.0606091 0.5314752 16777215
 0.1600562 0.0625845 0.5384457 16777215
 0.1594081 0.0637107 0.5425600 16777215
 0.1613000 0.0642828 0.5468773 16777215
 0.1626681 0.0648003 0.5524205 16777215
 0.1647077 0.0654431 0.5578538 16777215
 0.1653121 0.0658740 0.5621889 16777215
 0.1656256 0.0670243 0.5670782 16777215
 0.1658487 0.0667660 0.5724072 16777215
 0.1662368 0.0673300 0.5743080 16777215
 0.1679692 0.0681437 0.5791223 16777215
 0.1693117 0.0680648 0.5817229 16777215
 0.1709320 0.0685845 0.5851505 16777215
 0.1725549 0.0689362 0.5897468 16777215
 0.1742824 0.0697754 0.5944426 16777215
 0.1747945 0.0709025 0.5989913 16777215
 0.1758013 0.0708131 0.6020073 16777215
 0.1772129 0.0715726 0.6058323 16777215
 0.1805287 0.0726209 0.6111793 16777215
 0.1821756 0.0723200 0.6148224 16777215
 0.1832667 0.0725096 0.6184831 16777215
 0.1841770 0.0734875 0.6246709 16777215
 0.1844942 0.0746050 0.6298226 16777215
 0.1863639 0.0748388 0.6338240 16777215
 0.1879454 0.0753422 0.6384208 16777215
 0.1895623 0.0754720 0.6414058 16777215
 0.1912801 0.0764616 0.6454738 16777215
 0.1922943 0.0769796 0.6499823 16777215
 0.1930479 0.0784170 0.6538842 16777215
 0.1941763 0.0789232 0.6584118 16777215
 0.1962686 0.0792700 0.6624945 16777215
 0.1979653 0.0796848 0.6653429 16777215
 0.1995133 0.0807351 0.6702979 16777215
 0.1992704 0.0819208 0.6764532 16777215
 0.2011936 0.0819584 0.6789027 16777215
 0.2027085 0.0824914 0.6831329 16777215
 0.2035282 0.0826262 0.6846846 16777215
 0.2054474 0.0827198 0.6878733 16777215
 0.2062140 0.0833222 0.6908766 16777215
 0.2071295 0.0834330 0.6943078 16777215
 0.2074289 0.0843600 0.6970336 16777215
 0.2091305 0.0847924 0.7015080 16777215
 0.2113768 0.0849892 0.7052663 16777215
 0.2131956 0.0853811 0.7075232 16777215
 0.2138211 0.0856651 0.7117574 16777215
 0.2134646 0.0861444 0.7156258 16777215
 0.2140451 0.0873403 0.7191353 16777215
 0.2160961 0.0876237 0.7238749 16777215
 0.2168702 0.0878307 0.7260115 16777215
 0.2179019 0.0875058 0.7284656 16777215
 0.2188481 0.0877788 0.7304949 16777215
 0.2193285 0.0878696 0.7336606 16777215
 0.2195229 0.0884806 0.7360234 16777215
 0.2204238 0.0887836 0.7381170 16777215
 0.2212914 0.0891959 0.7400080 16777215
 0.2231223 0.0889199 0.7428520 16777215
 0.2236058 0.0893137 0.7444106 16777215
 0.2241915 0.0895139 0.7479753 16777215
 0.2242745 0.0901506 0.7507511 16777215
 0.2245774 0.0906327 0.7530841 16777215
 0.2245627 0.0910110 0.7549583 16777215
 0.2265123 0.0914247 0.7578945 16777215
 0.2273631 0.0914812 0.7603244 16777215
 0.2280971 0.0915281 0.7618081 16777215
 0.2279996 0.0919797 0.7634580 16777215
 0.2281968 0.0924995 0.7658952 16777215
 0.2290947 0.0928631 0.7678469 16777215
 0.2298970 0.0929413 0.7697394 16777215
 0.2306172 0.0929153 0.7710397 16777215
 0.2311954 0.0930092 0.7725259 16777215
 0.2313481 0.0933433 0.7744078 16777215
 0.2312952 0.0938992 0.7767538 16777215
 0.2320140 0.0943052 0.7784717 16777215
 0.2328091 0.0944151 0.7804402 16777215
 0.2337393 0.0944692 0.7822976 16777215
 0.2341584 0.0944243 0.7844265 16777215
 0.2343921 0.0949554 0.7872931 16777215
 0.2343798 0.0953260 0.7887715 16777215
 0.2345201 0.0954173 0.7902399 16777215
 0.2353381 0.0956436 0.7921566 16777215
 0.2361188 0.0960336 0.7942945 16777215
 0.2363416 0.0960969 0.7955271 16777215
 0.2365438 0.0962811 0.7969106 16777215
 0.2363521 0.0966913 0.7984217 16777215
 0.2367870 0.0968820 0.7997642 16777215
 0.2373352 0.0970070 0.8014274 16777215
 0.2378824 0.0970947 0.8028103 16777215
 0.2381015 0.0972189 0.8048413 16777215
 0.2383259 0.0974997 0.8065985 16777215
 0.2383989 0.0976566 0.8073271 16777215
 0.2386743 0.0979150 0.8086499 16777215
 0.2395405 0.0981011 0.8101588 16777215
 0.2398185 0.0980817 0.8110704 16777215
 0.2399120 0.0983598 0.8122913 16777215
 0.2399791 0.0986736 0.8136486 16777215
 0.2402566 0.0988271 0.8143745 16777215
 0.2406108 0.0990063 0.8155788 16777215
 0.2408411 0.0991000 0.8166404 16777215
 0.2412760 0.0992303 0.8176719 16777215
 0.2416059 0.0994819 0.8190349 16777215
 0.2418576 0.0999369 0.8204007 16777215
 0.2417933 0.1000803 0.8214369 16777215
 0.2420823 0.1002711 0.8225843 16777215
 0.2426382 0.1005392 0.8240364 16777215
 0.2427315 0.1005348 0.8244888 16777215
 0.2430067 0.1006772 0.8260188 16777215
 0.2432882 0.1009279 0.8273243 16777215
 0.2434229 0.1009034 0.8285791 16777215
 0.2438374 0.1010088 0.8290465 16777215
 0.2445273 0.1011882 0.8301166 16777215
 0.2447654 0.1012115 0.8307458 16777215
 0.2450553 0.1013265 0.8311986 16777215
 0.2451597 0.1015081 0.8322759 16777215
 0.2452822 0.1016473 0.8336182 16777215
 0.2452284 0.1015281 0.8340121 16777215
 0.2456397 0.1017238 0.8348472 16777215
 0.2456077 0.1017041 0.8353940 16777215
 0.2457448 0.1018099 0.8357123 16777215
 0.2458336 0.1018577 0.8360732 16777215
 0.2457743 0.1018483 0.8363253 16777215
 0.2459483 0.1018840 0.8365335 16777215
 0.2460386 0.1019253 0.8367568 16777215
 0.2462252 0.1019873 0.8369134 16777215
 0.2463379 0.1019998 0.8372481 16777215
 0.2463496 0.1020152 0.8375481 16777215
 0.2463718 0.1020124 0.8378448 16777215
 0.2464779 0.1020347 0.8380759 16777215
 0.2465766 0.1020754 0.8383495 16777215
 0.2466671 0.1020847 0.8385494 16777215
 0.2467445 0.1021053 0.8389082 16777215
 0.2467330 0.1021252 0.8391840 16777215
 0.2466709 0.1021646 0.8394726 16777215
 0.2467999 0.1021325 0.8397856 16777215
 0.2470089 0.1021401 0.8400325 16777215
 0.2471836 0.1021971 0.8401943 16777215
 0.2471696 0.1022144 0.8405020 16777215
 0.2471429 0.1022664 0.8406885 16777215
 0.2472633 0.1022776 0.8408337 16777215
 0.2473217 0.1023119 0.8409959 16777215
 0.2473878 0.1023191 0.8410802 16777215
 0.2474564 0.1023321 0.8411636 16777215
 0.2474802 0.1023508 0.8413110 16777215
 0.2474515 0.1023711 0.8414695 16777215
 0.2474808 0.1023748 0.8415853 16777215
 0.2475065 0.1023892 0.8417127 16777215
 0.2475733 0.1024126 0.8418212 16777215
 0.2475991 0.1024055 0.8419217 16777215
 0.2476203 0.1024393 0.8420660 16777215
 0.2476434 0.1024691 0.8421834 16777215
 0.2476790 0.1024635 0.8423027 16777215
 0.2477376 0.1024803 0.8424386 16777215
 0.2477866 0.1024794 0.8425418 16777215
 0.2478361 0.1024762 0.8426767 16777215
 0.2478595 0.1025024 0.8427938 16777215
 0.2478633 0.1025314 0.8429078 16777215
 0.2478763 0.1025388 0.8429923 16777215
 0.2479451 0.1025315 0.8430914 16777215
 0.2479875 0.1025526 0.8431535 16777215
 0.2480149 0.1025652 0.8432671 16777215
 0.2480326 0.1025855 0.8433802 16777215
 0.2480688 0.1026109 0.8434538 16777215
 0.2480985 0.1026103 0.8435550 16777215
 0.2481229 0.1026189 0.8436330 16777215
 0.2482004 0.1026092 0.8437027 16777215
 0.2482202 0.1026182 0.8437806 16777215
 0.2482262 0.1026262 0.8438917 16777215
 0.2482172 0.1026499 0.8439597 16777215
 0.2482339 0.1026681 0.8440507 16777215
 0.2482823 0.1026925 0.8441558 16777215
 0.2483396 0.1026904 0.8442315 16777215
 0.2483665 0.1026834 0.8443361 16777215
 0.2483739 0.1026778 0.8444330 16777215
 0.2483726 0.1026923 0.8445378 16777215
 0.2484085 0.1027071 0.8446116 16777215
 0.2484359 0.1027318 0.8446808 16777215
 0.2484494 0.1027174 0.8447713 16777215
 0.2484832 0.1027313 0.8448555 16777215
 0.2484998 0.1027392 0.8449302 16777215
 0.2485235 0.1027452 0.8449875 16777215
 0.2485418 0.1027504 0.8450603 16777215
 0.2485904 0.1027524 0.8451076 16777215
 0.2485987 0.1027483 0.8451571 16777215
 0.2486288 0.1027479 0.8452292 16777215
 0.2486059 0.1027606 0.8452922 16777215
 0.2486182 0.1027643 0.8453425 16777215
 0.2486667 0.1027863 0.8454201 16777215
 0.2486785 0.1027876 0.8454854 16777215
 0.2486846 0.1027869 0.8455423 16777215
 0.2486799 0.1027983 0.8455880 16777215
 0.2486883 0.1028112 0.8456333 16777215
 0.2487096 0.1028049 0.8456893 16777215
 0.2487237 0.1028195 0.8457335 16777215
 0.2487306 0.1028175 0.8457877 16777215
 0.2487339 0.1028285 0.8458374 16777215
 0.2487309 0.1028381 0.8458967 16777215
 0.2487560 0.1028550 0.8459269 16777215
 0.2487797 0.1028573 0.8459773 16777215
 0.2487957 0.1028633 0.8460140 16777215
 0.2487973 0.1028651 0.8460555 16777215
 0.2488000 0.1028548 0.8461235 16777215
 0.2487986 0.1028711 0.8461285 16777215
 0.2488028 0.1028870 0.8461854 16777215
 0.2488154 0.1028804 0.8461981 16777215
 0.2488146 0.1028783 0.8462226 16777215
 0.2488288 0.1028911 0.8462402 16777215
 0.2488178 0.1028990 0.8462719 16777215
 0.2488182 0.1029013 0.8462901 16777215
 0.2488230 0.1029047 0.8463129 16777215
 0.2488356 0.1029080 0.8463216 16777215
 0.2488408 0.1029111 0.8463323 16777215
 0.2488379 0.1029111 0.8463495 16777215
 0.2488447 0.1029126 0.8463644 16777215
 0.2488436 0.1029152 0.8463810 16777215
 0.2488505 0.1029188 0.8463989 16777215
 0.2488552 0.1029201 0.8464125 16777215
 0.2488560 0.1029229 0.8464249 16777215
 0.2488566 0.1029260 0.8464420 16777215
 0.2488569 0.1029279 0.8464561 16777215
 0.2488620 0.1029296 0.8464684 16777215
 0.2488724 0.1029330 0.8464806 16777215
 0.2488769 0.1029347 0.8464889 16777215
 0.2488766 0.1029344 0.8465043 16777215
 0.2488794 0.1029360 0.8465158 16777215
 0.2488789 0.1029377 0.8465266 16777215
 0.2488863 0.1029383 0.8465363 16777215
 0.2488953 0.1029375 0.8465413 16777215
 0.2488966 0.1029386 0.8465518 16777215
 0.2488999 0.1029385 0.8465621 16777215
 0.2489012 0.1029403 0.8465710 16777215
 0.2489061 0.1029412 0.8465768 16777215
 0.2489122 0.1029408 0.8465860 16777215
 0.2489159 0.1029420 0.8465955 16777215
 0.2489138 0.1029421 0.8466063 16777215
 0.2489134 0.1029434 0.8466129 16777215
 0.2489154 0.1029456 0.8466195 16777215
 0.2489184 0.1029459 0.8466243 16777215
 0.2489225 0.1029462 0.8466299 16777215
 0.2489275 0.1029461 0.8466374 16777215
 0.2489300 0.1029443 0.8466457 16777215
 0.2489296 0.1029479 0.8466514 16777215
 0.2489355 0.1029491 0.8466572 16777215
 0.2489385 0.1029497 0.8466630 16777215
 0.2489399 0.1029493 0.8466733 16777215
 0.2489412 0.1029507 0.8466812 16777215
 0.2489418 0.1029531 0.8466877 16777215
 0.2489442 0.1029513 0.8466915 16777215
 0.2489483 0.1029538 0.8466963 16777215
 0.2489506 0.1029542 0.8467026 16777215
 0.2489503 0.1029554 0.8467080 16777215
 0.2489518 0.1029560 0.8467122 16777215
 0.2489520 0.1029568 0.8467168 16777215
 0.2489576 0.1029575 0.8467205 16777215
 0.2489578 0.1029590 0.8467259 16777215
 0.2489609 0.1029597 0.8467338 16777215
 0.2489616 0.1029608 0.8467375 16777215
 0.2489639 0.1029609 0.8467441 16777215
 0.2489673 0.1029615 0.8467474 16777215
 0.2489693 0.1029608 0.8467525 16777215
 0.2489702 0.1029620 0.8467564 16777215
 0.2489680 0.1029618 0.8467601 16777215
 0.2489680 0.1029631 0.8467614 16777215
 0.2489707 0.1029618 0.8467648 16777215
 0.2489719 0.1029624 0.8467649 16777215
 0.2489717 0.1029622 0.8467649 16777215
 0.2489730 0.1029621 0.8467640 16777215
 0.2489699 0.1029611 0.8467662 16777215
