# .PCD v0.7 - Point Cloud Data file format
VERSION 0.7
FIELDS x y z rgb
SIZE 4 4 4 4
TYPE F F F F
COUNT 1 1 1 1
WIDTH 1201
HEIGHT 1
VIEWPOINT 0 0 0 1 0 0 0
POINTS 1201
DATA ascii
-18.152073 -61.41235 56.153507 16711746
7.120502 -17.559275 48.584919 16711746
-21.224144 -101.22718 74.168594 16711746
38.827763 -94.987373 102.3174 16711746
6.920558 -19.413557 48.157356 16711746
-0.82035315 -102.88191 100.01571 16711746
3.6966846 -93.843811 98.888382 16711746
-11.223001 -105.69244 73.187431 16711746
47.108253 -109.57601 135.61794 16711746
78.018456 -96.691055 121.38743 16711746
-23.459251 -42.692722 44.004925 16711746
-22.917334 -100.82607 80.025505 16711746
6.38446 -17.995094 49.620266 16711746
4.3139963 -75.139137 79.887894 16711746
5.1636052 -65.119942 60.555321 16711746
19.039438 -53.223961 110.01848 16711746
23.277998 -42.00087 86.729881 16711746
47.017612 -101.9306 152.34988 16711746
-15.67373 -84.577293 61.578896 16711746
33.190399 -93.702576 129.64255 16711746
-126.28362 -146.9451 70.198174 16711746
40.188145 -99.357224 117.17855 16711746
36.588013 -100.02605 112.96872 16711746
58.08736 -82.574539 133.11165 16711746
-58.455254 -95.268143 61.840942 16711746
-16.587702 -77.136581 64.317581 16711746
-18.075394 -80.437378 70.367668 16711746
-15.917176 -85.303589 61.903194 16711746
-15.698437 -72.089615 65.885239 16711746
-14.493459 -65.019249 55.095753 16711746
-9.8087568 -101.67953 71.750786 16711746
7.2222471 -30.444592 50.545029 16711746
49.029774 -116.372 142.21967 16711746
30.211411 -43.56303 53.220669 16711746
23.351715 -89.89711 139.75304 16711746
33.486717 -101.8032 126.63735 16711746
112.66133 -116.9038 193.93283 16711746
104.49249 -123.79132 183.53603 16711746
101.97603 -95.209496 157.00122 16711746
21.678984 -76.715988 61.968605 16711746
85.465942 -129.32878 119.20642 16711746
166.52132 -109.61835 118.33027 16711746
166.73122 -101.3688 147.56398 16711746
83.808533 -97.504028 171.28276 16711746
23.906816 -16.763659 36.982544 16711746
109.05864 -104.6871 174.95625 16711746
185.35681 -96.359863 176.30949 16711746
187.30995 -96.523438 215.85371 16711746
33.755184 -51.74564 57.836117 16711746
175.26259 -128.36795 206.26808 16711746
94.374878 -105.84826 146.35278 16711746
126.68136 -88.725899 138.22305 16711746
69.566513 -82.556641 107.37164 16711746
46.804981 -101.00657 151.24892 16711746
-2.7052844 -72.990059 55.179306 16711746
76.597916 -68.758324 191.49265 16711746
140.18573 -89.441048 140.44806 16711746
167.94252 -104.94437 141.40895 16711746
16.426441 -33.907719 79.443008 16711746
68.155006 -91.898933 108.75014 16711746
97.927132 -111.53939 92.831238 16711746
84.878044 -94.848549 80.525818 16711746
77.888725 -108.04111 86.685616 16711746
85.918503 -114.30097 102.21808 16711746
33.498375 -98.907883 109.27828 16711746
32.547077 -51.426144 61.619194 16711746
0.38124222 -82.622818 118.95992 16711746
37.409054 -52.530975 63.029877 16711746
102.60321 -98.027885 85.273003 16711746
71.279335 -120.7208 158.08313 16711746
22.308998 -70.005486 108.35289 16711746
-21.789438 -64.283775 59.368778 16711746
2.1439562 -78.78508 94.89769 16711746
17.002735 -74.01355 88.380592 16711746
12.425585 -103.72777 86.872879 16711746
63.760963 -86.849983 66.446976 16711746
57.111225 -62.937977 56.147869 16711746
25.842628 -70.537697 68.907806 16711746
44.864815 -90.332115 104.42 16711746
31.855886 -52.510532 64.819756 16711746
52.270573 -85.027054 152.64439 16711746
40.160011 -106.79385 151.8284 16711746
45.502205 -125.02281 125.74712 16711746
69.477814 -79.145638 91.661072 16711746
-14.13905 -69.278458 59.068047 16711746
80.47229 -82.74511 78.077789 16711746
83.817665 -120.66145 88.141548 16711746
56.2052 -95.028931 157.31366 16711746
-23.168112 -102.11932 184.72957 16711746
103.56929 -96.354958 135.5708 16711746
45.582016 -102.15071 152.64514 16711746
48.633419 -86.491501 114.83688 16711746
65.676018 -98.229424 187.81197 16711746
86.197807 -126.79084 181.08934 16711746
94.838882 -109.93239 177.89276 16711746
118.78767 -113.47607 198.31317 16711746
181.6297 -99.796211 199.96098 16711746
132.16014 -136.90117 105.9106 16711746
100.27169 -91.387856 169.13197 16711746
165.86313 -69.979439 198.4447 16711746
202.11914 -190.13612 121.03547 16711746
187.12651 -90.727097 215.67747 16711746
113.62239 -111.31197 112.00174 16711746
-32.471611 -90.021713 69.250519 16711746
-22.671955 -108.44561 175.84383 16711746
-49.644527 -123.89651 209.53943 16711746
78.726303 -124.8751 103.9888 16711746
71.907837 -85.313286 99.620285 16711746
169.04962 -174.67982 125.58321 16711746
72.466728 -105.42738 105.58976 16711746
-15.539975 -101.0383 147.38753 16711746
58.415405 -135.27859 158.48091 16711746
23.728346 -105.40538 198.6754 16711746
49.39035 -87.158516 167.61548 16711746
5.4009013 -94.245407 112.61598 16711746
68.243492 -76.409241 166.57628 16711746
100.15608 -112.9015 88.755974 16711746
88.306381 -83.686722 206.30247 16711746
91.327324 -87.560112 87.961601 16711746
110.39883 -90.626747 159.04449 16711746
96.982239 -96.586029 145.19734 16711746
95.426147 -104.7033 141.81569 16711746
-6.9607081 -105.19856 261.12134 16711746
-59.260479 -99.993507 162.26349 16711746
4.2377205 -94.046074 98.701714 16711746
17.237923 -71.595688 86.619965 16711746
69.981293 -79.971886 92.274368 16711746
52.816532 -118.67588 141.50044 16711746
50.185547 -84.880463 132.80675 16711746
90.073807 -113.19905 87.473015 16711746
131.01909 -87.413887 231.40283 16711746
19.97761 -93.930779 72.882256 16711746
-10.253284 -51.282269 81.047729 16711746
87.740028 -91.966255 80.590118 16711746
-4.6071854 -93.670639 94.367416 16711746
4.2298942 -34.085262 51.313145 16711746
45.895599 -88.857239 104.56386 16711746
58.762985 -83.804092 98.819267 16711746
45.546444 -88.650642 104.30042 16711746
61.286915 -86.589012 97.398094 16711746
60.750923 -89.022621 102.72487 16711746
48.917988 -125.46133 124.63589 16711746
64.376335 -93.772774 99.77063 16711746
24.65667 -93.469841 136.27261 16711746
59.874916 -98.918465 102.30957 16711746
99.788956 -134.36275 109.65965 16711746
44.271938 -82.006691 115.28135 16711746
-4.6002865 -139.47694 137.45769 16711746
79.71048 -108.8102 81.917114 16711746
-3.5825484 -98.009094 135.96191 16711746
29.099707 -45.195984 123.23016 16711746
38.824467 -88.830544 94.997757 16711746
25.849407 -103.50655 147.38242 16711746
44.849865 -100.11249 126.90378 16711746
45.798656 -103.30705 129.74594 16711746
100.71599 -93.299782 131.4138 16711746
70.168198 -90.761536 108.178 16711746
103.03925 -106.09029 98.316376 16711746
74.644203 -129.25119 168.00282 16711746
94.678009 -155.64841 204.79633 16711746
101.82103 -95.714134 163.14439 16711746
23.861368 -93.272339 87.86734 16711746
76.682678 -105.58627 85.54493 16711746
93.266006 -83.361938 157.99846 16711746
93.131912 -83.396912 157.56841 16711746
98.058815 -114.56853 182.93443 16711746
94.395126 -139.44188 185.25826 16711746
39.22298 -123.79902 122.88449 16711746
74.551033 -125.40928 105.25665 16711746
78.12925 -126.86842 101.11922 16711746
8.2957439 -97.027687 103.29164 16711746
41.239944 -74.040375 65.373047 16711746
9.492775 -77.903671 75.656013 16711746
97.479149 -91.845039 86.018639 16711746
102.26035 -86.827591 77.814278 16711746
105.35648 -103.87067 81.587692 16711746
7.5153322 -105.05361 108.83006 16711746
153.50133 -116.98651 95.525566 16711746
65.895218 -114.63862 106.0475 16711746
70.928391 -95.903458 111.5418 16711746
116.42668 -88.57296 73.182014 16711746
17.306385 -75.379089 66.279297 16711746
-22.012848 -134.07582 156.36082 16711746
29.878668 -57.977322 66.262291 16711746
116.45451 -101.21497 84.484558 16711746
25.870268 -75.462341 74.919609 16711746
99.51561 -108.75677 78.727821 16711746
-28.373423 -88.769592 129.69809 16711746
-6.9067454 -118.82558 104.621 16711746
42.895733 -125.23332 126.71292 16711746
91.40876 -84.394119 62.335823 16711746
39.617119 -87.879814 111.34601 16711746
8.1877136 -103.14644 107.62275 16711746
46.354988 -103.68437 107.63901 16711746
119.3544 -100.90765 131.50107 16711746
61.64761 -91.178894 103.65429 16711746
-7.0895844 -95.907555 91.970146 16711746
10.203677 -32.693062 82.576721 16711746
115.97591 -128.72685 85.749825 16711746
115.91834 -134.54039 83.077049 16711746
153.27055 -121.8081 84.637749 16711746
34.032349 -103.43903 112.37971 16711746
60.214256 -100.37213 103.02744 16711746
137.64421 -114.14203 123.01649 16711746
78.250458 -98.981934 123.37919 16711746
48.109573 -86.795441 132.88321 16711746
20.703356 -109.0729 134.21198 16711746
-17.343109 -123.20486 118.87048 16711746
150.08118 -130.59486 124.04919 16711746
74.695763 -90.071442 102.92522 16711746
-17.153147 -94.756104 158.40884 16711746
128.39522 -110.21222 137.76122 16711746
175.52963 -124.94905 205.47337 16711746
93.657845 -70.625221 173.2977 16711746
109.89889 -106.25008 153.89148 16711746
140.67065 -132.16046 129.12071 16711746
90.362625 -109.13349 197.7494 16711746
120.95388 -110.75329 114.87022 16711746
142.0168 -87.431877 147.4758 16711746
144.85876 -101.30268 170.02953 16711746
68.499252 -91.571732 73.214027 16711746
66.493637 -58.98761 155.97815 16711746
86.873367 -107.98515 205.85095 16711746
62.672424 -109.61224 99.124916 16711746
28.651947 -99.131271 198.47574 16711746
-22.03483 -122.65424 148.78711 16711746
29.311714 -94.143623 99.287338 16711746
-43.352699 -71.517349 160.33226 16711746
70.05954 -87.798111 107.95022 16711746
39.102165 -88.743942 92.382797 16711746
138.14859 -103.40369 114.72932 16711746
61.951767 -82.094818 101.47054 16711746
-16.974825 -104.52359 137.9187 16711746
138.35861 -121.90021 78.404999 16711746
25.38809 -89.804092 137.72038 16711746
110.70902 -88.956841 126.90648 16711746
-67.50769 -90.472855 145.09987 16711746
40.736652 -88.341209 111.39056 16711746
148.78979 -126.9065 66.45887 16711746
81.55275 -97.143524 85.505424 16711746
32.216808 -53.612 65.434921 16711746
31.82741 -52.218166 64.900139 16711746
6.2744842 -43.409908 64.365524 16711746
24.715511 -68.1129 71.252502 16711746
8.9687843 -27.630468 54.256817 16711746
37.5816 -99.641365 132.88184 16711746
64.798027 -95.384857 70.366165 16711746
78.645737 -106.31453 84.658623 16711746
-85.896637 -132.94618 181.1488 16711746
28.243065 -96.650711 100.76604 16711746
144.54756 -119.63234 120.75478 16711746
208.48782 -96.117599 144.20769 16711746
-58.682434 -98.872307 159.69984 16711746
50.503445 -85.593842 168.27045 16711746
101.36012 -125.72713 248.25931 16711746
110.3705 -86.557762 193.64612 16711746
114.07901 -102.56973 139.02567 16711746
80.539749 -100.21037 194.19072 16711746
102.63157 -89.250206 199.03641 16711746
130.57918 -89.541672 232.8734 16711746
-56.349895 -98.228683 145.69221 16711746
95.136406 -95.48365 66.131638 16711746
-3.2269108 -89.696045 95.754471 16711746
1.2117416 -96.334679 121.66968 16711746
72.739174 -133.03328 110.44007 16711746
-1.1349274 -95.29303 80.258102 16711746
20.367907 -108.02325 133.10146 16711746
110.93452 -52.709637 102.75434 16711746
37.855495 -130.64246 130.36974 16711746
-38.00124 -126.81467 170.88875 16711746
85.86496 -100.79594 126.35975 16711746
-12.327998 -102.75282 148.80264 16711746
83.999413 -119.34555 94.293327 16711746
95.947708 -131.29626 108.03811 16711746
7.1642885 -112.83315 107.90438 16711746
60.887295 -89.869171 141.13475 16711746
130.55273 -126.50623 73.891281 16711746
52.041222 -94.670631 177.87166 16711746
64.825798 -118.22612 88.58416 16711746
80.313133 -109.5123 81.266609 16711746
141.65218 -139.68283 76.200684 16711746
125.96033 -107.99139 136.44377 16711746
68.74614 -126.97892 95.923409 16711746
72.68457 -118.54539 104.24824 16711746
63.489609 -111.43045 90.117043 16711746
-3.3456562 -104.94437 83.498756 16711746
84.205299 -119.52776 75.780418 16711746
-1.7387105 -85.621971 90.866623 16711746
95.863129 -91.17202 93.393768 16711746
84.403076 -93.5802 89.382675 16711746
71.429878 -83.287674 94.408821 16711746
-68.022896 -142.03017 178.2578 16711746
74.004929 -89.226715 102.17858 16711746
44.623703 -101.38132 168.91039 16711746
42.14563 -98.480263 96.627769 16711746
165.82924 -98.668526 116.85365 16711746
101.41546 -115.9331 152.3839 16711746
143.57387 -81.063797 146.41103 16711746
99.068787 -92.891563 146.64726 16711746
5.4500308 -109.92213 94.791672 16711746
58.817612 -84.975975 135.53326 16711746
154.02811 -124.17754 105.32545 16711746
51.362434 -86.532661 134.64246 16711746
130.81903 -125.08413 119.80984 16711746
100.05827 -109.15935 93.720901 16711746
139.22301 -117.96919 178.47868 16711746
10.949551 -116.87874 93.092728 16711746
102.99906 -96.212463 164.64529 16711746
121.64271 -70.990486 146.22412 16711746
141.07916 -94.406776 247.31531 16711746
152.1881 -110.63287 183.80411 16711746
89.462715 -100.4012 127.26057 16711746
134.89673 -62.333599 162.64989 16711746
117.90375 -72.837349 191.22523 16711746
57.789722 -70.236977 167.17213 16711746
132.08855 -96.98513 243.2121 16711746
95.541847 -115.0611 105.29454 16711746
99.224373 -93.421722 140.63893 16711746
182.72299 -106.94028 179.79564 16711746
47.739216 -97.298531 130.66548 16711746
33.468208 -91.214981 128.21007 16711746
147.09404 -100.98188 60.87022 16711746
1.8893459 -97.022179 112.48024 16711746
67.544983 -83.499687 134.90665 16711746
-78.053612 -131.60188 201.53766 16711746
-33.593567 -113.2991 161.84898 16711746
-43.839085 -106.34085 142.13522 16711746
52.958652 -75.054832 187.55751 16711746
-78.540001 -125.78384 185.81367 16711746
91.061279 -124.36755 97.162048 16711746
50.840794 -90.393364 172.05724 16711746
130.8493 -96.577515 135.40646 16711746
3.9931366 -92.497307 86.444 16711746
-53.84967 -26.555056 122.28008 16711746
0.98240656 -84.564865 94.579193 16711746
13.950059 -97.428055 90.911469 16711746
56.782089 -82.739388 97.913986 16711746
95.536003 -110.15494 133.77454 16711746
35.325466 -98.317154 110.10796 16711746
34.103085 -97.002686 133.32849 16711746
154.01974 -126.14001 85.528549 16711746
32.218395 -50.969345 64.456856 16711746
100.06802 -137.48183 114.70939 16711746
137.81592 -103.26049 89.386803 16711746
35.086494 -84.863907 159.30338 16711746
96.058014 -96.551414 193.00772 16711746
9.1935997 -90.243607 80.298462 16711746
148.89694 -113.27642 121.70241 16711746
148.77118 -95.408394 147.01643 16711746
148.42741 -84.161659 169.81943 16711746
73.492416 -94.541382 182.27692 16711746
36.978954 -93.670517 105.41368 16711746
104.16395 -73.977776 176.63432 16711746
85.089027 -90.706161 194.53778 16711746
62.013844 -61.993908 160.27757 16711746
-45.957626 -59.604576 130.19798 16711746
93.674004 -101.6737 94.965645 16711746
70.317009 -86.789192 104.48463 16711746
96.172791 -167.33099 137.58376 16711746
107.57036 -102.03973 149.4437 16711746
70.178154 -124.65054 108.82882 16711746
114.25721 -90.557381 133.70831 16711746
96.27346 -89.79866 133.20891 16711746
-2.5611436 -96.087601 100.99393 16711746
112.52992 -105.03813 98.044533 16711746
-126.94823 -111.34483 177.44035 16711746
52.569313 -80.971306 161.81862 16711746
107.70284 -87.551941 155.23404 16711746
69.225571 -122.5542 108.37301 16711746
33.576477 -118.02374 129.35762 16711746
143.61037 -92.575539 142.89893 16711746
144.04169 -139.57013 122.78201 16711746
94.05838 -101.45999 95.475273 16711746
12.235337 -98.386436 118.09424 16711746
110.6947 -117.40201 199.23622 16711746
97.920731 -85.705887 175.24295 16711746
136.8098 -88.147682 220.59889 16711746
110.23514 -118.05004 162.11646 16711746
83.403587 -95.366615 194.81721 16711746
83.9963 -134.50031 100.39182 16711746
95.918449 -84.275513 195.75966 16711746
122.2762 -81.804527 247.74139 16711746
15.938427 -23.088335 74.923233 16711746
121.1719 -117.03196 70.221672 16711746
156.26126 -88.433189 107.77735 16711746
96.942322 -90.018822 132.47115 16711746
-102.51594 -115.75947 180.86589 16711746
211.47467 -93.169586 133.14117 16711746
81.295029 -109.52631 103.29783 16711746
36.589676 -96.586479 147.15587 16711746
145.38969 -106.26027 111.43237 16711746
45.331463 -88.775352 104.33996 16711746
120.97376 -109.49962 96.324432 16711746
98.109604 -101.84224 178.44046 16711746
36.666489 -97.19828 92.141754 16711746
146.10683 -116.01426 111.91225 16711746
36.863319 -99.031998 93.514221 16711746
151.76071 -96.118904 122.2583 16711746
106.02818 -114.28015 163.11986 16711746
39.64259 -88.760239 95.314842 16711746
201.43083 -101.65534 185.8614 16711746
119.99414 -99.410858 168.43549 16711746
194.71301 -93.056023 221.87169 16711746
-73.541931 -83.360748 89.995537 16711746
-15.237941 -40.44265 64.396713 16711746
90.795639 -86.199188 95.326492 16711746
113.67904 -109.9474 88.733391 16711746
0.019229716 -100.36507 99.430443 16711746
37.855782 -91.935677 93.697678 16711746
0.53364331 -82.801567 95.352547 16711746
36.062584 -93.06723 96.521324 16711746
37.187832 -90.507698 100.13834 16711746
53.031921 -85.330872 144.89581 16711746
33.242657 -97.559799 100.03767 16711746
89.36982 -94.768532 97.539871 16711746
110.27639 -109.37923 166.26787 16711746
148.36621 -136.42647 126.6439 16711746
87.087868 -124.84029 96.278099 16711746
81.274376 -117.65041 202.47266 16711746
134.67599 -113.80079 143.60092 16711746
78.830124 -78.34697 148.09532 16711746
77.636673 -109.20844 190.84947 16711746
130.37354 -84.493919 190.22235 16711746
39.72192 -91.405579 95.130043 16711746
70.866158 -115.00019 105.78242 16711746
136.65953 -134.3512 110.3177 16711746
81.435379 -136.48921 165.1407 16711746
36.125214 -95.689041 92.579033 16711746
-45.791668 -154.64647 116.6166 16711746
161.83098 -102.06815 109.82939 16711746
35.300549 -131.87575 150.02267 16711746
88.982147 -105.71741 101.42236 16711746
36.359203 -108.12611 91.402885 16711746
34.697651 -93.835564 110.16563 16711746
22.019327 -98.260155 144.57787 16711746
-24.348652 -84.794884 119.2122 16711746
40.375927 -88.440903 93.371208 16711746
39.013908 -84.065552 108.57833 16711746
87.53907 -95.033676 85.688171 16711746
95.442574 -111.79856 85.11937 16711746
3.698241 -68.512123 79.180847 16711746
1.2575786 -65.75824 78.672707 16711746
79.144707 -92.870918 84.129257 16711746
44.758488 -83.955086 116.27281 16711746
89.763023 -117.33103 91.269753 16711746
103.71461 -133.36954 97.198883 16711746
91.997284 -100.94427 75.254868 16711746
30.909636 -83.829842 84.683945 16711746
109.52187 -117.83504 121.45343 16711746
32.24527 -82.977066 142.31444 16711746
92.317795 -110.49295 88.723648 16711746
121.47083 -138.22032 89.856171 16711746
-13.282556 -112.30235 103.79277 16711746
11.475142 -85.505928 86.775688 16711746
33.930286 -80.802246 94.517097 16711746
179.22598 -92.571877 153.24628 16711746
104.80465 -97.559143 153.85655 16711746
64.597733 -74.097137 191.60612 16711746
121.69843 -118.25307 70.809395 16711746
91.482193 -116 177.74484 16711746
95.884094 -87.835716 130.85243 16711746
86.572571 -95.317421 90.650887 16711746
99.470741 -110.34044 111.63287 16711746
45.159302 -102.62846 155.78702 16711746
95.492264 -106.92001 89.731644 16711746
-35.255581 -102.2693 132.58296 16711746
101.37223 -108.44143 93.120415 16711746
38.405842 -95.102005 128.35675 16711746
102.69859 -103.36358 102.53946 16711746
130.13831 -114.08657 76.443237 16711746
60.484684 -120.18317 147.6908 16711746
77.261467 -95.831604 104.78464 16711746
8.5802097 -130.15181 116.52299 16711746
148.36348 -141.61128 134.17934 16711746
128.59093 -94.429901 238.74844 16711746
183.29326 -99.322205 119.5434 16711746
3.030334 -71.970467 79.613716 16711746
141.33217 -92.335251 262.54553 16711746
-48.623676 -42.955849 128.6004 16711746
9.3386831 -75.997398 133.13933 16711746
59.282669 -82.668877 148.81155 16711746
76.259949 -74.794899 182.54628 16711746
-70.743309 -87.226974 140.67712 16711746
-101.70243 -114.97933 164.0441 16711746
-70.278061 -114.68652 146.04288 16711746
49.626316 -72.79631 152.05659 16711746
89.907753 -98.148666 86.639297 16711746
44.313644 -86.248146 118.52634 16711746
-104.77341 -123.84786 171.54926 16711746
99.704941 -133.46063 92.991745 16711746
35.287262 -76.66127 150.90005 16711746
58.312267 -127.23034 153.04619 16711746
-36.577194 -109.65908 110.81575 16711746
66.045593 -62.19511 157.16302 16711746
67.238297 -123.04774 103.69357 16711746
66.744942 -101.06345 160.09331 16711746
10.438758 -111.59195 194.17009 16711746
107.41238 -114.37698 185.42654 16711746
8.8799238 -99.392693 150.02702 16711746
33.642456 -110.6226 133.04797 16711746
101.64274 -79.862038 147.12233 16711746
72.498589 -108.7726 103.453 16711746
166.58806 -161.29352 136.08195 16711746
78.803284 -109.42657 93.062447 16711746
98.03389 -77.391373 152.18401 16711746
91.999779 -88.086105 96.037216 16711746
-59.677456 -92.949806 121.45254 16711746
73.565544 -98.78051 100.85728 16711746
10.184821 -56.859638 83.450623 16711746
135.18938 -114.80913 88.326248 16711746
87.308922 -96.189667 134.84808 16711746
11.212107 -84.248116 134.9431 16711746
168.98024 -122.59673 98.066902 16711746
170.30202 -123.81801 98.733788 16711746
96.595688 -102.3821 144.85577 16711746
167.42908 -94.360275 128.02318 16711746
37.768345 -91.029694 93.376106 16711746
98.704918 -86.178658 175.36942 16711746
136.63818 -121.67951 107.70977 16711746
138.52299 -101.7675 236.93114 16711746
186.06586 -84.2061 218.53267 16711746
179.2988 -73.434753 210.784 16711746
31.21125 -104.39359 90.464172 16711746
126.51866 -51.18018 147.68002 16711746
140.41046 -55.837097 155.66592 16711746
112.69063 -88.855682 131.63391 16711746
3.9316013 -84.018402 146.04419 16711746
159.20898 -80.419563 135.9881 16711746
166.65068 -83.582245 154.7742 16711746
147.13666 -111.85005 121.18211 16711746
81.558525 -90.629471 122.62125 16711746
137.58073 -103.09412 89.558067 16711746
142.28448 -136.39539 124.20447 16711746
53.004341 -72.610046 162.49051 16711746
100.42102 -97.549217 147.16025 16711746
184.91153 -113.2536 134.16476 16711746
147.25301 -59.908524 163.20351 16711746
5.0881228 -75.215363 188.94975 16711746
157.43408 -95.378235 140.44753 16711746
172.60201 -116.01616 202.8649 16711746
84.844231 -132.62189 108.39268 16711746
268.51532 -207.83565 122.50716 16711746
78.707443 -100.64055 123.72573 16711746
97.459595 -111.67522 99.619926 16711746
158.94991 -112.8681 98.065933 16711746
159.71056 -90.328049 125.30566 16711746
91.686356 -97.165718 100.22675 16711746
44.44294 -117.94584 155.49123 16711746
91.377579 -87.476936 124.89693 16711746
69.422714 -85.877861 153.94826 16711746
34.981037 -108.63001 93.103081 16711746
43.316738 -76.132317 182.46248 16711746
197.77605 -91.23597 186.0323 16711746
116.70641 -75.41832 166.72961 16711746
140.30562 -108.30808 90.494736 16711746
-4.1802859 -86.622902 140.7164 16711746
90.147156 -106.38068 107.64487 16711746
94.784615 -119.32084 140.35324 16711746
141.5153 -102.81449 88.1408 16711746
143.02409 -70.112686 126.13405 16711746
69.12722 -87.172417 102.47049 16711746
39.517666 -80.166138 99.576721 16711746
187.19592 -80.902115 140.1701 16711746
188.19017 -86.7621 179.73511 16711746
38.537964 -80.357674 96.814911 16711746
-7.6910782 -73.505493 93.245033 16711746
-13.814927 -68.026085 87.647949 16711746
136.4236 -137.46274 114.85689 16711746
15.139249 -97.039833 182.3647 16711746
92.031326 -92.355103 93.973 16711746
44.824097 -77.758606 114.22051 16711746
44.583519 -120.04424 155.68703 16711746
121.53799 -121.97958 91.667755 16711746
12.919017 -95.847122 116.46803 16711746
82.071327 -104.60846 120.68421 16711746
58.093945 -78.040039 120.4687 16711746
-13.114771 -100.30894 175.01604 16711746
92.897575 -83.203224 157.79152 16711746
21.915293 -92.919113 179.26459 16711746
99.154671 -68.721718 169.23492 16711746
41.535156 -66.969948 166.51114 16711746
86.300407 -96.244179 124.36045 16711746
90.774315 -105.48976 171.24503 16711746
76.569511 -88.568504 161.11777 16711746
114.63135 -90.359055 285.65134 16711746
12.293086 -105.13065 113.29983 16711746
36.439457 -100.3586 111.89294 16711746
8.5752859 -82.462906 119.79455 16711746
13.929198 -76.082565 101.99449 16711746
19.630159 -106.86834 121.04359 16711746
53.431313 -82.344223 125.82967 16711746
45.387363 -92.976791 105.83009 16711746
4.725976 -82.09185 144.11009 16711746
-61.027069 -102.08509 179.99481 16711746
9.8503733 -77.595795 107.90386 16711746
34.331493 -98.776192 106.04958 16711746
9.5046577 -89.100121 102.67109 16711746
13.481527 -90.128128 113.40038 16711746
-5.784358 -37.075191 113.08426 16711746
11.276336 -93.08625 111.69086 16711746
8.6452913 -80.418083 136.78876 16711746
80.16951 -98.593002 93.184113 16711746
28.930037 -120.14482 104.88721 16711746
14.498652 -97.868301 115.48239 16711746
104.57851 -104.05025 104.43336 16711746
36.255363 -79.409195 112.72031 16711746
83.89373 -94.825371 90.033951 16711746
44.91153 -79.223526 117.96825 16711746
29.752275 -104.60217 111.07542 16711746
25.601112 -112.18018 119.71928 16711746
92.581345 -107.4965 93.248375 16711746
-38.80431 -105.96397 198.76279 16711746
145.69853 -118.31347 91.524681 16711746
105.08589 -99.695351 135.55928 16711746
88.218079 -85.75174 142.30348 16711746
18.367701 -107.26177 200.18317 16711746
38.603901 -83.222168 175.15692 16711746
107.75644 -85.21019 139.09656 16711746
91.622063 -109.39584 103.44563 16711746
36.52298 -97.105186 91.917892 16711746
148.40823 -131.18248 85.041176 16711746
150.08238 -51.228966 190.09912 16711746
102.84174 -104.78186 93.802513 16711746
137.58476 -91.35067 131.68944 16711746
136.83228 -118.84447 90.147385 16711746
34.964561 -97.850342 111.04573 16711746
58.195286 -93.285706 159.31952 16711746
124.4764 -86.800255 157.89067 16711746
140.38696 -93.046967 132.88139 16711746
9.3133478 -79.499443 135.78215 16711746
94.477913 -103.29504 138.96228 16711746
190.57358 -83.123901 172.49606 16711746
99.551651 -123.20609 183.25226 16711746
28.467688 -85.201004 192.16751 16711746
129.81241 -90.480095 245.13969 16711746
157.43109 -83.807045 173.97523 16711746
-2.6899304 -82.308769 135.38225 16711746
89.937141 -91.133408 135.51591 16711746
-38.961258 -100.77556 170.88301 16711746
-11.150182 -85.182007 129.51028 16711746
131.52502 -124.30698 97.70858 16711746
15.415783 -95.631744 119.5528 16711746
35.873329 -89.554947 134.80533 16711746
39.850765 -84.107964 90.693848 16711746
20.685564 -89.890343 121.74541 16711746
37.868221 -83.155899 134.00874 16711746
-30.344191 -79.96003 145.70552 16711746
49.213989 -89.133751 245.68454 16711746
36.020386 -66.875069 129.0206 16711746
-35.76223 -96.193565 148.80368 16711746
33.463432 -107.40237 123.31593 16711746
48.810898 -90.858917 251.00531 16711746
6.6308851 -80.240501 111.31492 16711746
7.4658136 -71.335342 122.32191 16711746
96.455788 -101.71453 113.18306 16711746
-3.4982669 -97.490425 177.6344 16711746
114.90606 -124.79415 102.55552 16711746
10.47412 -69.084763 103.62361 16711746
12.126244 -93.734352 119.71921 16711746
-22.558477 -83.07679 118.01163 16711746
95.268532 -85.987503 144.97702 16711746
106.15654 -113.97672 118.80222 16711746
112.01042 -101.42094 155.03201 16711746
14.1238 -94.377052 124.57372 16711746
119.40144 -113.8982 97.768456 16711746
-46.64801 -122.80531 228.85004 16711746
-30.721889 -111.42344 225.46565 16711746
167.49947 -96.376228 177.98857 16711746
133.14813 -92.025589 120.45425 16711746
52.129875 -91.436028 122.4054 16711746
-22.718317 -101.80541 211.50377 16711746
-52.649361 -126.62258 311.46194 16711746
84.227379 -69.075111 152.02739 16711746
5.4162703 -82.371391 128.76422 16711746
147.89259 -163.39409 121.47771 16711746
86.307144 -100.13459 104.459 16711746
98.242287 -86.675148 141.26241 16711746
128.34288 -83.381126 226.78168 16711746
123.04133 -82.103966 247.56456 16711746
181.90689 -73.398689 225.91344 16711746
110.19108 -92.550385 155.71634 16711746
10.625054 -95.136047 112.29966 16711746
166.91118 -122.39838 106.04433 16711746
81.781158 -103.1603 166.79185 16711746
100.02917 -80.164459 155.27829 16711746
35.866653 -85.011299 159.8027 16711746
123.71018 -114.63519 95.097115 16711746
174.96393 -114.63687 90.23745 16711746
154.68681 -255.09451 212.86078 16711746
163.91042 -114.95891 101.41534 16711746
52.113605 -110.86939 293.78577 16711746
17.162603 -94.175865 103.18076 16711746
90.918182 -88.816193 93.079712 16711746
-26.728302 -85.54837 126.15548 16711746
15.478051 -95.282074 119.32085 16711746
10.200727 -86.477318 101.73796 16711746
90.294136 -92.625504 93.131653 16711746
-5.684588 -68.004776 121.72092 16711746
32.816265 -111.26921 125.06165 16711746
96.479706 -87.072632 148.87477 16711746
0.33304074 -96.333702 148.73769 16711746
146.25441 -123.51001 90.133202 16711746
83.35379 -105.89214 166.29283 16711746
36.891544 -103.87056 145.64713 16711746
-2.3271997 -94.766785 174.7269 16711746
94.435562 -112.1759 126.99448 16711746
-34.15678 -90.924126 160.49911 16711746
-30.568365 -93.476227 114.8885 16711746
34.898552 -69.801788 131.25818 16711746
136.63358 -120.79523 340.52213 16711746
152.75775 -85.145142 137.30725 16711746
92.842316 -81.55529 130.70381 16711746
106.38219 -115.48783 119.77558 16711746
89.622238 -90.719994 183.52745 16711746
185.99083 -101.47169 150.53142 16711746
-5.3183708 -86.331383 130.04961 16711746
-40.896729 -88.560661 152.47095 16711746
12.544928 -95.030769 115.44177 16711746
38.803307 -81.461655 96.956802 16711746
14.142776 -83.430405 113.6718 16711746
-4.5755949 -100.37987 147.97343 16711746
34.524551 -74.439171 126.25279 16711746
-19.660446 -78.92115 114.98007 16711746
8.1787052 -70.13446 95.271721 16711746
-24.807936 -74.616386 176.1752 16711746
117.87416 -97.683273 101.28957 16711746
4.19133 -83.673805 110.12891 16711746
-19.882988 -83.061867 120.28751 16711746
87.033066 -90.210625 95.569023 16711746
100.03948 -92.023125 125.54609 16711746
145.48535 -107.14596 85.868996 16711746
86.374916 -115.42602 102.64222 16711746
-21.588791 -90.164314 159.15356 16711746
-34.585773 -126.68165 121.32878 16711746
58.511356 -63.642399 99.046776 16711746
-30.456039 -101.88523 164.41249 16711746
108.73129 -112.22172 228.16908 16711746
97.801353 -87.349037 199.29716 16711746
110.89441 -88.976181 237.50098 16711746
96.35614 -90.34034 182.81609 16711746
142.56607 -87.505035 147.2373 16711746
45.329872 -85.745758 120.00948 16711746
54.915073 -82.522911 169.8555 16711746
102.26443 -77.959518 179.44901 16711746
103.67161 -88.291847 208.27313 16711746
3.2191293 -85.999161 147.8461 16711746
-55.913387 -94.099861 135.73705 16711746
-22.086906 -100.149 123.71264 16711746
-6.536562 -82.032936 130.48785 16711746
5.142849 -70.078133 111.05888 16711746
120.2216 -120.70617 114.48201 16711746
-5.3414316 -92.910294 125.40457 16711746
-47.531952 -80.791313 120.13643 16711746
-31.60183 -109.23096 146.70526 16711746
36.962463 -101.45684 118.69805 16711746
51.607441 -88.784409 146.22029 16711746
48.878155 -72.74369 146.80905 16711746
-35.580811 -104.84215 117.99404 16711746
4.401824 -81.884438 105.80492 16711746
-39.155865 -88.317711 155.7039 16711746
-21.584555 -101.60696 128.98251 16711746
6.0208163 -87.589233 109.42804 16711746
-4.1197534 -104.80589 117.66756 16711746
-51.144474 -109.38412 194.29323 16711746
-3.7159142 -61.063225 110.27647 16711746
90.893692 -86.959663 131.72935 16711746
160.9799 -144.24741 110.59106 16711746
-42.652664 -74.569237 103.62212 16711746
60.829353 -84.800743 151.56541 16711746
27.095642 -73.502151 169.75844 16711746
124.98285 -87.37471 237.19279 16711746
155.80139 -89.26799 155.61389 16711746
124.85222 -89.73465 216.511 16711746
115.74875 -78.673088 189.16829 16711746
121.8967 -94.172836 157.74956 16711746
165.32477 -79.101547 165.00003 16711746
132.22322 -73.033157 137.72737 16711746
135.5975 -76.059258 139.76282 16711746
146.17216 -72.301865 221.22377 16711746
114.26939 -69.870644 171.79132 16711746
170.13582 -79.777664 198.47298 16711746
110.88017 -96.813141 220.30836 16711746
107.21416 -160.18871 164.19046 16711746
163.84407 -91.194084 136.2077 16711746
67.648331 -97.569687 155.64461 16711746
132.17642 -73.721077 145.08611 16711746
167.03291 -82.444611 150.42555 16711746
91.516823 -80.466553 179.82593 16711746
129.53812 -66.679947 215.63821 16711746
121.54077 -93.36747 217.15707 16711746
117.79641 -74.622284 166.74423 16711746
116.51756 -71.117958 142.46249 16711746
127.03934 -78.121506 142.35257 16711746
92.651482 -99.709381 179.82733 16711746
132.86139 -96.053093 145.0341 16711746
97.678062 -91.280815 158.44624 16711746
163.20715 -79.174805 159.41064 16711746
113.26238 -83.289024 161.91487 16711746
76.416611 -87.534714 160.35368 16711746
71.420586 -91.033142 178.2654 16711746
161.06563 -75.342628 170.08008 16711746
110.91072 -119.5388 212.14888 16711746
87.720238 -96.431145 126.38989 16711746
114.12531 -61.221191 138.45511 16711746
144.49129 -101.76432 150.08319 16711746
98.877792 -75.907967 127.07639 16711746
67.037979 -88.260895 159.36699 16711746
106.53081 -91.273705 212.5799 16711746
100.32885 -103.25883 159.93092 16711746
150.67894 -101.9054 208.03996 16711746
125.22923 -87.789703 138.51765 16711746
102.8649 -81.10392 130.53069 16711746
73.326347 -99.717369 113.56086 16711746
120.36507 -83.376335 196.41095 16711746
88.120285 -94.403893 132.45343 16711746
91.406219 -118.39999 141.483 16711746
-35.756184 -107.869 206.40504 16711746
60.796535 -62.964016 145.89244 16711746
164.57472 -50.374596 204.2634 16711746
101.29263 -80.797455 205.19101 16711746
164.16159 -81.865707 149.39539 16711746
113.24879 -67.573196 171.69937 16711746
90.364372 -40.754307 120.63252 16711746
8.2266226 -76.273415 114.13188 16711746
116.53142 -110.46144 123.17484 16711746
120.04019 -99.734749 233.05194 16711746
-28.360523 -74.68 136.10091 16711746
22.416252 -77.481819 137.19644 16711746
-35.671421 -120.79093 127.48449 16711746
178.74809 -131.71605 215.25542 16711746
103.9317 -86.525192 158.71976 16711746
101.20216 -113.06012 168.74823 16711746
-38.830902 -106.84979 190.44626 16711746
82.101425 -116.50684 126.54864 16711746
77.621475 -106.3961 120.70776 16711746
0.22607262 -91.532265 259.35001 16711746
96.426491 -108.33006 184.84508 16711746
-6.8508968 -82.989479 130.92206 16711746
-37.043571 -122.4436 153.24022 16711746
97.932304 -73.026505 243.6974 16711746
127.94053 -68.853363 151.28076 16711746
47.957432 -73.295792 139.30379 16711746
100.72993 -105.1053 173.63678 16711746
9.0876942 -84.582825 107.76646 16711746
105.69796 -79.826294 128.22784 16711746
47.623734 -71.863808 137.84532 16711746
134.22665 -106.76768 91.156219 16711746
-51.211365 -99.032509 105.98279 16711746
-34.323261 -110.18436 108.0265 16711746
-25.759335 -88.030785 124.2171 16711746
43.363087 -89.14238 124.42643 16711746
146.07019 -101.17363 117.30438 16711746
23.03928 -88.182014 157.58528 16711746
99.694763 -81.205978 179.60439 16711746
99.141541 -80.048248 169.51999 16711746
126.7721 -94.2043 140.50638 16711746
105.46978 -113.13129 167.80069 16711746
129.50021 -91.607971 199.23378 16711746
-36.353275 -112.37777 108.71865 16711746
2.8243439 -95.324867 108.36246 16711746
-3.9653769 -100.50048 136.96358 16711746
89.106194 -74.626785 158.47577 16711746
11.798949 -100.03436 113.00852 16711746
78.118378 -82.748947 124.54173 16711746
70.823074 -104.71926 106.92387 16711746
168.42564 -73.121124 166.31725 16711746
32.73399 -82.020592 137.10085 16711746
100.26814 -103.75243 115.9297 16711746
67.222282 -94.492294 104.09596 16711746
159.02281 -66.461578 152.80858 16711746
165.72887 -81.927048 149.5473 16711746
12.375213 -81.897415 116.08401 16711746
-54.157661 -110.03691 141.2056 16711746
2.0817478 -106.42883 127.81076 16711746
-52.098118 -124.61977 115.20351 16711746
-43.91563 -76.394173 104.61298 16711746
46.79636 -79.215179 198.88844 16711746
46.234314 -72.875641 228.37109 16711746
97.613029 -72.313156 242.6342 16711746
47.951904 -83.723488 159.57605 16711746
104.76668 -94.226982 182.04578 16711746
-75.538048 -125.93147 129.31342 16711746
6.7250285 -90.348328 109.20798 16711746
54.205605 -108.18876 149.89919 16711746
35.743031 -76.528145 140.63651 16711746
51.389507 -63.246418 161.2075 16711746
126.62476 -94.379341 174.87746 16711746
180.35094 -121.60011 250.69009 16711746
-86.708839 -96.711906 152.91112 16711746
81.678993 -94.035675 121.42074 16711746
54.199173 -66.02919 118.97932 16711746
-58.906635 -96.858658 131.85741 16711746
-36.64563 -76.417183 152.33792 16711746
30.619843 -72.441635 129.65627 16711746
113.86793 -90.793251 131.84093 16711746
12.401641 -79.366959 106.19888 16711746
42.07058 -79.714417 109.07039 16711746
-78.033768 -100.14541 153.40076 16711746
-33.720764 -99.404106 117.92694 16711746
98.360229 -94.597984 152.7757 16711746
-92.489594 -77.370598 147.52295 16711746
70.671471 -72.823372 180.5307 16711746
75.79081 -129.07483 182.50636 16711746
105.56167 -80.407356 152.3557 16711746
101.60301 -103.39396 147.63109 16711746
-54.813129 -112.3708 129.59354 16711746
93.44886 -88.500809 132.24252 16711746
69.40374 -88.046265 101.60154 16711746
79.900085 -127.66206 107.8848 16711746
40.036808 -83.721748 112.94207 16711746
-9.802516 -89.397224 116.15849 16711746
33.889118 -85.460609 103.90981 16711746
7.9929323 -73.026154 96.367752 16711746
29.416033 -120.19828 119.56433 16711746
89.252327 -76.651306 156.1299 16711746
73.791885 -99.451019 179.31227 16711746
94.96077 -111.89598 159.80707 16711746
116.11285 -81.528267 115.07771 16711746
31.20483 -52.464725 156.54079 16711746
35.712574 -82.534241 157.11568 16711746
40.11832 -81.587242 136.44984 16711746
36.63171 -89.65155 112.81267 16711746
-54.067677 -113.96802 118.71889 16711746
7.5937772 -95.463669 115.44883 16711746
-44.836979 -103.96776 108.65294 16711746
163.03059 -130.91898 131.95523 16711746
34.845608 -80.707985 162.22214 16711746
39.810646 -77.675354 104.17594 16711746
12.38497 -67.704895 98.069992 16711746
12.55021 -103.87907 112.5517 16711746
47.420929 -81.28196 111.42859 16711746
122.4575 -86.702599 125.02738 16711746
-5.0298204 -37.237648 127.43507 16711746
89.567558 -121.2189 119.21159 16711746
103.70885 -86.434525 190.60336 16711746
100.47757 -71.650925 152.5425 16711746
114.08547 -71.310448 162.59831 16711746
104.62975 -81.820572 223.54999 16711746
131.88669 -87.957703 111.99298 16711746
130.27501 -42.934826 155.63551 16711746
111.86759 -68.606163 157.01913 16711746
-42.607964 -110.02342 132.63503 16711746
60.903591 -121.75273 158.69225 16711746
95.77742 -109.94775 112.96059 16711746
-32.927063 -96.630867 174.78358 16711746
96.279846 -74.954346 149.61804 16711746
-17.515713 -100.34406 132.22353 16711746
102.45888 -101.99021 156.58043 16711746
98.961311 -76.287109 124.7582 16711746
45.921757 -73.760315 140.33421 16711746
59.726269 -60.382549 142.8141 16711746
121.10682 -47.16877 143.22614 16711746
162.96919 -134.31961 108.07418 16711746
77.24131 -88.3666 165.22777 16711746
161.34421 -117.75402 227.85817 16711746
87.765549 -73.684143 128.90678 16711746
-76.511986 -140.34642 171.75539 16711746
177.85533 -76.893692 170.99902 16711746
96.16597 -76.699066 165.39703 16711746
-42.250515 -82.976608 161.953 16711746
17.669399 -86.393982 153.45122 16711746
143.58009 -88.194801 136.76549 16711746
128.9657 -91.873451 90.273987 16711746
38.26363 -84.627495 109.64536 16711746
79.963264 -100.30843 112.10696 16711746
30.438499 -99.965797 143.21916 16711746
48.794876 -82.420853 139.95772 16711746
-44.450741 -97.889107 142.71185 16711746
46.627914 -75.022263 119.8023 16711746
93.457016 -72.360359 140.14999 16711746
99.826118 -113.1504 156.26112 16711746
133.96024 -87.507538 195.89304 16711746
22.577034 -97.022736 173.91884 16711746
118.90409 -76.254265 185.98978 16711746
120.52633 -60.090336 200.53699 16711746
-20.083334 -108.61357 313.22992 16711746
34.267681 -98.375603 147.72836 16711746
73.759636 -100.27895 160.15813 16711746
100.51974 -105.22759 166.74107 16711746
63.93523 -100.60871 105.67812 16711746
154.368 -97.012093 122.21192 16711746
66.53157 -59.640881 182.22606 16711746
136.0453 -87.442886 142.20131 16711746
68.488853 -129.57994 114.59951 16711746
59.138218 -80.553894 211.90181 16711746
180.03993 -91.764481 207.20154 16711746
82.764732 -80.398666 207.4985 16711746
20.374475 -99.803726 155.33351 16711746
9.548624 -73.318802 184.51862 16711746
1.7846524 -84.865837 227.83638 16711746
99.588081 -94.668221 110.8515 16711746
47.38208 -80.556587 111.24949 16711746
13.619548 -74.946793 175.95738 16711746
43.998653 -77.194336 111.11495 16711746
36.634193 -84.88031 115.14461 16711746
67.915123 -85.937088 107.88288 16711746
49.751644 -78.93232 117.3875 16711746
1.6946243 -104.73332 126.159 16711746
50.362099 -76.276741 137.09618 16711746
94.087677 -104.64048 108.90195 16711746
-29.857105 -92.264107 107.2794 16711746
-52.652161 -96.13089 119.61477 16711746
-55.834747 -124.44357 116.97182 16711746
67.609344 -86.710342 108.19101 16711746
99.042778 -100.49811 108.14723 16711746
104.98653 -80.218201 164.19119 16711746
28.291237 -66.190659 113.1294 16711746
-30.962282 -89.731705 112.61691 16711746
30.16243 -119.13795 118.83779 16711746
-67.786278 -70.871445 166.03937 16711746
38.675419 -88.496948 126.07127 16711746
30.82284 -81.880432 148.45035 16711746
136.12555 -70.060051 144.89017 16711746
-64.868675 -140.77745 147.72723 16711746
47.717247 -38.551243 153.47244 16711746
110.65306 -68.315834 158.40587 16711746
30.401867 -14.960509 92.562912 16711746
93.049797 -140.03714 184.13481 16711746
83.201714 -118.66093 168.4426 16711746
164.80051 -82.501076 195.5264 16711746
95.982704 -78.70916 200.34814 16711746
163.75969 -355.88333 229.2476 16711746
18.311644 -94.528709 175.63745 16711746
145.65376 -73.198311 251.17255 16711746
113.8417 -76.586388 186.87541 16711746
-42.375084 -64.974953 99.225716 16711746
124.03674 -83.254005 190.09422 16711746
92.492134 -82.563034 203.68925 16711746
44.530098 -83.420059 113.63708 16711746
29.871817 -84.021347 131.34709 16711746
-106.19546 -132.07268 120.34311 16711746
-0.35230038 -94.305641 179.55721 16711746
-100.88863 -79.450302 176.13866 16711746
162.4158 -64.242844 192.1165 16711746
188.46941 -76.061188 220.08087 16711746
117.63845 -79.620476 227.57942 16711746
135.51486 -78.037331 238.27969 16711746
154.20406 -175.47186 121.94962 16711746
149.74487 -85.642349 153.97183 16711746
66.640869 -84.237434 107.39503 16711746
51.764252 -65.47747 113.5124 16711746
54.096275 -66.542763 113.39748 16711746
51.326927 -82.024628 121.76316 16711746
27.210197 -81.825134 142.99693 16711746
14.493279 -39.022541 125.622 16711746
56.738796 -74.315384 172.76059 16711746
20.9433 -87.048256 168.3279 16711746
86.40564 -75.070793 143.47662 16711746
58.504604 -83.627884 146.5206 16711746
125.63702 -65.77636 138.0372 16711746
49.864704 -63.038181 112.7956 16711746
4.1469593 -82.412895 148.25339 16711746
94.531715 -77.122742 143.74908 16711746
147.89757 -93.702484 136.59769 16711746
40.365265 -79.159569 143.14012 16711746
104.44392 -98.581596 151.82411 16711746
93.315796 -115.94976 130.37393 16711746
144.90031 -90.053185 119.43609 16711746
102.72272 -93.973679 126.15675 16711746
99.753494 -100.31233 126.7435 16711746
46.969334 -67.839371 134.33904 16711746
21.537373 -100.49706 177.26352 16711746
49.439434 -76.070297 141.35298 16711746
23.644588 -91.060188 167.95892 16711746
131.50851 -103.90866 108.50626 16711746
29.927572 -78.597145 128.86609 16711746
86.92466 -79.414124 212.34985 16711746
71.941856 -82.409225 152.26556 16711746
47.738811 -79.739441 230.92363 16711746
42.178532 -78.936089 108.50714 16711746
168.15015 -119.70073 232.84575 16711746
131.60513 -82.459473 153.34201 16711746
199.75969 -101.85004 181.67738 16711746
164.96216 -80.398712 157.34151 16711746
122.29058 -71.655998 200.71156 16711746
3.4974289 -76.062897 192.27203 16711746
1.9457928 -77.275604 170.94128 16711746
148.75014 -88.827507 141.05389 16711746
118.65217 -60.361855 158.65787 16711746
46.854156 -79.151863 112.28931 16711746
66.665428 -86.311722 157.56172 16711746
9.1663942 -76.976181 152.63689 16711746
113.65317 -80.396538 150.94902 16711746
130.96887 -109.94568 133.52704 16711746
31.273655 -77.298042 144.92293 16711746
74.845749 -106.59418 159.36623 16711746
84.94397 -89.575424 118.58662 16711746
21.681303 -83.238922 163.87471 16711746
91.558723 -94.479668 120.72643 16711746
-63.584171 -113.64152 125.67566 16711746
42.280102 -79.402908 108.76035 16711746
0.30956101 -49.265965 137.83507 16711746
92.145164 -106.08167 131.73848 16711746
95.100174 -142.48412 184.00301 16711746
49.235661 -79.541977 111.71371 16711746
109.01431 -55.510998 125.12564 16711746
173.85518 -100.38143 142.58385 16711746
112.85672 -83.864342 195.7518 16711746
19.931847 -95.225166 141.54491 16711746
125.66047 -75.191353 135.98808 16711746
196.45483 -444.98288 265.86166 16711746
85.438675 -72.307549 188.87245 16711746
-29.112623 -84.979744 248.79205 16711746
126.91283 -68.599251 134.35895 16711746
47.575813 -81.274422 111.44882 16711746
-5.2911501 -66.751808 172.11549 16711746
96.577141 -97.163818 173.80722 16711746
113.98277 -96.12513 154.84738 16711746
95.060684 -77.31678 143.91341 16711746
106.63222 -57.060059 155.08214 16711746
40.623234 -87.30423 119.94858 16711746
156.45454 -77.485176 136.64278 16711746
174.63115 -98.04834 254.45482 16711746
35.153851 -84.390495 235.42316 16711746
41.406216 -80.806305 118.17373 16711746
48.618889 -94.007256 133.09302 16711746
-14.079205 -109.11891 178.17232 16711746
22.616093 -95.865601 124.00128 16711746
-7.3168097 -70.60305 162.34927 16711746
-33.628792 -28.541239 172.10423 16711746
46.202141 -71.812637 123.40046 16711746
-2.1318648 -82.300575 150.00156 16711746
16.581358 -112.27524 159.10844 16711746
52.405304 -96.472397 125.86455 16711746
23.527954 -82.920059 118.35083 16711746
29.42555 -78.473137 139.86029 16711746
34.601875 -44.119869 166.95552 16711746
47.519279 -46.996246 148.52577 16711746
94.948387 -107.16482 125.61337 16711746
109.6183 -54.214588 128.45842 16711746
69.420753 -94.780151 165.14929 16711746
-7.8801279 -94.336098 249.90295 16711746
7.1954751 -100.86594 192.2177 16711746
119.82652 -69.87368 134.49956 16711746
-1.7240601 -87.591621 177.57861 16711746
63.554977 -76.731491 149.21953 16711746
82.381149 -65.522583 149.10866 16711746
85.043961 -66.923615 141.68471 16711746
158.53143 -128.08546 106.85816 16711746
95.209671 -88.741196 109.30371 16711746
76.722122 -73.327606 113.70892 16711746
121.2592 -72.083344 235.68138 16711746
103.80836 -112.69399 130.93987 16711746
119.73663 -64.597 133.68144 16711746
100.06683 -67.957382 138.97711 16711746
21.628477 -90.129295 153.84163 16711746
-23.168112 -89.951218 191.88062 16711746
111.22048 -159.09155 141.35846 16711746
-36.063904 -82.042625 191.06473 16711746
-45.836685 -117.36727 210.00414 16711746
59.674911 -46.610542 126.42049 16711746
91.522141 -97.671021 166.51561 16711746
88.748611 -105.02834 122.79175 16711746
139.8602 -87.825691 264.15146 16711746
90.489357 -92.284859 226.14125 16711746
40.336716 -60.132313 125.06072 16711746
48.30843 -61.463467 111.32952 16711746
48.002789 -60.697708 126.70445 16711746
-28.697006 -88.81498 179.44778 16711746
123.25322 -67.405571 144.37849 16711746
0.16970037 -79.614731 221.23262 16711746
88.88903 -77.394661 154.82076 16711746
140.02634 -92.784866 118.74771 16711746
-42.734566 -48.259224 166.99667 16711746
39.011662 -59.929554 131.9679 16711746
92.224968 -66.346397 144.76079 16711746
29.907743 -72.525269 122.70624 16711746
18.558443 -83.189186 151.20946 16711746
90.487068 -108.64164 129.39476 16711746
-40.372498 -85.785408 186.77252 16711746
-2.8480482 -82.798485 172.15814 16711746
28.645317 -105.33173 142.27541 16711746
104.34223 -55.293766 165.81473 16711746
117.90093 -88.877083 132.51598 16711746
51.167057 -76.124771 115.86517 16711746
111.64465 -132.59457 150.95825 16711746
-15.489379 -81.464828 191.48714 16711746
112.53978 -96.894691 227.61159 16711746
117.58755 -79.452873 226.97363 16711746
147.30196 -68.609306 180.72662 16711746
82.409615 -92.611282 213.98868 16711746
87.020287 -87.51635 134.51047 16711746
1.3292297 -72.532005 199.70026 16711746
13.686456 -89.807625 123.81866 16711746
-2.2703786 -80.702347 149.27586 16711746
19.282661 -73.483437 118.68038 16711746
111.66137 -61.159554 119.9828 16711746
95.737534 -51.816288 144.30814 16711746
151.90671 -81.732216 140.03943 16711746
135.24683 -71.587761 123.87291 16711746
-38.624706 -74.577835 174.51192 16711746
129.47594 -93.425484 130.96503 16711746
120.49253 -75.118782 194.25395 16711746
-23.133512 -130.75662 154.19891 16711746
127.46329 -91.641434 243.43291 16711746
88.741753 -134.62581 129.42754 16711746
136.66608 -41.068375 176.76546 16711746
130.86781 -74.985268 131.96066 16711746
128.68655 -84.218002 129.1676 16711746
86.099968 -57.884151 133.35048 16711746
82.64901 -55.46191 118.70629 16711746
