# .PCD v.7 - Point Cloud Data file format
VERSION .7
FIELDS x y z rgb
SIZE 4 4 4 4
TYPE F F F F
COUNT 1 1 1 1
WIDTH 275
HEIGHT 1
VIEWPOINT 0 0 0 1 0 0 0
POINTS 275
DATA ascii

 0.0000000 0.0000000 0.0000000 16777215
 -0.0143307 0.0069313 0.0046949 16777215
 -0.0134217 0.0079902 0.0062831 16777215
 -0.0126680 0.0089221 0.0101333 16777215
 -0.0126313 0.0089184 0.0101625 16777215
 -0.0121368 0.0092206 0.0113541 16777215
 -0.0111647 0.0095862 0.0138109 16777215
 -0.0087440 0.0103080 0.0200454 16777215
 -0.0085922 0.0099962 0.0227354 16777215
 -0.0075156 0.0095159 0.0297762 16777215
 -0.0064210 0.0093646 0.0349091 16777215
 -0.0063738 0.0100722 0.0393494 16777215
 -0.0027108 0.0119527 0.0495346 16777215
 0.0001563 0.0141688 0.0623901 16777215
 -0.0009583 0.0143003 0.0689394 16777215
 -0.0005604 0.0140271 0.0741455 16777215
 0.0018637 0.0151564 0.0824174 16777215
 0.0029440 0.0165208 0.0893293 16777215
 0.0086206 0.0184201 0.0998453 16777215
 0.0106530 0.0180374 0.1031064 16777215
 0.0119012 0.0175962 0.1090590 16777215
 0.0141106 0.0191327 0.1169391 16777215
 0.0149468 0.0210521 0.1279702 16777215
 0.0140956 0.0240178 0.1389225 16777215
 0.0184337 0.0252631 0.1481137 16777215
 0.0235217 0.0283052 0.1597033 16777215
 0.0288087 0.0305457 0.1724687 16777215
 0.0354066 0.0282638 0.1839366 16777215
 0.0398209 0.0237625 0.1957028 16777215
 0.0433731 0.0228507 0.2061959 16777215
 0.0448010 0.0237079 0.2177891 16777215
 0.0442250 0.0211684 0.2311521 16777215
 0.0476448 0.0214112 0.2412649 16777215
 0.0525235 0.0235171 0.2502261 16777215
 0.0568175 0.0232270 0.2607835 16777215
 0.0580079 0.0227726 0.2723119 16777215
 0.0618982 0.0290656 0.2922921 16777215
 0.0649685 0.0308842 0.3064391 16777215
 0.0699472 0.0325149 0.3184773 16777215
 0.0766518 0.0327457 0.3269743 16777215
 0.0832910 0.0338484 0.3379255 16777215
 0.0848306 0.0356593 0.3513028 16777215
 0.0855216 0.0389570 0.3658425 16777215
 0.0846643 0.0459471 0.3766805 16777215
 0.0888925 0.0488518 0.3959130 16777215
 0.0926047 0.0503992 0.4137783 16777215
 0.1105047 0.0535591 0.4328968 16777215
 0.1095419 0.0552928 0.4417480 16777215
 0.1117853 0.0576732 0.4536070 16777215
 0.1098645 0.0606611 0.4677977 16777215
 0.1060838 0.0657231 0.4834842 16777215
 0.1083849 0.0698959 0.4929971 16777215
 0.1117286 0.0722189 0.5063788 16777215
 0.1264455 0.0746822 0.5230150 16777215
 0.1319655 0.0776423 0.5335393 16777215
 0.1336823 0.0783992 0.5466478 16777215
 0.1343499 0.0812925 0.5637171 16777215
 0.1332965 0.0838200 0.5780514 16777215
 0.1406167 0.0858754 0.5898175 16777215
 0.1501650 0.0875725 0.6012107 16777215
 0.1570011 0.0826774 0.6107603 16777215
 0.1553492 0.0843133 0.6275025 16777215
 0.1530915 0.0873812 0.6413310 16777215
 0.1530603 0.0926463 0.6453371 16777215
 0.1574239 0.0946438 0.6559784 16777215
 0.1613251 0.0951568 0.6686262 16777215
 0.1673191 0.0938793 0.6781964 16777215
 0.1692955 0.0942626 0.6872720 16777215
 0.1698381 0.0970084 0.6959863 16777215
 0.1699495 0.0979173 0.7017545 16777215
 0.1739409 0.0993808 0.7087342 16777215
 0.1767404 0.1003336 0.7138565 16777215
 0.1815004 0.1023979 0.7194521 16777215
 0.1828557 0.1027546 0.7266086 16777215
 0.1832799 0.1040413 0.7346007 16777215
 0.1832239 0.1062882 0.7435681 16777215
 0.1840144 0.1069203 0.7481265 16777215
 0.1879601 0.1076255 0.7560751 16777215
 0.1907487 0.1089485 0.7620782 16777215
 0.1918796 0.1100123 0.7695150 16777215
 0.1917941 0.1113365 0.7758381 16777215
 0.1935615 0.1125274 0.7814735 16777215
 0.1951050 0.1136971 0.7897127 16777215
 0.1992840 0.1138775 0.7946612 16777215
 0.2009366 0.1135991 0.8015043 16777215
 0.2015713 0.1150161 0.8070914 16777215
 0.2018096 0.1165711 0.8133296 16777215
 0.2037203 0.1182950 0.8187339 16777215
 0.2045814 0.1184944 0.8236318 16777215
 0.2058851 0.1189363 0.8281618 16777215
 0.2059110 0.1199816 0.8324139 16777215
 0.2056119 0.1204494 0.8359446 16777215
 0.2061658 0.1210470 0.8390142 16777215
 0.2078710 0.1216053 0.8424858 16777215
 0.2093368 0.1220794 0.8467227 16777215
 0.2107707 0.1227835 0.8502401 16777215
 0.2106122 0.1239778 0.8537645 16777215
 0.2115961 0.1246503 0.8580788 16777215
 0.2133543 0.1250137 0.8614801 16777215
 0.2157516 0.1249644 0.8650045 16777215
 0.2160409 0.1257817 0.8692853 16777215
 0.2157876 0.1264418 0.8714437 16777215
 0.2160511 0.1269066 0.8739885 16777215
 0.2176744 0.1273936 0.8771504 16777215
 0.2183066 0.1278266 0.8798096 16777215
 0.2194591 0.1282068 0.8820909 16777215
 0.2200207 0.1287729 0.8859134 16777215
 0.2204655 0.1298245 0.8877935 16777215
 0.2207540 0.1300153 0.8907868 16777215
 0.2223128 0.1299539 0.8928773 16777215
 0.2229477 0.1304789 0.8953202 16777215
 0.2237674 0.1313249 0.8981153 16777215
 0.2239752 0.1318925 0.9012525 16777215
 0.2250689 0.1322370 0.9034539 16777215
 0.2260335 0.1324687 0.9054617 16777215
 0.2268764 0.1327258 0.9071378 16777215
 0.2274066 0.1330416 0.9089274 16777215
 0.2276279 0.1334121 0.9115410 16777215
 0.2278478 0.1338659 0.9135901 16777215
 0.2292644 0.1341534 0.9163928 16777215
 0.2304854 0.1346917 0.9183522 16777215
 0.2310340 0.1348119 0.9210255 16777215
 0.2306003 0.1353395 0.9234211 16777215
 0.2313370 0.1360185 0.9261329 16777215
 0.2329456 0.1363990 0.9277526 16777215
 0.2334116 0.1361606 0.9294288 16777215
 0.2336477 0.1364252 0.9310730 16777215
 0.2337604 0.1369694 0.9331766 16777215
 0.2339321 0.1372792 0.9349573 16777215
 0.2348685 0.1372344 0.9364244 16777215
 0.2354389 0.1371161 0.9373565 16777215
 0.2357329 0.1374010 0.9389539 16777215
 0.2358246 0.1379320 0.9405991 16777215
 0.2358237 0.1382325 0.9417210 16777215
 0.2362482 0.1384037 0.9426990 16777215
 0.2366504 0.1384400 0.9439477 16777215
 0.2367480 0.1386067 0.9448673 16777215
 0.2367564 0.1389019 0.9457083 16777215
 0.2370549 0.1389982 0.9465562 16777215
 0.2373561 0.1391245 0.9474436 16777215
 0.2376487 0.1391335 0.9483783 16777215
 0.2376247 0.1393511 0.9491014 16777215
 0.2374872 0.1393993 0.9499032 16777215
 0.2376376 0.1394936 0.9505870 16777215
 0.2379929 0.1396658 0.9514018 16777215
 0.2381959 0.1397204 0.9521185 16777215
 0.2381517 0.1398902 0.9527926 16777215
 0.2381037 0.1399983 0.9534324 16777215
 0.2381783 0.1401005 0.9540082 16777215
 0.2384313 0.1402022 0.9545426 16777215
 0.2385412 0.1403699 0.9552153 16777215
 0.2386124 0.1404395 0.9557751 16777215
 0.2386350 0.1405150 0.9562893 16777215
 0.2388501 0.1406445 0.9569633 16777215
 0.2389824 0.1406485 0.9573812 16777215
 0.2390799 0.1407933 0.9579946 16777215
 0.2390790 0.1408676 0.9583384 16777215
 0.2392455 0.1409597 0.9587049 16777215
 0.2394416 0.1409581 0.9592872 16777215
 0.2395172 0.1411053 0.9597746 16777215
 0.2395682 0.1411507 0.9601666 16777215
 0.2396883 0.1412541 0.9605734 16777215
 0.2397946 0.1412846 0.9610395 16777215
 0.2398585 0.1414624 0.9615009 16777215
 0.2399196 0.1415559 0.9618235 16777215
 0.2400511 0.1416268 0.9621230 16777215
 0.2401145 0.1416716 0.9624643 16777215
 0.2401716 0.1417096 0.9628039 16777215
 0.2402078 0.1417608 0.9631565 16777215
 0.2402904 0.1417964 0.9633763 16777215
 0.2403598 0.1417580 0.9636254 16777215
 0.2404339 0.1418476 0.9638255 16777215
 0.2404693 0.1418729 0.9642057 16777215
 0.2405365 0.1419634 0.9643990 16777215
 0.2406676 0.1420085 0.9646257 16777215
 0.2406480 0.1420363 0.9649116 16777215
 0.2405870 0.1420466 0.9650858 16777215
 0.2407189 0.1420949 0.9652848 16777215
 0.2408558 0.1420979 0.9654593 16777215
 0.2408554 0.1421390 0.9656904 16777215
 0.2408764 0.1421642 0.9658604 16777215
 0.2409366 0.1421929 0.9660776 16777215
 0.2409802 0.1422149 0.9661618 16777215
 0.2410250 0.1422300 0.9663870 16777215
 0.2410269 0.1422560 0.9665692 16777215
 0.2410967 0.1422443 0.9667562 16777215
 0.2411878 0.1422470 0.9669093 16777215
 0.2411810 0.1422819 0.9670781 16777215
 0.2411447 0.1423388 0.9671787 16777215
 0.2412090 0.1423350 0.9673011 16777215
 0.2413062 0.1423365 0.9674218 16777215
 0.2413527 0.1423606 0.9675814 16777215
 0.2413086 0.1423789 0.9676853 16777215
 0.2413577 0.1423896 0.9678031 16777215
 0.2413895 0.1424011 0.9678619 16777215
 0.2414079 0.1424268 0.9679950 16777215
 0.2414144 0.1424467 0.9680890 16777215
 0.2414512 0.1424587 0.9681752 16777215
 0.2414860 0.1424665 0.9682793 16777215
 0.2415227 0.1424833 0.9683819 16777215
 0.2415144 0.1424975 0.9684427 16777215
 0.2415383 0.1425131 0.9685258 16777215
 0.2415735 0.1425184 0.9685688 16777215
 0.2416006 0.1425332 0.9686407 16777215
 0.2416159 0.1425443 0.9687090 16777215
 0.2416455 0.1425600 0.9687678 16777215
 0.2416577 0.1425689 0.9688173 16777215
 0.2416795 0.1425728 0.9688750 16777215
 0.2416891 0.1425776 0.9689340 16777215
 0.2416886 0.1425966 0.9689762 16777215
 0.2417141 0.1426120 0.9690381 16777215
 0.2417441 0.1426146 0.9691083 16777215
 0.2417618 0.1426169 0.9691737 16777215
 0.2417638 0.1426243 0.9692332 16777215
 0.2417806 0.1426413 0.9692845 16777215
 0.2418066 0.1426447 0.9693483 16777215
 0.2417938 0.1426536 0.9694135 16777215
 0.2418067 0.1426610 0.9694511 16777215
 0.2418403 0.1426691 0.9695061 16777215
 0.2418488 0.1426693 0.9695521 16777215
 0.2418337 0.1426710 0.9695972 16777215
 0.2418485 0.1426903 0.9696513 16777215
 0.2418650 0.1426949 0.9696888 16777215
 0.2418720 0.1426993 0.9697347 16777215
 0.2418680 0.1427079 0.9697772 16777215
 0.2418830 0.1427060 0.9698099 16777215
 0.2419058 0.1427114 0.9698569 16777215
 0.2419068 0.1427228 0.9698999 16777215
 0.2419110 0.1427278 0.9699302 16777215
 0.2419127 0.1427283 0.9699412 16777215
 0.2419149 0.1427324 0.9699598 16777215
 0.2419156 0.1427338 0.9699816 16777215
 0.2419177 0.1427369 0.9699935 16777215
 0.2419222 0.1427387 0.9700106 16777215
 0.2419294 0.1427414 0.9700211 16777215
 0.2419316 0.1427459 0.9700401 16777215
 0.2419352 0.1427477 0.9700556 16777215
 0.2419420 0.1427511 0.9700637 16777215
 0.2419438 0.1427529 0.9700747 16777215
 0.2419457 0.1427545 0.9700854 16777215
 0.2419462 0.1427562 0.9700958 16777215
 0.2419501 0.1427588 0.9701034 16777215
 0.2419503 0.1427597 0.9701145 16777215
 0.2419486 0.1427618 0.9701245 16777215
 0.2419515 0.1427628 0.9701337 16777215
 0.2419565 0.1427641 0.9701402 16777215
 0.2419576 0.1427660 0.9701517 16777215
 0.2419585 0.1427671 0.9701599 16777215
 0.2419636 0.1427685 0.9701681 16777215
 0.2419669 0.1427703 0.9701762 16777215
 0.2419664 0.1427701 0.9701852 16777215
 0.2419700 0.1427719 0.9701938 16777215
 0.2419726 0.1427711 0.9701995 16777215
 0.2419728 0.1427707 0.9702089 16777215
 0.2419751 0.1427735 0.9702173 16777215
 0.2419783 0.1427742 0.9702226 16777215
 0.2419796 0.1427762 0.9702292 16777215
 0.2419803 0.1427778 0.9702356 16777215
 0.2419841 0.1427790 0.9702413 16777215
 0.2419869 0.1427798 0.9702475 16777215
 0.2419874 0.1427808 0.9702558 16777215
 0.2419886 0.1427832 0.9702612 16777215
 0.2419922 0.1427828 0.9702656 16777215
 0.2419931 0.1427834 0.9702713 16777215
 0.2419924 0.1427854 0.9702770 16777215
 0.2419943 0.1427862 0.9702810 16777215
 0.2419971 0.1427872 0.9702857 16777215
 0.2419989 0.1427883 0.9702917 16777215
 0.2419997 0.1427890 0.9702966 16777215
 0.2420035 0.1427892 0.9703007 16777215
 0.2420049 0.1427880 0.9703060 16777215
 0.2420049 0.1427900 0.9703101 16777215
 0.2420046 0.1427903 0.9703135 16777215
 0.2420055 0.1427899 0.9703137 16777215
 0.2420055 0.1427897 0.9703122 16777215
