# .PCD v.7 - Point Cloud Data file format
VERSION .7
FIELDS x y z rgb
SIZE 4 4 4 4
TYPE F F F F
COUNT 1 1 1 1
WIDTH 1208
HEIGHT 1
VIEWPOINT 0 0 0 1 0 0 0
POINTS 1208
DATA ascii
0.0154458 0.1160497 0.7922624 16711746
-0.1530350 0.1005764 0.9120029 16711746
-0.0478125 0.1281987 0.7777235 16711746
0.1717375 0.1344854 0.7933264 16711746
0.3985543 -0.0532916 0.6126965 16711746
-0.0714807 0.1234712 0.7604942 16711746
-0.0844549 0.1244847 0.7912811 16711746
-0.1541771 0.0826369 0.9837105 16711746
0.1981343 0.1125977 0.8553269 16711746
0.1682992 0.1306627 0.7827870 16711746
0.4431059 0.0037720 0.7207677 16711746
0.4250076 0.1435491 0.7537873 16711746
0.4528046 0.1200786 0.6580712 16711746
-0.0378086 0.0271397 0.8350087 16711746
0.2884957 0.1014033 0.8103387 16711746
0.0739924 0.1250117 0.7480600 16711746
-0.1435093 0.0706652 0.9391043 16711746
0.2899718 0.1172888 0.8166738 16711746
0.1039138 0.1187373 0.8781210 16711746
-0.2111430 0.1409501 0.6470855 16711746
0.0432670 0.1033502 0.8987700 16711746
-0.0216808 0.0295257 0.8746244 16711746
-0.1843007 0.1456957 0.6594694 16711746
-0.0357928 0.1307792 0.7325839 16711746
-0.0594887 0.1245410 0.7725239 16711746
0.3924344 0.1372578 0.7233832 16711746
0.0357218 0.1264422 0.7536241 16711746
-0.0299305 0.0688021 0.9653573 16711746
-0.2324760 0.0756159 1.0591332 16711746
0.0921317 0.1174675 0.8511142 16711746
0.4521293 0.0065780 0.7293729 16711746
0.3896155 0.0115276 0.5785439 16711746
-0.0937183 0.0850199 0.7035239 16711746
-0.1856757 0.0919614 0.7028637 16711746
0.4233277 0.0868077 0.9180577 16711746
-0.3065197 0.0195745 1.4216491 16711746
-0.1709243 0.0882729 0.9686201 16711746
-0.3627990 0.0057690 1.4316791 16711746
0.0159845 0.0129070 1.1892414 16711746
0.5391115 0.0897164 0.8515615 16711746
-0.6545661 0.0659649 1.1920333 16711746
0.2688060 0.0917226 0.9912896 16711746
-0.5602589 0.0789506 1.1162949 16711746
-0.4076578 0.1066279 0.8849553 16711746
0.1050222 0.1316201 0.8305658 16711746
0.5271054 0.1017571 0.8039101 16711746
-0.0211439 0.0657892 1.0513688 16711746
-0.0282758 0.1272397 0.7078890 16711746
0.3175665 0.1304627 0.7706740 16711746
0.3195177 0.0905110 0.9317715 16711746
0.5590244 0.1317555 0.8601753 16711746
0.4523127 0.1599937 0.7106012 16711746
0.0843554 0.0982154 0.8761116 16711746
0.1559833 0.0593900 1.1264793 16711746
0.4212948 0.0906454 0.8345138 16711746
0.3671664 0.0814558 0.5859130 16711746
-0.1716446 0.0475267 1.1876956 16711746
-0.0004473 0.0717234 0.8465509 16711746
-0.0234255 -0.0461977 1.1296359 16711746
0.5044950 0.1251941 0.9532374 16711746
-0.0362019 0.0841557 0.8449045 16711746
-0.0530175 -0.0516424 1.4064571 16711746
0.6980056 -0.4424597 1.1550069 16711746
0.0473400 0.1152074 0.7811719 16711746
0.3050125 0.0778357 0.8202308 16711746
0.1670778 0.1239684 0.8409820 16711746
-0.0364885 0.1304111 0.7486373 16711746
-0.3271062 0.1251905 0.6866277 16711746
-0.2980835 0.1163581 0.8468281 16711746
-0.0245688 -0.0907068 1.2472409 16711746
-0.1387022 0.1421444 0.6836656 16711746
0.1578879 0.1295158 0.8105465 16711746
0.2311304 0.0825582 0.9728906 16711746
0.0450716 0.0738966 1.1191220 16711746
0.4836308 -0.0786961 0.9284452 16711746
0.1126665 0.0707721 1.0426883 16711746
0.2082789 0.1116374 0.9051276 16711746
-0.0695652 0.0998394 0.8789720 16711746
0.1980764 0.0342691 1.3000828 16711746
0.3594284 0.0533959 1.1260662 16711746
0.4724903 0.0217664 1.3170260 16711746
-0.0838041 0.1054248 0.9039332 16711746
0.7888939 -0.0546043 1.7078403 16711746
0.1128934 0.0714126 1.0461884 16711746
0.0916935 0.0768559 1.0006351 16711746
0.2949455 0.1342228 0.6779556 16711746
0.3925969 0.1009052 0.7077491 16711746
0.0608377 -0.2594733 1.1259171 16711746
0.1536546 -0.3058660 0.8623413 16711746
0.3953909 0.0062770 1.3516524 16711746
0.0408823 -0.1141439 1.4373745 16711746
0.4564104 -0.0664640 1.7277762 16711746
0.2854606 0.0931279 0.9389989 16711746
-0.5216157 -0.0195721 0.9175525 16711746
-0.4430684 0.1076881 0.9454264 16711746
0.2859412 0.0690178 1.0415922 16711746
0.0691377 -0.0628511 1.5850165 16711746
0.0907897 0.0264636 1.2743174 16711746
-0.5865433 0.0584469 1.2025390 16711746
0.0365408 -0.1425551 1.5267506 16711746
0.1185175 0.0266791 1.2740666 16711746
-1.0896711 -0.3398276 4.0893087 16711746
0.1546376 0.0599692 1.1282452 16711746
-0.3428165 -0.0806961 1.9618688 16711746
-0.2109560 0.0679065 1.1460674 16711746
0.4080162 -0.1737629 1.9785089 16711746
0.1800557 0.0768025 1.0677401 16711746
-0.3011043 -0.0110518 1.6448094 16711746
0.8656037 -1.1017933 2.9326661 16711746
-0.1707095 0.0491517 1.1881484 16711746
0.7164336 -1.1513319 3.0099645 16711746
-0.1031322 0.1266823 0.8258773 16711746
-0.2268047 0.1456661 0.6967734 16711746
-0.0948685 0.1178185 0.8006821 16711746
-0.0712668 0.1232683 0.7621597 16711746
-0.4572042 0.0468098 0.8739834 16711746
0.1049372 -0.0662664 0.5424874 16711746
0.3594231 -0.0348475 0.5808742 16711746
-0.0725786 0.1109726 0.7602737 16711746
0.2274752 0.1074540 0.8257569 16711746
-0.1960262 0.0291633 1.2866449 16711746
-0.2868158 0.1185565 0.7148186 16711746
-0.2821698 0.1070434 0.6490849 16711746
-0.0342271 0.0573038 0.8517635 16711746
0.0342343 0.0672464 1.0002844 16711746
0.3470471 0.1194047 0.8201733 16711746
-0.5724235 0.0845007 1.0281943 16711746
-0.1739152 0.0917501 0.9389412 16711746
-0.1760047 0.0978944 0.9125767 16711746
0.4692891 0.1169195 0.7363538 16711746
0.3686138 0.1478204 0.7573764 16711746
-0.0677974 0.1348792 0.7032680 16711746
0.0143625 0.1188978 0.7980926 16711746
-0.0234490 0.1169751 0.8043355 16711746
-0.1391077 0.1082918 0.8760917 16711746
-0.1296598 0.1201870 0.8128632 16711746
-0.1818292 0.1458275 0.6916454 16711746
-0.1321895 0.1160602 0.8409922 16711746
-0.0237541 0.1158151 0.8029893 16711746
-0.0767001 0.1263670 0.8006813 16711746
-0.4823591 0.0080001 0.8528112 16711746
0.1874494 0.1298844 0.8145900 16711746
0.5106743 0.0264713 0.7327179 16711746
0.0812618 0.0529875 1.0915194 16711746
-0.4276156 0.1144384 0.9104171 16711746
-0.3629111 0.0052896 1.4329025 16711746
-0.4524323 0.0749739 0.8240803 16711746
0.5346773 0.0500114 0.7974597 16711746
0.4454076 -0.0225370 0.6357900 16711746
0.6489894 0.1061502 0.8972377 16711746
0.0151127 -0.1185553 1.0715432 16711746
0.6654531 0.0659431 0.9534279 16711746
0.3845981 0.0914180 0.6050192 16711746
0.4813566 0.0796259 0.7105221 16711746
0.2073768 0.0750751 1.0899308 16711746
0.5152234 0.1195239 0.7838653 16711746
0.5304329 0.0625584 0.7749697 16711746
0.2940067 0.1474872 0.7801850 16711746
0.4002001 0.0766726 0.7928949 16711746
0.3444096 0.1013144 0.6590592 16711746
0.2172322 0.1795727 0.9682480 16711746
0.0619048 0.0305182 1.4360194 16711746
-0.2845848 0.1295456 0.7275809 16711746
0.1210117 0.0467285 1.1788292 16711746
0.1323708 0.0424309 1.2289737 16711746
0.3337519 0.0813857 0.9896274 16711746
-0.0171818 0.0663493 1.0367782 16711746
0.1296828 0.1003945 0.9414965 16711746
0.1257476 0.1233136 0.8006833 16711746
0.2000405 -0.4249729 1.1574867 16711746
-0.0148634 -0.1123831 1.0478456 16711746
0.1191667 0.1148191 0.8703731 16711746
-0.0075728 0.0463096 1.1445317 16711746
0.4899718 0.0576287 1.1382697 16711746
-0.4114947 0.0257076 1.3466450 16711746
-0.7463874 -0.0944417 2.2019618 16711746
0.6104271 -0.0350657 1.4724458 16711746
0.2078818 -0.0772964 1.7909976 16711746
0.2542167 0.1529665 0.7286751 16711746
0.5401261 -0.0811235 1.0046120 16711746
0.1244835 0.0159772 1.4503365 16711746
0.5750013 0.0766047 0.9073136 16711746
-0.4798175 0.0758995 0.7807812 16711746
0.3469464 0.0931928 0.7442220 16711746
0.0117220 0.0206672 1.5721107 16711746
0.1498653 0.0891580 1.2903161 16711746
0.1753014 0.0999351 0.9385269 16711746
0.0472418 0.1163728 0.7851432 16711746
0.2459086 0.0958126 0.9157631 16711746
-0.5162775 0.0891107 1.4702512 16711746
0.0114518 -0.0870635 1.1217477 16711746
0.2242181 0.0973944 0.9153942 16711746
0.1286342 -0.0190792 1.4723152 16711746
0.6061049 0.0246181 1.2036579 16711746
0.4101022 0.1367291 0.7378547 16711746
0.1777193 0.1195161 0.9004211 16711746
0.3681087 -0.0384491 1.6614808 16711746
0.1653157 -0.1042498 2.1072233 16711746
-0.5052483 -0.0677387 1.7744834 16711746
-0.6715150 -0.1668045 2.5683126 16711746
-0.5545052 -0.1011164 2.0265596 16711746
0.2169368 0.1015437 0.9316118 16711746
0.5078324 -1.0484715 3.3427148 16711746
0.0046386 0.0896281 0.8869162 16711746
0.5601208 0.0479075 1.0566130 16711746
0.1464888 -0.1613062 2.0658686 16711746
0.2621605 0.1137710 0.7915902 16711746
-0.0067139 0.1384821 0.7544741 16711746
0.2211914 0.1447174 0.7356076 16711746
0.3232461 0.1344870 0.7776364 16711746
0.3987167 0.1675700 0.6671621 16711746
-0.0190744 0.0727358 0.9324090 16711746
-0.2233483 0.0644711 0.6027461 16711746
0.5877038 0.0497247 0.7840734 16711746
0.3421023 0.1248129 0.7402457 16711746
0.3514631 0.1121434 0.7515646 16711746
-0.0347757 0.1025676 0.8251532 16711746
0.3937790 0.1183364 0.5743305 16711746
0.3538674 0.1546755 0.7538908 16711746
0.4306730 0.1748875 0.6638173 16711746
0.3855867 0.0964430 0.7004176 16711746
0.0743352 0.1013296 0.6921151 16711746
-0.0729379 0.1249988 0.8560797 16711746
-0.0631961 0.1069416 0.8424842 16711746
0.5225394 0.1142066 0.7440075 16711746
-0.1319800 0.1088972 0.8201644 16711746
0.4855724 0.1139916 0.7048007 16711746
-0.0544293 0.0005581 0.8837226 16711746
-0.0008233 0.0988533 0.8655600 16711746
0.0898435 0.1229650 0.8262764 16711746
0.3002734 0.1108916 0.8375490 16711746
0.0055833 0.1232631 0.7640472 16711746
0.3614215 0.1420635 0.7463008 16711746
-0.1324274 0.1160224 0.8407795 16711746
-0.1713695 0.0773248 1.0496312 16711746
0.3066354 0.0995344 0.8739121 16711746
-0.0353238 0.1316104 0.7477561 16711746
0.4378448 0.1540205 0.7007038 16711746
0.0884357 0.1273315 0.8436038 16711746
-0.2303618 0.1005461 0.9972607 16711746
0.4827653 0.1214347 0.7556496 16711746
0.3719386 0.1277696 0.7315542 16711746
-0.0515079 -0.0025564 0.8604513 16711746
-0.4813432 0.1254804 0.9206632 16711746
0.4929146 0.1088944 0.7614462 16711746
-0.0316221 -0.0854292 0.8510736 16711746
-0.0022761 0.0338582 0.8802257 16711746
0.3839490 0.0807199 0.5551862 16711746
-0.1400013 0.0968855 0.9298132 16711746
0.4954978 0.0876242 0.8605923 16711746
0.5640131 0.0842573 0.8694869 16711746
-0.0373970 0.0992834 0.8550563 16711746
-0.0495561 0.0925335 0.8937716 16711746
-0.3394372 0.0511234 1.2799231 16711746
-0.0027987 -0.0539471 1.0724366 16711746
0.1439507 0.1169802 0.8746429 16711746
0.4315240 0.0979764 0.8477433 16711746
-0.2129113 0.0858785 0.9943230 16711746
0.1280051 0.1023583 0.9497031 16711746
-0.0158239 0.0499582 1.0798776 16711746
0.1478250 0.1286346 0.9086694 16711746
0.6182073 0.0527889 0.9528767 16711746
0.5152666 0.0886541 0.8632526 16711746
0.5721680 0.0755453 0.9082880 16711746
-0.0592719 0.1204729 0.7891076 16711746
0.4749941 0.1382518 0.7416974 16711746
0.4494209 0.0946518 0.8531200 16711746
0.3170350 0.1017079 0.8280661 16711746
-0.0602050 0.1203404 0.7911112 16711746
-0.0013795 0.0755353 1.1888539 16711746
0.1332687 0.0998444 0.9334266 16711746
0.3332750 0.1203568 0.7215405 16711746
-0.1848159 0.0892818 0.5937486 16711746
0.0315812 0.0520677 1.1116300 16711746
0.0436286 0.0838961 0.8880233 16711746
0.2093365 0.1189338 0.9216350 16711746
1.0042048 -0.4478611 1.0992295 16711746
-0.1614809 0.0877852 1.0049796 16711746
0.1682345 0.1136877 0.9293745 16711746
-0.0864110 0.1061210 0.8777260 16711746
0.2912558 0.1032332 0.8160723 16711746
-0.1277658 0.0998800 0.9304309 16711746
0.0779230 0.0054692 1.3947917 16711746
-0.5049383 -0.1223188 1.7479306 16711746
0.7290192 0.0164149 1.2023011 16711746
0.7751148 0.0468496 1.0848022 16711746
-0.0164444 -0.0200516 1.2106516 16711746
0.0912986 0.0246080 1.2660027 16711746
-0.5132778 -0.1424288 2.0926831 16711746
-0.2583174 0.0955716 0.9391994 16711746
-0.4733229 -0.0238984 1.6625162 16711746
0.1770986 0.1009450 0.9393851 16711746
-0.0763322 0.0958702 0.9114044 16711746
0.2424670 0.1337654 0.7138248 16711746
1.4917855 -0.0166477 1.3097022 16711746
0.1478710 0.0877740 1.0856969 16711746
0.2519771 0.1022951 0.8765779 16711746
0.2955740 0.0998787 0.9207248 16711746
-0.1447144 0.1022093 0.9371308 16711746
0.4855720 0.0615021 1.0047122 16711746
0.3605941 0.0856185 0.5172716 16711746
0.3792071 0.0939514 0.8960873 16711746
0.0682663 0.0426906 1.2030677 16711746
0.1919968 0.0562663 1.1986545 16711746
0.4454512 0.0370319 1.1504854 16711746
0.2935897 0.1157569 0.7957070 16711746
0.0193253 0.0324528 1.1295563 16711746
-0.3972919 0.0686923 1.1433616 16711746
0.0781112 0.0695119 1.0376741 16711746
0.2241338 0.1028859 1.0155509 16711746
0.0658803 -0.0203270 1.4383889 16711746
0.4026997 0.0773292 0.9626793 16711746
0.2741083 0.0888418 0.9171568 16711746
0.5105464 -0.0216979 0.7199707 16711746
0.5465855 -0.0231933 1.4328384 16711746
0.2848721 0.0934984 0.9386106 16711746
0.2148689 0.1154768 0.8335551 16711746
0.3922707 0.0789206 0.8802994 16711746
0.3189139 0.0897688 0.9253995 16711746
0.5131138 -0.1761572 1.4547375 16711746
0.3600206 -1.1086872 2.4986930 16711746
0.5421004 -0.9193237 2.1599975 16711746
0.9003102 -1.1177249 2.4946916 16711746
0.3332115 -0.0759387 1.4983191 16711746
-1.1548226 -0.0938054 2.3755882 16711746
-0.2945702 -0.0596514 2.0030594 16711746
-0.2647373 -0.0179510 1.5633137 16711746
-0.3555487 -0.1226002 1.5849526 16711746
-0.2275693 -0.0515934 2.5252182 16711746
0.5492222 -1.2379136 3.5353503 16711746
-0.0333217 0.1052033 0.8265936 16711746
0.5141538 0.1161736 0.8077450 16711746
-0.2164303 0.0849300 0.6468214 16711746
0.5486081 0.1266785 0.7535084 16711746
-0.0540921 0.0429256 0.9054020 16711746
0.1481443 0.1175918 0.8029929 16711746
-0.1944462 0.1102512 0.8922475 16711746
0.4029477 0.0861410 0.7930842 16711746
0.0523579 0.1122450 0.8517008 16711746
-0.0044942 0.0877831 0.9057145 16711746
-0.0987405 0.1242459 0.7295650 16711746
-0.1357938 0.1223569 0.8179144 16711746
0.0526837 0.1100816 0.8462350 16711746
0.4925241 0.1177119 0.7117293 16711746
-0.0255724 0.1233191 0.7548510 16711746
0.4384357 0.0993031 0.7453129 16711746
-0.0065989 0.1037915 0.8837715 16711746
0.3820994 0.1084470 0.8338970 16711746
-0.0096445 0.1188522 0.7726087 16711746
0.5091290 0.1364424 0.7809016 16711746
0.1580825 0.1299241 0.8102756 16711746
0.5173573 -0.0417839 0.7367585 16711746
-0.0514787 0.0415435 0.8957990 16711746
-0.1861910 0.1503010 0.6985755 16711746
-0.1439648 0.1267995 0.7972038 16711746
0.3894053 0.1538330 0.7252555 16711746
0.3626403 0.0965855 0.9076859 16711746
0.5254110 0.0848202 0.7775282 16711746
-0.1530710 0.0797127 0.9811956 16711746
0.0798995 0.0735315 0.9545065 16711746
-0.1361878 0.1305152 0.8217736 16711746
0.3693042 0.1189594 0.8106042 16711746
0.5719861 0.1663955 0.7856787 16711746
-0.2207127 0.1135160 0.8874588 16711746
-0.1105410 0.0613994 1.0689243 16711746
-0.0308607 -0.0081768 0.8874399 16711746
-0.2077115 0.1156851 0.9886144 16711746
-0.2265957 0.1154274 0.8986024 16711746
0.6224349 0.1450810 0.8645144 16711746
0.3999950 0.1376356 0.8539165 16711746
0.5187877 0.1259447 0.7579899 16711746
0.4577225 0.0623861 1.0065643 16711746
0.2308673 0.1045583 0.8592314 16711746
0.0289242 0.0850209 0.9484977 16711746
0.3277638 0.0777210 0.9521688 16711746
0.0678413 0.0861631 0.9479278 16711746
0.5552232 0.0745960 0.9410656 16711746
0.4961885 0.0553266 1.0116423 16711746
0.3950413 0.1175156 0.8570483 16711746
-0.4960966 -0.0085883 1.4186918 16711746
0.3940613 0.1164668 0.8560919 16711746
-0.0288100 -0.0711204 0.8346476 16711746
0.1180668 0.1167278 0.8125628 16711746
-0.0881439 0.1144525 0.8280068 16711746
0.3523704 0.1082915 0.8443241 16711746
0.4212086 0.0852486 0.9191797 16711746
0.3467808 0.1251814 0.7958002 16711746
-0.2337947 0.0823692 1.0237864 16711746
0.5452465 0.1215139 0.9154270 16711746
-0.0217019 -0.0129341 0.8517358 16711746
0.4433060 0.1219848 0.6053014 16711746
0.5781075 0.0619187 0.7708855 16711746
0.4802804 0.1251027 0.7397131 16711746
0.5955216 0.1008870 0.8055102 16711746
-0.0419893 -0.0064249 0.8179265 16711746
0.4816114 0.1216795 0.7372916 16711746
0.5803909 0.0630295 0.7942713 16711746
0.3188586 0.1048532 0.8377914 16711746
-0.5625465 -0.0131245 1.5616909 16711746
0.5222189 0.0509805 0.8527710 16711746
0.0823675 0.0115214 0.9749455 16711746
1.7168423 -0.1460140 1.3044972 16711746
-0.0057530 -0.2270993 1.1535407 16711746
0.3462974 -0.2526758 0.8853607 16711746
0.0998404 0.1324319 0.8793887 16711746
0.3867275 0.0766223 0.7234355 16711746
-0.4810108 -0.0654880 1.7288791 16711746
0.0687323 -0.1265001 1.6197683 16711746
0.0055393 -0.1300471 1.2211459 16711746
-0.3317742 0.0227252 1.3912443 16711746
0.3555492 0.1159238 0.8237765 16711746
0.4026514 0.0314188 1.1905715 16711746
0.0033408 0.1121720 0.8317908 16711746
0.2267220 0.0915147 0.9876534 16711746
0.0311675 0.0815732 0.9401903 16711746
-0.0969702 0.1103760 0.8517693 16711746
-0.0821275 0.1171601 0.7966766 16711746
-0.5171500 0.0379138 1.2257718 16711746
0.1549297 0.0992962 1.0043288 16711746
-0.0027140 -0.1218398 1.2004324 16711746
-0.1099683 0.1063994 0.8995869 16711746
0.0446055 0.0631996 1.0537262 16711746
-0.5136728 0.0381259 1.2181364 16711746
0.4100145 0.1058259 0.8644507 16711746
0.0640362 0.0514805 1.1003244 16711746
0.0498755 0.0603345 1.0291480 16711746
-0.2761754 0.1016297 0.9596311 16711746
0.3814353 0.0150911 1.2652853 16711746
-0.2206549 0.1374781 0.6557857 16711746
0.4623001 0.0224165 0.6665424 16711746
0.5620086 -0.1446369 1.6048977 16711746
0.3881269 -0.8214005 2.2648776 16711746
0.2880496 -0.7472405 1.8598020 16711746
-0.7816040 -0.9740697 2.5014205 16711746
1.0402976 -1.3342485 3.1623225 16711746
-0.4649666 -0.0533837 1.6337273 16711746
0.2858371 0.0534703 1.1063101 16711746
0.5382984 -0.1689205 1.8362708 16711746
0.5226554 -0.0319963 0.7206689 16711746
-0.2289074 0.1072636 0.8884681 16711746
-0.2171348 0.1327158 0.8234875 16711746
0.3710290 0.1698469 0.8123084 16711746
-0.1557147 0.1415096 0.7950633 16711746
0.4717919 0.0895988 0.8656890 16711746
0.5263067 0.0691254 0.7655265 16711746
-0.2163388 0.1246615 0.8427839 16711746
-0.0276766 -0.0132784 0.7893388 16711746
0.5477947 0.0763808 0.7837030 16711746
-0.0445373 -0.0063586 0.8336991 16711746
0.3652022 0.1202747 0.7926243 16711746
0.1858705 0.1278790 0.8095853 16711746
-0.0445466 -0.1439865 0.8490746 16711746
-0.2063819 0.1195049 0.8294880 16711746
-0.0342677 0.0803129 0.8535168 16711746
0.5466272 0.1453742 0.7846878 16711746
-0.0259225 -0.1345172 0.7891501 16711746
0.2333679 -0.4732504 1.3019744 16711746
-0.2650891 0.0953188 0.9437183 16711746
0.0209676 0.0842808 0.9247052 16711746
-0.3023231 0.1180164 0.9232033 16711746
0.0055222 0.0949349 0.8203500 16711746
-0.2070094 0.1206338 0.8313541 16711746
-0.0288200 0.0612781 0.8266119 16711746
-0.2065199 0.1046433 0.9212840 16711746
-0.1568390 0.1406944 0.7771446 16711746
-0.0682730 0.1341317 0.7915446 16711746
0.3418457 0.1090800 0.7339457 16711746
0.2586870 0.1298451 0.7773986 16711746
0.0039254 0.0972350 0.8272008 16711746
0.7010215 -0.1053240 1.1619262 16711746
0.1375360 0.1233764 0.8485008 16711746
0.2087022 0.1090726 0.8991278 16711746
-0.5262539 -0.0831536 1.4550110 16711746
-0.2277544 0.0747610 1.0523628 16711746
-0.3626192 0.0389741 1.2699903 16711746
-0.2324915 0.1095439 0.8922380 16711746
0.2325562 0.0891222 1.0408177 16711746
-0.0502328 -0.0025449 0.8618567 16711746
0.4994902 0.0551013 1.0871248 16711746
0.2329523 0.0834518 1.0052218 16711746
0.3235118 0.0965212 0.8946977 16711746
0.5978748 0.0672120 0.9419851 16711746
0.0146114 0.0571450 1.0731641 16711746
0.4161772 0.0987782 0.8799354 16711746
0.1005155 0.0825746 0.9987234 16711746
0.3571594 0.1156149 0.7799414 16711746
0.2337511 0.1357387 0.8044717 16711746
0.2399123 0.1153648 0.8913238 16711746
0.1296502 0.1169996 0.9211432 16711746
-0.3534879 -0.0036714 1.4643927 16711746
0.0442453 0.0858276 0.8957108 16711746
0.2933802 0.1044081 0.7983586 16711746
0.0600860 0.0710139 1.0235885 16711746
-0.0311140 0.0619018 0.8301976 16711746
-0.1360508 0.1299471 0.8199108 16711746
-0.0255148 0.0235918 1.0966418 16711746
0.1594528 0.1092708 0.9504935 16711746
0.3723786 0.0987697 0.8435152 16711746
-0.4357067 0.0239528 1.3224578 16711746
-0.4975821 -0.0091358 1.3979299 16711746
0.2203518 0.1207026 0.8436126 16711746
-0.1030895 0.0673722 0.8296351 16711746
0.0015900 0.0876312 0.9560024 16711746
0.0832772 0.1111142 0.8327774 16711746
-0.0248834 -0.0127796 0.8508646 16711746
-0.0208732 -0.0402248 1.1099391 16711746
-0.0427836 -0.2795310 1.1178690 16711746
0.3504364 0.0530063 1.1112132 16711746
0.3105315 0.0508711 0.9259126 16711746
0.1034703 0.0735883 1.1413116 16711746
0.1567072 0.1675779 0.9811860 16711746
0.2807223 0.1035713 0.9001184 16711746
0.3636506 0.0367894 1.1673728 16711746
0.8773566 0.0318792 1.2117364 16711746
0.0451550 -0.0196943 1.4078811 16711746
0.0735741 0.0094760 1.4317392 16711746
0.4563940 0.0359061 1.1015470 16711746
0.0405576 0.0948062 0.9291666 16711746
0.2138635 0.0624406 1.1314826 16711746
0.0904899 0.1002796 0.8505169 16711746
-0.1349584 0.1119483 0.9471517 16711746
0.6206401 0.0570313 0.9626820 16711746
-0.0138172 0.0705571 0.9418172 16711746
-0.0385163 -0.0918064 0.9183306 16711746
0.1843436 0.0918410 1.0782857 16711746
0.1934079 0.1114972 0.8540215 16711746
0.0156429 -0.0086377 1.1171354 16711746
0.0776401 -0.1650861 1.7700727 16711746
0.0397319 -0.0052075 1.0711881 16711746
0.3094235 0.0494202 1.1350173 16711746
-0.3809091 0.0653167 1.1276426 16711746
-0.5853590 -0.0657334 1.9840134 16711746
-0.0598636 0.1012864 0.8869801 16711746
1.5165960 0.0234837 1.3289826 16711746
0.2875215 0.0688700 1.0413344 16711746
-0.2118058 0.0936420 0.9634181 16711746
0.1339437 0.1157563 0.8594704 16711746
0.5859842 0.0617507 0.9611278 16711746
0.2861424 0.0916301 0.8887255 16711746
-0.3189404 0.0809291 1.0922147 16711746
0.3573316 0.1214963 0.8534924 16711746
0.0117588 0.0097703 1.2076657 16711746
-0.0191188 0.0255568 0.8615896 16711746
0.3998978 0.0754505 0.9570239 16711746
0.4491006 -0.0994416 1.0922352 16711746
0.6231130 0.0852390 0.8617084 16711746
0.1165813 0.1140521 0.8042903 16711746
-0.0178612 -0.0493297 0.8138442 16711746
0.1257718 0.0042301 1.4217104 16711746
-0.3720631 0.0751711 1.1270636 16711746
-0.2150267 0.1103481 0.8862072 16711746
-0.6762364 -0.1366129 2.1714902 16711746
0.1976461 0.0830090 1.0734669 16711746
0.9177780 0.0626483 1.2468984 16711746
0.0783788 0.0460284 1.2595370 16711746
-1.6087158 -0.8759576 2.6877789 16711746
0.3281344 -0.3974990 1.6503000 16711746
0.4062160 -0.0297758 1.5591736 16711746
-0.3556754 -0.1757882 1.8902179 16711746
0.3176551 -0.0991053 1.8402711 16711746
-0.4621691 -0.0610140 1.6357176 16711746
0.4062196 0.0573825 1.0590100 16711746
-0.0311762 0.0360968 0.9841331 16711746
-0.2255792 0.1134358 0.8401914 16711746
-0.0602145 0.1017038 0.8893180 16711746
-0.0166360 0.0618263 1.0330802 16711746
-0.3339905 0.0953649 0.9757629 16711746
0.5673525 0.0648020 0.7689638 16711746
-0.0871503 0.1217359 0.8087319 16711746
0.5028899 0.1180172 0.7922359 16711746
-0.1519098 0.1078322 0.8652582 16711746
0.2950307 0.1252491 0.7861655 16711746
-0.2382492 0.1207405 0.8570997 16711746
-0.1910874 0.1252061 0.8218094 16711746
-0.0167210 0.0719545 1.0021749 16711746
-0.0572130 0.0968683 0.8776461 16711746
-0.1007915 0.1274789 0.8577794 16711746
-0.0071229 0.0637153 0.9598044 16711746
0.0221119 0.0526574 0.9959371 16711746
0.3675732 0.1103676 0.8694819 16711746
-0.1345409 0.1216883 0.8137220 16711746
-0.1311558 0.1159908 0.8405651 16711746
0.0712896 0.0857805 0.9387476 16711746
-0.1247065 0.0798922 1.0265578 16711746
0.0124116 0.1232764 0.8078308 16711746
0.0913672 0.0999205 0.8784373 16711746
-0.0045259 0.0855125 0.8929271 16711746
-0.2003528 0.1501953 0.7941795 16711746
-0.1543944 0.0861414 0.9585419 16711746
-0.0152892 0.0604842 1.0273356 16711746
0.3958374 0.1079329 0.7784660 16711746
0.0512328 0.0702292 1.0839120 16711746
-0.3545417 0.0953564 0.9116400 16711746
-0.0277221 -0.0342736 0.8609053 16711746
-0.1584716 0.0706675 1.0218061 16711746
-0.0645126 0.1350998 0.9062279 16711746
-0.5053855 0.0493138 1.1800823 16711746
-0.0229212 -0.0362911 0.8558531 16711746
0.1962005 0.1014590 0.9874981 16711746
-0.3984763 -0.0166466 1.5616982 16711746
0.5298163 0.1036665 0.8317262 16711746
0.0393966 0.0253559 1.1448281 16711746
0.1967522 0.0807544 1.0579975 16711746
-0.0710309 0.0082892 1.2646668 16711746
0.3166221 0.0863824 0.9480544 16711746
0.0150850 0.0625421 1.0335027 16711746
-0.1098062 0.1290561 0.8067910 16711746
-0.0791473 0.0476401 1.2886546 16711746
0.5745762 0.0514014 1.0185076 16711746
0.1420734 0.0792960 1.0433817 16711746
0.1030206 0.0722164 1.0299586 16711746
-0.0585910 0.0008582 1.2122407 16711746
-0.0687006 -0.0018247 1.3204433 16711746
-0.4886789 -0.0378743 1.4521762 16711746
0.0684443 0.0855874 0.9446344 16711746
0.3871366 0.0924631 0.7192143 16711746
0.4769405 0.1216886 0.7527732 16711746
-0.0214371 0.0359404 1.0908678 16711746
0.4052790 0.1023403 0.8573831 16711746
0.0123881 0.0570220 1.0751125 16711746
-0.1185727 0.0676097 0.9454575 16711746
0.6706756 -0.0091962 1.1309155 16711746
0.5630546 0.0621989 0.8734635 16711746
-0.0252175 0.0508237 1.0290195 16711746
0.0099459 -0.3186246 1.1628803 16711746
-0.2045661 0.1336167 0.8358420 16711746
0.0587721 0.0710151 0.9695759 16711746
-0.4261130 0.1170856 1.3503915 16711746
0.5459666 0.1249687 0.7632977 16711746
0.3405187 0.0472076 1.1156484 16711746
0.0189644 0.0167321 1.1283767 16711746
0.3523313 0.1283361 0.7742506 16711746
0.0742150 0.0798937 0.9767060 16711746
0.5004267 0.0305715 1.1135279 16711746
0.5063685 0.1116543 0.8029945 16711746
-0.6092249 0.0003063 1.5897245 16711746
0.6154341 0.0896214 0.9609258 16711746
-0.3147835 0.0815706 1.1513199 16711746
0.3516772 0.0887851 0.9870464 16711746
0.0746476 -0.1126495 1.5015029 16711746
0.4226671 0.0244350 1.2579978 16711746
0.2596230 0.0502156 1.1558253 16711746
0.1066977 0.0301673 1.2576569 16711746
0.4421369 0.0287137 1.1706201 16711746
0.5725451 -0.0210553 1.3877883 16711746
0.0655651 -0.0188511 1.4372236 16711746
0.3589854 0.1061874 0.8476859 16711746
0.6066386 0.0261199 1.2003520 16711746
-0.1437427 0.1184361 0.8460906 16711746
0.0229911 -0.1532447 1.6214375 16711746
0.3726868 0.1034692 0.8194824 16711746
-0.0259644 -0.0741489 0.8302494 16711746
0.2454201 0.0487937 1.1955698 16711746
0.2660486 0.0248067 1.3750589 16711746
0.3237496 0.0975239 0.9005887 16711746
0.3460039 0.0746988 0.9733553 16711746
-0.0048989 -0.1255891 1.1912732 16711746
1.2238129 -0.6533486 1.3387318 16711746
0.5547307 -0.0669334 1.0368150 16711746
0.4652003 0.0460054 1.0023870 16711746
0.2995170 -0.0073530 1.4927540 16711746
0.5354695 -0.1365468 1.1932069 16711746
-0.2940240 0.1164719 0.9217023 16711746
0.4954733 0.0758460 0.9056717 16711746
0.0792393 0.0545969 1.0976641 16711746
-0.1816963 0.1354256 0.7708897 16711746
-0.4514996 0.0891632 1.0204536 16711746
0.2789049 -0.0730470 1.5003893 16711746
0.3181311 -0.0090198 1.4857873 16711746
-0.1802390 0.1292121 0.7660975 16711746
-0.8574460 -1.0626584 2.6968758 16711746
0.1403263 -0.0128309 1.4345827 16711746
-1.4272619 -1.1816798 2.4912632 16711746
0.4623479 -0.0437093 1.6578163 16711746
0.5221356 -0.1763072 1.6717904 16711746
-0.1455366 0.0611811 1.1298655 16711746
-0.0151857 0.1069536 0.8247008 16711746
-0.1732285 0.1167876 0.8522487 16711746
0.1200213 0.0865784 0.9820798 16711746
-0.4854112 0.0761847 1.0862255 16711746
-0.0549042 0.1097152 0.8675588 16711746
0.3433776 0.1106652 0.7359031 16711746
0.3127626 0.0751242 0.9747606 16711746
-0.4389088 0.0854608 1.0133479 16711746
-0.1095894 0.1280373 0.8050598 16711746
0.4416595 0.1221838 0.7114705 16711746
0.0768805 0.0675168 1.0402550 16711746
0.5503464 0.1052470 0.8052816 16711746
0.3404152 0.1223396 0.8029701 16711746
-0.6479589 0.0648818 1.2412822 16711746
-0.4862157 -0.0113290 1.4110833 16711746
-0.4991212 -0.0357367 1.4676489 16711746
0.4811000 0.0769556 0.9127271 16711746
0.6211292 0.0532937 0.9511801 16711746
0.3041913 0.1141033 0.8209639 16711746
0.2415735 0.0643322 1.0581371 16711746
-0.1448330 0.1026530 0.9169874 16711746
-0.4920024 0.0785277 1.0961065 16711746
-0.0295374 0.0296236 1.1441540 16711746
0.4763872 0.0924275 0.8705758 16711746
0.4454847 0.0732009 0.9673095 16711746
0.5502674 0.0561730 0.9833994 16711746
0.0620677 0.0503878 1.1010358 16711746
0.0565227 0.0439897 1.1464143 16711746
-0.0456479 0.0757616 0.8633461 16711746
0.0936056 0.1053582 0.8288906 16711746
0.1256769 0.1103674 0.8960491 16711746
-0.0275688 0.0586650 0.8218117 16711746
0.0092548 0.1064944 0.8284504 16711746
-0.5252283 0.0370214 1.2372944 16711746
0.0614814 0.0687308 1.0163652 16711746
0.0078595 -0.1399643 0.9115241 16711746
-0.4547422 0.0241684 1.1600418 16711746
0.5797318 0.0642326 0.9842609 16711746
-0.0421160 0.0064445 0.8181921 16711746
0.7107549 -0.0473232 1.0739101 16711746
0.0043263 0.1097772 0.8249244 16711746
-0.2159917 0.0850000 0.9595793 16711746
-0.2594053 0.0976081 0.9422966 16711746
-0.1810487 0.1148229 0.8675013 16711746
-0.0295915 0.1012679 0.8558348 16711746
0.1025953 0.0998372 0.8267085 16711746
-0.0402946 0.0697273 0.9651877 16711746
-0.2052621 0.1417206 0.8234098 16711746
-0.0986560 0.0916588 0.8963531 16711746
-0.1037709 0.1594481 0.9017194 16711746
-0.2176965 0.1144885 0.8848009 16711746
0.0060037 0.1108595 0.8371759 16711746
0.4562047 0.1433019 0.7373523 16711746
0.4302555 0.0926982 0.6906683 16711746
-0.0244190 0.0260489 0.8632704 16711746
-0.1052861 0.0916258 0.9280660 16711746
-0.0147343 0.0165675 0.8318615 16711746
-0.0326168 -0.0737743 0.7690868 16711746
0.1568310 0.0601522 1.1298814 16711746
0.2674784 0.0701654 1.0430005 16711746
-0.4092550 0.0824616 1.1354725 16711746
0.7706422 0.0519260 1.0805758 16711746
-0.5536755 -0.0009696 1.2040809 16711746
0.5002726 -0.0453481 0.9670530 16711746
-0.2744775 0.1186930 0.9971877 16711746
0.0241416 0.0163747 0.8461726 16711746
0.4720307 0.0794093 0.9261531 16711746
0.9940434 0.0246202 1.2318689 16711746
-0.0419554 0.0355676 1.1779370 16711746
0.7292583 0.0319290 1.2092185 16711746
0.1479562 0.0997470 0.9878849 16711746
0.2046398 0.0692310 1.0773766 16711746
0.3800151 0.1059011 0.8579597 16711746
-0.3168861 0.0821684 1.0897489 16711746
0.1890771 0.1229194 0.9058396 16711746
0.1325708 0.0397270 1.2025927 16711746
-0.1504360 0.0844010 0.9627626 16711746
0.5631201 0.0900177 0.8545120 16711746
0.2832733 0.0181350 1.3843788 16711746
0.1475880 0.0627860 1.1073679 16711746
0.1995286 0.1026835 0.9851159 16711746
0.0340497 -0.0128336 1.4195403 16711746
0.3405069 0.0667216 1.0317341 16711746
0.3353086 0.0256505 1.2019516 16711746
0.1483469 0.0645162 1.1124518 16711746
-0.0986911 0.1136929 0.8494833 16711746
-0.4793547 0.0717191 1.0769132 16711746
0.5529981 -0.1008343 1.4616127 16711746
0.2072494 0.0286413 1.3757373 16711746
-0.1902121 -0.2720817 2.8156371 16711746
-0.3385583 0.0211562 1.3719003 16711746
-0.1235356 -0.0139631 1.7287178 16711746
0.4859598 -0.8816525 2.3590517 16711746
0.7505307 -0.9114619 2.9943717 16711746
0.4016504 -0.1608182 1.8906108 16711746
-0.4703278 0.0758810 0.9794409 16711746
0.4770901 0.0863370 0.7240795 16711746
-0.0054545 0.0874311 0.9389452 16711746
0.2781858 0.0963227 0.9396184 16711746
0.1243176 0.0914063 0.8508500 16711746
0.5731171 0.0887043 0.8500620 16711746
0.2269056 0.0890577 0.8648547 16711746
-0.2580403 0.1126536 0.9211432 16711746
-0.0217720 0.0785497 0.9515070 16711746
-0.0218645 -0.0171201 0.8255874 16711746
0.2508376 0.1020565 0.8750539 16711746
0.3856367 0.0882904 0.6674290 16711746
0.4949718 0.1024633 0.7263368 16711746
-0.1138526 0.0745535 0.8984649 16711746
-0.2193147 0.0707160 1.0369841 16711746
-0.2543001 0.1184290 0.8722264 16711746
-0.5222088 0.0829199 1.0178342 16711746
-0.4005808 0.0775183 1.0669804 16711746
0.3106561 0.1034936 0.8823543 16711746
0.0932541 0.0801847 0.8802749 16711746
0.1082794 0.0949936 0.9684063 16711746
0.1414554 0.1134688 0.8670376 16711746
0.1851512 0.1153599 0.8845896 16711746
0.2955368 0.0753146 0.9515836 16711746
0.1031792 0.0812683 0.9908836 16711746
0.0239492 0.0755981 0.9866386 16711746
-0.0524725 0.0954547 0.8741370 16711746
-0.5457954 0.0878031 1.1340398 16711746
0.2008993 0.1132409 0.8487369 16711746
0.2307493 0.0952236 0.9720907 16711746
-0.0315798 -0.0123391 0.8547937 16711746
0.0835905 0.1031891 0.8882062 16711746
0.6551765 0.0961136 0.8799288 16711746
0.1382241 0.0998155 0.9639978 16711746
0.3278462 0.0125579 0.9028620 16711746
0.1783371 0.0740393 1.0615512 16711746
0.0239041 0.0829834 0.9207089 16711746
0.5136406 0.0755435 0.7529481 16711746
-0.0764484 -0.0049143 1.1583905 16711746
0.3697089 0.0769263 0.9745551 16711746
0.4037607 0.0704211 1.0025797 16711746
-0.1620159 0.1023596 0.9005489 16711746
-0.1110451 0.1070713 0.8960347 16711746
0.5950115 0.0706429 0.9416766 16711746
0.5738088 0.0727366 0.9412251 16711746
0.3628760 0.0863995 0.9491940 16711746
0.6871925 0.0794151 0.9671243 16711746
0.1214000 0.0457203 1.1693535 16711746
0.7766169 0.0542421 1.0826508 16711746
0.2170532 0.0966428 0.9302620 16711746
0.4480717 0.1238512 0.7217616 16711746
-1.1346419 0.0252277 1.6148028 16711746
0.0931709 0.1021875 0.8664644 16711746
-0.4902863 -0.0153910 1.4591606 16711746
-0.3395383 0.0692547 1.1856550 16711746
0.1036967 0.0466436 1.1527470 16711746
-0.4095994 -0.0208142 1.2695119 16711746
0.1166998 0.1002050 1.0357274 16711746
0.0430319 -0.3396833 1.1845726 16711746
-0.0519520 -0.0013012 1.1826949 16711746
0.5671265 0.0112752 1.0033256 16711746
-0.2497740 0.0734874 0.9743751 16711746
0.1838800 0.0804329 1.0059730 16711746
-0.2911447 0.1318805 0.9024611 16711746
-0.0169514 0.0593736 1.0385166 16711746
-0.6577093 -0.0350645 1.2901642 16711746
0.4829356 0.0795856 0.9216323 16711746
0.4505677 0.0816169 0.6806228 16711746
0.5153465 0.1064102 0.8574438 16711746
-0.5691274 0.0293454 1.3429499 16711746
0.7289270 0.0898254 0.9758595 16711746
0.0847744 0.0844208 0.8863276 16711746
0.5082226 0.0580612 0.7651324 16711746
0.4698265 0.0953929 0.8310900 16711746
0.1951592 0.0517909 1.1643670 16711746
-0.0082438 0.0385110 0.8343614 16711746
0.0448108 0.0812348 0.9745298 16711746
0.7325605 0.0319581 1.2111501 16711746
0.4681717 0.0882196 0.8633083 16711746
-0.3188472 0.1115289 0.9084804 16711746
0.6653592 0.0163894 1.2027135 16711746
0.0686636 0.0009423 1.1962333 16711746
0.3084307 0.1008668 0.8677101 16711746
0.1415116 0.0640036 1.1064621 16711746
0.5426091 0.0370614 1.0993365 16711746
0.1197651 0.0785958 1.0220057 16711746
-1.0069611 -0.0329842 1.8929280 16711746
0.1761660 0.1013655 0.9409031 16711746
-1.0542871 -0.0862599 2.1174569 16711746
0.5723511 0.0572759 0.9781796 16711746
0.3146856 0.0573407 1.0942961 16711746
1.1258343 -0.0831440 1.3697416 16711746
0.1273870 0.0120238 1.3693752 16711746
0.7795863 0.0290699 1.2273198 16711746
0.2145695 0.0617003 1.1321695 16711746
0.2201434 0.0043272 0.9290655 16711746
0.1627692 0.0811157 1.2200003 16711746
0.1437003 0.0665779 1.0483119 16711746
0.5025020 0.0219904 1.1885182 16711746
0.3787399 0.0723847 1.0018393 16711746
0.0394319 0.0031503 1.4701060 16711746
0.4873688 0.0853943 0.8766258 16711746
0.7597750 -0.0205285 1.4490976 16711746
0.4292320 0.0291068 1.1514097 16711746
0.3102442 0.0462873 1.1254272 16711746
0.2785226 0.0906839 0.9564548 16711746
0.5337601 0.0979867 0.8876082 16711746
0.3812042 0.0322889 1.1237901 16711746
0.4876707 -0.0056138 1.3053508 16711746
0.0777241 0.0543477 1.0938700 16711746
0.3777629 0.1024906 0.8515790 16711746
0.0668345 0.0530940 1.1750959 16711746
0.5197825 0.1046348 0.8123733 16711746
0.5453561 -0.1017368 1.4296501 16711746
0.1877981 0.1164337 0.8923445 16711746
0.0092811 -0.2944766 1.0941091 16711746
0.9483107 0.0054878 1.2926241 16711746
-0.5512230 -1.0122882 2.8094759 16711746
-0.2690508 -0.0042756 1.5836351 16711746
-0.4413328 0.0836019 2.4695406 16711746
-0.0151206 -0.0960761 0.7778772 16711746
-0.2736816 -0.0141264 1.5831125 16711746
1.0540537 -0.1448550 1.1738197 16711746
0.0195886 0.0288380 1.1175165 16711746
-0.1549219 0.1108738 0.8712198 16711746
0.3840381 0.0968071 0.9017175 16711746
0.1465820 0.0997832 0.9881052 16711746
0.0693765 0.0937623 0.8683521 16711746
-0.2109739 0.1043468 0.8263740 16711746
0.3363447 0.1024558 0.8904198 16711746
-0.3709020 0.0668608 0.9266304 16711746
-0.1707562 0.0759781 1.0401016 16711746
-0.1520442 0.0814038 0.9837310 16711746
-0.5247274 -0.0436858 1.1584774 16711746
-0.3634592 0.1019694 0.9789379 16711746
0.4085520 0.1054842 0.8629534 16711746
0.2766508 0.0962879 0.9394810 16711746
-0.1638980 0.1060476 0.9276946 16711746
0.0275635 0.0775803 0.9085204 16711746
-0.0660786 0.0309112 1.1432248 16711746
-0.0675522 0.0315252 1.1420933 16711746
0.0721913 0.1058684 0.8606295 16711746
0.1564075 0.1047199 0.9507048 16711746
0.0022822 0.0982081 0.8273478 16711746
-0.0851080 0.0839189 0.9293390 16711746
-0.3299919 0.0642877 1.1651320 16711746
0.2217252 0.1030886 0.9479528 16711746
0.0259790 0.0898355 0.9597704 16711746
0.3933694 0.1170686 0.8549141 16711746
-0.3341816 0.0822089 0.8873477 16711746
-0.0235746 0.0865005 0.9244550 16711746
-0.3638277 0.0842130 1.0718331 16711746
-0.1454604 0.0972418 0.9496291 16711746
-0.0050099 -0.0025536 0.8003058 16711746
-0.0051731 0.0728622 0.8427008 16711746
-0.0211245 0.0956321 0.9402114 16711746
0.0533777 0.1099228 0.9362162 16711746
-0.2670425 0.0408497 0.7951080 16711746
0.1483550 0.0817900 1.0468081 16711746
-0.0968570 0.0631468 0.9381137 16711746
0.0045690 0.0699578 1.0625739 16711746
0.0144513 0.0936046 1.0674495 16711746
-0.1627524 0.0772448 0.9768428 16711746
0.2803061 0.0966521 0.9404781 16711746
-1.2466125 0.0563237 1.7848514 16711746
-0.9739269 0.0269827 1.4296051 16711746
0.3294570 0.1008447 0.9021857 16711746
0.0636557 0.0169208 1.2957273 16711746
0.5464205 0.0723735 0.9538883 16711746
0.2812181 0.1020231 0.8947871 16711746
-0.9618693 0.0295701 1.5202721 16711746
0.4089944 0.0579508 1.0546123 16711746
0.1909034 0.0420134 1.2232568 16711746
0.5446024 0.0373290 1.0990088 16711746
0.0005664 0.0170310 1.0843914 16711746
0.3326154 0.1137476 0.8647153 16711746
-0.9369997 -0.0021263 1.7719918 16711746
0.2040679 0.0746859 1.0640076 16711746
-0.1983413 0.0132567 1.4086111 16711746
0.6096525 0.0248411 1.0664123 16711746
0.3419246 0.0533491 1.0789908 16711746
0.3188189 0.0594737 1.1052241 16711746
-0.7682354 0.0087978 1.6091000 16711746
-0.3845137 0.0633241 1.1699189 16711746
-0.6502363 0.0622800 1.1687883 16711746
-0.0646352 0.0744122 1.0417210 16711746
0.5696535 0.0905427 0.8295063 16711746
0.0649393 0.0496889 1.0952765 16711746
0.0141103 0.0179529 1.1433314 16711746
-0.0552609 0.0115593 1.1966529 16711746
-0.0324770 -0.0404889 1.2059872 16711746
0.6061743 0.0665824 0.9502172 16711746
0.3580897 0.0325148 1.1515697 16711746
0.0722565 0.0496772 1.0175682 16711746
0.4926796 -0.0679211 1.0922738 16711746
0.1781046 0.0839627 1.0449529 16711746
0.2351799 0.0858569 1.0098162 16711746
0.4693881 0.0299935 1.1349280 16711746
0.1482439 0.0882164 1.0694189 16711746
0.0305360 -0.2580898 0.9889799 16711746
0.0573504 0.0754997 1.1122051 16711746
0.8483052 0.1837213 1.0398523 16711746
-1.0589473 -0.0879926 2.1101732 16711746
-0.4554725 0.0603338 1.1324620 16711746
-0.5015155 0.0578347 1.1266408 16711746
0.4121667 0.0938876 0.8185699 16711746
0.9603131 0.0207862 1.2130514 16711746
0.7675231 0.0613281 1.1428900 16711746
0.1518844 0.0770030 1.0286673 16711746
0.4348066 0.0976776 0.7469050 16711746
0.8981218 0.0122614 1.1736838 16711746
0.2106434 0.0950673 0.9809626 16711746
0.1563260 0.0824499 1.0398276 16711746
0.5199659 0.0504461 1.0269102 16711746
0.8728867 0.0111224 1.2830750 16711746
0.0772817 0.0696765 1.0439028 16711746
-0.2957444 0.0893318 0.9957166 16711746
-0.7017867 0.0532812 1.2690766 16711746
-0.2612060 -0.0577855 1.8442132 16711746
0.2518459 0.0496960 1.1748600 16711746
-0.1154326 0.0231487 1.3480951 16711746
-0.3885704 0.0762892 1.1430966 16711746
0.4936687 0.0781720 0.8854995 16711746
-0.1698980 0.0885863 0.9313912 16711746
0.8810997 0.0438697 1.1499374 16711746
0.4992160 0.0765392 0.9045978 16711746
0.7341291 -0.0526492 0.9909377 16711746
1.9580035 -0.1079155 1.9514706 16711746
0.7641982 0.0610049 1.1285850 16711746
0.3852255 0.0140177 1.2697079 16711746
0.3946537 0.0055714 1.3393513 16711746
-0.4126875 0.0805305 1.0800246 16711746
-0.3400021 0.0541556 1.2058251 16711746
0.2586645 0.1015911 0.8891897 16711746
0.5354887 0.0545159 1.1418375 16711746
0.4061879 -0.4920798 1.4653327 16711746
0.2824768 -0.8514965 1.8993512 16711746
0.5108614 -0.0299165 1.4781524 16711746
0.5089249 0.0276209 1.1416831 16711746
0.3731449 -0.8571933 1.9103239 16711746
0.4147853 -0.0818492 1.7168726 16711746
0.4430505 -0.0205834 1.4686114 16711746
0.1309189 -0.3085403 2.4276581 16711746
0.0081853 0.0379166 1.0798671 16711746
-0.0154887 -0.0008477 1.1547091 16711746
-0.3470612 -0.0352178 1.8477564 16711746
-0.0237489 -0.3915254 1.1892684 16711746
-0.8202376 -0.3542618 3.8976767 16711746
0.5906082 -0.1056634 1.6669931 16711746
0.7747514 -0.9916542 2.7000728 16711746
-0.3077185 -0.1955337 2.3271143 16711746
-0.2993589 -0.9395773 2.4644578 16711746
-0.1725143 -0.0467721 1.7404293 16711746
0.4711132 -0.1658735 1.6612791 16711746
0.0817292 0.0872391 0.9741020 16711746
0.2820327 0.0746678 0.8112197 16711746
0.0613711 0.0488777 1.0333636 16711746
-0.0311205 0.0844975 0.8441625 16711746
0.1069157 0.1124786 0.9488149 16711746
-0.0233125 -0.0935820 0.7945312 16711746
-0.1370179 0.0717199 0.9508305 16711746
0.0296922 0.0988556 0.8692212 16711746
-0.0170831 0.0586179 1.0419511 16711746
-0.0211075 -0.0434456 1.1246668 16711746
0.4822851 0.0713502 0.7569720 16711746
0.0363932 0.0520672 1.0871341 16711746
0.2420121 0.1106595 0.8819045 16711746
-0.0019455 0.0704463 0.8296165 16711746
-0.0742984 0.0490670 1.0624391 16711746
0.0490250 0.0634108 1.0308939 16711746
-0.1487020 0.1176566 0.8575451 16711746
0.0007238 0.0669362 0.8222302 16711746
0.1025765 0.0647096 1.0390249 16711746
-0.1287293 0.0290269 1.1979333 16711746
-0.1536119 0.0210437 1.2455746 16711746
0.1075752 0.0292121 1.2429513 16711746
0.0417960 0.0742102 1.0041329 16711746
0.2774516 0.0892965 0.9516931 16711746
0.3177341 0.0843011 0.9703608 16711746
-0.6875577 0.0435678 1.4553175 16711746
-1.0816669 -0.0370184 1.6032845 16711746
-0.0152638 0.0710236 0.9996232 16711746
-0.1444195 0.0953334 0.9461625 16711746
0.0097776 0.0594410 1.0449145 16711746
0.6930585 0.0810065 0.9720137 16711746
0.0847727 0.0922060 0.9639587 16711746
0.2603369 0.0660980 1.0477432 16711746
-0.1368095 0.0362489 1.2649640 16711746
0.0322612 0.0880527 0.9671500 16711746
-0.0942551 0.0188656 1.1849676 16711746
0.4978604 0.0961308 0.8485767 16711746
0.1838941 0.0515330 1.0450070 16711746
-0.7620841 -0.0315210 1.4797089 16711746
0.1389435 0.0988013 0.9644798 16711746
-0.1610930 0.1117901 0.9089232 16711746
-0.2836489 0.0739676 1.1191895 16711746
-0.0968048 -0.0015781 1.2567540 16711746
-0.0062468 -0.0286012 1.2450216 16711746
-0.0124026 -0.0309122 1.2523624 16711746
-0.8580690 0.0005869 1.4277593 16711746
-0.5944296 0.0372435 1.2182361 16711746
0.3567015 -0.0840812 0.7701212 16711746
0.5710411 -0.0510164 0.9303387 16711746
0.6067634 0.0329847 1.1542844 16711746
0.6066034 0.0770137 0.9170879 16711746
0.3355663 0.0788918 0.9408280 16711746
0.3088788 0.0769133 0.9193394 16711746
0.2835949 0.0835337 1.3849190 16711746
-0.0153807 -0.0483639 1.1365656 16711746
0.6245013 -0.0194317 1.3827070 16711746
0.0789438 -0.0639891 1.6301132 16711746
0.0858481 0.0507651 1.0628011 16711746
0.0446894 0.0825457 0.9801690 16711746
0.1546502 0.0601697 1.1280848 16711746
0.0924187 0.0828434 1.0033684 16711746
-0.2067614 0.1049121 0.9212608 16711746
0.2636792 0.0608022 1.1607991 16711746
-0.8563759 -0.0840557 1.8169830 16711746
0.7896404 0.0552046 1.1001339 16711746
-0.2732360 0.0661799 1.0875235 16711746
-1.0388047 -0.0191465 1.8659339 16711746
0.3170649 0.0291142 1.2248996 16711746
0.0644852 0.0508542 1.1008080 16711746
0.2940222 0.1098290 1.0143299 16711746
-0.3337996 0.0514200 1.1768825 16711746
0.2343310 0.0202176 1.3005157 16711746
0.3739578 -0.0238754 1.4816606 16711746
0.1240563 0.0689026 1.0682222 16711746
0.0478747 0.0876835 0.9343921 16711746
0.1198692 0.0139833 1.3974679 16711746
-0.1698475 -0.0867671 1.2212149 16711746
0.5300553 -1.1548682 3.3133206 16711746
-0.1842753 -0.0417125 1.7755088 16711746
0.1396436 0.0719672 1.1486007 16711746
-0.0268679 0.0562194 1.1749951 16711746
0.1602723 0.1061101 1.1112118 16711746
0.4603024 0.0849698 0.9238404 16711746
0.2479625 0.0983887 0.9194736 16711746
-0.0964654 0.0198821 1.1907961 16711746
-0.0417171 0.0676014 0.9199766 16711746
0.3808174 0.1201653 0.8410858 16711746
0.5584321 0.1070220 0.8247204 16711746
0.6737453 0.1234406 0.8730585 16711746
-0.1546153 0.1040678 0.9153118 16711746
0.0232151 0.0698872 1.0036882 16711746
-0.5443290 0.0174154 1.1933364 16711746
0.3610076 0.1165340 0.8597170 16711746
-0.2295734 0.1167860 0.9463360 16711746
0.4503871 0.0958045 0.8794690 16711746
0.4916149 0.1144915 0.7895664 16711746
0.6318262 0.0843286 0.8492491 16711746
0.6242331 0.0411216 0.9085193 16711746
0.5085749 0.0472485 0.7728969 16711746
0.6219146 0.0644978 0.8900405 16711746
-0.2239310 0.0927287 0.9261571 16711746
0.0913317 0.1030687 0.8821285 16711746
0.2687227 0.1334970 0.9337819 16711746
-0.2757648 0.0878350 1.0224897 16711746
0.4069843 0.0973292 0.8994494 16711746
0.3279339 0.0889513 0.9380421 16711746
0.5319704 0.0946153 0.8028741 16711746
-0.0572019 0.1093827 0.8590812 16711746
0.1366217 0.0757644 1.0442377 16711746
0.0462249 0.0170743 1.0923678 16711746
0.1494865 0.1114430 0.9240302 16711746
0.2272705 0.0823928 1.0081215 16711746
0.6030546 0.1321346 0.8508283 16711746
-0.0783129 -0.0005806 1.0602216 16711746
-0.1631896 0.0271348 1.2777562 16711746
-0.0042530 0.0874294 0.9371055 16711746
-0.1262835 0.0153039 1.1955558 16711746
-0.1764501 0.0939911 0.9429585 16711746
-0.0840057 -0.0038476 1.1978366 16711746
0.1267264 0.0034329 1.1159267 16711746
0.4529857 0.0838712 0.7855551 16711746
0.1716511 0.0727070 1.1028069 16711746
0.5044500 0.0492151 0.7871734 16711746
-0.0199017 0.0745013 0.9846759 16711746
-0.2703026 0.0806101 0.9829804 16711746
0.2444448 0.0700245 1.1569848 16711746
0.4561732 0.0985926 0.8826218 16711746
0.3119493 0.0800662 0.9725240 16711746
0.3948784 0.0688628 1.0100501 16711746
0.0774487 0.0718549 0.9640322 16711746
0.1519704 0.0684621 1.1184543 16711746
0.3542855 0.1044727 0.8951433 16711746
0.1015848 0.0496990 1.1059279 16711746
-0.1231144 0.0506786 1.1808949 16711746
0.2220667 0.0730430 1.0741986 16711746
0.4969023 0.0961945 0.8481928 16711746
0.1243607 0.0659095 1.0596824 16711746
0.4900145 0.0453019 1.0580003 16711746
0.0563663 0.0565964 1.0689728 16711746
-0.0407309 0.0544203 1.0571462 16711746
0.5683351 0.0698697 0.9615471 16711746
0.0663371 0.0159442 1.2976259 16711746
-0.0323330 0.0611806 1.0712343 16711746
0.0675318 -0.0261900 1.0798858 16711746
0.5687078 0.1067023 0.8685886 16711746
0.3108813 0.0343377 1.2269145 16711746
0.3490861 0.0190167 1.2941657 16711746
0.6039490 0.0686904 0.9757138 16711746
0.0284121 -0.0119715 1.3647417 16711746
0.0668914 -0.0179036 1.4840075 16711746
0.0075146 0.0838110 0.9130776 16711746
-0.2607850 0.0697504 0.8616521 16711746
0.5323764 0.0219190 0.8080699 16711746
0.5267235 0.1107462 0.9332193 16711746
-0.0327197 0.0544446 0.9988263 16711746
0.4881326 -0.0104995 1.1005610 16711746
0.1616267 -0.0413083 1.5142721 16711746
0.3967199 0.0385272 1.1664281 16711746
0.0052760 -0.0296277 1.5704731 16711746
0.2544242 0.1046347 0.9094184 16711746
0.5308254 0.0842336 0.9374064 16711746
0.1616342 -0.0363593 1.6207443 16711746
0.3555984 0.0429462 1.1603589 16711746
0.3394253 0.0713911 0.9599438 16711746
-0.3532552 0.0907259 1.0162472 16711746
0.4975001 0.0766656 0.9466526 16711746
0.0691486 0.0109670 1.3914036 16711746
0.0910105 0.0792254 1.0097276 16711746
0.4820315 0.0544362 1.0430731 16711746
0.4084006 0.0468084 1.0684233 16711746
0.3707039 0.0068143 1.2381058 16711746
-0.0903215 0.0312047 1.2831776 16711746
0.1196355 0.0779860 1.0277297 16711746
0.2897492 0.0252529 1.3163474 16711746
0.2046475 0.0371726 1.2531217 16711746
0.2087505 0.0944937 0.9776825 16711746
0.3652952 0.0048048 1.4164269 16711746
0.1374411 -0.0036183 1.3899659 16711746
0.5031408 0.0820928 0.8861319 16711746
0.4782088 -0.0103202 1.4284320 16711746
0.0246090 0.0739886 0.9819344 16711746
-1.1184558 -0.0186460 1.9703953 16711746
0.0574526 -0.0611663 1.5060520 16711746
