# .PCD v.7 - Point Cloud Data file format
VERSION .7
FIELDS x y z rgb
SIZE 4 4 4 4
TYPE F F F F
COUNT 1 1 1 1
WIDTH 288
HEIGHT 1
VIEWPOINT 0 0 0 1 0 0 0
POINTS 288
DATA ascii

 0.0000000 0.0000000 0.0000000 16777215
 0.0331066 -0.0049608 0.0643184 16777215
 0.0370187 -0.0070282 0.0758676 16777215
 0.0403830 -0.0057572 0.0841995 16777215
 0.0434691 -0.0048439 0.0944566 16777215
 0.0470044 -0.0058766 0.1076358 16777215
 0.0494917 -0.0054436 0.1307853 16777215
 0.0502025 -0.0064565 0.1429296 16777215
 0.0543139 -0.0102764 0.1622241 16777215
 0.0631770 -0.0105516 0.1834937 16777215
 0.0691696 -0.0105235 0.2023648 16777215
 0.0799538 -0.0097128 0.2226989 16777215
 0.0949493 -0.0129523 0.2480272 16777215
 0.1078375 -0.0187065 0.2720414 16777215
 0.1214419 -0.0214901 0.2953057 16777215
 0.1239949 -0.0229079 0.3193235 16777215
 0.1299051 -0.0254282 0.3460329 16777215
 0.1368917 -0.0232458 0.3720853 16777215
 0.1489063 -0.0217478 0.4056723 16777215
 0.1621057 -0.0191224 0.4344427 16777215
 0.1815661 -0.0253484 0.4714786 16777215
 0.1928820 -0.0290935 0.5084798 16777215
 0.2077141 -0.0237116 0.5422267 16777215
 0.2212108 -0.0282861 0.5821116 16777215
 0.2326912 -0.0303989 0.6139463 16777215
 0.2472087 -0.0360824 0.6587203 16777215
 0.2749251 -0.0381358 0.7050084 16777215
 0.2906342 -0.0449287 0.7363383 16777215
 0.3030529 -0.0428373 0.7755638 16777215
 0.3103369 -0.0438406 0.8055598 16777215
 0.3219321 -0.0528633 0.8416290 16777215
 0.3332157 -0.0569281 0.8779962 16777215
 0.3459961 -0.0571861 0.9091714 16777215
 0.3645119 -0.0566607 0.9466728 16777215
 0.3782282 -0.0602464 0.9731344 16777215
 0.3948120 -0.0623043 0.9980355 16777215
 0.4096316 -0.0661941 1.0349914 16777215
 0.4228019 -0.0666461 1.0749512 16777215
 0.4324236 -0.0697977 1.1076045 16777215
 0.4392288 -0.0700554 1.1414469 16777215
 0.4569237 -0.0761545 1.1772338 16777215
 0.4778558 -0.0787129 1.2148798 16777215
 0.4968715 -0.0848678 1.2422049 16777215
 0.5051397 -0.0885352 1.2668521 16777215
 0.5147082 -0.0899055 1.3040981 16777215
 0.5117452 -0.0922194 1.3416626 16777215
 0.5207411 -0.0945022 1.3695220 16777215
 0.5284459 -0.0956558 1.4041668 16777215
 0.5372366 -0.0977974 1.4355201 16777215
 0.5570476 -0.0919194 1.4640756 16777215
 0.5753784 -0.0980966 1.4942354 16777215
 0.5923096 -0.1024662 1.5195905 16777215
 0.5988978 -0.1009546 1.5457486 16777215
 0.6074558 -0.1005816 1.5893393 16777215
 0.6128066 -0.1018737 1.6275722 16777215
 0.6240173 -0.1046580 1.6536130 16777215
 0.6394215 -0.1083145 1.6913245 16777215
 0.6625032 -0.1142719 1.7268705 16777215
 0.6767579 -0.1205362 1.7539757 16777215
 0.6888711 -0.1215987 1.7791409 16777215
 0.6987652 -0.1226574 1.8249186 16777215
 0.7131313 -0.1244955 1.8641098 16777215
 0.7209699 -0.1231347 1.9086852 16777215
 0.7350155 -0.1217164 1.9486685 16777215
 0.7512920 -0.1271168 1.9902710 16777215
 0.7636616 -0.1337730 2.0283134 16777215
 0.7738156 -0.1371846 2.0655367 16777215
 0.7790928 -0.1371633 2.1153736 16777215
 0.7893152 -0.1439577 2.1496103 16777215
 0.8035882 -0.1478346 2.1874673 16777215
 0.8197304 -0.1512474 2.2208939 16777215
 0.8402159 -0.1545755 2.2566404 16777215
 0.8472433 -0.1560951 2.2888436 16777215
 0.8438414 -0.1571943 2.3320284 16777215
 0.8453168 -0.1524450 2.3629780 16777215
 0.8505545 -0.1562957 2.3963699 16777215
 0.8625297 -0.1593910 2.4444022 16777215
 0.8849307 -0.1586781 2.4948714 16777215
 0.9058906 -0.1700236 2.5333903 16777215
 0.9137887 -0.1775063 2.5620050 16777215
 0.9161956 -0.1750971 2.5856590 16777215
 0.9242790 -0.1724914 2.6226618 16777215
 0.9362670 -0.1747668 2.6510215 16777215
 0.9496201 -0.1757674 2.6863332 16777215
 0.9681282 -0.1727428 2.7184534 16777215
 0.9956937 -0.1794220 2.7606435 16777215
 1.0024199 -0.1799265 2.7897892 16777215
 1.0110042 -0.1809069 2.8251755 16777215
 1.0250778 -0.1783302 2.8570530 16777215
 1.0334918 -0.1836729 2.8897693 16777215
 1.0527021 -0.1830875 2.9278336 16777215
 1.0750396 -0.1844187 2.9596877 16777215
 1.0870308 -0.1847903 2.9916618 16777215
 1.0966012 -0.1871111 3.0255022 16777215
 1.1040603 -0.1894097 3.0630507 16777215
 1.1114388 -0.1914239 3.0955362 16777215
 1.1206702 -0.1909174 3.1176615 16777215
 1.1278907 -0.1960098 3.1432805 16777215
 1.1418767 -0.1968353 3.1763229 16777215
 1.1624035 -0.1976260 3.2004321 16777215
 1.1747564 -0.2022453 3.2404046 16777215
 1.1809230 -0.2018774 3.2789993 16777215
 1.1848459 -0.2061737 3.3157885 16777215
 1.1927345 -0.2076430 3.3388891 16777215
 1.2062800 -0.2062429 3.3709388 16777215
 1.2307758 -0.2051719 3.4139094 16777215
 1.2510693 -0.2140362 3.4390085 16777215
 1.2603232 -0.2189598 3.4729238 16777215
 1.2682314 -0.2200200 3.5207260 16777215
 1.2665974 -0.2230227 3.5622845 16777215
 1.2761467 -0.2305377 3.5984614 16777215
 1.2894199 -0.2287539 3.6324894 16777215
 1.3239996 -0.2369927 3.6862819 16777215
 1.3432811 -0.2390774 3.7262127 16777215
 1.3514975 -0.2380849 3.7683468 16777215
 1.3564245 -0.2402335 3.7973323 16777215
 1.3675871 -0.2438130 3.8335094 16777215
 1.3755063 -0.2459667 3.8557551 16777215
 1.3913785 -0.2442916 3.8875093 16777215
 1.4073780 -0.2480376 3.9166911 16777215
 1.4180235 -0.2486723 3.9373686 16777215
 1.4286066 -0.2494943 3.9815376 16777215
 1.4426188 -0.2530832 4.0245914 16777215
 1.4512243 -0.2527341 4.0539289 16777215
 1.4766409 -0.2531168 4.0968399 16777215
 1.4996750 -0.2569014 4.1243720 16777215
 1.5053382 -0.2555553 4.1464701 16777215
 1.5106328 -0.2524684 4.1733341 16777215
 1.5234113 -0.2512721 4.2315483 16777215
 1.5226842 -0.2559118 4.2623210 16777215
 1.5244714 -0.2629262 4.3101940 16777215
 1.5397187 -0.2575458 4.3549614 16777215
 1.5524921 -0.2622510 4.4003787 16777215
 1.5568984 -0.2627173 4.4520354 16777215
 1.5581144 -0.2643763 4.4941187 16777215
 1.5645398 -0.2638316 4.5234466 16777215
 1.5763237 -0.2631750 4.5703244 16777215
 1.5932126 -0.2642844 4.6220150 16777215
 1.6175524 -0.2640235 4.6532784 16777215
 1.6285926 -0.2672170 4.6840315 16777215
 1.6332934 -0.2649373 4.7279587 16777215
 1.6432840 -0.2677851 4.7656426 16777215
 1.6511840 -0.2686152 4.8143516 16777215
 1.6675072 -0.2708247 4.8694978 16777215
 1.6840830 -0.2713669 4.9021873 16777215
 1.6930799 -0.2758068 4.9268961 16777215
 1.7007093 -0.2752847 4.9672008 16777215
 1.7067449 -0.2748338 5.0142097 16777215
 1.7195660 -0.2710125 5.0663271 16777215
 1.7324860 -0.2729597 5.0991983 16777215
 1.7467122 -0.2728982 5.1285110 16777215
 1.7594167 -0.2749463 5.1519909 16777215
 1.7672024 -0.2796010 5.1903386 16777215
 1.7708791 -0.2810239 5.2270379 16777215
 1.7728162 -0.2823401 5.2538805 16777215
 1.7819566 -0.2879182 5.2896609 16777215
 1.7975668 -0.2863538 5.3172946 16777215
 1.8161540 -0.2848801 5.3532910 16777215
 1.8185365 -0.2883436 5.3752766 16777215
 1.8197069 -0.2856569 5.3989005 16777215
 1.8167999 -0.2884524 5.4240675 16777215
 1.8230003 -0.2891707 5.4475965 16777215
 1.8266150 -0.2911395 5.4708433 16777215
 1.8297597 -0.2891839 5.4876904 16777215
 1.8463928 -0.2910324 5.5140991 16777215
 1.8597648 -0.2895221 5.5348840 16777215
 1.8690581 -0.2980208 5.5619006 16777215
 1.8751569 -0.2992975 5.5782175 16777215
 1.8795010 -0.2970817 5.6056066 16777215
 1.8807585 -0.2976482 5.6295476 16777215
 1.8904046 -0.3023627 5.6663542 16777215
 1.8981135 -0.2985501 5.6967473 16777215
 1.9042822 -0.2995830 5.7206879 16777215
 1.9199264 -0.2991512 5.7450638 16777215
 1.9322559 -0.3034515 5.7783976 16777215
 1.9339947 -0.3042797 5.7965198 16777215
 1.9410783 -0.3049346 5.8287449 16777215
 1.9460850 -0.3102977 5.8602033 16777215
 1.9493873 -0.3106352 5.8820443 16777215
 1.9535856 -0.3079956 5.9075546 16777215
 1.9581439 -0.3052263 5.9298973 16777215
 1.9786603 -0.3044963 5.9702320 16777215
 1.9991002 -0.3087112 6.0071588 16777215
 2.0059156 -0.3108504 6.0264010 16777215
 2.0120876 -0.3113349 6.0639272 16777215
 2.0198836 -0.3140639 6.0995927 16777215
 2.0223665 -0.3084871 6.1251316 16777215
 2.0308263 -0.3088935 6.1535850 16777215
 2.0446556 -0.3101014 6.1881733 16777215
 2.0664086 -0.3098777 6.2204609 16777215
 2.0713451 -0.3139889 6.2430182 16777215
 2.0761094 -0.3109129 6.2701449 16777215
 2.0754974 -0.3104764 6.3135138 16777215
 2.0806422 -0.3182859 6.3445630 16777215
 2.0795763 -0.3204260 6.3859954 16777215
 2.0887954 -0.3177017 6.4198408 16777215
 2.1018744 -0.3227055 6.4593811 16777215
 2.1225679 -0.3269442 6.5026445 16777215
 2.1275795 -0.3298536 6.5403538 16777215
 2.1306014 -0.3299332 6.5732541 16777215
 2.1315608 -0.3312828 6.6130381 16777215
 2.1339865 -0.3336842 6.6398411 16777215
 2.1424019 -0.3342544 6.6684542 16777215
 2.1560497 -0.3367244 6.6931891 16777215
 2.1764314 -0.3383035 6.7197227 16777215
 2.1806917 -0.3331342 6.7453127 16777215
 2.1856318 -0.3326924 6.7752781 16777215
 2.1932542 -0.3289926 6.8091154 16777215
 2.1941295 -0.3401676 6.8494244 16777215
 2.2026248 -0.3439692 6.8775496 16777215
 2.2156575 -0.3394596 6.9021783 16777215
 2.2324154 -0.3424459 6.9394612 16777215
 2.2402530 -0.3466898 6.9662633 16777215
 2.2429876 -0.3442268 6.9873171 16777215
 2.2430556 -0.3427954 7.0138922 16777215
 2.2423098 -0.3467056 7.0558805 16777215
 2.2529333 -0.3505629 7.0862236 16777215
 2.2639298 -0.3496006 7.1220493 16777215
 2.2784939 -0.3470079 7.1556106 16777215
 2.2881021 -0.3523066 7.1798639 16777215
 2.2915509 -0.3480638 7.2051859 16777215
 2.2929928 -0.3491500 7.2471704 16777215
 2.2972941 -0.3530952 7.2787390 16777215
 2.3016772 -0.3573675 7.3138537 16777215
 2.3067865 -0.3570506 7.3345046 16777215
 2.3279905 -0.3550005 7.3747702 16777215
 2.3391824 -0.3555661 7.4087763 16777215
 2.3404565 -0.3555226 7.4363108 16777215
 2.3417759 -0.3570980 7.4756622 16777215
 2.3397479 -0.3590852 7.5068769 16777215
 2.3466485 -0.3591488 7.5434332 16777215
 2.3555443 -0.3592134 7.5714998 16777215
 2.3754988 -0.3584778 7.6026406 16777215
 2.3866544 -0.3635446 7.6260743 16777215
 2.3894157 -0.3605396 7.6573906 16777215
 2.3876848 -0.3598518 7.6910172 16777215
 2.3905883 -0.3658721 7.7323461 16777215
 2.3948531 -0.3659841 7.7554436 16777215
 2.4080248 -0.3615558 7.7896857 16777215
 2.4221182 -0.3673781 7.8178520 16777215
 2.4320319 -0.3633943 7.8424559 16777215
 2.4372952 -0.3586998 7.8781695 16777215
 2.4400816 -0.3604579 7.9204412 16777215
 2.4404650 -0.3625162 7.9546857 16777215
 2.4454026 -0.3620266 7.9821978 16777215
 2.4555497 -0.3644135 8.0133524 16777215
 2.4725492 -0.3651420 8.0472336 16777215
 2.4777498 -0.3704581 8.0703182 16777215
 2.4760575 -0.3698067 8.0894279 16777215
 2.4757674 -0.3698332 8.1166315 16777215
 2.4772801 -0.3734446 8.1471853 16777215
 2.4783843 -0.3732199 8.1692133 16777215
 2.4858942 -0.3718597 8.2023430 16777215
 2.4985456 -0.3698500 8.2323875 16777215
 2.5117283 -0.3740636 8.2652235 16777215
 2.5181160 -0.3721640 8.2902699 16777215
 2.5167058 -0.3706779 8.3280964 16777215
 2.5227807 -0.3697809 8.3632584 16777215
 2.5307517 -0.3694459 8.3978577 16777215
 2.5384521 -0.3698918 8.4300766 16777215
 2.5498316 -0.3730918 8.4578476 16777215
 2.5575094 -0.3766176 8.4838943 16777215
 2.5600724 -0.3767297 8.5146446 16777215
 2.5581102 -0.3785578 8.5577049 16777215
 2.5625837 -0.3794725 8.5809298 16777215
 2.5660214 -0.3775508 8.6051579 16777215
 2.5808611 -0.3758404 8.6338978 16777215
 2.5950360 -0.3773018 8.6657658 16777215
 2.5979712 -0.3761925 8.6938152 16777215
 2.5958145 -0.3736963 8.7215500 16777215
 2.5985622 -0.3761301 8.7451582 16777215
 2.5949352 -0.3759859 8.7714090 16777215
 2.5984688 -0.3763614 8.7927418 16777215
 2.6015873 -0.3752434 8.8172493 16777215
 2.6107020 -0.3774011 8.8474617 16777215
 2.6191332 -0.3772690 8.8741150 16777215
 2.6221495 -0.3767812 8.8958330 16777215
 2.6233737 -0.3744716 8.9279718 16777215
 2.6310816 -0.3741208 8.9561815 16777215
 2.6382952 -0.3747869 8.9883165 16777215
 2.6463766 -0.3733550 9.0153999 16777215
 2.6626010 -0.3750221 9.0397739 16777215
 2.6773820 -0.3741389 9.0622940 16777215
 2.6811571 -0.3732896 9.0852661 16777215
 2.6776357 -0.3742558 9.1063786 16777215
 2.6745172 -0.3720335 9.1202917 16777215
 2.6749406 -0.3697853 9.1317434 16777215
 2.6778629 -0.3695053 9.1338720 16777215
