# .PCD v0.7 - Point Cloud Data file format
VERSION 0.7
FIELDS x y z rgb
SIZE 4 4 4 4
TYPE F F F F
COUNT 1 1 1 1
WIDTH 1197
HEIGHT 1
VIEWPOINT 0 0 0 1 0 0 0
POINTS 1197
DATA ascii
3.4076648 -21.565521 7.035696 16711746
16.568014 -36.081116 2.8022566 16711746
25.856464 -35.38113 5.1365113 16711746
4.3288336 -25.382795 10.601645 16711746
7.517344 -26.227234 7.0690985 16711746
12.581463 -26.263231 4.1785755 16711746
30.956825 -42.14822 4.5186849 16711746
22.635654 -35.886227 6.9806461 16711746
19.385052 -31.686487 4.4119315 16711746
62.226009 -139.49518 36.052612 16711746
17.138048 -37.902065 27.801714 16711746
11.254768 -23.752968 5.2890115 16711746
6.859931 -30.35128 7.5588303 16711746
18.728128 -31.782993 5.572525 16711746
14.341801 -24.520514 5.3103271 16711746
18.590618 -30.33132 10.181565 16711746
15.321495 -34.519707 5.6285381 16711746
18.89953 -54.597008 16.642929 16711746
38.565029 -62.500202 14.523205 16711746
26.338278 -64.99939 23.819984 16711746
15.041548 -29.93527 6.2738938 16711746
10.607435 -37.803608 11.662364 16711746
14.85874 -31.057129 10.980759 16711746
23.166658 -38.34779 8.9761744 16711746
21.599779 -31.855663 4.232697 16711746
21.242037 -37.023293 9.0183516 16711746
1.5304062 -8.9382105 9.8690538 16711746
-12.271714 -37.384338 16.372993 16711746
12.452172 -34.602509 7.3069839 16711746
28.203754 -68.218475 19.991098 16711746
7.4265141 -28.572777 10.983545 16711746
8.7342138 -31.882496 12.25755 16711746
23.673731 -46.639961 12.651555 16711746
19.496748 -42.9496 13.69486 16711746
17.972717 -41.119537 13.928858 16711746
10.946409 -25.488487 12.93514 16711746
24.164291 -40.82653 11.072372 16711746
10.497433 -30.817299 10.409634 16711746
10.117366 -27.183432 7.4071507 16711746
12.78922 -31.325319 6.105391 16711746
4.3197241 -28.509274 10.739317 16711746
40.787285 -70.273552 18.952963 16711746
-5.8868918 -31.494841 6.3707395 16711746
13.410828 -29.679319 3.6933942 16711746
3.9165299 -24.630659 11.061478 16711746
12.679304 -28.304195 6.4321795 16711746
12.463052 -29.218992 6.7098393 16711746
7.0136704 -29.851519 4.816371 16711746
8.6196337 -27.420645 11.070185 16711746
13.353455 -32.227249 9.492732 16711746
12.955412 -32.458122 11.938145 16711746
22.732883 -35.659164 6.8671279 16711746
15.935654 -32.457184 6.7506194 16711746
11.221863 -31.567886 4.4432683 16711746
23.888676 -50.313484 11.447687 16711746
21.775602 -44.674309 9.4900742 16711746
22.484371 -44.895504 12.954068 16711746
56.99593 -99.06675 23.236166 16711746
-3.7282186 -25.148333 16.462072 16711746
0.97966993 -12.466872 8.6298981 16711746
47.799076 -93.000648 21.852816 16711746
1.2459543 -10.713035 9.3212433 16711746
-10.380538 -90.601883 -11.258673 16711746
4.2709403 -8.6439648 10.265842 16711746
14.278216 -33.962479 12.131229 16711746
4.6750073 -36.222359 11.712927 16711746
38.253666 -79.223305 22.501535 16711746
11.137352 -24.287601 20.485069 16711746
8.9168873 -24.766123 7.9832544 16711746
24.608 -39.042755 11.679006 16711746
7.5612674 -15.858125 16.188505 16711746
16.228809 -32.267124 5.8133144 16711746
13.444273 -34.488956 11.253281 16711746
3.8839905 -40.114876 12.965024 16711746
22.647114 -43.589569 11.565173 16711746
9.1343327 -30.014517 11.000467 16711746
8.4578333 -17.885752 17.414791 16711746
6.4216361 -16.876818 12.772223 16711746
9.2669058 -19.656837 18.750582 16711746
8.4184103 -18.074442 18.131702 16711746
-11.312391 -48.735462 23.626396 16711746
22.16502 -55.61132 35.340771 16711746
12.042827 -23.829107 9.3924694 16711746
12.649345 -29.817907 7.9116659 16711746
-7.7640772 -85.518089 27.522642 16711746
2.5254016 -26.551023 9.6817541 16711746
73.045395 -184.74699 29.484388 16711746
10.084558 -30.254831 10.241358 16711746
10.039607 -30.5084 10.095236 16711746
7.5249829 -30.074553 8.5792675 16711746
15.897321 -62.083019 23.642967 16711746
9.1125736 -30.821692 10.987236 16711746
7.4068809 -35.575729 7.3238273 16711746
12.291023 -40.662457 13.704775 16711746
16.484333 -39.020596 12.583508 16711746
7.4249854 -32.495552 10.760825 16711746
14.845407 -48.088837 15.717895 16711746
4.3281503 -31.96339 9.5356894 16711746
10.705813 -33.308441 9.8939276 16711746
8.3005209 -37.001045 12.428146 16711746
3.6316087 -31.622532 8.820857 16711746
19.006857 -47.801498 17.387041 16711746
21.948444 -43.178108 13.897136 16711746
12.186543 -39.442238 14.417736 16711746
9.8781004 -38.808903 12.925111 16711746
3.7930298 -28.704653 12.711295 16711746
-7.0337229 -48.857418 15.971856 16711746
31.495449 -115.40009 37.303917 16711746
14.825466 -34.872074 9.4793215 16711746
13.756915 -34.914642 13.783539 16711746
-7.6480379 -40.657307 20.054033 16711746
28.762148 -93.727196 28.011076 16711746
7.2258735 -32.547672 7.1532292 16711746
20.026316 -36.720764 7.3286219 16711746
9.9333677 -27.198488 13.468986 16711746
14.342422 -34.097569 13.594115 16711746
7.5546312 -29.224899 9.6569195 16711746
24.158365 -38.261868 8.470211 16711746
16.173389 -32.837616 9.6975269 16711746
11.658446 -27.320265 8.2267065 16711746
4.3369141 -13.905856 13.640055 16711746
5.0030432 -10.212357 13.239632 16711746
9.6292429 -26.16559 7.7652693 16711746
7.3965645 -35.00008 6.7771039 16711746
-1.6067479 -20.153624 12.538772 16711746
11.945895 -37.409119 14.959898 16711746
22.150076 -48.982754 12.141051 16711746
22.037436 -58.005154 15.978786 16711746
-10.206676 -31.17186 9.8858194 16711746
2.124676 -17.054922 10.417131 16711746
2.0339429 -23.33054 10.120734 16711746
12.196049 -30.883926 11.431591 16711746
-2.9254642 -16.252672 11.044083 16711746
8.5620213 -30.788025 10.234953 16711746
6.1552539 -29.315044 7.7872438 16711746
9.2141972 -41.257801 12.414804 16711746
28.321045 -81.94857 21.991909 16711746
-0.14539754 -21.463919 8.8225145 16711746
2.359381 -27.302774 9.8285732 16711746
31.516691 -73.705597 26.006363 16711746
2.4720778 -23.47677 11.959327 16711746
17.502098 -39.805412 38.565315 16711746
49.778641 -81.304459 33.487061 16711746
2.3451312 -9.6526232 11.431566 16711746
21.066595 -43.238331 13.073883 16711746
11.438256 -18.406467 13.473738 16711746
16.227007 -19.744371 10.216581 16711746
12.32734 -26.626041 9.2878761 16711746
-6.1672282 -23.560564 9.2408123 16711746
24.950443 -54.941109 14.141715 16711746
13.785957 -32.80896 10.343944 16711746
21.249783 -48.691208 41.470943 16711746
7.6495337 -24.916794 14.423295 16711746
21.22401 -52.157333 18.277567 16711746
24.268526 -92.164459 30.853172 16711746
3.7360544 -11.034572 11.205813 16711746
16.141769 -27.391356 25.042046 16711746
4.5087233 -9.0233202 12.382204 16711746
13.124828 -24.995316 19.585466 16711746
5.1583614 -16.037323 10.854648 16711746
5.721766 -17.781857 12.285667 16711746
7.0495872 -17.961756 12.002662 16711746
5.1601176 -16.980925 11.332485 16711746
6.2752018 -17.778704 12.497332 16711746
5.3286219 -15.743349 10.863398 16711746
5.5807781 -16.639605 10.984275 16711746
5.5606341 -21.51228 11.786612 16711746
6.8188586 -17.370926 11.990347 16711746
7.5883932 -22.526396 15.64284 16711746
6.4727793 -16.541159 10.759388 16711746
7.1335201 -17.456205 11.533413 16711746
8.8740788 -18.019873 11.056794 16711746
10.630245 -17.503296 10.321737 16711746
7.7758598 -19.610752 13.156013 16711746
7.350728 -18.249922 10.933899 16711746
6.5397072 -16.764559 10.659444 16711746
9.1272039 -22.610775 14.753289 16711746
7.2920957 -17.934948 11.477392 16711746
8.8494215 -19.740948 13.229774 16711746
5.5558691 -16.98494 11.196786 16711746
5.5711474 -16.74416 10.927026 16711746
9.6414967 -19.883526 12.032653 16711746
5.7030158 -25.766178 10.311738 16711746
6.0866728 -19.696913 13.266647 16711746
14.332583 -32.174778 17.331261 16711746
-4.447794 -20.483124 14.45234 16711746
5.260736 -17.328785 11.287739 16711746
5.6517367 -15.829381 10.917457 16711746
12.159454 -30.019983 22.249102 16711746
15.534633 -26.473484 14.955379 16711746
-4.2313218 -35.282467 9.1282415 16711746
7.3471355 -20.392464 14.501849 16711746
5.8125944 -18.536505 12.280562 16711746
4.5353088 -20.926176 12.071492 16711746
12.765964 -30.143578 19.256376 16711746
11.011464 -55.633175 28.81431 16711746
-6.5074191 -34.391628 18.982571 16711746
7.9413462 -18.298504 12.265587 16711746
12.416996 -22.360226 17.570955 16711746
8.4357491 -19.518585 12.313285 16711746
10.43798 -19.636185 14.049587 16711746
10.030382 -22.23522 15.051636 16711746
19.537989 -49.08942 39.757671 16711746
11.088314 -20.136728 14.219629 16711746
9.6874647 -19.657907 13.426188 16711746
4.9823337 -17.301516 10.697931 16711746
7.9287286 -16.978756 11.300079 16711746
9.3141747 -19.797729 13.632257 16711746
7.9507642 -19.850506 13.650862 16711746
9.7218571 -18.780628 13.024158 16711746
6.8769898 -16.132307 10.983295 16711746
14.028285 -30.389338 23.786991 16711746
5.4186654 -18.411144 11.226185 16711746
9.5648947 -23.060551 13.921299 16711746
6.8945832 -19.182446 13.017014 16711746
11.154114 -23.160797 14.839775 16711746
14.010096 -21.87797 17.68042 16711746
10.026911 -25.254824 17.322216 16711746
12.775925 -20.138626 15.360905 16711746
9.6478405 -20.652996 14.879984 16711746
7.8094473 -19.386417 13.572533 16711746
16.157936 -27.863014 25.181194 16711746
15.407158 -37.252331 31.076986 16711746
12.823571 -23.093405 17.716265 16711746
14.708861 -31.457617 24.704386 16711746
9.8762331 -19.260494 13.469417 16711746
9.7392054 -24.110886 15.580184 16711746
8.820878 -19.497894 13.831104 16711746
21.270746 -35.343575 31.088652 16711746
6.8118324 -17.543106 11.357014 16711746
8.551939 -19.825743 12.319292 16711746
9.1990404 -22.143385 13.048391 16711746
9.8375425 -23.277033 15.991603 16711746
5.7329011 -16.165022 10.866468 16711746
5.566503 -17.069323 10.873616 16711746
18.978504 -32.404476 30.48004 16711746
9.7748289 -18.141275 11.94007 16711746
14.56792 -32.753635 26.728958 16711746
41.195492 -51.017818 33.543907 16711746
9.8825016 -17.537788 11.950143 16711746
6.5691214 -16.921606 10.682058 16711746
9.0171852 -18.945284 12.555618 16711746
5.2105117 -16.670202 11.365075 16711746
7.6710939 -18.580013 10.831509 16711746
9.7396755 -18.679165 11.731051 16711746
12.284403 -17.996481 13.184837 16711746
5.0161719 -17.027748 10.921252 16711746
12.586879 -16.289589 15.34181 16711746
16.355309 -21.580315 17.270662 16711746
12.440413 -19.561235 16.860929 16711746
12.088265 -21.36504 16.847822 16711746
16.458597 -21.607899 17.31863 16711746
5.3938918 -17.961304 11.249117 16711746
0.7664969 -17.973019 13.517519 16711746
6.8629441 -23.302111 14.572835 16711746
5.6762476 -22.593285 14.534152 16711746
9.9251957 -19.20303 13.665652 16711746
9.4194775 -19.640862 13.194572 16711746
9.0852537 -18.442381 11.004125 16711746
7.1453557 -19.080971 11.617683 16711746
5.0934176 -16.743862 12.445414 16711746
4.7940631 -17.228464 12.167343 16711746
5.9913111 -17.846735 12.884877 16711746
9.6003428 -27.764835 15.394453 16711746
3.5080378 -13.608559 14.062923 16711746
-1.4782379 -19.789249 13.699975 16711746
3.8005984 -21.454216 12.477887 16711746
4.8439078 -19.189619 10.466199 16711746
8.6087475 -18.570246 11.178175 16711746
9.0894785 -23.281916 10.022039 16711746
11.648184 -18.258381 16.981607 16711746
1.2094678 -19.241302 12.161953 16711746
6.830864 -20.759371 13.708928 16711746
1.4794827 -20.670456 13.64453 16711746
5.0850677 -16.458485 12.435947 16711746
7.5911846 -17.693405 17.182796 16711746
8.3161325 -19.911741 10.724025 16711746
4.3222814 -19.691334 11.011036 16711746
6.6933708 -17.472113 11.122604 16711746
10.679934 -16.394836 12.746012 16711746
9.5079222 -18.374495 13.020879 16711746
6.852098 -27.125755 23.821915 16711746
8.34548 -21.207384 16.197824 16711746
1.4560013 -20.767843 13.631382 16711746
2.4882889 -17.391224 13.081431 16711746
10.054379 -17.807028 12.429444 16711746
5.4544516 -21.974098 15.0922 16711746
7.2907791 -20.793308 14.773829 16711746
3.768116 -23.458002 13.937179 16711746
2.730993 -19.936407 12.173978 16711746
4.8029542 -17.551508 12.15411 16711746
10.387891 -20.870104 11.547082 16711746
8.2248335 -19.57976 14.806374 16711746
13.725579 -22.766861 12.627514 16711746
9.4068127 -22.507782 10.787089 16711746
2.984951 -19.832605 12.643886 16711746
10.071552 -20.986456 23.54003 16711746
7.5811601 -24.183966 19.178679 16711746
3.3308852 -15.534068 14.50527 16711746
3.7380188 -22.422928 13.85326 16711746
3.7656813 -21.720387 15.059292 16711746
6.2252469 -22.536154 15.464006 16711746
4.3493104 -18.865648 11.065884 16711746
0.21070401 -21.280792 13.254028 16711746
5.0749955 -16.208555 12.467585 16711746
9.1817484 -19.584183 12.143988 16711746
5.7371907 -35.887794 18.549017 16711746
11.586839 -19.391825 17.239122 16711746
1.1227423 -18.629293 14.276939 16711746
9.4941874 -20.017157 14.817942 16711746
14.848257 -19.696609 16.607836 16711746
4.9362874 -17.851393 13.376674 16711746
3.1158023 -19.189634 12.599378 16711746
4.4059496 -15.901619 12.179154 16711746
-0.39373159 -20.703156 16.659752 16711746
17.586977 -40.273151 35.386681 16711746
7.5652761 -15.190946 19.510719 16711746
13.376601 -24.084799 18.10141 16711746
7.9172192 -26.010826 19.880301 16711746
4.3767548 -18.476393 12.068038 16711746
3.51455 -19.652357 11.891458 16711746
8.2016735 -16.226768 13.102854 16711746
5.0542307 -23.815943 15.055809 16711746
0.53584218 -26.505507 17.19968 16711746
1.2615207 -18.405369 14.213022 16711746
-1.7377443 -31.121506 15.908252 16711746
4.5476422 -20.755636 10.378928 16711746
6.8225126 -18.30891 14.365889 16711746
0.49144003 -20.181568 13.185572 16711746
1.9685484 -18.569593 12.169457 16711746
7.7239208 -23.248392 16.422831 16711746
10.44973 -20.927891 11.576551 16711746
6.9617405 -17.840527 11.880931 16711746
-0.37614465 -20.700623 16.575394 16711746
18.265732 -41.323574 34.614899 16711746
4.2139735 -15.318245 15.434206 16711746
10.202656 -27.50478 19.888218 16711746
10.574782 -24.211432 17.653614 16711746
5.0720177 -17.767139 17.683544 16711746
6.3495317 -26.185476 20.285036 16711746
12.827974 -27.773149 30.579306 16711746
8.6381426 -18.859766 14.130016 16711746
10.668635 -18.777657 13.146245 16711746
3.203007 -22.116312 15.317415 16711746
3.4611087 -14.433798 14.018614 16711746
-0.9157325 -18.369522 12.551347 16711746
1.917608 -18.411501 12.337008 16711746
1.0930655 -24.056435 12.126372 16711746
3.5469069 -20.106728 12.608619 16711746
6.4624901 -23.237572 16.141165 16711746
3.5811069 -14.127206 14.421357 16711746
-2.3022034 -20.069689 12.948282 16711746
1.8762543 -17.791815 13.4548 16711746
16.752302 -20.350315 14.737518 16711746
12.007364 -26.447918 17.357031 16711746
8.2212858 -24.433014 15.342479 16711746
10.092299 -15.187537 12.395281 16711746
10.270369 -27.909641 20.130077 16711746
8.0476847 -26.665751 20.223059 16711746
6.2715869 -23.326212 17.646029 16711746
6.669364 -29.501553 21.59646 16711746
10.139783 -20.683102 19.343462 16711746
3.5319753 -16.680605 15.283759 16711746
6.0246615 -22.184196 17.296453 16711746
5.7612867 -21.581459 16.430231 16711746
10.818419 -17.564922 12.699405 16711746
13.317576 -19.649662 13.209841 16711746
16.761763 -38.159492 33.793091 16711746
20.098747 -28.404705 26.3379 16711746
3.4002213 -15.607665 18.0965 16711746
15.16638 -20.65126 18.869329 16711746
3.8486879 -31.701988 21.269798 16711746
1.4398535 -36.665516 24.858974 16711746
8.696949 -33.643398 25.139496 16711746
5.5542145 -16.396744 11.037951 16711746
10.395958 -18.562094 11.964441 16711746
9.9397593 -20.196928 13.436216 16711746
13.22122 -23.928465 18.089155 16711746
5.5746908 -16.728491 10.966969 16711746
5.7722754 -17.822769 11.811615 16711746
7.4960294 -18.52529 11.405704 16711746
2.7266841 -19.574379 12.901545 16711746
1.843369 -18.696053 12.299209 16711746
8.6939983 -22.497238 16.488129 16711746
5.9900293 -21.348125 15.214854 16711746
-3.7591548 -23.614204 16.386402 16711746
2.1177599 -17.501078 12.329291 16711746
7.8837886 -21.64653 15.486133 16711746
8.4100599 -21.583872 15.348933 16711746
7.6951513 -18.893423 13.953713 16711746
-1.1305066 -19.937216 13.832062 16711746
-2.714735 -22.6082 13.545159 16711746
1.97384 -18.105921 12.298967 16711746
4.7855706 -14.210753 15.885081 16711746
7.3752441 -30.270754 24.321951 16711746
8.7301235 -20.100931 11.47578 16711746
7.8179865 -16.499296 13.70919 16711746
6.0538669 -22.728237 13.102425 16711746
13.673292 -17.178467 18.11795 16711746
10.027627 -19.309761 14.512955 16711746
3.5081978 -11.529655 13.397732 16711746
7.4327192 -22.461069 15.5115 16711746
-0.069877774 -22.672768 14.81399 16711746
5.8941875 -17.583103 12.900292 16711746
6.8481917 -29.710701 20.415838 16711746
9.960536 -19.967333 11.594021 16711746
5.5080676 -23.337145 15.40049 16711746
-1.3099707 -21.234007 12.807918 16711746
8.75805 -19.531248 14.130486 16711746
5.6006517 -19.440933 16.099041 16711746
9.0632915 -18.741816 21.625912 16711746
-3.1310654 -20.528229 13.901625 16711746
7.2496095 -24.539133 17.43606 16711746
-2.3599293 -22.372999 13.984101 16711746
0.40928155 -15.366119 13.520966 16711746
7.4185586 -18.869413 11.355981 16711746
-6.5750194 -24.445307 21.720037 16711746
-3.6454115 -21.914881 17.481457 16711746
5.0755801 -16.666124 19.507549 16711746
7.2173138 -26.012794 21.490458 16711746
4.0769682 -18.28816 13.806195 16711746
3.4724967 -24.88998 14.358614 16711746
3.6649921 -16.286678 12.944245 16711746
-3.2108867 -26.125345 18.711699 16711746
-4.886466 -22.709637 18.993801 16711746
4.7194872 -14.30831 15.86785 16711746
5.5641093 -17.262293 12.222173 16711746
11.114829 -18.92576 15.37736 16711746
17.35836 -20.785917 20.106623 16711746
5.5792236 -17.298248 18.202305 16711746
16.961592 -22.94953 19.598148 16711746
10.915879 -18.18651 12.598072 16711746
-0.99432635 -20.756441 15.930845 16711746
-12.480617 -24.612991 10.250154 16711746
4.3224211 -14.797379 12.200591 16711746
5.2632914 -16.728075 11.531009 16711746
5.5192795 -16.851381 11.873111 16711746
-1.5289444 -16.894855 13.598267 16711746
2.4942935 -17.324358 13.022901 16711746
8.0845356 -20.385677 17.244509 16711746
8.1748095 -19.76055 14.738267 16711746
-5.7565284 -24.185511 16.261354 16711746
0.55607861 -20.644999 14.096277 16711746
7.9951849 -17.159683 13.576376 16711746
-0.87863404 -20.696842 15.901217 16711746
5.5752611 -17.132198 11.169989 16711746
7.3919897 -25.857647 17.90221 16711746
-5.5635471 -23.394672 17.990784 16711746
10.986043 -26.998402 17.640768 16711746
9.0116234 -20.727156 15.174793 16711746
1.0221376 -21.592697 13.673057 16711746
11.603736 -20.825304 17.011957 16711746
6.0934763 -22.177919 16.53698 16711746
6.3054442 -24.623177 15.945211 16711746
-10.557971 -22.522125 20.899931 16711746
-1.9715294 -19.236591 15.997621 16711746
-1.5410008 -20.096634 13.863232 16711746
-14.671 -21.679016 20.671686 16711746
-1.1430384 -21.217117 15.87287 16711746
6.4170442 -16.812748 12.775352 16711746
2.0265236 -17.49345 10.873579 16711746
-1.12877 -20.093643 13.89687 16711746
1.3203636 -17.778034 13.796062 16711746
2.0600843 -17.124502 12.032048 16711746
5.8475013 -19.039482 17.366718 16711746
-0.34615809 -20.812847 16.130899 16711746
2.4385769 -20.304539 10.70917 16711746
6.7575345 -16.889187 13.143879 16711746
2.193773 -16.486744 12.070268 16711746
8.6686068 -17.807642 14.310492 16711746
9.8613319 -18.9097 13.871822 16711746
7.4292264 -17.539478 13.645337 16711746
5.3877993 -21.569918 15.04643 16711746
3.8287926 -18.492477 11.039922 16711746
-7.7789245 -23.422068 16.481419 16711746
1.3079302 -18.622953 13.764398 16711746
-7.9047194 -22.016212 14.249598 16711746
3.2465103 -14.746676 12.01827 16711746
1.506025 -17.969309 10.863772 16711746
4.9068151 -16.554359 12.268524 16711746
8.6772766 -18.176268 15.254247 16711746
4.2847404 -16.744982 14.407487 16711746
8.2713032 -19.294428 12.876653 16711746
3.3029234 -16.639925 12.1548 16711746
2.5417554 -19.531862 10.835048 16711746
6.5961676 -22.532602 13.411429 16711746
4.3700943 -20.639536 15.359127 16711746
-1.3361181 -18.25243 15.704162 16711746
-9.1540499 -21.088556 15.509162 16711746
5.8304009 -21.408247 16.692869 16711746
2.6823244 -18.531776 10.959134 16711746
-4.9983749 -21.27413 13.651714 16711746
2.447535 -14.522285 12.479686 16711746
4.3040705 -18.44585 14.859683 16711746
0.35000956 -20.149651 15.209927 16711746
5.5320511 -16.692739 11.907018 16711746
4.0391893 -20.349617 11.379449 16711746
5.0060873 -20.14963 12.126101 16711746
-1.2771299 -18.561293 12.057428 16711746
6.6349006 -16.752291 12.588702 16711746
-12.664453 -22.166393 15.057105 16711746
-7.6840477 -22.703119 16.268105 16711746
-6.0939946 -13.193968 14.482457 16711746
0.47138742 -22.960306 10.778057 16711746
4.8602514 -23.780409 15.088692 16711746
3.2738156 -22.820036 14.630913 16711746
6.9048805 -20.286619 14.806911 16711746
4.1303396 -18.941633 11.487044 16711746
7.3665137 -18.773804 12.570498 16711746
-2.6702015 -21.153316 15.71093 16711746
4.2313948 -19.513655 11.333315 16711746
7.7150483 -18.626654 14.224672 16711746
4.4320345 -19.741344 11.296207 16711746
9.4373512 -19.919184 14.105914 16711746
4.4373837 -13.866566 14.989484 16711746
-5.0565124 -25.808805 16.829575 16711746
2.5636995 -14.477743 14.206688 16711746
0.28740317 -21.717518 14.700771 16711746
7.7183805 -17.168858 14.676126 16711746
-8.9157095 -15.374463 15.742684 16711746
0.23287006 -18.136497 13.107962 16711746
-3.6522086 -21.464792 14.025105 16711746
2.3780587 -14.909632 14.293541 16711746
10.864876 -15.536923 14.246824 16711746
15.565978 -34.424484 26.232162 16711746
8.0436707 -19.564211 12.088568 16711746
17.409014 -40.145855 40.22575 16711746
1.7017779 -22.232729 10.756062 16711746
1.6851959 -22.341253 12.46593 16711746
-0.6403988 -20.59346 13.77715 16711746
1.7077259 -14.878666 11.604136 16711746
-2.8509078 -15.006203 11.767116 16711746
-6.9405928 -20.430132 12.268827 16711746
3.0075769 -13.637308 13.051799 16711746
4.5926595 -11.694531 14.460876 16711746
3.6844327 -17.225239 17.994772 16711746
5.2844782 -14.602178 16.668465 16711746
-1.2759925 -16.739151 13.569949 16711746
-5.485723 -20.216248 10.167785 16711746
5.0561013 -23.530277 23.309174 16711746
4.9421635 -11.67967 15.1926 16711746
4.6704292 -12.459721 14.720856 16711746
0.0042257733 -18.509443 11.400092 16711746
0.35101098 -18.361553 13.416905 16711746
2.4381504 -16.998755 12.678596 16711746
-0.62773013 -19.601526 11.384438 16711746
9.5587645 -23.222399 19.910883 16711746
-0.75318372 -21.698805 14.250461 16711746
4.2780299 -18.995874 16.986856 16711746
2.3551679 -19.327065 12.575547 16711746
-5.3485718 -23.132357 15.355188 16711746
-6.8325906 -25.894194 20.296413 16711746
5.1336193 -14.587857 16.879097 16711746
1.5739963 -15.975351 12.241629 16711746
1.5189558 -17.310551 12.03729 16711746
1.9475312 -16.984943 11.61059 16711746
-7.0214167 -23.744003 12.717072 16711746
-1.9643656 -21.759708 12.071035 16711746
-0.4653784 -16.053011 11.242379 16711746
-0.87228167 -18.214874 11.584482 16711746
4.8521047 -17.275946 12.225191 16711746
5.1520214 -17.279482 11.362763 16711746
-2.5292735 -23.885599 16.56682 16711746
9.7232981 -17.630781 14.902389 16711746
-6.7877035 -20.72246 14.074389 16711746
-3.3396122 -22.21034 13.691638 16711746
-6.1960874 -20.789465 15.809842 16711746
1.1333586 -18.964922 14.281195 16711746
3.3646188 -25.535414 12.210972 16711746
-6.6248102 -22.426542 15.891364 16711746
9.8994484 -31.062689 19.713017 16711746
-0.73693568 -21.424963 16.774916 16711746
1.333796 -20.013741 11.756971 16711746
5.2628264 -18.218084 11.841644 16711746
2.7798557 -19.840355 12.076032 16711746
11.783351 -30.094067 23.284117 16711746
9.1985979 -19.403816 14.144362 16711746
-7.488215 -22.776745 11.381405 16711746
15.83045 -35.468464 30.898029 16711746
20.015612 -25.661215 21.514708 16711746
7.564723 -26.454031 16.095425 16711746
3.9422932 -15.929935 12.437854 16711746
11.731811 -20.011295 16.121658 16711746
24.219967 -28.069685 16.206285 16711746
10.008778 -32.054867 20.198927 16711746
-5.4923749 -12.91552 14.661165 16711746
7.3057714 -24.155375 13.81059 16711746
14.830907 -18.489292 16.107113 16711746
6.6670895 -15.318342 12.541709 16711746
6.6598225 -15.645929 12.912333 16711746
-5.1862659 -17.531179 12.077512 16711746
5.6950412 -17.750767 12.421045 16711746
-0.33344865 -19.680822 11.71205 16711746
-0.34890649 -18.128529 11.846845 16711746
5.2602611 -13.436763 12.803488 16711746
1.5999318 -21.8328 11.762804 16711746
-12.43308 -18.171125 16.474386 16711746
-3.9076045 -22.96707 16.219093 16711746
14.773816 -18.979948 13.804452 16711746
5.7304869 -15.719949 12.161073 16711746
-0.64108342 -18.309322 11.732998 16711746
9.1838312 -19.482212 13.994544 16711746
16.680466 -21.628555 14.65576 16711746
6.4160872 -19.279085 13.410008 16711746
5.4964972 -22.883169 16.301001 16711746
5.598712 -17.05756 12.457327 16711746
9.4956236 -13.273166 12.875813 16711746
5.1734285 -17.562597 12.902148 16711746
6.6965923 -18.132172 15.180593 16711746
2.5820312 -25.639208 14.857113 16711746
18.012953 -29.689966 25.89097 16711746
15.938835 -21.071758 16.247145 16711746
-1.4632473 -19.556471 10.474616 16711746
-3.7763803 -22.029085 13.954927 16711746
-13.49317 -26.011288 9.6600218 16711746
-5.1568632 -23.225557 15.294224 16711746
6.9646921 -29.420765 14.580229 16711746
-5.0469389 -21.113255 10.291101 16711746
10.547054 -22.287327 12.375462 16711746
-0.41211459 -20.399607 13.769652 16711746
-9.3975487 -22.870699 17.936075 16711746
-7.6272063 -21.977663 10.339901 16711746
-6.5404911 -21.693552 11.321411 16711746
-1.9974444 -21.81951 10.181952 16711746
5.8677707 -27.599693 17.226542 16711746
4.3262715 -18.269394 14.589382 16711746
-3.5807106 -22.580755 14.036135 16711746
-1.4202724 -19.636244 11.64811 16711746
4.1029811 -19.942484 16.79808 16711746
2.7520838 -16.699303 18.225443 16711746
2.5153728 -30.336628 24.682026 16711746
-5.9706945 -21.308516 14.684553 16711746
-2.5068703 -24.553629 11.097586 16711746
6.5055404 -13.403996 16.346462 16711746
-1.438197 -18.10364 11.103953 16711746
7.0414715 -17.710257 13.447051 16711746
8.4904938 -18.546762 17.040745 16711746
9.7045774 -24.595169 21.968733 16711746
7.9315896 -23.443005 13.550034 16711746
7.655674 -23.890581 16.426819 16711746
10.559459 -21.12253 14.398437 16711746
9.4974518 -28.479704 19.126099 16711746
15.765764 -30.149124 24.092001 16711746
-10.283514 -22.651989 12.463964 16711746
9.5004129 -19.796682 11.491307 16711746
-1.4733407 -17.862673 11.871233 16711746
-11.309229 -27.274145 12.080811 16711746
7.3238015 -21.344366 13.84015 16711746
8.9136963 -22.43535 15.167112 16711746
-0.63902783 -17.95912 11.654856 16711746
-10.501719 -22.506546 10.959408 16711746
-11.854114 -24.287306 12.247612 16711746
8.9719896 -18.986502 13.945708 16711746
-3.6517575 -19.850267 11.901782 16711746
10.017569 -17.763445 12.046064 16711746
16.153948 -26.690754 24.423454 16711746
11.804038 -19.229248 12.72507 16711746
-1.8496391 -23.396954 12.433074 16711746
-17.49021 -26.580219 8.5769253 16711746
3.3813617 -29.527174 26.256977 16711746
-8.1308012 -38.756062 19.006006 16711746
11.404984 -27.29986 22.98881 16711746
8.2169609 -25.714249 15.810412 16711746
-4.2605715 -22.148113 20.156269 16711746
15.951262 -26.576614 20.120665 16711746
9.5272083 -22.589546 16.70063 16711746
9.2470551 -27.133041 18.722799 16711746
13.052122 -30.359917 23.505604 16711746
7.5192213 -20.504288 14.362213 16711746
11.182515 -20.813965 15.851024 16711746
13.510487 -25.029432 17.897694 16711746
8.9367714 -30.705681 17.599318 16711746
7.1498904 -32.746506 26.252068 16711746
-8.7125149 -22.956907 14.344088 16711746
14.203899 -21.82687 14.086983 16711746
7.5160666 -22.441933 15.930593 16711746
-10.453447 -21.608574 8.8374262 16711746
-5.2071023 -23.562836 10.801916 16711746
-8.8387718 -20.857695 11.574265 16711746
13.169518 -24.604496 16.581362 16711746
25.524839 -31.984247 21.997164 16711746
12.727775 -34.764114 22.025673 16711746
16.525705 -23.836605 16.417427 16711746
6.570715 -28.241909 19.899195 16711746
17.294823 -27.693279 22.782114 16711746
13.892567 -23.838408 16.992229 16711746
18.902065 -24.558325 18.230772 16711746
8.1068602 -26.531979 17.760279 16711746
8.7629957 -22.779634 15.459788 16711746
6.5563135 -28.523745 17.938402 16711746
6.6268768 -26.300518 19.985682 16711746
14.681008 -25.246197 17.294609 16711746
7.9648275 -20.753178 12.732941 16711746
7.6511264 -21.071646 13.52701 16711746
10.835164 -30.610373 21.324715 16711746
7.0023003 -18.785873 12.542643 16711746
7.2196259 -23.059013 13.821712 16711746
11.962507 -20.518351 13.260781 16711746
12.400469 -24.74999 14.638252 16711746
16.217718 -36.815445 33.062119 16711746
6.4285059 -28.023714 19.866707 16711746
11.897058 -33.714233 11.123779 16711746
-3.32601 -26.879755 24.216225 16711746
-3.6976774 -25.473166 25.515825 16711746
5.5672331 -27.361006 15.849133 16711746
5.7449117 -21.707964 13.321582 16711746
11.871091 -23.295139 14.628694 16711746
-8.9546041 -24.520967 13.552828 16711746
4.280508 -19.007109 15.613175 16711746
9.1621199 -36.08189 11.167884 16711746
5.0259533 -33.291439 29.695751 16711746
13.760793 -22.375742 14.63477 16711746
1.1971612 -29.580429 19.776901 16711746
15.314734 -24.866306 21.297544 16711746
5.6264462 -9.9726467 13.503265 16711746
15.573629 -34.512585 30.322462 16711746
24.411995 -27.917917 19.369253 16711746
8.8874025 -42.956982 33.06184 16711746
17.571445 -22.880644 18.579008 16711746
15.304777 -25.850826 19.68095 16711746
13.756516 -23.028269 18.620285 16711746
13.886314 -33.913269 29.989325 16711746
5.3509388 -10.620247 14.256362 16711746
10.233619 -22.46319 22.438934 16711746
11.772882 -27.129942 18.458994 16711746
11.316459 -29.678301 24.446012 16711746
20.561462 -26.385611 19.82971 16711746
9.4145594 -20.973425 13.765968 16711746
12.558033 -22.85141 14.664431 16711746
3.0016549 -14.211157 15.340783 16711746
4.7991238 -9.4721851 14.086815 16711746
4.5267572 -10.060581 14.0884 16711746
3.9221163 -11.031474 13.973596 16711746
12.721228 -29.792593 19.576653 16711746
10.407316 -26.463558 22.090067 16711746
8.0210114 -25.169033 17.471296 16711746
12.243646 -30.025812 22.19371 16711746
20.156132 -23.829523 18.100782 16711746
13.766563 -30.566488 16.899004 16711746
14.443507 -28.186821 18.09799 16711746
13.138741 -19.454079 15.575447 16711746
11.509478 -22.08872 21.001488 16711746
11.783219 -31.8822 19.122145 16711746
18.502028 -23.895617 16.513319 16711746
10.608537 -32.716228 18.657465 16711746
13.414103 -38.679745 23.715521 16711746
7.4015141 -22.994162 14.312315 16711746
14.370077 -40.087925 29.087093 16711746
13.740201 -34.615074 24.076225 16711746
18.13048 -32.187855 19.54059 16711746
19.291073 -25.024031 17.266918 16711746
23.590847 -30.289215 21.533939 16711746
9.2681847 -24.557281 15.952384 16711746
6.1534996 -25.189434 13.469691 16711746
6.692626 -26.469334 15.435371 16711746
9.8116484 -20.791111 14.154291 16711746
6.371366 -42.999245 25.947371 16711746
0.50484526 -16.169664 18.197248 16711746
6.5614824 -19.061399 14.246551 16711746
4.2863383 -16.452427 13.779969 16711746
8.7298241 -26.161964 15.417617 16711746
7.706037 -22.069149 14.041286 16711746
3.6697977 -17.084 13.508803 16711746
4.1187162 -16.623117 14.344192 16711746
7.7006731 -21.91576 14.915747 16711746
4.2643204 -16.876879 13.787579 16711746
4.6932802 -19.769413 13.390864 16711746
2.5640588 -16.207012 13.318931 16711746
-1.4890963 -23.55279 19.616886 16711746
3.566154 -14.768603 13.549255 16711746
10.471361 -27.209227 15.024103 16711746
-9.7410192 -19.00526 10.664163 16711746
-7.3683805 -27.725269 22.623814 16711746
-4.5342679 -16.831469 12.329423 16711746
-4.7276645 -20.255924 13.516603 16711746
-4.8611798 -18.655367 12.577496 16711746
-7.8280358 -18.242617 12.715943 16711746
4.4577146 -21.383833 12.468613 16711746
-1.0703975 -18.633291 13.675762 16711746
-0.30966529 -20.616762 13.421741 16711746
0.36836296 -17.353397 13.602859 16711746
2.0586147 -21.155668 12.968761 16711746
0.55376798 -19.676617 13.892344 16711746
2.6588423 -18.618576 13.393312 16711746
4.8884583 -14.949103 16.582052 16711746
2.2093196 -15.94017 13.359062 16711746
1.1205107 -17.762774 14.357773 16711746
-5.3822575 -17.197514 15.346246 16711746
-1.5836396 -21.541531 13.427539 16711746
3.7337363 -18.53281 16.615297 16711746
0.61007059 -20.069344 13.577023 16711746
-3.1367724 -20.865492 16.886454 16711746
-7.2133565 -19.857294 16.775564 16711746
-6.501328 -25.762129 17.624084 16711746
-2.558197 -19.338938 15.486502 16711746
1.0783169 -19.325191 13.016139 16711746
0.8516894 -18.251392 14.343832 16711746
0.48889583 -20.469755 13.293769 16711746
2.4085271 -17.424999 14.351724 16711746
-1.8123182 -21.193192 17.479532 16711746
-3.3425186 -21.165415 13.272228 16711746
-1.9570067 -19.15007 15.779253 16711746
0.85417044 -18.63661 15.76881 16711746
9.8650951 -26.444366 15.977214 16711746
-3.2963593 -20.155939 12.879447 16711746
-8.3880424 -18.583723 14.946805 16711746
-3.0644858 -17.324862 14.944703 16711746
13.682434 -25.769932 14.304794 16711746
7.0808611 -10.815631 15.261126 16711746
10.512609 -22.771349 15.16341 16711746
-4.1922665 -18.111557 15.562186 16711746
-2.8387558 -19.46818 15.397904 16711746
0.49463671 -17.103291 15.670141 16711746
0.0059889331 -20.63166 16.413219 16711746
0.051425491 -15.173603 16.043716 16711746
-1.0302761 -16.21549 15.399414 16711746
0.17801265 -14.909182 16.943693 16711746
-2.8705463 -19.739861 12.667031 16711746
10.556433 -21.164211 15.190287 16711746
-2.0916476 -16.181522 14.517926 16711746
8.0511637 -22.351017 15.015167 16711746
-8.0713034 -21.325317 16.919216 16711746
12.301428 -28.437443 14.475617 16711746
-9.0645847 -18.17013 16.952188 16711746
-7.5090756 -19.966745 10.910491 16711746
6.0321846 -11.844317 16.754301 16711746
-2.1043961 -17.909058 14.105784 16711746
-1.0270582 -19.435148 13.305558 16711746
13.142413 -24.801218 14.868749 16711746
14.081607 -28.783384 15.185405 16711746
-7.1219406 -19.207069 11.365573 16711746
-4.7155714 -19.059385 11.504186 16711746
-5.4923348 -17.645563 12.113572 16711746
-3.6159568 -19.766047 12.181785 16711746
-6.7517977 -17.540277 12.315488 16711746
-3.1066639 -19.430296 11.94205 16711746
-3.0961063 -20.540892 12.075598 16711746
15.998622 -20.700733 17.666407 16711746
-1.0626024 -25.234978 16.396145 16711746
-4.7619953 -17.655592 12.908059 16711746
-5.0929003 -17.135223 12.364017 16711746
16.763643 -42.653767 22.495224 16711746
-0.81380773 -42.547077 20.450165 16711746
13.768718 -44.913052 25.257372 16711746
14.996938 -43.750164 21.899229 16711746
16.956451 -43.907482 22.715345 16711746
14.496017 -64.068512 28.410995 16711746
14.355808 -29.476151 17.640455 16711746
23.23344 -58.322712 41.962063 16711746
20.523205 -39.560108 19.148817 16711746
-8.1288357 -21.304543 20.613155 16711746
6.0868011 -40.547108 25.854853 16711746
16.15206 -49.513458 31.903111 16711746
16.548435 -42.793858 22.317131 16711746
-6.1849151 -21.71303 13.367756 16711746
8.012229 -29.147343 17.137735 16711746
18.208931 -30.26787 15.199705 16711746
10.180893 -29.671743 16.346632 16711746
-3.0692666 -24.663656 13.270314 16711746
14.508605 -37.146629 19.349306 16711746
16.594894 -33.066971 19.117205 16711746
-12.516068 -18.015099 16.115658 16711746
7.1010084 -15.214246 19.380341 16711746
-3.9517267 -17.992569 12.716709 16711746
9.0048685 -30.301674 16.502623 16711746
-9.3876314 -23.927605 13.707679 16711746
4.9137421 -29.276329 16.01063 16711746
11.970907 -26.546612 16.52993 16711746
13.038065 -28.61768 15.392803 16711746
-8.5697842 -18.773369 14.66407 16711746
10.639386 -23.290545 14.389698 16711746
14.061096 -31.105917 15.492712 16711746
10.689839 -30.819096 15.280408 16711746
8.5532188 -28.206182 14.35347 16711746
-3.8013716 -24.282774 12.58075 16711746
-4.0684404 -21.555513 13.500372 16711746
7.366045 -38.017284 15.908272 16711746
1.434866 -74.242889 40.362019 16711746
14.385999 -34.897614 14.369096 16711746
16.629101 -42.341328 36.566795 16711746
-3.5701036 -25.403793 13.23355 16711746
4.6717315 -10.486468 15.398263 16711746
-6.6842093 -19.374529 12.385021 16711746
-5.476975 -20.892643 15.212382 16711746
-2.4739699 -17.810526 12.492828 16711746
-3.7142997 -17.211826 14.23854 16711746
-5.6082673 -22.950628 14.262978 16711746
4.3175225 -24.045631 19.166386 16711746
-7.4726877 -21.363386 10.594163 16711746
6.7193069 -32.203163 15.52377 16711746
17.54232 -41.830315 20.68482 16711746
-20.817398 -30.169756 24.962378 16711746
9.2832623 -19.815388 16.284826 16711746
7.8697577 -22.344027 17.373037 16711746
8.1814957 -19.839819 15.55776 16711746
15.479843 -69.645401 29.615749 16711746
-6.002255 -17.032171 13.198694 16711746
-6.025166 -17.591692 13.074501 16711746
-6.3903761 -19.948038 11.955707 16711746
17.397507 -21.277618 16.564825 16711746
-4.4936757 -15.872085 13.225001 16711746
6.2189002 -18.268568 15.920987 16711746
7.6201777 -23.146011 16.599751 16711746
5.6609139 -18.726635 16.903872 16711746
8.2092447 -21.645794 15.871873 16711746
7.0438576 -23.076805 16.118433 16711746
8.9837999 -22.880821 16.909052 16711746
6.7690487 -22.311073 16.031696 16711746
11.794225 -21.200592 18.496996 16711746
13.643537 -46.521011 23.364222 16711746
8.7649937 -15.025852 17.569336 16711746
4.9530272 -28.229708 16.971643 16711746
8.2301645 -23.911596 17.599064 16711746
4.8504109 -28.405729 17.065168 16711746
26.6322 -36.166252 14.831216 16711746
7.8977466 -36.484348 16.932606 16711746
11.566671 -31.487316 17.633013 16711746
9.4958267 -37.470379 16.543282 16711746
5.2906919 -28.750189 13.956778 16711746
7.8148718 -24.487675 16.596096 16711746
-3.8804197 -25.07712 16.688629 16711746
5.752377 -22.587915 16.302694 16711746
6.11064 -12.465346 17.488829 16711746
6.5993204 -20.658066 15.106535 16711746
16.673365 -38.948681 26.971518 16711746
12.500957 -34.112556 24.681639 16711746
12.524081 -44.36198 26.054081 16711746
7.3277712 -22.114307 15.750913 16711746
12.789027 -43.166897 31.119894 16711746
6.3649974 -12.488348 20.032888 16711746
7.1711016 -18.19997 20.752829 16711746
6.050993 -11.592084 18.06571 16711746
-0.32337251 -18.446411 17.525921 16711746
7.2685771 -14.815164 20.978155 16711746
-2.3923006 -16.365467 15.109015 16711746
4.8762555 -18.387001 15.966259 16711746
6.9726753 -16.78335 19.735683 16711746
27.752802 -66.133087 42.433239 16711746
8.2647734 -17.217911 19.735924 16711746
4.71983 -22.75802 20.49094 16711746
6.2892928 -18.046701 19.017559 16711746
5.7590799 -21.087975 17.145016 16711746
7.2564363 -14.657956 20.829683 16711746
5.3018427 -23.362875 23.6733 16711746
5.6301575 -15.340736 19.538162 16711746
-6.2512503 -18.762083 12.631274 16711746
-2.3670874 -18.345016 14.0601 16711746
5.5057192 -9.6682405 16.891287 16711746
5.7230864 -10.683434 17.758383 16711746
5.7718992 -11.369823 17.860018 16711746
-7.5597687 -25.055994 15.148895 16711746
7.7501774 -17.76162 21.226652 16711746
9.1875896 -15.166628 18.573713 16711746
6.6097217 -14.103298 18.424799 16711746
7.0049114 -16.952967 19.753416 16711746
4.6460004 -12.176514 16.700754 16711746
14.35411 -35.175606 26.801844 16711746
24.622057 -51.099598 35.979 16711746
8.7448483 -26.900175 21.024055 16711746
14.341118 -40.684948 37.753876 16711746
19.262098 -48.565826 52.93362 16711746
4.4454565 -10.778358 17.122955 16711746
5.6433263 -31.276484 17.791548 16711746
-7.5445671 -22.981104 14.828098 16711746
-5.1505971 -21.085993 19.030161 16711746
7.9072824 -33.424561 21.211084 16711746
-4.3972139 -37.881775 21.717112 16711746
15.045525 -31.078667 21.852091 16711746
12.581739 -21.388968 19.418591 16711746
8.2404881 -37.958961 21.713484 16711746
11.815398 -28.167934 24.892258 16711746
13.97285 -34.522488 24.170061 16711746
13.205373 -32.808636 23.637318 16711746
14.443241 -34.558567 25.550713 16711746
-117.16578 -283.42868 40.51955 16711746
-2.1170359 -32.901443 20.142759 16711746
4.3009906 -24.30731 16.969101 16711746
11.330489 -24.689892 18.700871 16711746
5.8934894 -36.57745 21.301682 16711746
47.662239 -100.18598 64.025398 16711746
22.13291 -40.957809 26.651768 16711746
17.758808 -32.54464 23.840725 16711746
12.874506 -34.846241 25.666059 16711746
12.966485 -33.529682 24.440517 16711746
13.31268 -40.866993 28.799723 16711746
11.761784 -36.659245 25.783518 16711746
38.221821 -89.251282 65.087662 16711746
16.58534 -60.503201 41.307632 16711746
26.571682 -43.288029 28.942423 16711746
24.008181 -45.935253 34.274174 16711746
12.413252 -28.252224 18.473967 16711746
10.590968 -30.256819 18.319983 16711746
19.066994 -66.351768 45.26059 16711746
10.183035 -30.7766 23.999693 16711746
2.8211725 -18.826723 17.861794 16711746
11.057111 -38.260834 28.900021 16711746
20.976843 -44.296013 30.046556 16711746
4.5966744 -12.807917 18.194931 16711746
9.4868174 -35.907776 25.187206 16711746
3.2774355 -33.97554 24.211996 16711746
6.8888726 -20.845097 17.941376 16711746
27.456928 -45.128674 38.548615 16711746
6.5180459 -30.027925 20.858728 16711746
20.782898 -56.064148 41.586342 16711746
29.253595 -61.964073 46.173424 16711746
14.112099 -29.054173 21.512196 16711746
25.151798 -36.263607 28.236521 16711746
9.4459066 -24.702698 24.855993 16711746
1.8532823 -23.333607 18.082851 16711746
17.483557 -47.854752 36.875843 16711746
4.4479365 -14.626701 18.495943 16711746
9.8782721 -24.578459 20.745491 16711746
3.0663009 -38.395477 28.802273 16711746
5.161716 -18.659389 17.42536 16711746
9.4631147 -25.111416 24.962854 16711746
11.241854 -29.568075 21.853928 16711746
22.499113 -60.253963 50.274063 16711746
50.73386 -59.548141 43.896446 16711746
31.922342 -64.446472 53.956921 16711746
38.792084 -68.827782 52.204296 16711746
-29.652195 -54.456104 13.096915 16711746
-19.580261 -34.071632 22.060335 16711746
-2.8724935 -36.024403 18.853008 16711746
-13.794645 -18.871635 22.012241 16711746
7.2082496 -42.017456 23.001474 16711746
14.880942 -32.781864 24.949373 16711746
11.139627 -31.826456 21.379259 16711746
15.851617 -32.771248 22.485109 16711746
18.919249 -36.465858 24.615608 16711746
-5.6755786 -24.526964 18.030855 16711746
-6.7024622 -25.946981 17.989658 16711746
-21.281031 -35.813358 22.322006 16711746
12.135406 -34.686661 21.883272 16711746
4.2893229 -24.561588 17.045891 16711746
15.295725 -34.777637 21.236671 16711746
18.165972 -31.115147 24.690308 16711746
12.066233 -32.891174 22.541864 16711746
10.099885 -28.364491 23.016356 16711746
11.096582 -33.927383 23.643209 16711746
14.409236 -31.306217 23.415525 16711746
12.646098 -36.598259 20.396479 16711746
26.467348 -55.154209 37.518974 16711746
30.365047 -69.005745 47.16357 16711746
21.179546 -44.352074 30.840754 16711746
13.41509 -38.594215 33.308342 16711746
16.75675 -34.111816 29.845324 16711746
18.147005 -37.559227 28.32649 16711746
9.2991133 -24.523617 24.750185 16711746
26.138493 -42.596527 32.843586 16711746
14.055258 -40.925583 31.542267 16711746
18.417803 -49.387615 43.410793 16711746
23.978407 -40.705353 30.258411 16711746
-10.303542 -24.457596 13.266933 16711746
10.104722 -28.432144 26.484602 16711746
10.236123 -31.282188 25.275408 16711746
16.030708 -33.010975 22.550995 16711746
17.071054 -35.589737 23.11853 16711746
12.496506 -31.496786 23.086262 16711746
14.024967 -35.330334 24.624628 16711746
-0.56348318 -26.07452 19.473181 16711746
-3.9348249 -24.460228 16.838987 16711746
8.0832777 -34.262703 21.365412 16711746
13.195337 -42.664295 35.051197 16711746
-4.4686069 -22.471659 15.772758 16711746
19.310064 -60.775909 48.749424 16711746
-4.2104855 -22.858435 16.7453 16711746
9.7652168 -30.155432 24.963297 16711746
-5.6466641 -25.017815 16.447594 16711746
21.859667 -34.469265 25.483463 16711746
-1.2834493 -25.610462 18.366571 16711746
9.3832979 -30.011784 25.639557 16711746
20.707369 -47.66777 40.396069 16711746
6.1225615 -25.136143 27.049686 16711746
19.314196 -41.135738 27.603222 16711746
-11.228257 -25.295267 20.497051 16711746
-6.1775718 -25.601288 17.944242 16711746
19.279301 -30.16991 20.392998 16711746
27.1765 -69.595047 65.769447 16711746
13.164244 -29.989429 34.206757 16711746
16.983839 -42.012741 27.974669 16711746
19.455772 -33.984901 26.357677 16711746
20.974689 -38.987404 23.896559 16711746
6.0963655 -24.698336 25.927429 16711746
3.2506912 -36.859745 28.173328 16711746
5.0411882 -27.001091 20.861479 16711746
-6.8563662 -26.834024 16.407646 16711746
16.122137 -52.97374 41.657104 16711746
11.502494 -31.336737 19.437372 16711746
23.464926 -35.016335 27.173424 16711746
30.928457 -39.997757 35.252014 16711746
12.075455 -42.119759 23.949701 16711746
20.331076 -34.901028 28.009909 16711746
19.856989 -33.776867 25.515675 16711746
16.607492 -46.735863 41.548054 16711746
5.5152636 -29.005922 20.483534 16711746
23.429146 -38.028156 30.980169 16711746
33.625195 -67.124336 48.913807 16711746
1.8377976 -16.523479 17.846502 16711746
6.4936652 -14.617746 22.609638 16711746
0.50435281 -28.901964 22.582228 16711746
12.400327 -29.902283 24.819263 16711746
9.453968 -31.418011 20.291376 16711746
6.2725358 -27.205353 26.786156 16711746
10.922732 -40.83305 31.482107 16711746
7.9480023 -34.363258 22.012835 16711746
15.211714 -36.00034 28.231251 16711746
-3.2148511 -20.713158 16.462482 16711746
15.764114 -30.591692 23.08127 16711746
9.3241405 -36.642574 29.182438 16711746
5.9144721 -37.985432 33.560452 16711746
-1.0640527 -22.277784 16.710806 16711746
5.8342128 -32.140579 30.341362 16711746
5.4314198 -26.305935 24.251465 16711746
21.548574 -34.8755 29.142689 16711746
9.5899744 -31.919586 20.354296 16711746
16.669315 -30.492487 22.291069 16711746
10.636983 -26.941992 21.083817 16711746
10.636242 -32.983238 24.403976 16711746
30.707827 -58.280033 47.169949 16711746
22.457676 -38.22456 28.49806 16711746
32.134014 -56.178669 43.206421 16711746
-3.7952373 -37.736511 22.379473 16711746
4.2060595 -32.030045 27.158047 16711746
9.2701483 -37.240532 36.258049 16711746
3.9844434 -28.36046 25.925163 16711746
9.9490232 -37.5952 23.919752 16711746
20.091475 -31.823015 29.667715 16711746
11.83922 -33.631596 26.457924 16711746
28.877573 -46.41254 30.394787 16711746
-6.0770693 -34.481983 24.233467 16711746
29.594629 -52.96172 35.660885 16711746
11.106055 -18.544847 22.572573 16711746
19.535622 -51.616562 41.359482 16711746
-16.325775 -24.169863 14.066771 16711746
15.283623 -24.130199 22.028507 16711746
5.2991443 -11.278511 20.049364 16711746
8.8204079 -29.435917 24.2211 16711746
9.628994 -25.243336 24.518845 16711746
13.016245 -28.380957 22.585588 16711746
6.6706347 -13.438047 21.046766 16711746
14.093652 -38.154018 38.093151 16711746
15.443409 -37.853397 37.061005 16711746
18.701878 -31.805878 24.561615 16711746
8.8422279 -20.348627 26.920219 16711746
12.414524 -31.051346 26.069153 16711746
13.833751 -30.671888 25.894981 16711746
13.918449 -31.569122 25.764608 16711746
4.1329074 -20.703123 21.202803 16711746
6.8750296 -26.146276 20.778795 16711746
24.954447 -41.212463 35.579113 16711746
-6.047123 -21.908636 14.910605 16711746
-6.8238153 -22.945904 14.721601 16711746
21.849607 -34.601192 30.785172 16711746
17.525101 -37.753883 28.015198 16711746
12.448554 -29.757637 24.284628 16711746
26.719133 -44.535343 28.000191 16711746
9.431283 -28.153429 20.045927 16711746
15.564037 -39.131016 26.607592 16711746
7.4404316 -25.902159 19.674587 16711746
20.654413 -33.780605 26.546118 16711746
32.190498 -31.934191 29.74349 16711746
8.5667553 -28.349916 19.882494 16711746
12.64112 -31.733139 22.950544 16711746
14.468687 -41.387486 38.621735 16711746
2.1029372 -15.382514 19.487028 16711746
13.729159 -32.539749 30.16363 16711746
1.2832038 -20.679714 18.705452 16711746
7.169508 -35.282925 25.099113 16711746
9.7180061 -26.746124 25.361855 16711746
8.0669241 -26.371609 23.479282 16711746
5.1504607 -25.808575 20.270292 16711746
2.7546563 -15.210711 18.824404 16711746
3.5581076 -28.074268 24.041618 16711746
9.5450354 -26.128666 20.488945 16711746
19.422459 -50.141369 57.223629 16711746
4.4259911 -34.092461 30.915396 16711746
24.973263 -39.778263 33.089676 16711746
24.897238 -43.94183 43.369705 16711746
14.47623 -29.020433 22.183901 16711746
15.736152 -40.496601 37.52319 16711746
4.2983699 -24.980402 22.334719 16711746
5.745913 -10.131577 19.96616 16711746
20.457428 -41.108482 29.559523 16711746
2.6466308 -14.025349 19.200064 16711746
2.4299276 -14.545794 19.101042 16711746
-1.0902132 -17.802044 17.376106 16711746
4.5722647 -12.664574 20.259705 16711746
7.1540051 -15.848578 22.605301 16711746
15.6717 -41.070824 42.949524 16711746
20.209101 -44.596855 32.257988 16711746
20.168228 -34.180801 29.829582 16711746
51.428429 -65.344566 73.078949 16711746
18.332449 -37.428856 34.557922 16711746
23.439487 -54.46278 42.026569 16711746
4.1533675 -16.172905 21.82004 16711746
24.078026 -31.091858 27.358286 16711746
23.404369 -39.174984 33.363476 16711746
