# .PCD v.7 - Point Cloud Data file format
VERSION .7
FIELDS x y z rgb
SIZE 4 4 4 4
TYPE F F F F
COUNT 1 1 1 1
WIDTH 1195
HEIGHT 1
VIEWPOINT 0 0 0 1 0 0 0
POINTS 1195
DATA ascii
0.2981147 -2.8672621 3.6559846 16711746
2.6078730 -1.8084412 2.8389421 16711746
2.3511307 -1.7006432 2.9878342 16711746
2.6572936 -2.3385332 2.5925977 16711746
2.1561694 -1.6410072 2.3905406 16711746
2.1607456 -1.7361083 2.4285393 16711746
2.1485944 -1.8097492 2.4947774 16711746
2.0176578 -1.8829148 2.8460505 16711746
1.4597957 -1.3508620 2.4930217 16711746
0.2480935 -3.2371633 3.4053721 16711746
1.6907963 -0.9501330 2.4274917 16711746
1.2665716 -1.7606299 2.8335593 16711746
2.0707674 -1.7829200 2.4860773 16711746
2.3350177 -1.5027591 2.2029619 16711746
2.3399208 -1.8866713 2.5962188 16711746
1.8807119 -1.6832466 2.4405956 16711746
1.8153249 -1.7915462 2.1502969 16711746
2.3065069 -1.7668295 2.8132288 16711746
1.8031507 -1.7953985 2.3085639 16711746
1.8275971 -1.2675426 2.4066341 16711746
1.7664671 -1.9395140 2.3734131 16711746
1.7986323 -1.2126745 2.4209144 16711746
1.7797017 -1.9230391 2.3796628 16711746
2.2420619 -1.6934743 2.8019331 16711746
1.0417674 -1.4284384 2.5554676 16711746
2.2375150 -1.6790603 2.7937100 16711746
2.0503480 -1.6738466 2.8793356 16711746
2.3200924 -1.8736924 2.7353730 16711746
2.2755272 -1.8017490 2.7006965 16711746
2.0744879 -1.9279449 3.2479792 16711746
2.4681001 -1.6434404 2.0519547 16711746
0.1119373 -2.5281725 3.1623588 16711746
0.5434721 -2.6651740 2.5167112 16711746
0.4527364 -2.8342714 3.0233314 16711746
2.4148462 -1.8423766 3.1777716 16711746
2.6849570 -1.5855705 2.5539508 16711746
2.0497158 -1.6314614 2.3004088 16711746
2.2449448 -1.9270848 2.6779408 16711746
2.3466463 -1.7301641 2.3408418 16711746
1.4527224 -2.4247639 3.2931640 16711746
1.7449112 -2.0302913 2.4651248 16711746
2.1430588 -2.0326083 2.9471543 16711746
2.2031345 -2.0177822 2.7842851 16711746
2.2635574 -2.1336064 3.1448567 16711746
2.5286047 -2.2987213 2.7993035 16711746
2.1710837 -1.9651221 2.9965165 16711746
1.3606483 -1.8601544 2.3955371 16711746
2.0203264 -1.8967094 2.8564427 16711746
0.3340158 -2.1977108 3.0046518 16711746
2.0371888 -1.9688122 2.8721027 16711746
0.8010257 -2.1819592 2.7423604 16711746
2.2278254 -1.8549852 2.6137800 16711746
1.8754897 -1.7632694 2.6309416 16711746
2.6188443 -1.7762399 2.5959759 16711746
1.9865143 -1.9703668 2.7465374 16711746
0.5810484 -2.0365415 2.7508163 16711746
2.0942228 -1.4908376 2.5041842 16711746
1.4793304 -1.6582433 2.3946171 16711746
1.7402986 -2.6238923 3.0247319 16711746
1.5895036 -1.8551792 2.8493669 16711746
2.4792116 -1.9993836 2.3267620 16711746
2.3885088 -1.6461694 2.3737583 16711746
1.3927339 -1.6387273 2.5334661 16711746
2.3823292 -1.8029160 2.2136455 16711746
1.7898182 -1.6666073 2.5658038 16711746
1.8015999 -1.8381691 2.7352984 16711746
2.0886462 -1.4933958 2.4053571 16711746
1.7623764 -1.6647218 2.5298913 16711746
2.3171992 -1.5628159 2.3946261 16711746
1.6887048 -1.7041286 2.6018989 16711746
1.3526845 -2.4183137 2.9278057 16711746
1.9248264 -1.7810889 2.3364170 16711746
2.1720517 -1.6601485 3.1389766 16711746
2.3113217 -1.7899834 2.6178463 16711746
1.9838762 -2.0519233 3.2178547 16711746
1.4465269 -1.8073189 3.1349511 16711746
2.6286435 -1.8304365 2.8430440 16711746
1.6859550 -2.4467289 3.1635613 16711746
2.3422756 -2.1918361 3.4978311 16711746
1.4224181 -2.5370891 3.3878706 16711746
2.3286681 -2.1568937 3.0633492 16711746
2.0212643 -2.0802259 3.0785973 16711746
1.1733654 -2.3669171 3.3653316 16711746
1.7993032 -1.6495211 2.6839058 16711746
1.6352110 -1.9425453 2.8829770 16711746
1.6589338 -1.6992652 2.7587774 16711746
1.4623861 -1.6296887 2.4412899 16711746
1.6859721 -1.8708690 2.6701074 16711746
2.1013179 -1.9160613 2.8556390 16711746
1.5376929 -1.8053519 2.5250554 16711746
1.7685560 -2.0226417 2.7249877 16711746
1.4573816 -1.8259809 2.4998374 16711746
1.4598027 -1.7064115 2.5133941 16711746
2.1077707 -2.3171928 2.6440783 16711746
2.3179743 -1.7563933 2.6701403 16711746
1.6754446 -1.6808553 2.5932164 16711746
1.3538487 -2.1054909 3.2529395 16711746
1.7045422 -1.8533576 2.6287951 16711746
1.7954893 -2.0748098 2.9075627 16711746
1.9227446 -1.7315580 2.5869424 16711746
1.6060684 -2.2589557 2.8843348 16711746
2.0383739 -1.4677467 2.4031987 16711746
1.4635875 -1.8118992 2.7200005 16711746
2.1242871 -1.6306809 2.5807297 16711746
1.6748039 -1.9386469 2.7314539 16711746
1.9046309 -1.6710811 2.5874043 16711746
2.2297809 -1.8088655 2.4970231 16711746
1.9206580 -1.6703954 2.4487295 16711746
2.1309505 -1.5961375 2.3540933 16711746
1.5590638 -1.8538579 2.6253433 16711746
1.4497154 -1.9520950 2.4685597 16711746
1.6932992 -1.7900915 2.6274679 16711746
1.5952413 -1.7854536 2.5645823 16711746
1.7623553 -1.6244724 2.5296834 16711746
1.2055746 -2.4877548 3.1896183 16711746
1.8596020 -1.8705603 2.9681149 16711746
1.9737203 -1.7697372 2.6687880 16711746
1.2553027 -1.8309009 2.7312706 16711746
1.5065084 -2.2910166 3.2426636 16711746
2.2878265 -1.7469654 2.6210797 16711746
1.8327460 -1.8008051 2.4563019 16711746
0.5581095 -2.6538541 3.8066001 16711746
1.1859165 -2.4565425 3.2897716 16711746
1.0689291 -2.6601005 3.4960344 16711746
3.5164368 -5.1589384 1.4014727 16711746
2.0844290 -1.7557455 2.6288757 16711746
2.0708492 -1.8203362 2.5835965 16711746
1.9575286 -1.8266653 2.5833461 16711746
2.0960078 -2.0115483 2.7696407 16711746
2.0283353 -1.7982186 2.3798046 16711746
2.0384398 -1.5566047 2.3793211 16711746
1.9793767 -1.8183895 2.5181568 16711746
2.2177012 -1.7318155 2.6418133 16711746
1.6367399 -1.8982626 2.7785056 16711746
1.7790166 -1.7310805 2.7807922 16711746
1.9681871 -1.4452599 2.3920364 16711746
2.1894784 -1.7018808 2.4636002 16711746
1.3774226 -2.1055017 2.7526803 16711746
2.8444886 -1.6902416 2.6618803 16711746
2.3725648 -1.8538195 2.6820805 16711746
1.3730106 -1.9245433 2.8152792 16711746
1.7694323 -1.5871896 2.9099393 16711746
1.6760968 -2.3449347 3.2686100 16711746
1.3598112 -1.7937143 3.2769506 16711746
1.8435208 -1.7306510 2.6255364 16711746
2.1891775 -1.8128228 3.0549927 16711746
1.1849850 -2.4038706 3.1576135 16711746
1.4851416 -1.5317417 2.5554914 16711746
1.1636267 -2.6573486 3.2312131 16711746
2.3237593 -2.5552092 3.3451910 16711746
1.1018454 -2.2166252 3.0014224 16711746
2.3158426 -1.9249468 2.5546124 16711746
2.1303859 -1.9918569 2.9525962 16711746
1.9789472 -1.7779289 2.6659808 16711746
1.3762808 -2.3861403 3.0438983 16711746
1.6842674 -3.1177928 2.1355391 16711746
1.6870178 -3.1253405 2.1353989 16711746
2.0079145 -1.6131830 2.9226871 16711746
1.9494470 -6.2418356 4.3176990 16711746
2.1508279 -1.6066020 2.3179879 16711746
1.6833111 -1.4859850 2.6941001 16711746
2.2806208 -1.5157253 2.2795551 16711746
2.4685671 -1.7273719 2.7879596 16711746
2.8700840 -1.8146639 2.8178477 16711746
1.0034441 -2.2117608 2.9514537 16711746
1.7253526 -2.0885866 2.6698101 16711746
2.0299268 -1.9253545 2.8595917 16711746
1.9668611 -1.8618836 2.7960973 16711746
1.8832772 -1.8009918 2.6151881 16711746
1.7167699 -1.8418555 2.6322813 16711746
2.4077737 -1.9306114 2.5933356 16711746
2.1379178 -1.6514487 2.2979836 16711746
1.1331067 -2.1661692 2.7998843 16711746
1.3275150 -1.8609869 2.7241013 16711746
1.7924635 -2.1593153 2.7603636 16711746
0.8839926 -2.2740724 3.0727565 16711746
1.6596090 -1.7319421 2.5575047 16711746
0.4517218 -2.5682232 3.2438161 16711746
1.6232582 -2.1913152 3.2091515 16711746
1.2500592 -1.7328613 2.5177705 16711746
1.3620195 -1.7856560 2.4222274 16711746
1.9343107 -1.4079000 2.4546318 16711746
1.2890444 -1.8748422 2.4099793 16711746
2.5684965 -2.0937374 2.6456249 16711746
2.5411325 -1.8629487 2.5994456 16711746
1.5827394 -1.3628916 2.5919428 16711746
1.4557800 -1.9042114 2.4846113 16711746
0.4251260 -2.2393754 3.1121345 16711746
2.1056123 -1.8201561 2.5186434 16711746
2.0962403 -1.5292687 2.5688174 16711746
2.1268005 -1.5944510 2.5724983 16711746
1.6973261 -1.8164834 2.7100809 16711746
2.0515459 -2.8108628 2.7526770 16711746
1.9464750 -1.9755547 2.7915351 16711746
1.8044569 -2.0705094 2.6770189 16711746
1.5077355 -2.1516151 2.7314334 16711746
1.9039670 -1.9603215 2.4094992 16711746
1.6232892 -2.0229812 2.6723797 16711746
1.9859234 -1.4960657 2.5331776 16711746
1.2478218 -2.2199233 2.5038259 16711746
1.9025937 -1.2071183 2.5787208 16711746
1.8645556 -1.2838584 2.8960502 16711746
1.6496017 -1.8635575 2.5977855 16711746
1.7107741 -1.8880916 2.6010480 16711746
1.8888447 -2.1199737 2.7622397 16711746
0.8074884 -2.4820685 3.1123469 16711746
2.7770360 -2.3398275 2.6625373 16711746
2.3333995 -2.0471721 2.5907168 16711746
2.3876271 -2.8514521 2.9680889 16711746
2.4860091 -2.6092420 2.8158748 16711746
1.4452983 -2.0285575 2.4676945 16711746
2.7204740 -2.6613770 1.8715590 16711746
2.6561959 -2.6111479 2.7398012 16711746
2.0542939 -1.8559650 2.7213078 16711746
2.6963971 -2.2662041 2.7313383 16711746
2.0906794 -1.7908201 2.5710175 16711746
1.6230315 -1.8160295 2.5494568 16711746
1.7946875 -1.6149925 2.6373036 16711746
1.5066310 -2.2420912 2.7435467 16711746
1.6169716 -1.9098184 2.5296056 16711746
1.5237730 -2.1024842 2.6783519 16711746
0.9461927 -1.8739113 3.0010762 16711746
1.7726220 -2.5370579 2.7986457 16711746
2.8153477 -2.3299820 2.9177873 16711746
1.6472763 -2.1315873 2.9472079 16711746
2.0900328 -1.4914761 3.1019242 16711746
2.3695474 -2.0268195 2.7846854 16711746
1.8445753 -1.9890063 2.9182365 16711746
2.1377873 -1.8001871 2.5355437 16711746
1.0102105 -1.9937171 2.8152292 16711746
1.5069094 -3.7580945 3.9158578 16711746
2.0184712 -2.3008263 2.7750432 16711746
1.7985482 -2.1452491 2.5991626 16711746
1.4215251 -2.3572261 2.4982972 16711746
1.8000858 -1.8678058 2.3940923 16711746
1.3614196 -2.1756959 2.7407806 16711746
2.2786214 -2.2670622 2.5375929 16711746
2.1053357 -2.0791497 2.2984569 16711746
1.6842573 -2.0033813 2.5449021 16711746
1.8223943 -2.0444677 2.5770025 16711746
1.8121487 -2.1410100 2.5880914 16711746
1.8043103 -2.4901466 2.7994709 16711746
2.4591806 -2.0204182 2.5574965 16711746
1.4335082 -2.3000793 2.6800747 16711746
1.5170588 -2.1214519 2.8622515 16711746
1.8040931 -1.9410321 2.4810677 16711746
0.6875556 -2.2413576 2.8851945 16711746
1.8311718 -2.0326490 2.3239102 16711746
2.8041584 -2.1599271 1.9539564 16711746
1.6824281 -2.4139323 2.8230608 16711746
2.2960649 -2.0377057 2.4982626 16711746
1.7902768 -1.9745010 2.6110687 16711746
1.6970017 -2.1985991 2.4879260 16711746
2.2295067 -1.7241564 2.3442452 16711746
1.4371502 -2.1750317 2.6492102 16711746
1.3223132 -2.5217619 2.6082933 16711746
1.4643219 -2.1890819 2.6769118 16711746
1.4434576 -2.8040016 3.0337880 16711746
1.9723181 -2.0183208 2.6417036 16711746
1.8157783 -2.1149971 2.5975502 16711746
1.8572137 -2.0012412 2.6783094 16711746
2.6093044 -1.8498567 2.0946734 16711746
1.4187819 -2.2884266 2.6335573 16711746
2.5548081 -2.0875006 2.4751165 16711746
2.8116047 -1.9400307 2.4434009 16711746
2.7178001 -2.2452300 2.8485322 16711746
1.3982583 -3.4186120 3.6051626 16711746
1.7163095 -1.9726702 2.5890508 16711746
1.2024449 -1.8951674 2.6660933 16711746
1.8020761 -2.6258876 2.9762428 16711746
1.9059628 -2.6767697 2.9230442 16711746
1.9790083 -2.7802370 2.7983150 16711746
0.6681232 -2.5343928 2.7320280 16711746
1.8613384 -2.7237949 3.0027878 16711746
1.4951166 -2.7690711 3.1270180 16711746
1.2304610 -2.8793693 3.3448923 16711746
2.7607532 -2.3945866 2.8786716 16711746
2.7849245 -2.2047055 3.1262443 16711746
0.9981896 -2.4426877 2.8782141 16711746
2.6200109 -2.1505392 2.8147736 16711746
2.7097018 -2.2187750 2.8613603 16711746
1.5859252 -16.3139286 11.7237158 16711746
1.4539306 -2.3030400 2.8546033 16711746
2.9098606 -1.8876753 2.0761042 16711746
1.7491459 -1.6940523 2.5148797 16711746
2.9362807 -2.0866179 2.6397119 16711746
1.8155986 -1.9845644 2.5882516 16711746
2.4395149 -2.2475867 2.7189384 16711746
1.3542162 -2.2108107 2.7385242 16711746
1.3959019 -2.3528075 2.8123863 16711746
1.7890564 -2.0156314 2.5428135 16711746
1.6075221 -1.9441302 2.4780617 16711746
2.6207523 -2.1898849 2.6327775 16711746
1.6252562 -2.0260544 2.5964074 16711746
2.5108895 -2.0954902 2.6135371 16711746
2.8247228 -2.5314424 2.8000214 16711746
2.7214563 -2.2966168 2.8084476 16711746
2.7704768 -1.9408815 2.2806399 16711746
2.3817766 -4.0527477 3.5813177 16711746
1.7690312 -2.9616477 3.4481204 16711746
1.2045355 -2.5984104 3.4475143 16711746
1.4010750 -1.8274664 2.8700359 16711746
1.6173575 -1.9461575 2.5750854 16711746
2.1432924 -1.8665074 2.5347898 16711746
1.3578188 -2.3382792 2.6108303 16711746
1.3945647 -2.2135584 2.7922149 16711746
2.6388021 -2.6322949 2.6430593 16711746
1.9848839 -1.9349653 2.7225060 16711746
1.1578540 -2.7945774 3.2852623 16711746
1.9846607 -2.3130016 2.7789435 16711746
1.4497571 -2.2200119 2.8080969 16711746
1.3480809 -2.0855405 2.9978032 16711746
2.2329652 -2.3629515 2.6820040 16711746
1.4483453 -2.3704607 2.7952762 16711746
2.0255728 -3.3328943 3.0917871 16711746
2.6335959 -2.6786683 3.1796894 16711746
2.6698661 -2.7676351 3.0491273 16711746
1.8128473 -2.5454803 2.6251364 16711746
2.9274120 -2.3821206 2.3533804 16711746
2.7121170 -2.3080258 2.6933694 16711746
1.7489524 -0.9636948 2.8248689 16711746
1.7984490 -3.7182915 3.9523568 16711746
2.9923532 -3.1164656 2.7901483 16711746
3.0969577 -2.3400476 2.1640391 16711746
2.2918365 -2.0992081 2.3872182 16711746
2.3396533 -2.4629602 2.5594480 16711746
2.5562451 -2.7565930 2.4167130 16711746
1.8882622 -2.0885904 2.6481662 16711746
1.2698640 -2.3050370 2.7976100 16711746
0.2745304 -2.9048455 3.9032016 16711746
2.5103977 -2.2106240 2.3713267 16711746
2.1956863 -1.9245601 2.4470990 16711746
3.6089447 -2.6304669 2.2242074 16711746
2.6358881 -2.5846896 2.6372569 16711746
1.9345316 -2.9926465 3.2195973 16711746
1.7826303 -3.2435284 3.7734482 16711746
1.8479365 -3.4810383 3.7277346 16711746
2.7310610 -2.7638991 2.6267986 16711746
2.8200233 -3.2599254 2.8412292 16711746
3.0087419 -2.2129049 2.3980675 16711746
0.7186111 -2.6856635 3.4249470 16711746
2.1130562 -2.2193291 2.8278368 16711746
2.0311391 -2.0491891 2.5246742 16711746
0.5912402 -3.0550940 3.9199624 16711746
2.4541130 -2.6599693 2.8211105 16711746
0.5494190 -2.9711230 3.4943039 16711746
2.2091827 -2.0458972 2.4658518 16711746
0.2551942 -2.9865713 4.0343037 16711746
0.6835321 -2.9080873 3.8195689 16711746
0.4405583 -2.8742323 3.3410301 16711746
1.8383422 -1.9891145 2.6708446 16711746
1.9049071 -2.4107468 2.8007681 16711746
3.6060958 -3.6091855 3.9737906 16711746
1.6739507 -2.4071939 2.6218290 16711746
1.4294097 -2.2282579 2.8078675 16711746
4.3372645 -6.4780478 4.7118864 16711746
1.9445798 -5.0084267 4.1666164 16711746
1.8340638 -3.1012349 3.6823967 16711746
2.0069752 -2.5825284 2.4020963 16711746
1.8512861 -3.0170317 3.5305481 16711746
2.6679738 -2.8594739 3.2549887 16711746
1.8903886 -2.1094575 2.6434271 16711746
2.0374506 -2.1046674 2.5033648 16711746
0.4894766 -2.7690487 3.4024103 16711746
2.9674020 -2.1009235 2.6473503 16711746
0.5493857 -3.0324271 3.7596052 16711746
1.8086222 -2.4336751 2.6533966 16711746
2.1913490 -2.2247128 2.6808071 16711746
1.7012002 -2.9766378 2.8847470 16711746
1.9109321 -2.4083419 2.9968913 16711746
1.0735556 -3.0404727 3.2045548 16711746
1.7162007 -2.5458546 3.2739370 16711746
1.5947030 -2.0834568 2.5670052 16711746
1.9636165 -2.1857595 2.4667497 16711746
1.8091986 -2.4220109 2.6541200 16711746
0.9979639 -2.5356722 3.1218779 16711746
2.1329086 -2.3477955 2.3858614 16711746
1.8142014 -2.4767315 3.0009487 16711746
1.3920963 -1.9048089 2.9074826 16711746
1.1323839 -2.1013145 2.8984404 16711746
2.2205439 -2.4902487 3.2861092 16711746
2.0147092 -2.2327161 2.6051664 16711746
2.0797734 -2.4395995 2.8211513 16711746
2.2152674 -3.1083603 3.2435801 16711746
0.8759556 -2.2701201 2.8263867 16711746
1.6515024 -3.1139126 3.8227756 16711746
1.7209626 -3.6030633 3.4496217 16711746
2.5840192 -2.7227006 2.7045598 16711746
0.7550166 -2.7094481 2.8827403 16711746
0.5686876 -3.0162842 2.9887116 16711746
0.4325573 -3.0122082 3.8798468 16711746
2.1666701 -2.6372533 2.8717644 16711746
2.3655913 -2.4049680 3.4793742 16711746
0.4413589 -2.4709761 3.3234010 16711746
0.3916191 -2.9638796 3.3617954 16711746
3.0233099 -2.5711653 2.8953671 16711746
2.4979436 -2.1547194 2.3797417 16711746
2.7649612 -1.9513032 2.3395419 16711746
3.5240974 -2.6342142 3.3197196 16711746
1.6340129 -2.4068656 2.7941163 16711746
1.9865507 -2.1506321 2.7773349 16711746
1.6670088 -2.1876185 2.5795026 16711746
1.7899624 -2.5296102 2.5599673 16711746
2.3381531 -2.0881548 2.4849699 16711746
2.2930288 -2.4240806 2.7719538 16711746
2.1147892 -1.9834276 2.8141026 16711746
3.2321594 -2.7288656 2.2235398 16711746
0.4093300 -2.8507867 2.9993749 16711746
2.0695953 -2.2233269 2.4618618 16711746
1.6118625 -3.0448027 3.8953812 16711746
3.3836296 -2.9424670 3.4975553 16711746
3.1563632 -2.9827967 3.7208743 16711746
1.8755965 -3.2439227 3.3090906 16711746
0.4774901 -2.8764682 3.9069204 16711746
2.2910538 -2.4694791 2.9560258 16711746
2.4749932 -2.6992340 3.4319770 16711746
2.4490876 -2.1743305 2.5490875 16711746
2.1181893 -2.0400751 2.7683008 16711746
3.4192331 -2.8159614 3.4455967 16711746
2.3824923 -2.6292517 3.2165558 16711746
2.5977197 -2.4504070 2.9929097 16711746
2.4263260 -2.6812351 3.2213957 16711746
1.7785608 -2.1655467 2.7387755 16711746
2.4083459 -2.6784918 3.2219570 16711746
2.3597429 -2.7401915 2.9155102 16711746
2.2326503 -3.8076167 3.3156252 16711746
1.7453275 -2.2352989 2.7722518 16711746
2.5737646 -1.9712825 2.5764589 16711746
3.0930426 -2.2355187 3.0739594 16711746
3.6094346 -3.1062193 3.6610243 16711746
2.5097198 -2.5695877 2.7318926 16711746
0.2825352 -3.0992122 3.7498384 16711746
3.3936665 -2.7157786 3.2870240 16711746
2.5732915 -1.7729875 2.4591095 16711746
2.5843647 -1.8078856 2.3942947 16711746
0.5384678 -2.6498592 3.5787625 16711746
0.5936460 -2.6315465 3.2232864 16711746
0.9132622 -3.7578955 3.8594806 16711746
2.6732993 -2.1889622 2.7802916 16711746
1.9417596 -1.9650567 2.9693103 16711746
1.4668739 -2.4393556 3.2539704 16711746
2.3685422 -2.1257765 2.6476729 16711746
2.6273992 -1.8374166 2.3213310 16711746
2.0079625 -1.2868977 3.1605716 16711746
2.3926749 -1.6080145 2.7435753 16711746
1.8793072 -1.5321605 2.7542312 16711746
1.2759492 -2.1845055 3.3584917 16711746
3.1089776 -2.3707237 2.4505589 16711746
2.3483734 -2.1028581 2.8497257 16711746
2.6988201 -2.3612843 3.4662819 16711746
1.2752575 -2.3217518 3.4874496 16711746
2.5553439 -1.9169847 2.6176336 16711746
2.8966510 -2.5264809 2.6424716 16711746
2.6557372 -2.1597116 2.6780448 16711746
2.5568101 -2.5761380 3.0630434 16711746
2.5704246 -1.7612542 2.1657605 16711746
0.5262846 -2.8760238 3.5628142 16711746
1.9647753 -2.4612358 2.9586558 16711746
0.6588237 -2.9442000 3.4423649 16711746
2.6826022 -2.5315936 2.7894144 16711746
2.3561032 -2.2791557 3.1051767 16711746
2.5981903 -1.8025082 2.2226639 16711746
1.9158716 -1.9565165 2.8340271 16711746
1.1936662 -2.5163660 3.3741329 16711746
2.5500176 -2.6593370 2.8440244 16711746
1.8937691 -2.3217902 3.0456967 16711746
1.2337861 -2.7734194 3.4195981 16711746
2.0139282 -2.0406578 2.7858975 16711746
1.2952526 -2.4487038 3.4412792 16711746
1.8973029 -2.2686851 2.7462831 16711746
2.2336340 -2.2325795 2.8292792 16711746
2.9819391 -2.1740851 2.3412285 16711746
1.8536752 -2.0550313 2.9675412 16711746
1.8448834 -2.2963910 3.0645404 16711746
1.8978611 -2.0924683 3.1306653 16711746
2.7876456 -1.9314167 2.1695912 16711746
1.9765062 -2.3503358 2.8096530 16711746
1.4732441 -2.1792953 3.6322856 16711746
2.2864425 -1.8766139 3.2178652 16711746
2.5817547 -2.0722482 3.4353895 16711746
2.3512332 -1.8859799 2.5401242 16711746
1.8392947 -2.2101657 3.0795803 16711746
2.0929995 -2.3979349 3.0342891 16711746
2.5027511 -1.9111165 2.8829069 16711746
1.8643743 -1.0666662 3.0264304 16711746
1.8291743 -3.0719666 3.6811972 16711746
2.2687843 -1.9472708 3.1395156 16711746
2.7955728 -2.5172200 3.4910090 16711746
0.9754616 -2.8949001 3.6891506 16711746
0.8218549 -3.1092007 3.9095426 16711746
1.1444271 -2.7760282 3.3835485 16711746
1.4075716 -2.1867626 3.0537915 16711746
2.5994842 -2.3151634 2.6032562 16711746
2.3366368 -2.7007949 2.9337308 16711746
2.2110267 -2.5584159 2.8983257 16711746
2.1363416 -2.7880998 3.2722480 16711746
1.8832519 -2.4274182 2.9168878 16711746
2.5574112 -2.6697414 2.8419039 16711746
0.8984177 -2.9116352 3.8395636 16711746
2.1207368 -2.3361180 2.8904576 16711746
2.3363225 -2.6626465 2.9249728 16711746
0.3756283 -2.8410380 3.7806745 16711746
1.5407325 -2.4494607 2.7974551 16711746
1.7874483 -2.6469827 3.1387854 16711746
2.2552490 -2.1659398 2.9296787 16711746
2.4594865 -2.5173059 2.8932171 16711746
0.7817849 -2.8233612 3.4114738 16711746
2.8935711 -2.7153664 2.6339800 16711746
1.9561504 -2.6383042 2.9523189 16711746
1.0843072 -2.3866742 3.3455412 16711746
0.6743817 -2.7790530 3.5015602 16711746
-0.7703658 -4.4207301 5.9957294 16711746
1.3341929 -2.9583271 3.8626087 16711746
2.9434233 -2.7326181 3.5284696 16711746
3.6921794 -2.8002994 3.3470838 16711746
0.6254963 -2.5556796 3.1470315 16711746
-0.3850679 -3.1244936 3.5804124 16711746
0.6331361 -2.9662244 3.3357656 16711746
2.7494676 -2.4951265 2.5746210 16711746
1.8477571 -2.5521576 2.8179030 16711746
2.0752618 -2.6045504 2.8974450 16711746
3.1892412 -2.2129343 2.4963782 16711746
2.3407845 -2.6401982 2.8333266 16711746
2.0615659 -2.7635937 3.3687503 16711746
0.0824592 -3.1245615 4.0027318 16711746
2.4889884 -2.5881081 2.6969564 16711746
1.8866662 -2.1880124 2.9451482 16711746
3.1302321 -2.6498275 3.0851860 16711746
1.8234906 -2.5504861 2.6308014 16711746
2.1268575 -2.3687718 2.9031217 16711746
3.0725870 -2.6419570 3.1394243 16711746
1.9018080 -2.4629383 3.1599686 16711746
2.2930510 -2.4366193 2.9124038 16711746
3.2334902 -2.3235567 3.0120342 16711746
1.9837737 -2.3991528 3.0430086 16711746
3.0163682 -2.2166548 2.9212642 16711746
1.9095273 -2.3051298 3.0798974 16711746
1.9612105 -2.5964913 3.1214023 16711746
2.5872514 -2.3408883 2.6727560 16711746
2.2881711 -2.2594814 2.9084184 16711746
2.0485847 -2.4358816 2.8996940 16711746
2.1320021 -2.3751049 2.7344306 16711746
2.4783008 -2.9960182 3.2609138 16711746
2.3111920 -2.4375625 2.9482794 16711746
2.0996792 -1.3477540 3.2354758 16711746
1.8644652 -2.1490571 2.9403126 16711746
1.8716786 -2.3059289 2.9589372 16711746
3.1819041 -3.1413376 3.7148857 16711746
0.7550436 -2.9180093 3.4931502 16711746
2.7225223 -2.1712005 2.8973334 16711746
2.1898179 -2.6937475 3.0380142 16711746
2.0365310 -2.6416659 2.7651238 16711746
1.9515918 -2.3689873 2.8339996 16711746
2.4156837 -2.3633749 3.5335488 16711746
1.2435200 -3.4434772 4.0233111 16711746
2.4174552 -2.9902480 3.9074547 16711746
3.8960049 -2.4478290 2.6286418 16711746
3.8522880 -2.6731093 2.3063483 16711746
3.3566663 -2.9863167 3.8286192 16711746
-0.5733185 -4.7400341 5.9199762 16711746
1.8499979 -1.8678885 3.0236750 16711746
3.3650029 -2.6172624 2.8648500 16711746
1.8398428 -1.9659866 3.0360055 16711746
1.8484977 -1.8645936 3.0266356 16711746
3.7786946 -2.7192757 2.2406859 16711746
1.8477434 -2.0170901 3.0507488 16711746
1.2194442 -2.7560892 3.8150797 16711746
3.6213226 -2.3843012 2.7133443 16711746
0.6425979 -2.8388247 3.6452274 16711746
3.4159780 -2.8110504 3.4400966 16711746
2.5710268 -2.6032414 3.6714563 16711746
2.0675132 -3.0298440 2.7968764 16711746
3.2487285 -2.3357196 3.3016105 16711746
3.2350454 -2.9206691 3.3698518 16711746
2.7276754 -2.4265382 2.8514805 16711746
3.5165358 -2.2933810 2.8958621 16711746
2.9706035 -2.8906045 3.5363750 16711746
1.3750088 -3.9833889 3.2747242 16711746
3.4588964 -2.8084273 2.9454110 16711746
2.1608648 -2.7060671 3.1259100 16711746
3.6966360 -2.7886891 3.3524463 16711746
3.1649768 -3.2080152 3.9649773 16711746
3.8594270 -2.4207199 2.7027895 16711746
2.3711100 -2.3994362 2.9862456 16711746
2.0097547 -2.4379380 3.1255460 16711746
1.6648370 -2.7764308 2.7447519 16711746
2.5467820 -2.8474772 2.6691792 16711746
3.1770561 -2.7663734 2.8644321 16711746
1.8144225 -2.4555886 3.4990816 16711746
1.2057086 -3.5182254 3.1273861 16711746
0.6154576 -4.3007851 3.2211788 16711746
2.0046165 -2.2699971 3.1547413 16711746
3.3589113 -3.1836219 3.7463195 16711746
2.5299160 -3.9818597 3.4021118 16711746
3.0615571 -2.7895610 3.0591960 16711746
0.6411825 -3.3547282 3.8520846 16711746
3.5135095 -2.2996700 2.8859947 16711746
3.4969234 -2.8866534 3.0669451 16711746
2.1942022 -2.4616840 2.8949103 16711746
3.6783257 -3.4684308 2.6595325 16711746
3.0131514 -2.6024649 2.8447621 16711746
1.4490005 -2.9341886 3.0608137 16711746
3.2178397 -2.7221522 3.1404982 16711746
3.2101862 -3.1796126 3.7282040 16711746
2.1205766 -2.4005640 2.8934908 16711746
2.0641956 -2.3195994 2.9419448 16711746
3.4632277 -2.5758612 3.0692401 16711746
2.0654933 -2.1009912 2.9517100 16711746
1.7388202 -2.3859730 2.8875842 16711746
3.1105263 -3.0077672 3.6890574 16711746
2.8030970 -2.4328051 3.1618063 16711746
2.0668652 -1.3615485 3.1973941 16711746
3.4440234 -2.8655548 3.5155096 16711746
3.1781290 -2.7172053 3.3002753 16711746
3.2613869 -2.7392497 3.4397182 16711746
3.1663802 -2.9099555 3.5444355 16711746
3.2156460 -2.7652547 2.6938407 16711746
3.2018638 -3.1648467 3.7286515 16711746
3.5239444 -2.5237041 2.5465004 16711746
3.7314939 -3.5282180 2.6752541 16711746
2.7436986 -2.3779113 3.7560658 16711746
2.2058718 -2.3908334 2.9844482 16711746
2.5970871 -3.0153880 2.6213248 16711746
3.7926514 -3.7738309 2.2853539 16711746
2.0142951 -2.5797088 2.7989025 16711746
3.4530938 -3.7888327 4.1252995 16711746
2.5974381 -2.7085211 2.7226160 16711746
3.0441656 -2.8358588 3.1235363 16711746
2.1722033 -1.9224794 3.1225286 16711746
3.0545785 -2.5588577 2.9239297 16711746
2.1706588 -1.9595565 3.0818973 16711746
3.2152228 -2.7603028 3.0501666 16711746
1.4871063 -1.9213291 3.5601506 16711746
1.9730893 -1.9134734 3.2655940 16711746
1.3919832 -2.3999856 3.2243483 16711746
3.2384803 -2.4287007 2.6927164 16711746
2.2013693 -2.0219927 3.1543391 16711746
1.5855083 -2.0391221 3.2113008 16711746
1.0869982 -2.9756200 3.2016101 16711746
2.6665301 -3.0451853 3.7703617 16711746
3.3760824 -3.1331668 3.8289454 16711746
1.6457219 -2.5259268 3.1339624 16711746
3.2346590 -2.5996311 3.3604183 16711746
3.4274869 -2.4749877 2.7887869 16711746
2.4098866 -2.7531228 2.8266108 16711746
1.5049516 -3.9037659 4.6031337 16711746
1.2771069 -2.8774555 3.1461573 16711746
2.0139635 -2.6940775 2.8709667 16711746
0.8985085 -2.4261248 3.7938488 16711746
2.1175878 -2.2636180 3.1222758 16711746
3.1869230 -2.4310310 3.0750206 16711746
2.1547742 -2.1275940 2.9898174 16711746
2.1537998 -2.1323423 2.9942727 16711746
1.5113539 -2.3482757 3.1706998 16711746
1.6930568 -2.2243037 3.1202757 16711746
2.9069977 -2.4535785 2.9135389 16711746
1.1919442 -2.0212123 3.4775667 16711746
1.2169415 -2.4180264 3.3258111 16711746
1.7446216 -2.3045793 3.1295509 16711746
1.6426044 -2.1372087 3.1744528 16711746
1.2763423 -3.1601346 4.1566358 16711746
1.9607570 -2.3571284 3.0748837 16711746
-0.5608615 -3.5581686 4.1150651 16711746
3.0988624 -2.4544921 3.0783901 16711746
2.1116974 -2.1521513 3.0011978 16711746
1.9318817 -2.4703047 2.9562542 16711746
1.1352949 -2.6177516 3.1776128 16711746
1.1991976 -2.1957517 3.6609406 16711746
1.2640380 -2.5024183 3.2401216 16711746
1.9794828 -2.2646005 3.0842645 16711746
1.1510556 -2.5519881 3.7536113 16711746
1.1157587 -2.5086091 3.7379365 16711746
2.9973934 -2.1357987 2.8237631 16711746
2.5896680 -1.9827088 2.8890753 16711746
1.9694507 -1.8603132 3.3370805 16711746
2.9738917 -2.9494426 3.5942612 16711746
3.4703321 -2.8982313 3.3638017 16711746
2.7221048 -2.1462984 3.0106387 16711746
3.5143127 -3.2100754 3.8845248 16711746
1.5594412 -3.9405875 2.8929968 16711746
2.7046897 -2.4529564 2.6744392 16711746
3.4716411 -2.9968753 3.5956872 16711746
3.3209300 -2.8465130 3.3321207 16711746
2.9033678 -2.3476300 3.0432241 16711746
2.8435786 -2.8312111 3.4815214 16711746
2.8338466 -2.7036908 3.4618511 16711746
2.7366805 -3.1567185 3.8034403 16711746
3.0444453 -2.3841975 2.8029521 16711746
3.5491347 -3.2425015 3.9902000 16711746
3.2251759 -2.7280936 3.2714772 16711746
3.7393479 -3.2203674 3.8405459 16711746
1.1257941 -2.8469918 3.2711623 16711746
2.6600480 -1.7640806 2.8796861 16711746
3.0877500 -2.9668069 3.5536907 16711746
3.4873240 -2.6296997 2.4061730 16711746
2.9513662 -2.1887503 2.7891653 16711746
3.1009066 -2.5438771 3.0455353 16711746
3.3731065 -2.3693562 2.6223168 16711746
3.2117560 -2.3333874 2.7717364 16711746
2.6619868 -2.0881877 2.8249600 16711746
3.0468469 -2.0205667 2.7225640 16711746
3.1368241 -2.5147986 2.7499297 16711746
3.6932373 -3.1451464 3.8424637 16711746
1.5286394 -3.0071001 4.0666561 16711746
1.7659473 -2.2480652 3.1860585 16711746
3.6380939 -2.5984890 2.7536535 16711746
2.2393193 -1.5991421 3.3041394 16711746
3.6042380 -2.7107747 3.3057823 16711746
2.8029771 -1.9419122 3.0695627 16711746
1.6414798 -2.7948747 3.0256574 16711746
3.1893666 -3.2340400 3.9716539 16711746
3.2158074 -3.3045785 3.9900670 16711746
2.8081160 -2.5267792 3.5253072 16711746
3.0483382 -2.7120202 3.1476429 16711746
2.8900907 -3.0518742 3.8165264 16711746
3.3633888 -3.0429165 3.7418008 16711746
2.8313358 -2.6403701 3.4660826 16711746
3.1784904 -2.4341388 2.7259991 16711746
1.6000141 -2.8359435 3.9846141 16711746
2.9160061 -2.8919911 3.4688046 16711746
3.1484184 -3.1750369 4.0110116 16711746
0.9771310 -3.6185970 4.5939579 16711746
3.3843350 -2.6514421 3.2840297 16711746
3.1025615 -3.0317233 3.6401727 16711746
3.0715101 -2.9964895 3.6083040 16711746
3.2567399 -2.7926152 3.8678615 16711746
3.0943766 -3.0307505 3.6419842 16711746
2.7651839 -2.5816488 3.4500723 16711746
3.4723246 -2.8813536 3.3637760 16711746
2.6409824 -2.7350662 3.5535011 16711746
3.5349054 -2.5907736 3.0309517 16711746
2.8589919 -2.5352683 3.0088227 16711746
3.1182940 -2.2042227 2.6812434 16711746
2.7361205 -3.0518577 3.7862318 16711746
2.9202371 -3.1124084 3.4715123 16711746
1.5250263 -2.7821398 4.0795574 16711746
2.9464340 -2.8396051 3.4869101 16711746
3.1394670 -3.2278023 3.9223509 16711746
3.4388907 -2.4500847 2.7224183 16711746
2.0851493 -2.1784306 3.6557336 16711746
2.9803772 -2.1620641 3.2178867 16711746
2.6541367 -2.3363068 3.3366828 16711746
2.6996067 -2.2913485 2.9740882 16711746
3.2668025 -2.1991019 2.5607481 16711746
2.7442729 -2.6402745 3.3878701 16711746
2.9291453 -2.1679354 2.6539257 16711746
2.8613901 -2.6332123 3.3684344 16711746
3.6248212 -3.0620933 3.8275423 16711746
2.8511064 -2.7100711 3.2291062 16711746
3.0391190 -2.6764810 3.5325809 16711746
3.5449255 -2.9480271 4.0987520 16711746
2.9040656 -2.4673119 3.5995743 16711746
2.5299168 -1.9758903 3.4207194 16711746
3.2320411 -2.3307900 3.0843282 16711746
2.4865732 -2.7811241 3.4542670 16711746
2.6422937 -2.8030229 3.5821013 16711746
2.6529956 -2.7512801 3.4525409 16711746
3.1077402 -3.1049843 3.8449497 16711746
2.6944115 -2.6145568 3.4466579 16711746
1.0965090 -2.8075526 3.8140886 16711746
3.3041780 -3.0354149 3.5460484 16711746
3.2065117 -3.2320867 3.9706562 16711746
2.8057780 -2.7378721 3.4666386 16711746
2.7405715 -2.5306616 3.2448654 16711746
2.7762065 -2.7500091 3.7912774 16711746
3.4115205 -2.9360340 3.4175863 16711746
3.1155066 -2.4828136 3.0972807 16711746
1.8389447 -3.4562380 4.8910942 16711746
3.0856404 -2.9179122 3.9704590 16711746
2.9384274 -3.0226128 3.6258354 16711746
2.5519028 -2.7262540 3.3183987 16711746
3.0817971 -3.1315491 3.6769814 16711746
3.2249510 -2.5136135 2.9259975 16711746
3.0582561 -2.4020550 3.1244419 16711746
2.5939305 -2.5748987 3.3134069 16711746
3.0951788 -2.5237594 3.0728874 16711746
2.7255957 -2.6312220 3.7696815 16711746
2.6280153 -2.6768658 3.4635568 16711746
2.7943416 -3.1510918 3.5236301 16711746
2.7943449 -2.7561815 3.2157419 16711746
3.0478289 -2.3907971 3.1213558 16711746
2.8031778 -2.3197517 2.9401946 16711746
2.6367586 -2.5937514 3.5217190 16711746
2.7001486 -3.1334188 3.6880865 16711746
2.7248998 -2.6051650 3.3934228 16711746
3.4676526 -2.9118471 3.6350858 16711746
2.9203024 -2.7490089 3.5307381 16711746
2.3629208 -2.6489599 3.2837114 16711746
2.1476071 -2.4588521 3.6683764 16711746
3.4841340 -2.9517694 3.6729443 16711746
2.7693172 -2.5946419 3.2270238 16711746
3.4611304 -2.8606379 3.3588612 16711746
2.9805164 -2.9548621 3.8723185 16711746
2.6484315 -2.7356164 3.4094443 16711746
3.3636940 -3.1753018 3.7582159 16711746
3.6181855 -2.9678066 3.0142267 16711746
3.2768035 -3.0199955 3.1748264 16711746
2.5103302 -2.8496282 3.2363884 16711746
3.2606356 -2.7242644 3.2340031 16711746
2.6932139 -2.5067801 3.0721436 16711746
2.7462683 -2.9424934 3.5903773 16711746
2.3246665 -2.7871220 3.6933155 16711746
2.6425338 -2.3546267 3.3275073 16711746
3.1327183 -2.7502580 3.5545733 16711746
2.7860503 -2.5131888 3.0428157 16711746
2.3699090 -2.4376445 3.3976643 16711746
2.7731900 -2.2600379 2.9977636 16711746
3.0162811 -3.0905924 3.5967808 16711746
2.9252903 -2.6412799 3.2956808 16711746
2.9295495 -2.4033592 3.0911410 16711746
3.0917134 -2.3090363 2.8026190 16711746
2.4188082 -2.5851607 3.2711380 16711746
2.5655179 -2.6994920 3.5382030 16711746
3.1851234 -2.4271531 2.7588391 16711746
3.4980390 -2.9566731 3.2739017 16711746
2.3270619 -3.3472486 3.4295173 16711746
3.1929426 -2.4846613 2.6797051 16711746
3.0690651 -2.5474823 3.0782535 16711746
3.2121584 -3.1727743 3.7182479 16711746
3.6116061 -2.7261047 3.0021822 16711746
1.3121982 -3.0886834 4.2146120 16711746
3.9925411 -2.9033933 2.5576046 16711746
2.8266432 -2.5552723 3.0976610 16711746
2.4245806 -3.2544599 3.4377692 16711746
1.6556523 -3.0144992 3.9663959 16711746
3.7072835 -2.5034406 3.0205843 16711746
3.5304229 -2.4143279 3.2095609 16711746
2.8096280 -2.3642685 3.1633925 16711746
3.0361800 -3.0243537 3.8900921 16711746
3.3926592 -2.9118798 3.4358754 16711746
3.0224590 -2.8606842 3.3577440 16711746
3.2620969 -3.3192317 4.0386190 16711746
2.9570074 -2.7115319 3.1191075 16711746
2.7850351 -2.8776877 3.4383354 16711746
3.3107989 -3.0789421 3.7906151 16711746
3.4422069 -2.6222942 3.0824685 16711746
2.7199719 -2.5437956 2.9372377 16711746
2.7055354 -2.4696791 3.1007991 16711746
2.6435292 -2.6350310 3.3708777 16711746
2.6787441 -2.9006963 3.5356834 16711746
2.4581625 -2.4179089 3.2798944 16711746
2.2844591 -2.4773924 3.2767770 16711746
2.2771089 -2.7423804 3.5702260 16711746
3.3695266 -2.6207118 2.8098993 16711746
2.2923267 -2.4112680 3.2892628 16711746
2.3826320 -2.4122748 3.5196950 16711746
2.7307994 -2.6546147 3.1116009 16711746
2.7132833 -2.5151114 3.2642720 16711746
1.7367818 -2.5527267 4.0062203 16711746
2.5456567 -2.4350131 3.4288795 16711746
2.8121045 -3.2028685 3.5029447 16711746
2.5789578 -2.8330877 3.6606464 16711746
2.2748203 -2.5612872 3.2537825 16711746
1.7928945 -2.5391393 3.7441676 16711746
1.7739125 -2.5033405 3.8943861 16711746
1.7062559 -2.6656215 3.7077627 16711746
3.4444058 -2.5317676 2.9135981 16711746
2.6671124 -2.6222405 2.9767883 16711746
2.5834737 -2.6785269 3.6687882 16711746
1.8133022 -2.4979844 3.7669775 16711746
2.8134785 -2.5827649 3.2252555 16711746
2.9220843 -2.3794608 3.0776079 16711746
2.4427888 -2.5836320 3.4246368 16711746
2.7279861 -2.5595932 3.5087993 16711746
2.8148534 -2.7160294 3.1653094 16711746
2.1990011 -2.5058694 3.4655521 16711746
2.6858106 -2.7297211 3.5365119 16711746
2.7806556 -2.6149349 3.4363966 16711746
2.6978779 -2.4720666 2.9727974 16711746
2.4471238 -2.8319380 3.8925881 16711746
2.4364147 -3.0330946 3.7481625 16711746
2.5998230 -2.5910211 3.0662961 16711746
2.9110012 -2.4112492 3.0494168 16711746
2.4114490 -3.1689672 4.0101109 16711746
2.5849159 -2.5430429 3.1296508 16711746
2.3980200 -3.1565111 4.0052705 16711746
2.1741502 -2.6505694 3.6374438 16711746
3.7770267 -2.6704566 2.6814482 16711746
2.4255233 -2.9047778 3.4963503 16711746
2.8213305 -2.4338706 3.2633390 16711746
2.5561538 -2.5047665 3.7372000 16711746
1.3014839 -2.4827504 3.8313165 16711746
2.6109886 -2.8337166 3.5063353 16711746
1.5051103 -3.6729228 4.5600586 16711746
2.8592000 -2.6822667 3.4576743 16711746
2.5260804 -2.8796980 3.7122824 16711746
3.0599213 -3.4432678 4.1554532 16711746
2.5184698 -2.3154390 3.1874096 16711746
2.9402122 -2.4229009 3.0571573 16711746
3.2428203 -2.4795966 2.8959479 16711746
1.2006124 -3.2664666 4.0936847 16711746
2.7472394 -2.5658278 3.2067866 16711746
2.8573008 -2.6781614 3.3093078 16711746
3.0828083 -2.8149652 2.9835238 16711746
2.7961264 -2.6333220 3.3393726 16711746
1.3442724 -2.8969743 4.2458568 16711746
1.4417921 -2.7141373 4.1245780 16711746
2.5628967 -2.5685754 3.4016991 16711746
3.1405911 -2.7820854 3.2588310 16711746
3.1216455 -2.9195340 3.2756538 16711746
2.8702774 -2.5630713 3.5312181 16711746
2.9173265 -3.1188514 3.6873798 16711746
2.8052495 -2.5981627 3.4044638 16711746
3.1971898 -2.6640444 3.2868974 16711746
3.0917006 -3.6433227 4.2258611 16711746
3.4084499 -2.9195616 3.4310083 16711746
3.3584020 -3.0588908 3.7553062 16711746
2.9523716 -2.2409132 2.7362566 16711746
2.7309544 -2.6220090 3.4226055 16711746
2.4199665 -2.5565295 3.3705888 16711746
2.2611227 -3.8095863 2.5992100 16711746
3.2153285 -2.7083039 3.1951592 16711746
2.8866951 -2.4568434 3.2352386 16711746
2.9460957 -2.7686012 3.1605055 16711746
3.0468657 -2.8129930 3.4743791 16711746
3.1549301 -2.7804499 3.0976570 16711746
2.8580580 -2.5990481 3.1549039 16711746
3.2744377 -3.4410322 3.5820034 16711746
2.4083204 -2.4457891 3.4894099 16711746
2.1549160 -2.7517364 3.8096125 16711746
3.1336715 -2.3513217 3.0968194 16711746
2.2447410 -2.8608105 2.9380174 16711746
3.0046227 -2.8225400 3.5988915 16711746
2.9579575 -3.0570672 3.6246948 16711746
2.6622453 -2.1478484 3.0116649 16711746
2.8234076 -2.3147421 3.2231145 16711746
2.7105498 -2.6460638 3.4698400 16711746
2.8311183 -2.6832252 3.2759051 16711746
2.7882919 -2.4345198 3.3666592 16711746
2.0878956 -2.7107980 3.6805754 16711746
2.4606562 -2.4708288 3.3694234 16711746
3.4480693 -2.7423601 2.9779463 16711746
2.3895586 -3.0623438 3.9883051 16711746
2.7456763 -3.0075788 3.5736916 16711746
2.7067022 -2.6119795 3.1104109 16711746
2.1113470 -2.6060312 3.6753392 16711746
4.1668668 -3.2786434 2.2062223 16711746
2.9416809 -2.2634346 2.9144745 16711746
2.2450101 -2.7475579 4.0533571 16711746
2.1350670 -2.9222937 3.7808249 16711746
2.4335480 -2.6288698 3.9020014 16711746
2.2682984 -2.8899531 3.6361291 16711746
2.6175828 -2.4088690 3.4085879 16711746
2.4387932 -3.8643570 4.6043963 16711746
2.3383253 -2.5286229 3.8548703 16711746
2.9666302 -2.5824537 3.9042985 16711746
2.8015220 -2.6809905 3.4562273 16711746
2.1623254 -2.4631603 3.4719074 16711746
3.1209881 -2.5172701 3.2486486 16711746
3.5894377 -2.8730187 2.9350061 16711746
2.7627125 -2.4546173 3.0668788 16711746
2.6964071 -2.7498448 3.6038356 16711746
3.9212151 -3.4665358 3.8738267 16711746
3.5237081 -2.8924112 4.0926805 16711746
3.0978272 -2.9004488 3.9496598 16711746
3.5664735 -2.6471999 2.9578772 16711746
3.5150130 -2.5728223 2.8360252 16711746
3.4853222 -3.3027368 3.8419218 16711746
2.1805093 -3.5235138 2.6975870 16711746
3.3560643 -2.8047035 3.3767545 16711746
2.7356555 -2.5363989 3.2911210 16711746
2.9048278 -3.6327186 3.8112392 16711746
2.6433470 -2.7224712 3.6958938 16711746
3.2761028 -3.1178324 3.5920932 16711746
2.8415568 -2.5947747 3.3299558 16711746
3.3493118 -2.6916440 3.3858314 16711746
2.6585543 -2.6329975 3.4460430 16711746
2.2767937 -2.5003095 3.3579304 16711746
2.8265636 -2.5961370 3.4719937 16711746
2.0919037 -2.6294794 3.5059159 16711746
2.3629189 -2.2229214 3.2860112 16711746
2.8885906 -2.9913423 3.6875010 16711746
2.9242759 -2.5409729 3.2054653 16711746
2.5316048 -2.7415183 3.5657325 16711746
2.6538327 -2.3718693 3.0597596 16711746
2.2556405 -2.2643380 3.4129038 16711746
2.3274636 -2.2835970 3.2630715 16711746
2.5350256 -2.7620447 3.5613036 16711746
2.6564951 -2.4471941 3.2237358 16711746
2.6958604 -2.7434385 3.3327715 16711746
2.8176565 -2.6224067 3.1619699 16711746
2.4023991 -2.2616332 3.3258538 16711746
2.1298776 -2.6341045 3.7161338 16711746
3.0136731 -2.2165747 2.9352765 16711746
2.2392392 -2.7971888 3.7891417 16711746
2.0928249 -2.6505742 3.5482037 16711746
2.0942547 -2.5891917 3.5631201 16711746
3.0172698 -2.1416817 3.2537615 16711746
2.6192009 -2.2108521 3.0837641 16711746
2.1055071 -2.7657232 3.5024712 16711746
2.9367282 -2.6499643 3.2913029 16711746
2.6548822 -2.4269457 3.1509569 16711746
2.5318968 -2.7360353 3.5894692 16711746
2.8912086 -2.5633712 3.1500921 16711746
2.7240834 -2.5851781 3.4497259 16711746
3.0319028 -2.5770059 3.1267979 16711746
3.1736102 -2.6663253 3.3136027 16711746
2.8175960 -2.3654819 2.9766371 16711746
2.8066399 -2.4722295 3.2193794 16711746
3.0865824 -2.6667562 3.2818515 16711746
2.9157574 -2.6788154 2.9211566 16711746
3.4787374 -4.0062127 3.4536111 16711746
2.7006338 -2.6573730 3.4396691 16711746
3.6184564 -2.8023925 2.4032497 16711746
2.4550288 -2.5575221 3.2576993 16711746
2.7251897 -2.4908762 3.3158517 16711746
2.5882623 -2.4708951 3.0732832 16711746
2.9197004 -3.1247509 3.6873779 16711746
3.4683774 -2.8740427 3.5220888 16711746
3.6880128 -2.8310728 2.9757092 16711746
2.9087908 -4.0104771 4.5339947 16711746
2.8266232 -3.6379547 4.4348831 16711746
2.8030488 -2.3088696 3.5862367 16711746
3.0139024 -2.5204449 3.6085930 16711746
1.6625762 -3.1027875 3.9027407 16711746
2.2178557 -3.0814788 4.0143132 16711746
2.9590387 -2.5186348 3.2273328 16711746
2.1723347 -2.8929131 3.4399469 16711746
2.1519508 -2.5813541 3.4918187 16711746
2.6199391 -2.6390188 3.5807812 16711746
2.3595223 -2.4089487 3.4861121 16711746
2.8167729 -2.9178159 3.8359900 16711746
2.4161527 -2.2244866 3.4638672 16711746
2.4920290 -2.3043313 3.3725471 16711746
2.8218331 -2.4531937 3.1908393 16711746
2.7871187 -2.5716465 3.3054655 16711746
2.8012409 -2.3582165 3.0829625 16711746
3.0572586 -2.4206975 3.1001291 16711746
3.2863746 -3.3202848 3.7066548 16711746
2.7104263 -2.4283755 3.3182135 16711746
2.4617364 -2.2905715 3.3603311 16711746
2.8736973 -2.2983081 3.1603081 16711746
2.1004817 -2.9198918 3.8288853 16711746
2.1332350 -2.6395879 3.5960999 16711746
1.8815907 -2.4556835 3.5963666 16711746
1.9649748 -2.5936420 3.7638624 16711746
2.9696426 -2.7173407 3.4866908 16711746
2.1040790 -2.3725479 3.6767893 16711746
2.8641951 -1.8447095 3.2978020 16711746
2.8489506 -2.5458090 3.2570088 16711746
2.9590218 -2.4337840 3.2097015 16711746
1.7219268 -2.7837274 3.5701571 16711746
3.3995366 -2.7986042 3.6739595 16711746
2.4933593 -2.4179592 3.3428423 16711746
1.8017019 -2.6008096 3.5944145 16711746
2.0952444 -2.7713621 3.8487837 16711746
2.8855102 -1.8738686 3.2779694 16711746
3.2894509 -3.4578910 3.8841472 16711746
2.9905713 -2.4958463 3.5358367 16711746
1.3173321 -3.1338789 4.3432136 16711746
3.1240613 -2.5068622 3.7760966 16711746
3.2070615 -2.4772773 3.4393122 16711746
2.6323762 -2.7014310 3.4678342 16711746
2.0840209 -2.5284586 3.4496000 16711746
2.4521017 -2.4964812 3.4359958 16711746
2.5285678 -3.3780780 4.0558367 16711746
2.5816045 -2.5689068 3.3519127 16711746
2.9321949 -2.4131558 2.9898109 16711746
2.1005533 -2.4949257 3.4487224 16711746
2.5433350 -2.4544191 3.4030588 16711746
2.0741947 -2.6970572 3.7114518 16711746
2.6472573 -2.1547370 3.5019124 16711746
2.2940092 -2.5176950 3.2609622 16711746
2.7662747 -2.3989062 3.7190211 16711746
3.1591890 -2.3526504 2.9570017 16711746
1.6459073 -3.5119431 3.8344944 16711746
2.7437091 -3.1034801 3.8527627 16711746
2.7989287 -2.5001922 3.7184739 16711746
3.0131626 -2.7146573 3.4466584 16711746
1.7696941 -2.8588579 3.8691702 16711746
2.8137052 -2.2105277 3.2500267 16711746
2.4050276 -2.4290144 3.3783517 16711746
2.0977371 -2.7066996 3.7290924 16711746
2.4957781 -2.3013899 3.3440449 16711746
2.3276994 -2.9324338 3.9165759 16711746
2.6421096 -2.7286661 3.4564672 16711746
2.3188605 -3.4653687 4.0780826 16711746
2.9866154 -2.4289024 3.0823495 16711746
3.1849256 -2.5650928 3.2036302 16711746
3.0062339 -2.5096567 3.6212020 16711746
2.6592102 -3.3736329 4.0217080 16711746
1.6072080 -3.5537064 3.0161865 16711746
2.6445358 -2.5561969 3.6323071 16711746
2.7686274 -2.8911538 3.4894297 16711746
2.8380318 -2.2450440 3.2032347 16711746
1.8211143 -2.7967813 3.9844215 16711746
3.2691615 -2.3248444 3.2677364 16711746
2.4764795 -3.0004175 3.9301138 16711746
2.8040714 -2.8967841 3.6293495 16711746
1.9284970 -2.8856256 3.7369530 16711746
3.2912133 -2.3530204 3.2588677 16711746
2.8388016 -2.5192282 3.2476823 16711746
2.4489367 -2.1172078 3.3956423 16711746
2.7483914 -2.4169259 3.3211915 16711746
1.4731181 -3.3518517 3.9857447 16711746
2.7504504 -2.5744815 3.5956328 16711746
2.6181479 -2.1697497 3.3771884 16711746
2.0735819 -2.5446024 3.7045372 16711746
2.7137630 -2.2951086 3.3670757 16711746
2.6939259 -2.6099598 3.5232754 16711746
2.5392518 -2.3491824 3.4328160 16711746
2.0491028 -2.6233883 3.7033129 16711746
2.5195551 -2.2826033 3.4260511 16711746
2.1000872 -2.5859346 3.5634694 16711746
2.6050282 -2.2798815 3.2910025 16711746
2.4868367 -2.8766572 3.6378310 16711746
3.9370408 -2.5446277 3.0678303 16711746
1.7419040 -2.7888536 3.6312878 16711746
2.7012572 -2.3010895 3.5799012 16711746
2.0080292 -2.5931785 3.6427414 16711746
2.4086711 -2.5597675 3.4909589 16711746
2.5414379 -2.2942574 3.4410706 16711746
2.6024177 -2.0175669 3.3416593 16711746
2.5852571 -2.1892614 3.3435109 16711746
1.9208367 -2.4406824 3.7419314 16711746
2.7985168 -2.4884567 3.1316705 16711746
2.3814571 -2.8430400 3.5912700 16711746
1.8747516 -2.5200591 3.6500535 16711746
2.2888873 -2.3260589 3.4713631 16711746
2.5310545 -3.2467594 4.0332561 16711746
2.9056365 -2.0494673 3.2238832 16711746
3.0808065 -2.3941336 3.4260390 16711746
2.8817148 -2.2322416 3.2390268 16711746
2.3090510 -2.4250884 3.3004739 16711746
2.5556366 -2.2663872 3.3446789 16711746
3.1287889 -2.6606238 3.4008002 16711746
2.8197734 -2.3080838 3.3250422 16711746
2.7038834 -2.2345824 3.5072145 16711746
2.9602046 -2.4880414 3.1703522 16711746
2.8667028 -2.2040908 3.2539985 16711746
3.0575671 -2.1372147 3.2975457 16711746
2.6805432 -2.3905034 3.3146589 16711746
2.9168758 -2.1974902 3.7304659 16711746
3.0403571 -2.5756896 3.6090367 16711746
2.6312399 -2.0947821 3.5176713 16711746
2.9818466 -2.4614604 3.5369573 16711746
2.0795925 -2.4672780 3.3758540 16711746
2.6871872 -2.4147224 3.3064077 16711746
2.3358769 -2.8061035 3.1590493 16711746
3.0430727 -2.1213453 3.0549672 16711746
2.5882206 -2.2860863 3.4336922 16711746
1.8434179 -2.5396118 3.4337418 16711746
2.4568646 -2.3421247 3.3425791 16711746
2.9593067 -2.2780914 3.3086667 16711746
3.0093055 -2.3991647 3.4261906 16711746
2.5388253 -2.3814018 3.3856528 16711746
1.7878660 -2.8859496 3.3769369 16711746
3.3551693 -2.5907781 3.7762418 16711746
3.2010167 -2.5779076 3.6358812 16711746
2.9979129 -2.2031226 3.1702969 16711746
3.1117823 -2.4022722 3.5065820 16711746
2.8212886 -2.3197355 3.2209237 16711746
2.2202742 -2.5445466 3.2633536 16711746
2.9863534 -2.3358884 3.3087368 16711746
3.1298900 -2.1753490 3.3007634 16711746
2.5428474 -2.1950123 3.3744781 16711746
2.9441659 -2.3549116 3.4902904 16711746
2.3494279 -2.3300881 3.3300118 16711746
3.4408579 -2.4500000 2.9063313 16711746
2.7494059 -2.2784374 3.1777637 16711746
3.0309162 -2.1007547 3.4695013 16711746
2.7151468 -2.3181787 3.2550199 16711746
1.7162802 -2.6321425 3.5740905 16711746
2.7133477 -2.2936523 3.2669089 16711746
2.6296184 -2.5954177 3.6313462 16711746
2.4821391 -2.5326109 3.5534520 16711746
2.6874459 -2.3037403 3.3531971 16711746
2.3767188 -2.2944124 3.3983009 16711746
0.6172150 -2.9383912 4.0092492 16711746
3.0952110 -2.6897304 3.5531704 16711746
2.4969425 -2.2830932 3.4732842 16711746
2.4639893 -2.3480029 3.3996260 16711746
2.4572597 -2.3307767 3.4581628 16711746
2.5807049 -2.5464270 3.6636362 16711746
1.5273176 -2.8374052 3.5866880 16711746
1.4815471 -3.0488803 3.9604850 16711746
2.7948973 -2.3566761 3.3226931 16711746
2.8604236 -2.2467492 3.1432395 16711746
2.6170456 -2.3585837 3.7335417 16711746
2.6257601 -2.5766506 3.4407866 16711746
2.4996917 -2.8654289 3.9382200 16711746
2.6213884 -2.5362074 3.4526513 16711746
2.4968565 -2.3549531 3.3725729 16711746
3.0664968 -2.4870296 3.7409952 16711746
2.9486074 -2.2253058 3.3701959 16711746
2.7843840 -2.4333613 3.2251112 16711746
3.0562863 -2.7432120 3.7071681 16711746
3.0453947 -2.1972442 3.1707692 16711746
3.1932404 -2.2751241 3.1900587 16711746
2.9095039 -2.0537925 3.2152724 16711746
2.5898910 -2.5512378 3.4790952 16711746
2.8215125 -2.7061160 3.6793234 16711746
2.6220284 -2.5234258 3.4539478 16711746
3.0316603 -2.5580630 3.5752680 16711746
2.7793989 -2.4549689 3.2429168 16711746
