# .PCD v.7 - Point Cloud Data file format
VERSION .7
FIELDS x y z rgb
SIZE 4 4 4 4
TYPE F F F F
COUNT 1 1 1 1
WIDTH 169
HEIGHT 1
VIEWPOINT 0 0 0 1 0 0 0
POINTS 169
DATA ascii

0.0269529 0.7779999 -2.1019371 16711746
-0.6779865 0.5498723 -1.9294336 16711746
-0.4866755 0.5145576 -1.7958417 16711746
-0.6176088 0.5168937 -1.7644008 16711746
-0.7737791 -1.2054913 -1.1798987 16711746
-0.4760956 -1.0209240 -1.0239491 16711746
-0.7199294 -0.3001696 -1.7010554 16711746
-0.7658373 -1.2173220 -1.2118758 16711746
-0.1056916 -1.2640382 -1.4332017 16711746
-0.8974922 -1.2845503 -1.2557557 16711746
-1.1150954 -1.2336876 -0.9818840 16711746
31.9736061 -126.6837463 141.3768616 16711746
33.3087807 -92.9800491 145.9632874 16711746
33.2492027 -174.2233887 119.0412903 16711746
36.3401299 -181.9153748 117.9383392 16711746
82.0890045 -225.2780304 63.0729027 16711746
44.2566872 -178.9805603 114.6182480 16711746
45.3912926 -195.0518646 104.2408905 16711746
43.5830345 -166.0911255 126.8289642 16711746
47.5105782 -196.3882294 97.2074051 16711746
115.0441895 -238.3033295 38.8620415 16711746
-38.9894028 -71.6298218 -56.6359863 16711746
18.2522964 -146.2983246 143.6663361 16711746
72.4273071 -216.1563416 78.1323853 16711746
130.5439606 -240.1610413 41.5128555 16711746
139.7374878 -246.4325409 56.6202202 16711746
94.0875778 -225.9769135 64.4267197 16711746
100.4013596 -232.6424866 50.2225723 16711746
31.3735580 -195.0176697 103.5014572 16711746
56.0521927 -199.9053802 99.3045807 16711746
59.4065895 -202.8322601 89.1710205 16711746
26.3368073 -185.5948639 113.5065384 16711746
1.6311733 -159.1997375 143.0685730 16711746
3.3472407 -169.6556244 135.0560913 16711746
0.1819651 -148.8274384 140.6591034 16711746
-60.1465111 -125.4615326 -45.5580940 16711746
24.8615837 -118.1167221 149.6140594 16711746
33.6629181 -152.7302856 135.9649963 16711746
126.5247955 -241.7773438 55.1403999 16711746
36.9207382 -132.5894470 142.7216187 16711746
29.1442966 -248.3626099 76.2778397 16711746
25.7929192 -131.7536316 144.1362915 16711746
31.9619007 -139.7463837 141.1998138 16711746
27.8935223 -98.2109222 149.5170746 16711746
25.9633884 -116.3152466 146.8199615 16711746
32.0331116 -97.2315216 143.8524933 16711746
17.7454472 -143.2972260 140.7387695 16711746
113.8864899 -235.1943207 38.2752609 16711746
23.2088985 -156.4205017 134.7221222 16711746
31.3898849 -162.5973663 131.0965271 16711746
28.4198322 -170.1176300 124.6115570 16711746
19.4578037 -153.8699036 135.7991638 16711746
105.3845215 -231.0610352 56.1515121 16711746
-62.2984543 -120.5060349 -52.9342957 16711746
127.0369873 -241.0345612 37.9494781 16711746
38.6981506 -186.6340790 113.0120544 16711746
33.6291351 -188.6620178 104.3178253 16711746
42.1416740 -158.5623627 132.6392212 16711746
40.3902817 -170.1519775 126.0164413 16711746
26.3375664 -171.2604675 120.5920410 16711746
44.1857986 -165.6993103 125.5848846 16711746
52.9636307 -196.8780212 103.0055847 16711746
-60.5202560 -130.8089447 -59.3303146 16711746
37.9824638 -210.7697754 80.7000275 16711746
48.5995674 -201.2565918 97.4701843 16711746
44.2675095 -191.1253204 101.4401245 16711746
48.1996231 -185.0308990 114.5736771 16711746
37.4225502 -212.4444733 77.3143616 16711746
45.1549492 -213.0163116 77.9636002 16711746
59.6374092 -202.9935913 89.1932755 16711746
104.5550003 -230.7558746 48.6143532 16711746
38.2249374 -185.2718811 111.0836411 16711746
35.1570129 -130.7832947 141.4393311 16711746
35.5638885 -122.3986359 145.2241974 16711746
25.8639603 -185.7317352 113.3879776 16711746
30.2831497 -159.8291931 132.6656799 16711746
15.9342794 -199.5614166 73.3828354 16711746
-63.4310074 -120.2221451 -53.1658669 16711746
65.0143356 -197.0526581 96.2771759 16711746
56.0809059 -198.7193146 91.7787933 16711746
105.0246811 -227.8827057 57.9405708 16711746
30.8234119 -160.1682739 132.5587463 16711746
33.9572258 -157.2090302 130.2687225 16711746
61.0448303 -209.3246765 83.8304901 16711746
62.3496513 -207.1881866 91.0021133 16711746
-84.8206024 -156.0689850 -28.0923347 16711746
84.4149323 -222.2893372 69.6034317 16711746
-72.5330276 -150.9216309 -36.9896355 16711746
899.0527954 -1982.6207275 736.5313721 16711746
150.2971191 -258.1920471 180.4938660 16711746
117.5964508 -238.2678070 50.2296143 16711746
44.5461121 -194.8095551 104.7606125 16711746
31.3756237 -173.7153625 120.7061386 16711746
38.3792686 -184.6235657 111.2566833 16711746
33.7709656 -153.2043762 135.7538757 16711746
34.3911781 -161.2353668 131.6417389 16711746
48.0838776 -198.0119171 96.9403915 16711746
71.7642593 -216.8013916 71.1953506 16711746
58.7130051 -211.8467255 78.1647797 16711746
59.1782837 -208.6688232 88.1403961 16711746
27.9276772 -168.4423218 124.0407028 16711746
-6.2051568 -147.8125763 142.2802124 16711746
-73.0003433 -150.6756592 -37.3050728 16711746
-54.7763405 -103.6644363 -57.8733330 16711746
-51.6356583 -107.5826797 -56.8988190 16711746
-50.1262245 -96.1442947 -59.2554092 16711746
100.7483902 -232.3931732 50.6837883 16711746
81.4570999 -224.8408661 63.3639641 16711746
136.8093262 -236.6069489 41.9092331 16711746
46.4487686 -181.0678864 113.7409286 16711746
33.0778885 -175.3416138 118.6684418 16711746
36.1715279 -181.3255005 117.5676956 16711746
38.8915672 -158.8752594 130.0574951 16711746
38.7283249 -167.5274811 127.7798157 16711746
57.9757576 -201.6702118 87.0740509 16711746
25.5637550 -123.9432831 149.5279999 16711746
117.9891434 -238.4726715 50.2177925 16711746
118.3679886 -232.9714813 48.3165283 16711746
33.6817436 -153.0752411 135.8773956 16711746
34.1188850 -158.9568329 130.6424713 16711746
38.7283249 -167.5274811 127.7798157 16711746
18.7124214 -186.9185181 74.9184647 16711746
-72.7689209 -150.9640961 -37.1884651 16711746
71.7542877 -217.0913696 71.8349457 16711746
104.3306961 -227.2691650 73.4242249 16711746
36.3481178 -190.1385193 106.7122040 16711746
143.5207672 -243.1180573 39.8457756 16711746
35.2096596 -67.8390121 138.8659210 16711746
35.2738876 -140.1301575 140.7654266 16711746
91.0844116 -231.7863007 47.5644302 16711746
38.1872063 -183.9218445 111.1048965 16711746
33.8939705 -153.1289673 135.9170685 16711746
36.6080933 -204.1056519 80.5634232 16711746
56.1954842 -200.3879395 98.9127350 16711746
60.7174683 -211.6684418 83.7743073 16711746
35.3476944 -73.2105637 140.1825409 16711746
35.7898407 -89.0119019 145.0612793 16711746
34.6458588 -113.8102112 145.9421844 16711746
27.6220417 -237.4707184 90.5622406 16711746
26.4973717 -241.8061066 87.6247101 16711746
23.1383400 -72.3922577 -2.0322351 16711746
22.7121506 -38.5073166 25.3492451 16711746
50.9379044 -204.7082977 84.7184296 16711746
32.3981171 -138.8897247 141.4683075 16711746
26.6854763 -174.1927490 122.7137756 16711746
-57.9329948 -120.6923294 -55.2210274 16711746
-72.1774368 -150.2936859 -37.6260300 16711746
29.9270382 -155.4371338 131.4718323 16711746
34.4102974 -66.6248398 138.0350189 16711746
35.0987396 -113.3716583 146.0163422 16711746
37.6944046 -131.5769653 143.1219482 16711746
31.7642117 -96.8691254 144.3235474 16711746
38.4136620 -151.5301971 136.2491760 16711746
50.7866325 -201.1696014 94.1754684 16711746
34.9563942 -204.1452026 79.6148224 16711746
33.8339996 -193.5025940 101.2038803 16711746
67.3483810 -206.0013275 87.2620392 16711746
35.3831520 -67.9887543 138.8814087 16711746
35.0676422 -114.1918106 146.0036163 16711746
27.8133602 -251.5463715 101.1421509 16711746
125.7764511 -240.6488495 37.8539467 16711746
31.9668617 -127.0003815 142.2521667 16711746
50.4419479 -195.2518463 104.8396072 16711746
-4.8802876 -157.3391266 136.9910278 16711746
30.1680813 -159.7570801 132.6393433 16711746
48.3624954 -194.3678589 102.3520508 16711746
48.1007767 -203.6252747 90.7490463 16711746
36.1568336 -191.3590546 104.6819992 16711746
61.1927834 -211.6499939 83.8370514 16711746
