# .PCD v0.7 - Point Cloud Data file format
VERSION 0.7
FIELDS x y z rgb
SIZE 4 4 4 4
TYPE F F F F
COUNT 1 1 1 1
WIDTH 348
HEIGHT 1
VIEWPOINT 0 0 0 1 0 0 0
POINTS 348
DATA ascii
0 0 0 16777215
-0.15527773 0.025646659 -0.0036469491 16777215
-0.15588389 0.027018383 -0.0083445329 16777215
-0.15768707 0.03132667 -0.013205343 16777215
-0.15584251 0.034998912 -0.018912179 16777215
-0.15899672 0.0338226 -0.02664135 16777215
-0.15760276 0.035811983 -0.031689145 16777215
-0.16917583 0.046148963 -0.047110703 16777215
-0.16990077 0.042532671 -0.051229712 16777215
-0.17005022 0.042575583 -0.051497925 16777215
-0.1671351 0.043274473 -0.055167098 16777215
-0.15650156 0.043074463 -0.068179332 16777215
-0.15565552 0.04356721 -0.07901749 16777215
-0.15383168 0.044572633 -0.082582437 16777215
-0.098553456 0.034542181 -0.11756219 16777215
-0.099050805 0.033589635 -0.11774305 16777215
-0.04428909 0.035382073 -0.15184687 16777215
-0.035496254 0.035579018 -0.1606535 16777215
-0.01607677 0.041183934 -0.17097823 16777215
-0.015249903 0.037914783 -0.16662779 16777215
-0.012534807 0.039703391 -0.14809419 16777215
-0.0075069373 0.034916911 -0.12674509 16777215
0.00154798 0.012331731 -0.060839452 16777215
0.0098764198 -0.00046286138 -0.015536509 16777215
-0.0042875982 0.020046342 0.041657522 16777215
-0.0033511471 0.033737537 0.11888104 16777215
0.0062808143 0.049068671 0.17453015 16777215
0.048365183 0.037025843 0.23271123 16777215
0.069394723 0.039749373 0.29764208 16777215
0.17512022 0.025846669 0.37315133 16777215
0.22947809 0.0020154393 0.42879051 16777215
0.27106971 -0.0064026602 0.4717592 16777215
0.29809114 -0.0050355331 0.53598964 16777215
0.32425433 -0.010231995 0.60286772 16777215
0.32478538 -0.010674166 0.71810645 16777215
0.32799706 -0.018858535 0.82318902 16777215
0.33245939 -0.013603833 0.89945614 16777215
0.33392921 -0.017473018 0.99650067 16777215
0.3507646 -0.021929206 1.0733517 16777215
0.39114162 -0.035567526 1.1721789 16777215
0.47360373 -0.062772125 1.2609348 16777215
0.5605213 -0.074236371 1.3531684 16777215
0.60772008 -0.083878294 1.4299014 16777215
0.64394057 -0.094393834 1.5240026 16777215
0.68701732 -0.097712032 1.6338845 16777215
0.69310194 -0.090838842 1.7585093 16777215
0.70084566 -0.11819825 1.9093262 16777215
0.7131843 -0.158576 2.0670753 16777215
0.75343257 -0.15411904 2.1416695 16777215
0.77300453 -0.15165454 2.2332094 16777215
0.84991693 -0.15166833 2.3342879 16777215
0.93916798 -0.17911586 2.4309018 16777215
0.97297752 -0.1971889 2.543519 16777215
1.0082095 -0.2043487 2.6323678 16777215
1.041435 -0.20279995 2.764117 16777215
1.0785689 -0.23866175 2.8815727 16777215
1.1104718 -0.26164696 2.9762561 16777215
1.1614724 -0.26689091 3.0679049 16777215
1.2378216 -0.28044418 3.1419642 16777215
1.3144029 -0.28414479 3.2047234 16777215
1.3729457 -0.31274793 3.262408 16777215
1.4421082 -0.33708569 3.3378949 16777215
1.513749 -0.36319447 3.5109215 16777215
1.5330536 -0.37345019 3.5977879 16777215
1.5424894 -0.39312792 3.6604264 16777215
1.5769709 -0.39356244 3.7371955 16777215
1.648841 -0.38300475 3.8543983 16777215
1.7393924 -0.40271008 3.9519219 16777215
1.8291676 -0.41269535 3.9879539 16777215
1.8689125 -0.42329362 4.094645 16777215
1.8900423 -0.43054995 4.1636891 16777215
1.8992206 -0.4492338 4.3072691 16777215
1.8987846 -0.46900424 4.4020038 16777215
1.9003165 -0.4969016 4.4798613 16777215
1.938589 -0.49932703 4.5463314 16777215
1.9539403 -0.50837582 4.6072345 16777215
2.0348511 -0.52497673 4.693861 16777215
2.113126 -0.52612317 4.7564964 16777215
2.1350355 -0.52279884 4.8371444 16777215
2.1614792 -0.52967817 4.9427576 16777215
2.1945469 -0.52622819 5.0283265 16777215
2.1986535 -0.52891105 5.1251731 16777215
2.1922569 -0.53350902 5.2091613 16777215
2.2093287 -0.55848056 5.3104177 16777215
2.255312 -0.58623463 5.3896351 16777215
2.2833412 -0.59752572 5.4598331 16777215
2.3413036 -0.61979818 5.4876328 16777215
2.4150035 -0.6286447 5.5170231 16777215
2.4535017 -0.63934106 5.545392 16777215
2.5049436 -0.68915921 5.6038065 16777215
2.5082364 -0.66758019 5.6636095 16777215
2.5178609 -0.67464572 5.71942 16777215
2.5354204 -0.69855666 5.8415666 16777215
2.5157006 -0.69845015 5.9575071 16777215
2.5183222 -0.70643532 6.0765376 16777215
2.5337138 -0.71332759 6.1441741 16777215
2.5408468 -0.71175051 6.2292695 16777215
2.6156244 -0.73311418 6.2871799 16777215
2.737438 -0.75935626 6.3572178 16777215
2.7787752 -0.78107321 6.4179363 16777215
2.8060381 -0.78884757 6.4801235 16777215
2.8234935 -0.79109138 6.5507722 16777215
2.8449047 -0.81086034 6.6707582 16777215
2.850095 -0.81584758 6.7577758 16777215
2.8624458 -0.82193148 6.826654 16777215
2.9172344 -0.8375982 6.8992782 16777215
2.999809 -0.85843313 7.0147462 16777215
3.064353 -0.86018187 7.0766344 16777215
3.1036019 -0.86962837 7.146739 16777215
3.1438189 -0.87245464 7.2306066 16777215
3.1689422 -0.89134151 7.3573618 16777215
3.1809871 -0.91014254 7.528357 16777215
3.1875844 -0.91623253 7.6066546 16777215
3.2085283 -0.92046189 7.6830072 16777215
3.2481971 -0.92181373 7.7617044 16777215
3.3745215 -0.95451367 7.9099574 16777215
3.4871218 -1.0029325 7.9891596 16777215
3.5324614 -1.0095298 8.0570278 16777215
3.5725808 -1.0210829 8.1822863 16777215
3.5928526 -1.0310682 8.3133717 16777215
3.6127956 -1.0354882 8.4514771 16777215
3.6776106 -1.0588751 8.6185246 16777215
3.7262948 -1.0587761 8.7087145 16777215
3.8059022 -1.0812227 8.7975769 16777215
3.8669775 -1.1151059 8.8772478 16777215
3.9066551 -1.1282437 8.9997978 16777215
3.9184761 -1.151242 9.1913252 16777215
3.9052243 -1.1681433 9.288126 16777215
3.932888 -1.1831702 9.4093819 16777215
4.0121822 -1.1896679 9.5291538 16777215
4.0766244 -1.2142816 9.6038704 16777215
4.1562986 -1.2389711 9.6855145 16777215
4.2119946 -1.2455109 9.7823553 16777215
4.230741 -1.2505786 9.9134254 16777215
4.2464557 -1.2654814 10.033356 16777215
4.2601051 -1.28979 10.115621 16777215
4.305059 -1.3076386 10.224386 16777215
4.3453822 -1.3033794 10.29755 16777215
4.4116206 -1.3325005 10.367506 16777215
4.4724727 -1.3455349 10.428382 16777215
4.4881597 -1.3591993 10.479954 16777215
4.4760513 -1.3693056 10.577169 16777215
4.4590383 -1.3901964 10.682678 16777215
4.4493909 -1.3974551 10.739737 16777215
4.4491897 -1.4058143 10.794126 16777215
4.5136623 -1.4239056 10.873516 16777215
4.6028614 -1.4446601 10.943521 16777215
4.700458 -1.477694 11.026145 16777215
4.7343497 -1.4938337 11.092723 16777215
4.7557425 -1.5043378 11.19165 16777215
4.7852249 -1.5195355 11.324171 16777215
4.8146787 -1.5271766 11.405386 16777215
4.8473706 -1.5426127 11.462064 16777215
4.954885 -1.5635794 11.496299 16777215
5.0968976 -1.5672494 11.520778 16777215
5.1581116 -1.558363 11.574219 16777215
5.1697388 -1.5475947 11.633046 16777215
5.2015896 -1.5357847 11.671669 16777215
5.2833815 -1.5634576 11.706723 16777215
5.3821583 -1.5715339 11.735958 16777215
5.4469495 -1.5787343 11.760354 16777215
5.4914355 -1.6015501 11.806692 16777215
5.5073576 -1.6122733 11.907862 16777215
5.5036397 -1.6189979 11.954993 16777215
5.5218887 -1.6123354 12.019089 16777215
5.5522537 -1.6287417 12.100116 16777215
5.58214 -1.6357384 12.161847 16777215
5.6360731 -1.645171 12.222906 16777215
5.6680465 -1.680855 12.310806 16777215
5.6962733 -1.6953325 12.370051 16777215
5.6851263 -1.701516 12.440277 16777215
5.6325402 -1.7152731 12.561108 16777215
5.5723186 -1.7268546 12.673594 16777215
5.5539808 -1.7370589 12.753215 16777215
5.5906143 -1.7563742 12.880761 16777215
5.6202497 -1.7854755 12.952844 16777215
5.6588302 -1.8138487 13.025153 16777215
5.6676707 -1.822679 13.092514 16777215
5.6653342 -1.8566979 13.21031 16777215
5.6307244 -1.8751502 13.344604 16777215
5.6323719 -1.8904301 13.452332 16777215
5.6665068 -1.9007487 13.549253 16777215
5.7427492 -1.9220548 13.668512 16777215
5.8186321 -1.9650941 13.760091 16777215
5.8574247 -1.9886807 13.85545 16777215
5.8753386 -2.0049131 14.00971 16777215
5.8812513 -2.037652 14.101172 16777215
5.909514 -2.0471745 14.202238 16777215
5.9472899 -2.0578043 14.298038 16777215
6.0647173 -2.0935104 14.415399 16777215
6.1364255 -2.1185784 14.500959 16777215
6.1700578 -2.1518502 14.629291 16777215
6.1677771 -2.1791775 14.761417 16777215
6.1703844 -2.2039549 14.852831 16777215
6.2107582 -2.2280996 14.955773 16777215
6.2578149 -2.2364082 15.054118 16777215
6.3549261 -2.2592204 15.170157 16777215
6.3906722 -2.2724371 15.246774 16777215
6.4215722 -2.2849765 15.350509 16777215
6.4364796 -2.3133414 15.494328 16777215
6.4559474 -2.3280971 15.59799 16777215
6.4765191 -2.3309216 15.665136 16777215
6.5421615 -2.3490384 15.78791 16777215
6.6600833 -2.3850665 15.931851 16777215
6.722784 -2.3789871 16.020744 16777215
6.7390018 -2.3956847 16.138136 16777215
6.7540159 -2.4115 16.255783 16777215
6.7723937 -2.4351652 16.369526 16777215
6.7998581 -2.4477649 16.46319 16777215
6.9066591 -2.4806166 16.60343 16777215
6.9772305 -2.5171874 16.698116 16777215
7.0135865 -2.5265172 16.773806 16777215
7.0339165 -2.5396082 16.90502 16777215
7.0353079 -2.5555673 17.002764 16777215
7.0817032 -2.5738242 17.130951 16777215
7.1293888 -2.5732601 17.2332 16777215
7.2419825 -2.5841949 17.36816 16777215
7.2746415 -2.5913746 17.445822 16777215
7.3022099 -2.6068752 17.546677 16777215
7.309113 -2.6228707 17.657959 16777215
7.2990427 -2.6428518 17.719034 16777215
7.3281097 -2.6489863 17.811417 16777215
7.3840609 -2.6764162 17.928322 16777215
7.4498663 -2.6907406 18.019197 16777215
7.4932294 -2.7002113 18.136137 16777215
7.5063715 -2.7149892 18.250807 16777215
7.5277791 -2.7445595 18.369005 16777215
7.543148 -2.7519283 18.454252 16777215
7.5940361 -2.7660036 18.561666 16777215
7.6812048 -2.7847831 18.681616 16777215
7.7379875 -2.8035798 18.766338 16777215
7.769001 -2.8243127 18.872499 16777215
7.7802467 -2.8393464 18.99214 16777215
7.8098111 -2.8638711 19.108883 16777215
7.831727 -2.8826499 19.204866 16777215
7.8841062 -2.8900812 19.285887 16777215
7.9835863 -2.9089146 19.40564 16777215
8.0350103 -2.9295292 19.495049 16777215
8.0610619 -2.9429424 19.591957 16777215
8.0684147 -2.9725187 19.719992 16777215
8.0943546 -3.0043349 19.812235 16777215
8.1371679 -3.0253332 19.916655 16777215
8.21136 -3.0441244 20.003502 16777215
8.2762175 -3.0643218 20.084351 16777215
8.30373 -3.0721951 20.182903 16777215
8.2997265 -3.0853627 20.282549 16777215
8.3148403 -3.1074505 20.390244 16777215
8.3390856 -3.1178641 20.451069 16777215
8.3841562 -3.126565 20.53755 16777215
8.4600096 -3.1538844 20.623158 16777215
8.4958 -3.1691527 20.672079 16777215
8.5401144 -3.1857331 20.753569 16777215
8.555275 -3.2045288 20.868467 16777215
8.5638695 -3.2237644 20.956411 16777215
8.586503 -3.2346079 21.032499 16777215
8.6262283 -3.2402074 21.089075 16777215
8.6806316 -3.262135 21.131693 16777215
8.7044935 -3.2732852 21.169619 16777215
8.7290993 -3.284924 21.225687 16777215
8.7429447 -3.2970214 21.294031 16777215
8.7578869 -3.3132858 21.364002 16777215
8.7840996 -3.3227079 21.41748 16777215
8.8251781 -3.3298624 21.468927 16777215
8.8718967 -3.3533349 21.513391 16777215
8.9093723 -3.3668275 21.57221 16777215
8.9243689 -3.3743401 21.642258 16777215
8.923871 -3.3898351 21.716253 16777215
8.9474859 -3.3980625 21.762859 16777215
8.9698811 -3.4053745 21.817612 16777215
9.0373478 -3.4326015 21.854954 16777215
9.0663757 -3.447305 21.888416 16777215
9.0851345 -3.4488542 21.936804 16777215
9.0925989 -3.4553673 21.995728 16777215
9.0927057 -3.4619884 22.042768 16777215
9.1040916 -3.4715278 22.095633 16777215
9.1342525 -3.4755709 22.159422 16777215
9.1780748 -3.4916322 22.215029 16777215
9.2241774 -3.5085742 22.273209 16777215
9.2420559 -3.5170598 22.328136 16777215
9.2527628 -3.5384111 22.396217 16777215
9.2674961 -3.5513229 22.45509 16777215
9.2775183 -3.5583923 22.507298 16777215
9.3112392 -3.5661354 22.561247 16777215
9.3289261 -3.5891197 22.619171 16777215
9.3544941 -3.5943854 22.652922 16777215
9.3989973 -3.6028025 22.698755 16777215
9.3868036 -3.6127305 22.761513 16777215
9.388464 -3.6252513 22.816545 16777215
9.3979921 -3.6359508 22.8689 16777215
9.4328394 -3.647032 22.926861 16777215
9.4671907 -3.6668038 22.974817 16777215
9.5054474 -3.6789541 23.024397 16777215
9.5200443 -3.6863329 23.074512 16777215
9.5282688 -3.6951978 23.129002 16777215
9.5476828 -3.7124472 23.191814 16777215
9.5565968 -3.7188177 23.246315 16777215
9.5928593 -3.7314866 23.314053 16777215
9.6270361 -3.7540042 23.361645 16777215
9.6484823 -3.7708826 23.405804 16777215
9.6663942 -3.7777741 23.465843 16777215
9.6642866 -3.8001294 23.533558 16777215
9.6596889 -3.8181441 23.599792 16777215
9.6872673 -3.8333924 23.659227 16777215
9.6883898 -3.8441694 23.707907 16777215
9.7378712 -3.8483374 23.75721 16777215
9.7470322 -3.8761613 23.821346 16777215
9.7650652 -3.882282 23.874517 16777215
9.7782459 -3.8955839 23.923309 16777215
9.802762 -3.8934717 23.970888 16777215
9.8404303 -3.9128377 24.022099 16777215
9.8837156 -3.9200835 24.048508 16777215
9.9069481 -3.9184196 24.086315 16777215
9.9238415 -3.9380512 24.149979 16777215
9.9327183 -3.9550116 24.205559 16777215
9.9396029 -3.9688525 24.252047 16777215
9.9644232 -3.9700048 24.299229 16777215
9.9850473 -3.9839888 24.354031 16777215
10.013767 -3.9978914 24.396599 16777215
10.051439 -4.0022674 24.450396 16777215
10.077331 -4.0116568 24.527035 16777215
10.085271 -4.0168381 24.580482 16777215
10.106401 -4.0255885 24.647892 16777215
10.135052 -4.0324011 24.697495 16777215
10.160363 -4.0286298 24.728176 16777215
10.178368 -4.0392466 24.766708 16777215
10.203891 -4.0447707 24.806601 16777215
10.226052 -4.0481992 24.845255 16777215
10.22823 -4.0606146 24.890923 16777215
10.244314 -4.0671277 24.931547 16777215
10.280377 -4.076118 24.968584 16777215
10.294958 -4.0768638 24.99548 16777215
10.307619 -4.0835142 25.044718 16777215
10.305626 -4.0950508 25.094025 16777215
10.317218 -4.1002736 25.133942 16777215
10.325956 -4.106287 25.168089 16777215
10.341128 -4.1108727 25.215256 16777215
10.348371 -4.1234937 25.252516 16777215
10.372972 -4.1296926 25.28883 16777215
10.384843 -4.1499825 25.332813 16777215
10.402523 -4.1572881 25.379797 16777215
10.393578 -4.1758895 25.431377 16777215
10.389786 -4.1942482 25.470097 16777215
10.400091 -4.1978321 25.515247 16777215
10.423523 -4.2140617 25.5609 16777215
10.441147 -4.2204971 25.584263 16777215
10.445968 -4.2320948 25.608694 16777215
10.440214 -4.231379 25.630251 16777215
10.432395 -4.2297077 25.642836 16777215
