# .PCD v.7 - Point Cloud Data file format
VERSION .7
FIELDS x y z rgb
SIZE 4 4 4 4
TYPE F F F F
COUNT 1 1 1 1
WIDTH 186
HEIGHT 1
VIEWPOINT 0 0 0 1 0 0 0
POINTS 186
DATA ascii

 0.0462202 0.0112031 -0.0344796 16777215
 0.0495210 0.0119441 -0.0333222 16777215
 0.0539008 0.0075572 -0.0322844 16777215
 0.0529321 0.0049829 -0.0319760 16777215
 0.0527127 0.0024371 -0.0328161 16777215
 0.0568977 0.0019961 -0.0289526 16777215
 0.0583655 -0.0032146 -0.0252943 16777215
 0.0661782 -0.0014598 0.0047959 16777215
 0.0739125 0.0009837 0.0293890 16777215
 0.0794664 -0.0033267 0.0399767 16777215
 0.0881252 -0.0012251 0.0549561 16777215
 0.1048010 0.0028262 0.0984798 16777215
 0.1252921 -0.0128221 0.1095454 16777215
 0.1311555 -0.0076713 0.1395361 16777215
 0.1498611 -0.0176526 0.1909193 16777215
 0.1493643 -0.0288144 0.1998211 16777215
 0.1800348 -0.0497537 0.2342588 16777215
 0.1901793 -0.0532549 0.2515110 16777215
 0.1901820 -0.0556867 0.2747374 16777215
 0.2073593 -0.0600733 0.3095326 16777215
 0.2092901 -0.0719984 0.3228895 16777215
 0.2273139 -0.0832937 0.3583288 16777215
 0.2392101 -0.1029825 0.3706456 16777215
 0.2700006 -0.0843910 0.4337141 16777215
 0.2933392 -0.0875660 0.4924897 16777215
 0.2994693 -0.1161535 0.5101181 16777215
 0.3116657 -0.1260552 0.5299152 16777215
 0.3253823 -0.1221135 0.5464998 16777215
 0.3337212 -0.1285973 0.5736035 16777215
 0.3378108 -0.1482730 0.5932229 16777215
 0.3540849 -0.1531412 0.5954884 16777215
 0.3648019 -0.1451147 0.6256743 16777215
 0.3871509 -0.1504778 0.6332431 16777215
 0.3965299 -0.1524964 0.6418589 16777215
 0.4076197 -0.1707081 0.6494784 16777215
 0.4157220 -0.1737091 0.6828848 16777215
 0.4294593 -0.1746329 0.7001212 16777215
 0.4538972 -0.1898738 0.7151015 16777215
 0.4310548 -0.2075782 0.7412367 16777215
 0.4513282 -0.2144836 0.7468731 16777215
 0.4734715 -0.2071755 0.7714297 16777215
 0.4962909 -0.2213323 0.7861556 16777215
 0.4938239 -0.2241446 0.8011109 16777215
 0.5087543 -0.2434045 0.8073537 16777215
 0.4973032 -0.2455604 0.8264622 16777215
 0.5007964 -0.2589841 0.8384814 16777215
 0.5172387 -0.2757525 0.8432426 16777215
 0.5376468 -0.2806650 0.8672115 16777215
 0.5526905 -0.3077735 0.8754492 16777215
 0.5729393 -0.2978897 0.8939252 16777215
 0.5874694 -0.3061015 0.9160753 16777215
 0.5952579 -0.3081902 0.9367335 16777215
 0.6149538 -0.3184146 0.9651377 16777215
 0.6192887 -0.3164020 0.9940693 16777215
 0.6255601 -0.3304243 1.0184073 16777215
 0.6409906 -0.3437244 1.0334294 16777215
 0.6645218 -0.3278266 1.0618861 16777215
 0.6651270 -0.3209680 1.0898457 16777215
 0.6705737 -0.3303059 1.1165669 16777215
 0.6767057 -0.3332118 1.1378622 16777215
 0.6906603 -0.3341634 1.1568892 16777215
 0.7089283 -0.3308832 1.1906075 16777215
 0.6943396 -0.3392947 1.2133101 16777215
 0.6718505 -0.3592445 1.2294266 16777215
 0.6874892 -0.3627574 1.2459105 16777215
 0.7108155 -0.3638135 1.2626141 16777215
 0.7401068 -0.3659177 1.2929281 16777215
 0.7529299 -0.3650326 1.3057773 16777215
 0.7685464 -0.3571606 1.3183458 16777215
 0.7876955 -0.3277706 1.3343226 16777215
 0.7913808 -0.3508918 1.3441764 16777215
 0.8086879 -0.3587905 1.3573546 16777215
 0.8222470 -0.3473443 1.3674134 16777215
 0.8430762 -0.3382987 1.3750688 16777215
 0.8557421 -0.3521502 1.3976223 16777215
 0.8394471 -0.3419277 1.4086103 16777215
 0.8515639 -0.3417911 1.4244882 16777215
 0.8687376 -0.3458467 1.4550114 16777215
 0.8746471 -0.3674232 1.4764456 16777215
 0.8596146 -0.3579573 1.5003834 16777215
 0.8635560 -0.3374225 1.5225127 16777215
 0.8598589 -0.3563648 1.5385488 16777215
 0.8454605 -0.3521293 1.5633295 16777215
 0.8457439 -0.3532169 1.5804160 16777215
 0.8370283 -0.3510152 1.6050695 16777215
 0.8544406 -0.3348603 1.6306973 16777215
 0.8601474 -0.3512657 1.6563065 16777215
 0.8717192 -0.3591379 1.6800144 16777215
 0.8647201 -0.3416947 1.7221850 16777215
 0.8774930 -0.3682080 1.7367132 16777215
 0.8856117 -0.3695592 1.7683833 16777215
 0.8983636 -0.3876144 1.7813870 16777215
 0.9129819 -0.4025694 1.8036890 16777215
 0.9304284 -0.4082079 1.8208772 16777215
 0.9363649 -0.4098699 1.8404688 16777215
 0.9236829 -0.3977328 1.8817569 16777215
 0.9254075 -0.4032603 1.8952487 16777215
 0.9232187 -0.4015788 1.9159694 16777215
 0.9642780 -0.4216051 1.9162153 16777215
 0.9679644 -0.4184828 1.9781315 16777215
 0.9736885 -0.4326090 1.9890563 16777215
 1.0136654 -0.4235022 2.0247495 16777215
 1.0206432 -0.4390624 2.0389788 16777215
 1.0226806 -0.4449480 2.0577550 16777215
 1.0415932 -0.4364461 2.0772004 16777215
 1.0422386 -0.4461135 2.0935392 16777215
 1.0691279 -0.4174078 2.1074114 16777215
 1.0376011 -0.4285212 2.1354671 16777215
 1.0496817 -0.4331172 2.1564105 16777215
 1.0671675 -0.4148815 2.1787043 16777215
 1.0866456 -0.4354248 2.1928322 16777215
 1.0843853 -0.4320558 2.2206378 16777215
 1.0938631 -0.4181462 2.2462907 16777215
 1.1103939 -0.4320893 2.2659106 16777215
 1.1200806 -0.4379010 2.2798824 16777215
 1.1322814 -0.4453271 2.3008955 16777215
 1.1459723 -0.4514169 2.3254917 16777215
 1.1581366 -0.4526313 2.3449423 16777215
 1.1654093 -0.4625003 2.3810155 16777215
 1.1811923 -0.4694260 2.3793371 16777215
 1.1894659 -0.4821986 2.4056427 16777215
 1.1736435 -0.4805643 2.4196889 16777215
 1.1818604 -0.4818554 2.4531770 16777215
 1.1674645 -0.4726658 2.4843607 16777215
 1.1970507 -0.4930376 2.4985211 16777215
 1.2061983 -0.4929404 2.5035832 16777215
 1.2249959 -0.5002756 2.5397620 16777215
 1.2249506 -0.5048235 2.5651574 16777215
 1.2410986 -0.5003272 2.5913644 16777215
 1.2589369 -0.5028856 2.5937614 16777215
 1.2769742 -0.5140852 2.6014664 16777215
 1.2911359 -0.4894322 2.6091633 16777215
 1.2856610 -0.5176565 2.6377003 16777215
 1.3072120 -0.4976798 2.6471465 16777215
 1.3071563 -0.5239171 2.6663873 16777215
 1.3070341 -0.5039815 2.6829085 16777215
 1.3034005 -0.4956996 2.7002554 16777215
 1.3176062 -0.5002892 2.7147343 16777215
 1.3122666 -0.5035397 2.7212439 16777215
 1.3098574 -0.4969242 2.7319636 16777215
 1.3117874 -0.5108550 2.7352724 16777215
 1.3331743 -0.5191917 2.7519238 16777215
 1.3335062 -0.5187356 2.7705674 16777215
 1.3368795 -0.5204204 2.7836261 16777215
 1.3308977 -0.5222208 2.8033867 16777215
 1.3376348 -0.5299283 2.8190985 16777215
 1.3361064 -0.5214731 2.8372228 16777215
 1.3287644 -0.5361295 2.8407440 16777215
 1.3276943 -0.5378145 2.8531945 16777215
 1.3371539 -0.5452108 2.8643196 16777215
 1.3437084 -0.5449799 2.8683445 16777215
 1.3394322 -0.5437297 2.8826227 16777215
 1.3252077 -0.5333330 2.8994088 16777215
 1.3463994 -0.5487362 2.9084635 16777215
 1.3542233 -0.5476363 2.9192102 16777215
 1.3542826 -0.5490240 2.9315240 16777215
 1.3485839 -0.5459940 2.9415975 16777215
 1.3443460 -0.5500070 2.9581423 16777215
 1.3673137 -0.5434970 2.9799407 16777215
 1.3786198 -0.5540123 2.9886932 16777215
 1.3792950 -0.5523198 3.0153575 16777215
 1.3812147 -0.5488014 3.0126426 16777215
 1.4014535 -0.5521970 3.0203328 16777215
 1.3933700 -0.5484618 3.0339150 16777215
 1.4033738 -0.5569349 3.0536537 16777215
 1.4050754 -0.5688686 3.0614381 16777215
 1.4106425 -0.5735779 3.0710275 16777215
 1.3991426 -0.5783853 3.0923767 16777215
 1.4111576 -0.5828027 3.1015594 16777215
 1.4206688 -0.5806254 3.1041231 16777215
 1.4204959 -0.5800223 3.1164649 16777215
 1.4095105 -0.5457455 3.1186860 16777215
 1.4150846 -0.5580115 3.1333179 16777215
 1.4154661 -0.5529417 3.1426976 16777215
 1.4287651 -0.5733663 3.1418629 16777215
 1.4301009 -0.5803214 3.1561389 16777215
 1.4375209 -0.5712896 3.1679969 16777215
 1.4416764 -0.5759391 3.1775644 16777215
 1.4428531 -0.5713115 3.1853240 16777215
 1.4481037 -0.5768983 3.1949303 16777215
 1.4444113 -0.5579848 3.2157648 16777215
 1.4439983 -0.5669855 3.2154670 16777215
 1.4345751 -0.5724057 3.2384281 16777215
 1.4414521 -0.5888503 3.2461112 16777215
 1.4462513 -0.5917033 3.2469027 16777215
 1.4346768 -0.5869904 3.2601182 16777215
