# .PCD v.7 - Point Cloud Data file format
VERSION .7
FIELDS x y z rgb
SIZE 4 4 4 4
TYPE F F F F
COUNT 1 1 1 1
WIDTH 1195
HEIGHT 1
VIEWPOINT 0 0 0 1 0 0 0
POINTS 1195
DATA ascii
1.4775112 -1.8670932 2.6849720 16711746
1.7610073 -2.0071266 2.7252462 16711746
1.4963883 -1.7202517 2.7408972 16711746
1.3453104 -1.7453390 2.7005694 16711746
1.5019428 -1.6694666 2.4495034 16711746
1.5094155 -1.7940307 2.6477244 16711746
2.0905676 -1.7097110 2.7231488 16711746
1.7411757 -1.7597435 3.0012877 16711746
2.2251472 -1.7370238 2.6235499 16711746
2.0153186 -2.1519868 3.3790011 16711746
2.0830405 -1.5821768 3.0125864 16711746
2.1049585 -1.7293966 2.6651773 16711746
2.0986855 -2.2339804 3.3579268 16711746
2.0082593 -1.9161084 2.9232759 16711746
1.1513191 -2.3979392 3.2159760 16711746
2.0732086 -1.9134300 2.6231449 16711746
2.1266079 -1.7143303 3.5711768 16711746
1.9812799 -1.7990016 2.6823831 16711746
1.3738313 -1.4816337 2.4886324 16711746
2.5265584 -1.6633614 2.8284020 16711746
2.4397972 -2.0733254 3.2992616 16711746
1.9707141 -1.9577042 2.7989268 16711746
1.4285976 -1.7275904 2.5216656 16711746
1.9923728 -2.0204778 2.7294168 16711746
3.9474118 -2.8340065 3.2900903 16711746
2.1296172 -1.7414095 2.9444752 16711746
2.7588427 -2.7872205 4.1287470 16711746
2.3378696 -2.0585783 3.2088497 16711746
2.1947722 -2.1531603 2.7273099 16711746
1.3682982 -2.1020534 2.6747315 16711746
2.5098727 -2.6115298 3.5916049 16711746
1.4598989 -1.9543444 2.6093025 16711746
2.7286842 -2.8193212 3.9119520 16711746
1.1603835 -0.8270054 2.6238821 16711746
-0.3183469 -1.9948697 2.5634670 16711746
0.3667697 -1.6151066 2.5983281 16711746
1.1607184 -0.8289453 2.6242888 16711746
0.7789180 -1.5552913 2.6056883 16711746
2.4627297 -3.7825198 4.4866147 16711746
1.6397963 -5.1397681 5.8669181 16711746
-0.1136114 -1.9283159 2.5900493 16711746
1.7367169 -2.0189991 2.5242460 16711746
-0.1874043 -2.1577611 2.2432647 16711746
3.2177379 -2.1415110 3.0014315 16711746
2.0639756 -5.3359332 2.2189968 16711746
-1.8541675 -9.9152212 8.3086824 16711746
1.1702017 -1.2984571 2.8670199 16711746
1.3459283 -1.2436327 2.5204785 16711746
1.3707176 -1.2721092 2.8106372 16711746
1.6461362 -1.6803851 2.6068113 16711746
1.5239787 -1.8700378 2.5896797 16711746
1.0050565 -1.8788261 2.9292083 16711746
1.9911119 -1.9877905 2.5860863 16711746
1.3138124 -1.0636272 2.8551574 16711746
1.1835856 -1.7932653 2.8656292 16711746
2.0662594 -2.0440085 3.2066391 16711746
1.3458211 -1.1999786 2.5475380 16711746
1.7289641 -1.7056919 2.9491506 16711746
1.9017804 -1.9634446 2.8832040 16711746
1.4848655 -1.6281496 2.5135324 16711746
2.5043583 -1.9923643 2.8182614 16711746
1.5163189 -1.7411737 2.5057061 16711746
2.2532947 -1.7463423 3.1443877 16711746
2.4285522 -2.1789563 2.8607619 16711746
2.8035405 -2.5629113 3.5198956 16711746
2.4219432 -2.0579545 2.9941123 16711746
1.2340027 -1.2053623 2.4602506 16711746
1.4400576 -1.1932158 2.5218842 16711746
2.1543021 -2.0316963 2.6060042 16711746
1.3930405 -1.9610409 2.5342054 16711746
1.3541920 -1.4347690 2.4524856 16711746
1.2890046 -2.0145514 2.6903596 16711746
2.9275270 -3.3043873 5.0293779 16711746
1.8342229 -2.4960208 2.9478996 16711746
1.9155999 -12.1051989 6.9257426 16711746
1.1396703 -1.3828803 2.8529115 16711746
1.2144022 -1.2223197 2.7632263 16711746
1.4700867 -1.1090415 2.6837499 16711746
1.1750194 -1.2209160 2.8142796 16711746
1.2156115 -0.9401498 2.7429421 16711746
1.3305242 -1.1028261 2.8386014 16711746
1.4464388 -1.7680821 2.5925233 16711746
1.3178308 -1.4880434 2.6426966 16711746
1.1841183 -1.4823493 2.8235605 16711746
1.2925826 -1.3027507 2.5535381 16711746
1.4724251 -1.6206732 2.7242675 16711746
1.6064022 -1.7634102 2.5852005 16711746
1.6461208 -1.3761098 2.5135348 16711746
1.4250544 -1.2089937 2.5097477 16711746
0.8545780 -1.8395187 3.1525631 16711746
1.9374627 -1.8409632 3.0897741 16711746
2.2048366 -2.1847672 3.0458984 16711746
1.8326963 -1.6751828 3.0207694 16711746
1.9562516 -2.3913903 3.3849723 16711746
1.6185606 -1.5989963 2.5991187 16711746
1.8011674 -1.7819855 2.8218901 16711746
2.4191673 -2.0129108 3.0222840 16711746
1.6943667 -1.7591939 3.0920618 16711746
1.4950219 -1.2433262 2.4791441 16711746
0.4523371 -1.2306272 2.5975425 16711746
0.9106771 -1.6883074 2.9131043 16711746
2.1374393 -1.9729401 3.8740191 16711746
2.5300069 -2.0273783 3.3292413 16711746
1.4219276 -1.5985171 2.4956653 16711746
1.7893176 -1.6801877 3.0223656 16711746
0.8464864 -2.0387547 2.9137619 16711746
2.0609415 -2.1089292 3.1019721 16711746
0.9845925 -1.1596224 2.6445796 16711746
0.3562084 -2.6820934 4.0117340 16711746
1.4753534 -1.4497344 2.6773598 16711746
1.5934341 -1.7294410 2.8067317 16711746
1.9156036 -1.6174083 2.5482142 16711746
1.8192554 -1.3852015 2.7982299 16711746
1.4442312 -1.4591895 3.1018302 16711746
2.0310297 -1.5014644 2.8990395 16711746
1.2667634 -1.0766109 2.6632581 16711746
2.0739677 -1.5874387 2.6258352 16711746
2.1704137 -1.4091018 3.2256999 16711746
1.4034717 -1.1853304 3.0217376 16711746
1.1326573 -0.8675433 2.7259073 16711746
1.2917545 -1.2301605 2.6584289 16711746
1.7754149 -1.5318172 2.5399516 16711746
1.2972436 -1.2624543 2.7656324 16711746
1.5410192 -1.3034782 2.6641829 16711746
1.8076875 -1.8108294 3.1237395 16711746
2.0604455 -1.5360130 2.8464067 16711746
2.0505383 -1.4331396 2.7227952 16711746
2.1999695 -1.8847610 2.9973712 16711746
1.8646311 -1.6911795 3.0400674 16711746
1.9801724 -1.7205782 3.2462406 16711746
2.1209981 -1.9600410 3.1536067 16711746
2.0337300 -1.5340545 2.6439843 16711746
1.9683657 -1.6941421 2.9654298 16711746
2.1064954 -1.7805904 3.4727561 16711746
1.9081272 -1.6311504 3.1264944 16711746
1.1169854 -1.2758231 2.7989566 16711746
2.2235739 -1.3127784 2.8042331 16711746
1.4738275 -1.5934745 2.6724906 16711746
2.1801333 -1.5831090 2.8984447 16711746
1.0881975 -1.1521968 2.8750694 16711746
1.2150214 -1.2622967 2.7772019 16711746
1.8930395 -1.5939081 3.1129539 16711746
2.8385506 -1.7800823 2.9157832 16711746
1.5461204 -1.4405403 2.6454422 16711746
1.2465814 -0.9745579 2.5947087 16711746
1.7228272 -1.4532855 2.5277340 16711746
1.2759831 -1.1588653 2.6392808 16711746
1.6160650 -1.5479107 2.6839287 16711746
2.3169794 -1.7585751 2.8469803 16711746
1.8418325 -1.6886939 2.5786285 16711746
2.8403473 -2.3639095 3.5563090 16711746
2.6590412 -3.0934420 4.5890679 16711746
2.3881664 -2.2882266 3.6227853 16711746
2.3096802 -2.8499849 3.7530129 16711746
1.8218206 -1.8212656 2.6519098 16711746
2.3841703 -2.1280355 3.2389381 16711746
1.9903622 -1.4122514 2.9973762 16711746
1.2416052 -1.3911724 3.0712786 16711746
2.5020702 -2.9502563 3.8827832 16711746
-0.2102899 -3.5760946 3.2232554 16711746
1.5441238 -1.4549066 2.7231522 16711746
2.8164949 -3.4029000 3.9865334 16711746
6.0992513 -5.3475480 2.4576910 16711746
1.7105973 -1.8694413 2.7009664 16711746
1.2375923 -1.6023189 2.4235032 16711746
1.8876196 -1.7728994 2.6196108 16711746
1.4062934 -1.4459196 2.5679011 16711746
1.6043777 -1.5976546 2.7573693 16711746
2.3594744 -1.4971008 2.7222979 16711746
1.0731671 -1.2190272 2.8915975 16711746
1.2724538 -1.4932895 2.4610038 16711746
0.8218239 -1.4916315 2.7340915 16711746
1.2449822 -1.6210487 2.7173431 16711746
1.1872524 -1.6942557 2.5388920 16711746
1.4201653 -1.5703399 2.5631273 16711746
2.4727080 -1.4701463 2.7275488 16711746
0.7654466 -1.6110245 2.7468586 16711746
0.9216887 -1.4675156 2.7852917 16711746
2.4426606 -1.5810918 2.7288651 16711746
2.4911387 -1.7337116 2.5701525 16711746
0.8508801 -1.4208462 2.7215734 16711746
2.0044863 -1.5496236 2.5044723 16711746
1.2195982 -1.0704718 2.5775108 16711746
2.6799712 -1.8078487 2.6697311 16711746
1.3847072 -1.7342014 2.6617720 16711746
1.3873286 -1.7789148 2.6655927 16711746
2.1243873 -1.5528246 2.7727442 16711746
2.2192943 -1.7535523 2.6325395 16711746
2.0207019 -1.7915527 3.0865886 16711746
1.0670558 -1.4356425 2.8207247 16711746
1.8891896 -1.5148998 2.5792503 16711746
1.0470811 -1.3456848 2.9171615 16711746
1.9190631 -1.3720447 2.6856694 16711746
2.1336122 -1.6547530 2.6311467 16711746
1.4679905 -1.4149402 2.5875745 16711746
0.9214943 -1.5035931 2.7899230 16711746
1.9133404 -1.5128214 2.6530533 16711746
1.6848557 -1.3633270 2.6272595 16711746
1.0811031 -1.4378247 2.8623114 16711746
0.9979382 -1.2604119 2.9765716 16711746
1.7199191 -1.2022856 2.7762864 16711746
0.9657980 -1.3436345 3.0206785 16711746
1.2615980 -1.2183111 2.5533359 16711746
1.5850189 -1.3268315 2.4782972 16711746
1.5663257 -1.3383907 2.7296455 16711746
2.2229121 -1.8769735 2.8179691 16711746
2.2643299 -1.3717380 2.8263667 16711746
1.5362684 -1.1098977 2.9206071 16711746
1.4025692 -0.8157302 2.7836049 16711746
2.0144949 -1.9557798 3.3443980 16711746
1.2548277 -0.8458794 2.7282031 16711746
1.9972072 -2.0229645 3.0456820 16711746
2.3820343 -3.3719060 4.3039255 16711746
3.1069891 -3.8883049 5.1410809 16711746
1.1822739 -1.5885594 2.4614081 16711746
2.4659698 -2.0843790 3.2008274 16711746
1.8555663 -1.8100774 2.8350394 16711746
2.9075384 -3.5384364 4.0154333 16711746
1.4622070 -1.4036176 2.9465189 16711746
1.3692223 -1.2544991 2.5799177 16711746
2.0017960 -1.5798613 2.6450381 16711746
1.2305272 -1.1204904 2.6021574 16711746
1.3488696 -1.3271604 2.6048903 16711746
2.1782126 -1.3598443 2.6053016 16711746
1.8754171 -1.6058041 2.5986664 16711746
1.7353935 -1.3730180 2.5748715 16711746
1.3480002 -1.2907704 2.6080954 16711746
1.2709993 -1.3005805 2.6574512 16711746
1.4321395 -1.3827562 2.6666579 16711746
1.9335959 -1.3590492 2.5347533 16711746
1.5462844 -1.0669916 2.8901005 16711746
1.7624829 -1.3666177 2.6052649 16711746
1.0889373 -1.2538739 2.8045709 16711746
1.2709965 -1.2683523 2.6586428 16711746
1.8265327 -1.6755673 2.6243815 16711746
2.3504078 -1.4521924 2.8296616 16711746
1.9885802 -1.5746390 2.4702778 16711746
0.7177895 -1.5086894 2.7590940 16711746
1.5623089 -1.4069531 2.5932083 16711746
1.5365280 -1.0398793 2.9381578 16711746
0.7805340 -1.1435379 2.8039353 16711746
1.7803879 -1.6128204 2.7531555 16711746
1.5655278 -1.2715940 2.7618735 16711746
1.6918619 -1.2585056 2.7003031 16711746
1.5291115 -1.3436189 2.6076963 16711746
1.5586649 -1.2213446 2.9253922 16711746
1.2830143 -1.0944852 2.5749378 16711746
1.8239884 -1.4963233 2.5858839 16711746
1.5257683 -1.3371073 2.6073313 16711746
2.0734262 -1.6457449 2.5736949 16711746
2.2073298 -1.7833089 2.9882791 16711746
2.5608635 -2.2094340 3.0338271 16711746
1.2623991 -1.1749344 2.5602124 16711746
2.2914853 -2.0389223 3.1422303 16711746
2.3780637 -2.2912345 3.1857562 16711746
1.3583136 -1.1638833 2.5387874 16711746
1.2659312 -1.5022767 2.6537867 16711746
1.2481395 -0.9429829 2.6140847 16711746
1.2189007 -0.7377394 2.7387948 16711746
3.1215105 -2.3130820 2.7787857 16711746
1.0610005 -2.8744776 3.3724170 16711746
0.9234206 -1.6916084 2.7585349 16711746
2.8803995 -3.6418095 4.2277031 16711746
1.3018541 -3.4215455 3.7776208 16711746
1.3414000 -1.2267916 2.6604486 16711746
1.5225515 -1.2028160 2.5841563 16711746
2.1705475 -1.5131073 2.5982974 16711746
2.1714685 -1.4890416 2.6936712 16711746
2.3231468 -1.4985203 2.5960917 16711746
1.9161737 -1.4489591 2.7089298 16711746
2.0551665 -1.3594718 2.6940992 16711746
1.9071021 -1.4304832 2.7097495 16711746
0.8334103 -1.2844080 2.7549143 16711746
1.8100665 -1.1660303 3.0446196 16711746
2.0943656 -1.4851521 2.6429164 16711746
2.0987031 -1.6528243 2.7269480 16711746
0.8563653 -1.3517206 2.8403003 16711746
0.8854362 -1.3312304 2.7756739 16711746
1.9746330 -1.4639294 2.6375279 16711746
2.0938351 -1.5224248 2.6362250 16711746
1.3512639 -1.3826628 2.6025543 16711746
0.9971126 -1.1549697 2.8968747 16711746
0.6380579 -1.4903972 2.8088956 16711746
1.7798322 -1.5917678 3.3194036 16711746
2.1685128 -1.5497334 2.9147472 16711746
2.2910032 -1.8287299 3.0016785 16711746
2.3082330 -2.1828241 3.1445935 16711746
2.4244559 -2.0019374 3.1465569 16711746
2.1290903 -1.8297037 2.6190937 16711746
2.3310692 -2.4769738 3.5181239 16711746
2.1577299 -1.7233455 3.0421343 16711746
1.0231938 -1.1497754 2.6862323 16711746
1.8210123 -1.9734977 3.1945467 16711746
2.1308258 -2.1896226 3.1718876 16711746
1.1714852 -1.3004717 2.5184186 16711746
1.6129775 -1.3798307 3.0433638 16711746
1.6560718 -1.3031750 2.6974819 16711746
1.7627747 -1.3587500 2.7316093 16711746
1.7220507 -1.1755068 2.6563079 16711746
1.4399949 -1.2181209 2.6952643 16711746
1.2382442 -1.1971227 2.7997289 16711746
1.2899679 -1.0994993 2.7652855 16711746
1.2571721 -1.0859232 2.8056691 16711746
1.2767547 -1.1251684 2.8503861 16711746
1.6679773 -1.1767800 2.9254913 16711746
1.3040845 -1.4314866 2.9672301 16711746
1.7282276 -1.0834689 2.8289976 16711746
1.5784323 -1.0177772 2.6354923 16711746
2.0354583 -1.4829674 2.5222652 16711746
1.7650142 -1.6624604 3.0763047 16711746
1.9007769 -1.6708137 3.2896636 16711746
2.2351253 -2.0103676 2.7913802 16711746
1.7402222 -1.3968961 2.7694399 16711746
0.7978795 -1.5366639 2.9166348 16711746
1.4722261 -1.4436532 2.7951059 16711746
1.7819452 -1.4878182 2.7823291 16711746
1.3661876 -1.7322830 2.9834516 16711746
2.2072392 -1.6290319 2.7587545 16711746
2.2283680 -1.7563447 3.0820520 16711746
2.2973909 -2.0694442 3.1148086 16711746
1.7227161 -1.5430722 3.2808754 16711746
2.1297724 -2.0874417 3.8477643 16711746
2.0917099 -2.1519167 3.2646022 16711746
2.0962148 -1.6235175 2.8889260 16711746
1.9694453 -1.4150029 3.0449140 16711746
0.9561257 -1.4499704 3.1593874 16711746
2.0567353 -1.9968816 3.1945765 16711746
2.0476680 -1.7187438 2.8172095 16711746
1.1789850 -0.8140650 2.7257395 16711746
2.6014879 -3.4469366 4.4647117 16711746
2.8426087 -2.5404203 3.5047386 16711746
1.2346376 -0.6809088 2.7427518 16711746
1.6700399 -1.4057417 3.0704286 16711746
2.4569685 -1.9275415 2.8246837 16711746
2.0773261 -1.6680858 2.6886573 16711746
3.1153467 -4.0111103 4.3842845 16711746
4.4895229 -5.1121526 6.3607383 16711746
1.5894895 -1.1356739 2.6459651 16711746
1.3855044 -1.1227013 2.6221666 16711746
1.2527475 -0.8600939 2.7025211 16711746
1.7652481 -1.1233834 2.5803580 16711746
0.8559954 -1.0496753 2.7558606 16711746
0.9584069 -0.9665331 2.7379141 16711746
1.2385828 -1.0691465 2.7849958 16711746
1.2824780 -0.7886659 2.7054050 16711746
1.2534769 -0.8653660 2.7026634 16711746
1.5169572 -1.1644737 2.7396059 16711746
1.3352929 -1.1352773 2.8692524 16711746
1.3819143 -1.1360861 2.9841850 16711746
1.6855866 -1.3686366 2.7104743 16711746
1.9238664 -1.4494969 2.7415979 16711746
1.7476892 -1.5221193 2.7007940 16711746
1.8962051 -1.4084297 2.7382460 16711746
1.5233138 -1.2747873 2.6804347 16711746
2.5857501 -1.8752922 2.8883138 16711746
2.1296790 -1.6874579 2.9616346 16711746
1.8879765 -1.3959574 2.7386663 16711746
2.1753032 -1.6571975 2.8403432 16711746
1.3466518 -1.6993359 3.4854863 16711746
1.6841757 -1.1763790 2.6101325 16711746
1.7302359 -1.4519749 3.2174141 16711746
2.0072572 -1.4454271 2.5267911 16711746
0.7931133 -1.1712085 2.7987750 16711746
1.6559501 -1.0787646 2.5950611 16711746
1.8787695 -0.9893221 2.5606859 16711746
1.4256731 -1.2696956 2.6558821 16711746
1.4992644 -1.1556026 2.6144249 16711746
1.6964337 -1.1574293 2.5815120 16711746
1.2169654 -1.1894026 2.8897069 16711746
1.7170991 -1.2837247 2.6648905 16711746
1.2938228 -0.7598290 2.8007929 16711746
2.0205429 -2.1530437 3.1861267 16711746
2.0375097 -1.6458476 2.7941160 16711746
2.7701735 -2.4757755 3.5172610 16711746
2.0825548 -1.8998256 3.3558400 16711746
1.0676075 -1.6265863 2.9801335 16711746
1.8709500 -1.2239484 2.9538405 16711746
1.9103463 -1.7247514 2.8488867 16711746
1.5970465 -1.3287749 2.9955239 16711746
1.3191838 -1.0571843 2.8253958 16711746
2.1025114 -2.6603901 3.4021082 16711746
0.7982882 -0.9935691 2.8559391 16711746
1.3985430 -1.2046860 2.7079246 16711746
1.4103730 -1.3101932 2.6829431 16711746
1.2449399 -1.3758411 2.8911233 16711746
1.6891869 -1.1806380 2.6281476 16711746
1.5005547 -1.4113827 2.7438362 16711746
1.1956167 -1.0723367 2.5933080 16711746
1.6732507 -1.1231310 2.5907812 16711746
1.3508749 -1.1260580 2.6031897 16711746
1.3851030 -0.8579906 2.9354444 16711746
1.6705713 -1.0684757 2.5463264 16711746
1.0547295 -0.8814933 2.6701021 16711746
1.2521223 -1.2070993 2.7973409 16711746
1.0285800 -1.3435966 3.0060902 16711746
1.3490291 -1.1022094 2.6069500 16711746
1.4920402 -1.3768135 2.7427983 16711746
1.5332685 -1.2581220 2.7448192 16711746
1.2670578 -0.9956307 2.6880276 16711746
0.8496740 -1.3028883 2.6499894 16711746
1.2478696 -0.8461089 2.7041590 16711746
1.2738488 -1.2328551 2.7940993 16711746
1.6015546 -1.2647743 2.7714167 16711746
1.0874078 -1.2452997 2.8568506 16711746
0.8921497 -1.1948905 2.6155722 16711746
1.4627838 -1.2307587 2.6330321 16711746
1.4287168 -1.3081433 2.7804575 16711746
1.3537730 -1.2230822 2.8175099 16711746
1.0201244 -1.3647485 3.0121584 16711746
1.0716300 -1.0959461 3.0155432 16711746
1.1131819 -1.1469181 2.8380113 16711746
1.7025700 -1.1452365 2.5846174 16711746
1.2675582 -0.9750996 2.6894650 16711746
0.8944130 -1.1940500 2.6340382 16711746
1.3237892 -1.0636101 2.6812189 16711746
1.7323917 -1.2388923 2.6741149 16711746
0.9899210 -1.3325891 3.0983231 16711746
1.5017805 -1.3343893 2.6570103 16711746
1.0913783 -1.2824026 3.1834807 16711746
1.1719415 -1.0773610 3.0866313 16711746
1.9448756 -1.7305821 2.8745015 16711746
1.2019646 -1.2775587 2.8938975 16711746
2.0132320 -1.5522817 2.7966089 16711746
1.2087480 -1.2238735 2.8795254 16711746
1.7917295 -1.3979049 2.7370937 16711746
1.7672679 -1.2082937 2.5215073 16711746
1.7849327 -1.2210418 2.6882896 16711746
1.2804160 -1.0937636 2.8227050 16711746
1.8881736 -1.3016437 2.5485220 16711746
1.2520051 -1.2624302 2.8868563 16711746
1.6520530 -1.0710183 2.5910783 16711746
1.4638735 -1.5531908 3.5315392 16711746
2.0756876 -1.7649484 2.7360713 16711746
2.0245974 -2.0164142 3.6245184 16711746
2.0606782 -2.0193796 3.5232084 16711746
1.0215085 -1.5020212 2.9277139 16711746
1.8802987 -1.5621213 2.7713594 16711746
2.6491346 -1.8732827 2.7888346 16711746
2.4613023 -2.3291912 3.2417350 16711746
3.3719261 -2.6553843 4.5769486 16711746
2.0268140 -1.5462699 2.7403994 16711746
1.5993154 -1.2351439 3.0027578 16711746
0.8021949 -1.3617430 2.9801600 16711746
4.1048007 -2.7869925 3.1671917 16711746
4.0588140 -4.3302345 3.6809938 16711746
0.5666354 -1.1177493 2.5950828 16711746
4.3784289 -4.7353163 3.7874267 16711746
2.1832359 -1.9208925 2.9540167 16711746
1.5302014 -1.6538880 2.5000155 16711746
1.4874141 -1.0763440 2.6536679 16711746
0.9187076 -1.1532390 2.6410558 16711746
1.6223186 -1.1355294 2.6010325 16711746
1.9178309 -1.3754213 2.7166994 16711746
2.2842920 -1.4999757 2.7396381 16711746
1.5761349 -1.2434137 2.6511028 16711746
2.0637059 -1.3996674 2.6086676 16711746
2.1405435 -1.5973027 3.1206355 16711746
2.4326763 -2.5849347 3.5682259 16711746
2.2288723 -2.2809398 3.7525768 16711746
1.7305770 -1.3901913 2.8167861 16711746
1.8505791 -1.3537589 2.6880322 16711746
1.0824568 -0.9119731 2.9612834 16711746
1.4152302 -1.6320466 2.9041491 16711746
0.9486611 -0.8656934 2.6393957 16711746
4.2799296 -3.5945594 3.5779142 16711746
1.1081072 -1.8719083 2.7702637 16711746
1.1075076 -1.5623202 2.4726183 16711746
1.4546508 -1.3875631 2.8169513 16711746
1.2804661 -0.7342725 2.7153146 16711746
1.7262660 -1.4599912 2.9662478 16711746
1.4165554 -1.3232499 2.7806225 16711746
1.5173572 -1.1982952 2.6775324 16711746
2.1593866 -1.5043768 2.7999568 16711746
1.9416618 -1.3370291 2.9869049 16711746
2.9407523 -1.9501795 3.1037192 16711746
1.2375653 -0.7020802 2.7331455 16711746
1.7375344 -1.3550020 3.3195834 16711746
1.7072086 -1.0849781 2.5996380 16711746
1.5158131 -1.0409104 2.7694263 16711746
3.3326330 -2.2055819 2.9802492 16711746
0.5081053 -1.2778312 2.9125988 16711746
6.2974553 -4.5177684 3.6347184 16711746
1.4056282 -0.9198816 2.7501979 16711746
1.9518827 -1.5338737 2.9799798 16711746
4.8368349 -3.2620933 3.3078077 16711746
1.6228805 -1.5907316 2.5101190 16711746
1.7323925 -1.2742255 2.7539661 16711746
1.6219295 -1.1368896 2.7184036 16711746
1.1557746 -0.8192112 2.8461564 16711746
1.7812802 -1.0267124 2.7534406 16711746
1.5670252 -1.0802824 2.6701066 16711746
1.0617876 -1.9343617 2.8492591 16711746
0.5116727 -1.3363971 2.5743446 16711746
1.8921967 -1.3353593 2.6996493 16711746
1.2840393 -1.0771488 2.8127170 16711746
1.7281915 -1.4578109 2.6409457 16711746
1.6627535 -1.1455699 2.6338923 16711746
2.1114433 -1.6205816 3.1325395 16711746
1.7809762 -2.0927486 2.8189764 16711746
1.9345489 -1.3882514 2.9348686 16711746
1.9837385 -1.6611203 2.9378390 16711746
0.9336730 -1.3793277 2.9312298 16711746
1.9992125 -1.8575646 3.7662659 16711746
0.9818773 -1.4105742 2.8381281 16711746
2.6107388 -3.2164922 3.9575055 16711746
1.2089401 -0.7466474 2.7986166 16711746
1.4155929 -1.4291729 2.8479900 16711746
1.5100398 -1.2178915 2.7227454 16711746
1.0089439 -1.3498334 2.8237977 16711746
1.0404478 -1.0940665 2.8476908 16711746
0.8415241 -1.4013329 2.9441659 16711746
1.1130149 -1.0484951 2.7896261 16711746
0.9370042 -1.2797056 2.8331151 16711746
0.9467189 -0.8752335 2.8200173 16711746
1.0352637 -1.2627393 2.8144529 16711746
0.9328453 -1.3018537 2.8341322 16711746
1.3442621 -1.2184087 2.9821043 16711746
1.6599772 -1.4331748 2.6406903 16711746
1.2495903 -1.1836482 2.6855102 16711746
1.4382228 -1.2639822 2.7377424 16711746
1.6273965 -1.1747675 2.6086664 16711746
1.7252185 -1.2859305 2.7295365 16711746
1.8049489 -1.2957160 2.6958067 16711746
1.3254726 -1.2467668 2.6846759 16711746
1.4100596 -1.2008349 2.7245300 16711746
1.4344515 -1.2390834 2.6211905 16711746
1.6637932 -1.5054826 2.6245596 16711746
1.6216048 -1.3671966 3.1240346 16711746
1.1627016 -1.1879352 2.8296213 16711746
1.6786485 -1.1031898 2.7503622 16711746
1.5382926 -1.3793100 2.7618139 16711746
1.1136175 -1.0510064 2.7925723 16711746
1.7033826 -1.1350771 3.0196123 16711746
1.3401721 -1.1882476 2.9443307 16711746
1.3525636 -1.0729840 2.8067892 16711746
1.1754961 -1.1169058 2.8288989 16711746
1.3472310 -1.2557113 2.9871702 16711746
1.6943427 -1.3950069 2.6270456 16711746
1.2961990 -1.4483786 3.2335992 16711746
1.8779123 -1.6348035 2.9159355 16711746
1.3627112 -0.6743036 2.8452895 16711746
1.0090528 -1.0398980 2.7051091 16711746
1.9250832 -1.3942841 2.7134192 16711746
1.7153240 -1.4123123 2.8359966 16711746
0.6886508 -1.1097057 2.8634772 16711746
1.0926231 -1.0661137 2.8914592 16711746
1.6850085 -1.2688692 3.1357367 16711746
1.5248839 -1.1213923 2.7349145 16711746
1.8755581 -1.6352112 2.8353460 16711746
1.1168553 -0.9339383 2.8632259 16711746
1.5440699 -1.3004379 2.7139752 16711746
1.8057007 -1.1461365 2.7316480 16711746
1.6732724 -1.0063430 2.7431116 16711746
1.3152237 -1.3533546 2.6323206 16711746
1.2727710 -1.3428775 2.6884267 16711746
1.6863351 -1.1161826 2.6507101 16711746
1.6846548 -1.1210831 2.7710252 16711746
1.6822115 -1.1095619 2.7526374 16711746
1.4047374 -1.3576477 2.8407719 16711746
1.4026897 -1.3391861 2.8390238 16711746
1.8067883 -1.1885246 2.8965340 16711746
1.8267239 -1.1724930 2.8765302 16711746
1.7760576 -1.1869620 2.7617314 16711746
1.5699085 -1.3982493 2.7049353 16711746
1.7484367 -1.0746504 2.8499718 16711746
1.7521534 -1.2209789 2.6770630 16711746
1.5599185 -1.2402962 2.7305882 16711746
1.6607835 -1.0759727 2.6955855 16711746
1.4576918 -1.1925721 2.7832811 16711746
1.2460401 -1.2148602 2.6945329 16711746
1.0611907 -1.3753748 2.8473659 16711746
1.2378025 -1.2768909 2.6666539 16711746
1.2318660 -1.2812835 2.7198288 16711746
1.7878629 -1.2065233 2.8950052 16711746
1.0527045 -1.1167058 2.7780218 16711746
1.7959706 -1.1524075 2.8096483 16711746
1.3699949 -1.2877541 2.8387532 16711746
1.7398155 -1.1878008 2.8445644 16711746
1.0000565 -1.0979398 2.7905056 16711746
1.7075274 -1.1294689 3.0239670 16711746
2.5667179 -1.5859671 2.8008502 16711746
1.8432355 -1.4100534 3.3199532 16711746
1.5386738 -1.6141729 3.4553225 16711746
2.0648630 -1.5063623 2.5161016 16711746
1.6838849 -1.2668270 2.7718029 16711746
1.7096891 -1.1250198 2.7302740 16711746
1.1638787 -1.0924979 3.1548278 16711746
1.5945106 -1.2106369 2.7385969 16711746
1.4851925 -1.4177535 2.8516591 16711746
1.4241129 -1.2929227 2.7925737 16711746
1.8025630 -1.2155471 2.7061291 16711746
1.7565402 -1.2577487 2.6804066 16711746
1.5814283 -1.3873947 2.7348423 16711746
1.3482741 -1.3380977 3.0155354 16711746
1.4625143 -1.3226565 2.8212743 16711746
1.3970836 -1.2851461 2.8339038 16711746
1.6366234 -1.1739618 2.7433286 16711746
1.8886088 -1.7177728 3.3090274 16711746
1.0137156 -1.1745353 2.8328395 16711746
1.3548208 -1.1759292 2.8203797 16711746
1.6005634 -1.6158123 3.4117868 16711746
1.4186690 -1.2485436 2.7926321 16711746
1.7788819 -1.2825871 2.7020681 16711746
1.2553154 -1.1240330 2.7369795 16711746
1.3873241 -1.0498669 2.7348914 16711746
1.3849686 -1.0375268 2.7350380 16711746
1.3196368 -1.2009033 2.6885073 16711746
1.3218437 -1.3565590 2.8526464 16711746
0.5233737 -1.2785906 3.1627913 16711746
1.3581208 -1.1375849 2.8161500 16711746
1.5379187 -1.2691098 2.7479129 16711746
0.9382976 -1.3819137 2.9328022 16711746
0.8809826 -1.1404623 2.8999386 16711746
1.2966441 -1.3029982 2.8774130 16711746
2.3736291 -2.1106000 3.5259883 16711746
2.2667329 -1.5277977 2.8451338 16711746
2.1021528 -1.9797015 3.3279338 16711746
2.0302374 -1.5800666 3.2719252 16711746
1.6664482 -1.3527412 2.7596340 16711746
1.4343493 -0.7334514 2.8782966 16711746
0.6120883 -1.2103069 2.9064736 16711746
1.5970620 -1.0824026 3.0900631 16711746
2.6178007 -3.8618541 4.0171614 16711746
-0.2349760 -1.8163638 3.7017395 16711746
1.4108779 -1.0144225 2.7672436 16711746
1.4448574 -1.0221759 2.7960362 16711746
1.1052898 -0.9171404 2.8770411 16711746
1.2500038 -0.8714262 2.7811975 16711746
1.1535997 -1.0378902 2.7779653 16711746
1.5453115 -1.0127007 2.7774656 16711746
1.6589826 -0.9621484 2.7846737 16711746
1.7218094 -1.5468590 2.9386168 16711746
1.2371857 -0.9226984 2.7829120 16711746
1.2306904 -0.8992386 2.8024523 16711746
1.3313440 -1.0477263 2.9419458 16711746
1.2486447 -0.8741695 2.7814689 16711746
1.6332759 -1.2248812 2.7561903 16711746
1.2635373 -1.3369741 3.0649607 16711746
1.3401052 -1.1784058 2.8265381 16711746
1.7032206 -1.1701703 2.6886990 16711746
1.3329691 -1.2987810 3.0518694 16711746
0.7479567 -1.1702906 2.7719800 16711746
1.6318542 -1.3034021 2.7703307 16711746
1.2569439 -1.1573428 2.7109697 16711746
1.7626958 -1.8373644 3.7980754 16711746
1.0446941 -1.1010368 2.8357637 16711746
1.4033946 -1.2176224 2.7742844 16711746
1.6172512 -1.4553708 3.5406203 16711746
1.1872131 -1.2159021 2.8103764 16711746
2.2875435 -1.4800864 2.6376917 16711746
1.5015706 -1.1639643 2.7477295 16711746
2.6192164 -1.8435031 3.1945064 16711746
1.5299097 -1.0049547 2.9913068 16711746
1.5399066 -1.6517788 3.4769158 16711746
1.3795224 -1.4793868 3.2129126 16711746
1.9308251 -1.3519977 2.9883907 16711746
0.5898402 -4.5465317 3.2658701 16711746
1.4216073 -2.2111738 3.9678955 16711746
1.9507765 -1.7812325 3.7611709 16711746
2.3504734 -1.6522491 2.7935839 16711746
2.4495380 -2.7086463 4.5411391 16711746
2.1076400 -2.9208248 4.6664200 16711746
0.4944617 -2.8704321 4.0096660 16711746
1.0352676 -4.0094972 3.4389136 16711746
1.3376907 -3.3987553 4.0217161 16711746
-0.0575161 -1.9750102 2.6310849 16711746
1.5703497 -0.9030248 2.8266704 16711746
1.4844693 -1.5092176 2.8520567 16711746
1.6789247 -1.0945982 2.7472243 16711746
1.8497940 -1.3173016 2.8324878 16711746
1.5991411 -1.3121691 2.8121903 16711746
1.4319915 -1.4886214 2.6945965 16711746
1.8246584 -1.1644622 2.6860120 16711746
1.8042954 -1.2511306 2.8288245 16711746
1.8296276 -1.3522795 2.8344636 16711746
1.7757298 -1.0116204 2.7874858 16711746
1.6949350 -1.2651887 2.7601738 16711746
1.9127243 -1.2701548 2.8832812 16711746
1.6509235 -1.0696775 2.8406973 16711746
1.3580627 -1.2678468 2.8397880 16711746
1.7515726 -1.0755851 2.7965529 16711746
1.8065106 -1.1582884 2.8414135 16711746
1.4658134 -1.1371789 2.7982917 16711746
1.7834107 -1.1548268 2.7483344 16711746
1.7011569 -1.0524966 2.7910450 16711746
1.1798292 -1.2206943 2.7673388 16711746
1.3099757 -1.3905491 2.8443820 16711746
1.6231927 -0.9904893 2.8053689 16711746
1.6362492 -0.9199148 2.7445290 16711746
1.5984721 -1.4598927 2.7712531 16711746
1.4327636 -1.5320724 2.8688760 16711746
1.6702107 -1.3337532 2.7947237 16711746
1.8039491 -1.5146641 3.2670643 16711746
1.4026889 -1.3957945 2.8893933 16711746
1.4084173 -1.4764153 2.7624216 16711746
1.4388582 -1.4404120 2.7874944 16711746
1.9262177 -1.2852128 2.9459178 16711746
1.5917938 -1.3295515 2.6690242 16711746
1.3513193 -1.2831546 2.8887889 16711746
1.3976134 -1.4451581 2.8980994 16711746
1.8658909 -1.3550234 2.9713655 16711746
1.1955149 -1.4909054 3.1419697 16711746
1.3168596 -1.7816895 2.8943319 16711746
2.1716027 -1.8539839 3.0037167 16711746
1.2584618 -1.3705894 3.0427601 16711746
1.2615484 -1.1936886 2.9419847 16711746
0.7187441 -1.1424170 2.8121099 16711746
1.8224236 -1.1980904 2.7735999 16711746
1.5627010 -1.8356488 3.2084846 16711746
1.4614537 -1.5072168 2.8363054 16711746
1.9146558 -1.8930095 3.4665542 16711746
1.4690866 -1.4802148 2.8716757 16711746
1.9313475 -2.1340244 3.4403355 16711746
1.5620658 -1.7780309 3.5191007 16711746
2.0219634 -2.0349672 3.9702597 16711746
1.8157160 -1.4370803 2.9470177 16711746
2.0324817 -1.8533922 3.2932389 16711746
1.8482226 -1.4147140 3.2695568 16711746
1.5270476 -1.5552940 3.3913827 16711746
2.1555200 -1.6499866 3.7577038 16711746
0.6615447 -1.1866642 3.0553234 16711746
1.3783542 -1.2267013 2.8039234 16711746
2.2459981 -2.3804784 3.7076349 16711746
1.9781333 -2.4483259 3.7755828 16711746
1.5085583 -1.0576692 3.0710599 16711746
0.6505072 -1.5119597 3.0980535 16711746
2.2459998 -3.2038605 3.8444378 16711746
0.7364889 -1.4769843 2.6208203 16711746
0.8447801 -2.9457016 3.3392148 16711746
1.8856976 -1.3725250 3.0133569 16711746
1.9012225 -1.6156100 2.8886247 16711746
1.6846967 -1.0127925 2.8836379 16711746
1.1972692 -1.2107030 2.9390676 16711746
1.6137516 -0.9131669 2.8088911 16711746
1.3460189 -1.0974168 2.8707638 16711746
1.4506027 -1.2349788 2.8360126 16711746
1.2319772 -1.1356694 2.8820779 16711746
1.5985799 -1.1943469 2.8954408 16711746
1.4594241 -0.9719858 2.7935176 16711746
1.5967571 -0.9446142 2.8471086 16711746
1.6771685 -1.0548565 2.7947962 16711746
0.7413312 -1.1239206 2.8392403 16711746
1.6971040 -0.9738689 2.9748664 16711746
1.4380707 -1.2301943 2.8386354 16711746
1.6136225 -0.8903677 2.8490763 16711746
1.9388193 -1.7614943 3.2526779 16711746
1.8256072 -1.2048589 2.9105611 16711746
1.8349240 -1.1947757 2.8534966 16711746
2.2802000 -1.4411551 3.2215512 16711746
1.2313211 -1.3825251 2.9216523 16711746
1.7405690 -1.1029193 2.8644855 16711746
1.2227471 -1.3472176 2.9242361 16711746
1.8396820 -1.2418870 2.9584012 16711746
1.9284947 -1.7633730 3.1811204 16711746
1.7940921 -1.3249842 3.2175758 16711746
0.9646761 -1.1982468 2.8083863 16711746
1.6938784 -1.1490297 2.6985757 16711746
1.4834579 -1.1350007 2.7330132 16711746
1.5089401 -1.3843831 2.9620404 16711746
1.3859484 -1.1748195 2.7801070 16711746
1.5444008 -1.3328443 2.6734042 16711746
1.3451738 -1.1450661 2.8237064 16711746
1.7556336 -1.0841062 2.7781646 16711746
0.5343706 -1.4337052 2.9194920 16711746
2.0374441 -1.1563412 3.3929055 16711746
1.2157773 -1.3312442 2.9157355 16711746
0.5955590 -1.4140595 2.9254503 16711746
0.2955996 -1.6343769 3.2264123 16711746
2.2072544 -1.3120027 3.2450817 16711746
1.9732100 -1.3324932 3.2573187 16711746
1.5359832 -1.7190628 3.1730249 16711746
2.0070572 -1.9593892 3.5899630 16711746
1.4835794 -1.3195088 3.2710676 16711746
1.5886137 -1.3234090 2.7845426 16711746
1.7495636 -1.5267966 3.1214550 16711746
1.7494944 -1.5197213 3.1191089 16711746
1.5241020 -1.7435782 3.4723582 16711746
2.2565014 -1.4602863 2.7430317 16711746
1.6820303 -1.3955058 2.7566006 16711746
1.9751939 -1.9021734 3.3475978 16711746
2.4406326 -3.9218850 4.1020007 16711746
2.0361223 -2.4525042 3.6189599 16711746
1.7482400 -1.3004924 3.3782558 16711746
2.6942520 -2.2129955 4.2933302 16711746
1.4089414 -0.8254902 2.7954171 16711746
1.5824381 -1.2035918 2.7726626 16711746
1.6756122 -1.0337307 2.8709955 16711746
1.3997844 -1.1564649 2.8671117 16711746
1.4077716 -1.0863355 2.8618677 16711746
1.6595370 -1.0948590 2.7099996 16711746
1.7166015 -1.2777076 2.8095489 16711746
1.4169457 -1.3511926 2.9432960 16711746
1.0880266 -1.0959140 3.2278304 16711746
1.3667148 -1.2194929 2.9283607 16711746
1.3764900 -1.1740704 2.8724549 16711746
1.3208160 -1.1257762 2.8466947 16711746
1.7927417 -1.2546458 2.9202135 16711746
1.6399808 -1.1534804 2.7265155 16711746
1.7997135 -1.2852980 2.8811989 16711746
1.6938326 -1.2495528 2.7178333 16711746
1.6936868 -1.2093861 2.9292738 16711746
1.8444637 -1.2513416 3.0276201 16711746
1.6946728 -1.1021514 2.8897257 16711746
1.4071679 -1.1016334 2.7998891 16711746
1.3779855 -1.2398671 2.9306753 16711746
1.4247704 -1.2976098 2.9576185 16711746
1.6524147 -1.3290824 2.8222957 16711746
1.6453055 -1.2599500 2.8121448 16711746
1.2575133 -1.1304263 2.9455855 16711746
1.7302459 -1.3726900 3.0061114 16711746
1.7598046 -1.2394687 2.8065875 16711746
1.1367934 -1.1247197 3.0174036 16711746
1.3869381 -1.0748966 3.2255154 16711746
1.6827916 -1.1076710 2.8793790 16711746
1.5087795 -1.1287526 2.7611289 16711746
1.5590953 -1.1774443 2.7427230 16711746
1.6084580 -1.1989228 2.7585380 16711746
1.5382271 -1.1104923 2.8049769 16711746
1.7282522 -1.0924168 2.7062201 16711746
1.6017411 -1.1339457 2.7008009 16711746
1.7391688 -1.1061147 2.7028747 16711746
1.9530358 -1.6335659 3.1693342 16711746
1.2054721 -1.1806077 2.9431481 16711746
1.6253346 -1.0491635 2.8518550 16711746
1.2652194 -1.1940527 3.0339823 16711746
1.4281633 -1.2571433 3.1406844 16711746
1.4979452 -1.3401488 3.1793830 16711746
1.3031087 -1.0440131 2.8669136 16711746
1.2801359 -1.0490718 2.9771371 16711746
1.3348935 -1.0839672 2.8126578 16711746
1.6742705 -1.3009782 2.9144435 16711746
1.1187341 -1.2326095 2.8922787 16711746
1.2178873 -0.9128763 2.8960021 16711746
1.2995007 -1.0558271 2.8550620 16711746
1.7551552 -1.1587343 2.8687644 16711746
0.9638742 -1.1932296 2.9993575 16711746
1.0887222 -1.0431931 3.0685697 16711746
1.5033424 -1.3029190 3.1857812 16711746
1.7880678 -1.2490778 3.1960754 16711746
2.0929351 -1.6090397 3.2636600 16711746
1.7783709 -1.4490610 3.1386368 16711746
1.6253066 -1.2894661 2.8375332 16711746
1.7906611 -1.6087459 3.3711636 16711746
1.8036051 -1.5156106 3.2079091 16711746
1.8695034 -1.6889099 3.3005238 16711746
1.8161086 -1.6734960 3.4021788 16711746
1.6658493 -1.3814560 3.1049402 16711746
1.5957724 -1.1320866 2.8119109 16711746
1.7897210 -1.1869211 2.9918594 16711746
1.2077711 -1.1124249 2.9348738 16711746
1.6955348 -1.1323428 2.7503102 16711746
1.6906306 -1.3840492 3.0280776 16711746
1.8285177 -1.2162184 3.3947194 16711746
1.8145525 -1.2188383 3.0164497 16711746
1.7717769 -1.4080850 3.0005107 16711746
2.1436334 -1.9837809 3.7878671 16711746
1.7933575 -1.4145068 2.9727464 16711746
2.1922374 -2.3888507 4.2468233 16711746
1.4858595 -1.8072053 3.4512563 16711746
2.1752787 -2.2606370 3.7606425 16711746
1.3913029 -0.7174845 2.8266361 16711746
2.5096469 -2.2028749 4.1757011 16711746
1.8751249 -1.9486238 3.5673883 16711746
1.5717851 -1.9922428 3.6553164 16711746
-0.6077650 -5.2985048 2.3013577 16711746
1.1178520 -0.8420979 2.9093235 16711746
1.5234630 -0.9499731 2.8624477 16711746
1.6685874 -0.9751617 2.8386674 16711746
1.7013279 -1.2603159 2.9845269 16711746
1.6822070 -1.3947852 2.9210911 16711746
1.7470217 -1.1011077 2.7650642 16711746
1.7056644 -1.3471630 2.9607491 16711746
1.6006042 -0.9166684 2.8266125 16711746
1.1345491 -0.9609047 2.9069555 16711746
1.3818982 -1.2367215 2.9214301 16711746
1.7570168 -1.0315969 3.0173962 16711746
1.5766786 -1.1249791 2.7672436 16711746
1.8309011 -0.9993467 2.9964423 16711746
1.5764650 -1.1293836 2.8168559 16711746
1.5329292 -1.2329686 2.7252882 16711746
1.7204082 -1.4955267 3.1865847 16711746
1.5882069 -1.1889838 3.0719752 16711746
1.8636532 -1.2235278 3.0492358 16711746
0.4360478 -1.4005104 2.9324255 16711746
1.6561033 -1.0336711 2.8798687 16711746
1.9620023 -1.3487103 3.0987916 16711746
1.6003506 -1.0957963 2.7314253 16711746
1.6238233 -1.0560603 2.8074126 16711746
1.5754538 -1.0495189 2.8525624 16711746
1.4396410 -1.0015074 2.7807620 16711746
1.5080094 -0.9347730 2.7814903 16711746
1.3347341 -0.8689301 2.8654382 16711746
1.5584761 -1.2681047 2.8131492 16711746
1.6958954 -1.3313223 2.9676054 16711746
1.9743884 -1.1526157 3.3225069 16711746
1.4625349 -1.2376038 2.8393352 16711746
1.9810035 -1.3532296 3.0147626 16711746
1.5275341 -1.0865091 2.7944295 16711746
0.5863317 -1.2732470 3.0951474 16711746
0.5236821 -1.3369740 3.1264586 16711746
3.0565262 -2.0969398 3.0870097 16711746
1.2234017 -0.8907495 2.9694169 16711746
1.9718853 -2.4514892 4.3100758 16711746
1.1520227 -2.1611729 3.4084618 16711746
1.2022116 -1.4961421 2.8635550 16711746
0.9175723 -1.8913505 2.8036394 16711746
1.1977084 -1.4353566 2.8431990 16711746
1.9251957 -1.8845886 3.2650328 16711746
1.6827213 -1.0565882 2.8009524 16711746
1.8192066 -1.2260443 3.1701949 16711746
1.7449417 -1.1260926 2.9371746 16711746
1.9292967 -1.9516129 3.8017213 16711746
1.8100979 -1.1894685 2.9753382 16711746
1.6940722 -0.9050841 2.7626758 16711746
1.6681381 -0.9799251 2.8576124 16711746
1.2242724 -0.8612461 2.8519204 16711746
1.7264471 -0.9421232 2.8489752 16711746
1.1897916 -0.7740914 2.8964865 16711746
1.4542539 -1.4191170 2.8362384 16711746
1.6797043 -1.3787429 2.7587817 16711746
1.1790193 -1.2753552 2.8070631 16711746
1.6784228 -1.2291011 2.7754912 16711746
1.9888921 -1.1269439 2.9455359 16711746
2.0216277 -1.1897906 2.9871600 16711746
1.4814365 -1.4324890 2.8239212 16711746
1.6574219 -0.9780856 2.8698490 16711746
1.5228684 -1.0058266 2.8271117 16711746
1.5011512 -1.1206266 2.7634115 16711746
1.7510751 -1.0838271 2.8372314 16711746
1.9230322 -1.7316920 3.7518649 16711746
1.6850826 -1.5345051 3.2141404 16711746
0.4754761 -2.6589730 2.9843392 16711746
2.1269734 -2.0151067 4.0693440 16711746
2.0507498 -1.9949961 3.6081924 16711746
1.6681051 -1.4101530 2.9724483 16711746
1.6687949 -1.4169664 2.9744899 16711746
1.1580304 -3.2540667 4.3878040 16711746
1.7513366 -1.2305735 2.8779602 16711746
1.6998410 -1.3754888 3.1027808 16711746
1.6582953 -1.2703340 3.0780196 16711746
1.1190792 -1.1559260 2.8631077 16711746
1.7545370 -1.0851886 2.9194739 16711746
1.3332080 -1.0715392 2.8275392 16711746
1.0793302 -0.9853426 2.9260046 16711746
1.6321900 -1.0467876 2.7809758 16711746
1.0919119 -1.0481596 2.8501430 16711746
1.3329675 -1.0778834 2.8270471 16711746
1.1405538 -1.0909842 2.8825612 16711746
1.0714020 -1.0274473 2.8686438 16711746
1.0286044 -1.0659145 2.9375992 16711746
1.1754478 -0.9093879 2.8759408 16711746
1.1346827 -0.8095790 2.9180429 16711746
1.4091196 -0.7769708 3.0529864 16711746
1.1885883 -1.0613813 2.8817844 16711746
1.1765095 -0.9060227 2.8764198 16711746
1.1289124 -1.0678626 2.8979464 16711746
1.0703689 -0.9700514 2.9437253 16711746
0.8406766 -1.1344737 2.9820986 16711746
1.0867171 -1.0460064 3.0189342 16711746
0.8472288 -1.1573610 3.0209904 16711746
1.1773975 -0.9526646 2.8738801 16711746
1.8543129 -1.5410175 3.2246127 16711746
1.6808629 -1.3715603 3.0738871 16711746
1.6805212 -1.0351418 2.8710961 16711746
1.4417781 -1.0991000 2.8362708 16711746
1.6378168 -1.0198915 2.8565528 16711746
1.5407884 -1.1309556 2.8031652 16711746
1.6391971 -1.0828910 2.8238330 16711746
2.0717227 -1.1286514 3.0303133 16711746
1.5526096 -1.3126957 3.0873063 16711746
1.8884929 -1.3308088 2.9051094 16711746
1.4782767 -0.9641325 3.0007467 16711746
1.3471290 -1.2964317 2.8405309 16711746
1.1018283 -1.8241222 3.1644254 16711746
1.2808280 -1.3872935 3.2667739 16711746
1.6124338 -1.1356655 2.8096483 16711746
0.9664324 -0.9991304 2.9078486 16711746
1.0097733 -1.1760702 2.9461417 16711746
1.6326721 -1.1696265 2.8503401 16711746
1.5873718 -1.1384555 2.9409845 16711746
0.7383097 -0.9984971 3.1590879 16711746
1.6388627 -1.3143038 2.8918765 16711746
1.5841253 -1.1859436 2.8103986 16711746
1.6007429 -0.9986765 3.0870306 16711746
1.8350084 -1.1615661 3.0752287 16711746
1.6618733 -1.1475693 2.8867271 16711746
1.6747733 -1.0419408 2.7936499 16711746
1.7354366 -1.2331685 3.1439495 16711746
1.7699218 -1.3297846 3.1856344 16711746
1.3684217 -1.3128532 3.1464217 16711746
1.3955821 -1.4606158 2.9643829 16711746
3.0206950 -4.3707657 3.1327059 16711746
1.1152174 -2.1693835 3.1519556 16711746
1.3018845 -0.8908235 2.8668106 16711746
1.6418771 -1.1495885 2.8491931 16711746
1.7459611 -1.0125282 2.8820074 16711746
1.3501621 -1.0428946 2.9341824 16711746
1.3497491 -1.0394250 3.0649793 16711746
1.4539698 -1.1850023 3.0770397 16711746
1.5450953 -0.9359449 2.8630822 16711746
1.4782213 -1.4238850 2.9792290 16711746
1.6042389 -1.1821775 2.9081194 16711746
1.4403021 -1.3120946 2.9521191 16711746
1.3673285 -1.0863864 2.8919160 16711746
1.7625320 -1.0919447 2.7972910 16711746
1.5460088 -1.1482431 2.9597898 16711746
1.6895682 -1.1960485 2.8890259 16711746
1.6294805 -1.0608824 2.8271096 16711746
1.4558383 -1.1871434 3.0789726 16711746
1.7660797 -1.1744481 2.8488905 16711746
1.5655179 -1.0479333 2.8390465 16711746
1.4551584 -1.3952100 2.9556797 16711746
1.8728461 -1.1131256 2.9379601 16711746
1.4397526 -1.1102115 3.0558453 16711746
1.4348178 -1.2856928 2.9842007 16711746
1.4605682 -1.1105164 3.0591695 16711746
1.0436560 -0.9168439 3.0559630 16711746
1.6590637 -1.0507840 2.8565519 16711746
1.4290885 -1.0569128 3.0358565 16711746
1.3960594 -1.0850124 3.0880098 16711746
1.4407599 -0.8757735 3.1379349 16711746
1.0832503 -0.9463096 2.8921564 16711746
1.4383917 -1.3144552 2.9875443 16711746
1.6092842 -1.0505221 2.9039035 16711746
1.7876725 -1.1317827 2.9086142 16711746
1.4860624 -1.2300612 3.0967965 16711746
1.5600156 -0.9691671 3.1861122 16711746
1.6765710 -1.4009633 2.8682549 16711746
1.7021092 -1.0534415 2.8733413 16711746
1.8629395 -1.6557544 3.5487425 16711746
2.5462739 -2.9026585 4.7076259 16711746
2.7230906 -3.0954044 5.1430697 16711746
1.6323633 -2.7914629 4.6681576 16711746
2.5984800 -2.9631844 4.7527413 16711746
2.2590888 -1.7433091 3.2385035 16711746
1.5681762 -2.4127123 4.2008462 16711746
2.1520016 -2.9128907 4.6260567 16711746
1.3946252 -1.4420286 2.9545958 16711746
1.7015002 -1.3213673 3.0581028 16711746
1.4946392 -1.5537107 3.0148766 16711746
1.6148493 -1.2503222 2.9379563 16711746
1.7197088 -1.1257300 2.8431859 16711746
1.8358761 -1.1155804 2.8867779 16711746
1.6710316 -1.0444659 2.8288894 16711746
1.7481073 -1.2442421 2.9029906 16711746
1.7523849 -1.0755725 2.8919215 16711746
1.6781754 -1.0551374 2.8277798 16711746
1.6944602 -1.3853170 3.0105054 16711746
1.6567132 -1.2920372 2.9975450 16711746
1.6728886 -1.1430600 2.8032715 16711746
1.6599438 -1.2112963 2.8509820 16711746
1.8639344 -1.2299643 3.1669939 16711746
1.5920366 -1.1479034 2.8830650 16711746
1.2061305 -1.5666935 3.1301112 16711746
1.6790187 -1.0658870 2.8196864 16711746
1.6157585 -1.7525437 3.2698781 16711746
1.6132339 -1.1708914 2.9174943 16711746
1.7082490 -2.0171151 3.6815739 16711746
1.7197410 -1.1308837 2.8424034 16711746
1.9118288 -1.4872528 3.1245248 16711746
2.0319548 -1.6497520 3.1281829 16711746
1.9962754 -1.7489145 3.1984553 16711746
1.9338927 -1.5310780 3.1369224 16711746
1.3753365 -1.1466742 2.9219081 16711746
1.6124924 -1.2393891 2.8154578 16711746
1.8277214 -1.3729535 3.2009096 16711746
1.6611035 -1.2856268 2.9370174 16711746
1.5128870 -3.0129204 4.8360014 16711746
2.7502911 -3.3614635 5.1940269 16711746
1.7981210 -1.1498396 2.9272983 16711746
2.1834562 -2.1418021 4.0325375 16711746
1.6084301 -0.9821591 2.9507134 16711746
1.5863136 -1.0396780 2.9469035 16711746
0.6708586 -1.4534926 2.9515710 16711746
0.7115019 -1.5033689 2.9040623 16711746
1.0371400 -1.5610268 3.3124564 16711746
1.5857614 -0.9500833 3.0009797 16711746
1.6561888 -1.1381420 2.8572700 16711746
0.6124173 -1.2917213 2.9232018 16711746
1.6100043 -0.8922473 2.9563909 16711746
1.4329804 -0.9631811 2.9312820 16711746
1.1655154 -1.3547251 3.4018745 16711746
1.7148422 -1.1311185 2.8559456 16711746
1.9233756 -1.2060645 2.7853975 16711746
1.3751216 -1.3409860 3.0492988 16711746
1.7522604 -1.1662916 2.8792808 16711746
1.2906379 -1.5968580 3.1872492 16711746
1.3122426 -1.1034156 3.0131900 16711746
1.8679286 -1.2043456 3.0679770 16711746
1.9134308 -1.3610541 3.0873125 16711746
1.7750705 -1.1154202 3.1162875 16711746
1.5921586 -0.9181714 2.9065859 16711746
1.3087567 -1.1216813 3.1386902 16711746
1.7335550 -1.1023070 2.8327086 16711746
1.5904419 -1.2894779 3.0246348 16711746
1.3962411 -1.3239887 2.9337273 16711746
1.6108179 -1.1231760 2.8683531 16711746
1.3725605 -1.1910481 2.8405344 16711746
1.6368266 -1.0318750 2.9576619 16711746
1.1778991 -1.4822993 3.3843801 16711746
1.3410816 -1.4854547 2.7945025 16711746
1.7520053 -1.1215111 2.8563969 16711746
1.5597554 -1.5765332 3.4706109 16711746
1.8970612 -1.7206814 3.2478395 16711746
1.8223902 -1.1873562 3.3421540 16711746
2.2061131 -2.0787730 3.8461163 16711746
2.0025115 -1.6320189 3.5174077 16711746
2.4132876 -2.4964154 4.5577359 16711746
2.2519267 -2.3297529 4.3582377 16711746
1.8960731 -2.1963375 3.3992555 16711746
1.2858671 -1.6210842 3.0898504 16711746
1.4074239 -1.0928633 2.8763125 16711746
0.9880556 -0.9563633 2.8687925 16711746
1.3323170 -1.1238745 2.8488111 16711746
1.4665763 -1.0427473 2.9492512 16711746
1.1959910 -0.9717255 3.1526845 16711746
1.3930100 -0.8565429 3.1358788 16711746
1.7218450 -1.5585302 3.3428214 16711746
1.6346955 -1.3822802 3.2195396 16711746
1.3586843 -1.2393528 2.9209290 16711746
1.1116866 -1.8550301 3.5087798 16711746
1.7713059 -1.1589904 3.1600170 16711746
1.3717027 -1.4545701 2.9197874 16711746
1.6794008 -1.0581311 2.8266468 16711746
1.5626248 -1.0996178 2.8527293 16711746
1.5741373 -1.1082392 2.8121431 16711746
1.1908493 -1.1263252 3.0557029 16711746
1.6282122 -1.0564609 2.8572173 16711746
1.5453185 -1.0777066 2.8312259 16711746
1.5971115 -1.1637309 2.9850502 16711746
1.6366791 -1.7344829 3.3590946 16711746
2.0216563 -2.0256953 3.7936990 16711746
1.7059819 -1.7182877 3.4253230 16711746
2.0096450 -1.8067130 3.3594608 16711746
2.1650956 -2.2663090 3.9815316 16711746
1.8522648 -1.6819022 3.5240963 16711746
3.6522818 -5.1526194 6.4986911 16711746
1.6015321 -1.0460037 3.3516550 16711746
1.7467301 -2.0399539 3.6446903 16711746
1.6224811 -1.2420799 2.9697189 16711746
1.8306472 -1.6153811 3.3969741 16711746
1.6350892 -1.0966897 2.9175668 16711746
-0.6434122 -2.0135369 3.8574681 16711746
-0.1928214 -1.6770499 3.7311184 16711746
1.1846172 -1.3698401 2.9046564 16711746
1.3427927 -1.1135881 2.9531276 16711746
1.6879303 -0.9753834 2.9440155 16711746
1.7315022 -1.1296992 2.9319255 16711746
1.1535647 -1.3781900 3.1422808 16711746
1.6329416 -1.0636185 2.9399328 16711746
1.6727555 -1.1320131 2.9455037 16711746
1.6704520 -1.2802085 2.9630916 16711746
1.4166915 -1.5653574 3.5360732 16711746
1.6636751 -0.9613601 2.9500000 16711746
2.4476857 -2.4872372 4.0954418 16711746
1.6492922 -0.9507558 3.0103731 16711746
1.5793628 -0.9659644 3.2150500 16711746
1.7564595 -1.4148841 2.8741410 16711746
1.6759921 -1.6096772 3.3264484 16711746
1.8852842 -1.0620931 2.9124691 16711746
1.5187099 -1.0914098 2.9933128 16711746
1.8188721 -1.5217490 3.1669617 16711746
1.6248602 -1.1965373 2.8447907 16711746
1.1583400 -1.2092435 3.0710442 16711746
1.8424957 -1.1388947 3.1613374 16711746
1.8711462 -1.4410384 3.1095059 16711746
-0.6676158 -2.0887725 3.8012569 16711746
1.4532892 -2.4422760 3.6962707 16711746
2.1165903 -2.1176271 3.5753653 16711746
2.2174540 -2.0411017 4.3441572 16711746
1.3704590 -0.7291989 3.0246594 16711746
1.7462167 -1.9927934 3.3502128 16711746
1.2548360 -0.9665954 2.9530363 16711746
1.6888164 -0.9696316 2.9876156 16711746
-0.7201455 -7.5584941 4.3207469 16711746
2.0748508 -1.9566499 3.6610379 16711746
1.6497015 -1.3186392 3.1336143 16711746
1.8854932 -1.3304740 3.3040919 16711746
2.1516483 -1.9110205 3.6125648 16711746
1.8790001 -1.4823647 3.8145783 16711746
1.6867371 -1.0140362 2.9260256 16711746
1.7704648 -1.0426270 3.1263521 16711746
1.3836286 -0.9925055 2.9282320 16711746
1.4328021 -1.0526880 2.9462891 16711746
1.4587504 -1.0207095 3.0129309 16711746
1.4297994 -0.9415261 2.9403026 16711746
1.3072371 -1.0502934 2.9724188 16711746
1.3369830 -1.0547757 2.9565256 16711746
1.6892428 -0.9252343 3.0644813 16711746
1.4839020 -1.2091812 3.0361962 16711746
1.9309709 -1.0879278 2.9591074 16711746
1.7638450 -1.0766914 2.9853718 16711746
1.7842993 -1.5598441 3.1667221 16711746
1.8974018 -1.0597857 2.9324634 16711746
2.0624516 -1.2458576 3.0579977 16711746
