# .PCD v.7 - Point Cloud Data file format
VERSION .7
FIELDS x y z rgb
SIZE 4 4 4 4
TYPE F F F F
COUNT 1 1 1 1
WIDTH 53
HEIGHT 1
VIEWPOINT 0 0 0 1 0 0 0
POINTS 53
DATA ascii

0.1890176 -1.2244385 0.4342320 16711746
-0.6953051 -0.8407822 0.1435657 16711746
-0.1236310 1.0962720 -0.9964985 16711746
-0.2224980 -1.4059309 -0.1245925 16711746
0.6108779 -1.0654488 0.3303851 16711746
0.4431565 -0.8944088 0.4559914 16711746
0.5443195 -1.0056841 0.4922513 16711746
-0.0315007 -0.1328403 -0.0064260 16711746
0.4430529 -0.9154066 0.4236957 16711746
-0.4322096 -0.9268299 0.2849578 16711746
0.4538174 -0.8939145 0.0653818 16711746
0.5538340 -1.0214819 0.7163003 16711746
0.4460769 -0.9491035 0.2649806 16711746
-0.1801000 -1.3770235 -0.0089024 16711746
-0.0703235 -1.3251493 -0.0479881 16711746
0.1951177 -0.8953990 0.1467591 16711746
0.5038216 -1.0109706 0.6185060 16711746
0.2431759 -1.2084150 0.5323387 16711746
0.6232091 -0.8425577 0.5965276 16711746
1.0035390 -0.8918837 0.6610373 16711746
0.8526095 -0.8664417 0.6458316 16711746
-0.3874752 0.9021910 -0.9803542 16711746
-0.4188140 0.9497174 -0.9532195 16711746
-0.6869761 1.0700215 -1.0956141 16711746
-0.3665727 0.8644861 -0.9988865 16711746
-0.7726032 1.0049154 -1.1967428 16711746
-0.3144278 0.9200737 -1.0001961 16711746
-0.2251130 1.0136126 -0.9975604 16711746
0.1635172 -0.7442859 0.5602593 16711746
-0.0848085 0.9385321 -0.8781487 16711746
-0.2017258 0.9549940 -0.8812348 16711746
0.0014057 -0.9625075 0.3627310 16711746
0.0000246 -0.9630824 0.3621683 16711746
0.0014097 -0.9631459 0.3629708 16711746
-0.0555537 -1.2276655 0.8297172 16711746
0.0014080 -0.9619771 0.3625292 16711746
0.0017145 -0.9811609 0.3696244 16711746
0.1773216 0.8718725 -0.8971522 16711746
-0.5880662 -1.2750549 1.0583286 16711746
-0.0063372 -1.2934967 0.0839659 16711746
-0.3433133 -0.9090686 0.0883497 16711746
-0.0164570 -0.1249698 -0.0055172 16711746
0.0014521 -0.9685093 0.3649999 16711746
-1.9066598 -2.7621548 0.9136093 16711746
1.1785808 -4.8516455 0.5435722 16711746
1.5427624 -3.6558115 1.4110537 16711746
0.4946295 -3.6930118 1.0383376 16711746
1.7230854 -3.2071021 2.3021865 16711746
1.4681387 -3.1775932 1.3731068 16711746
2.0083270 -15.0260420 0.7833041 16711746
-1.6301045 -4.9745116 1.1606210 16711746
0.3082091 -7.8744264 2.6041336 16711746
0.1306410 -0.1862088 0.0342886 16711746
