# .PCD v.7 - Point Cloud Data file format
VERSION .7
FIELDS x y z rgb
SIZE 4 4 4 4
TYPE F F F F
COUNT 1 1 1 1
WIDTH 185
HEIGHT 1
VIEWPOINT 0 0 0 1 0 0 0
POINTS 185
DATA ascii

 0.0000000 0.0000000 0.0000000 16777215
 0.0159046 0.0031640 0.0286373 16777215
 0.0169784 0.0054185 0.0319914 16777215
 0.0167944 0.0054469 0.0380734 16777215
 0.0157659 0.0066052 0.0420916 16777215
 0.0140452 0.0081248 0.0482452 16777215
 0.0176624 0.0084511 0.0544947 16777215
 0.0188333 0.0081781 0.0598230 16777215
 0.0206110 0.0115350 0.0681203 16777215
 0.0233751 0.0120920 0.0765610 16777215
 0.0308307 0.0156867 0.0830062 16777215
 0.0339004 0.0127347 0.0936770 16777215
 0.0368600 0.0180993 0.1024062 16777215
 0.0348026 0.0201385 0.1168232 16777215
 0.0324230 0.0217754 0.1285502 16777215
 0.0373452 0.0244728 0.1371562 16777215
 0.0404299 0.0269462 0.1496755 16777215
 0.0432802 0.0279672 0.1634067 16777215
 0.0477916 0.0312712 0.1767434 16777215
 0.0494731 0.0350098 0.1906841 16777215
 0.0493418 0.0376841 0.2057468 16777215
 0.0494420 0.0410907 0.2176935 16777215
 0.0551281 0.0436251 0.2336773 16777215
 0.0626774 0.0447642 0.2488368 16777215
 0.0646944 0.0465892 0.2582995 16777215
 0.0662360 0.0507205 0.2714813 16777215
 0.0655778 0.0548058 0.2854065 16777215
 0.0715940 0.0567884 0.2992802 16777215
 0.0847528 0.0584108 0.3149060 16777215
 0.0866676 0.0607945 0.3254193 16777215
 0.0903230 0.0632484 0.3382458 16777215
 0.0904452 0.0688222 0.3569047 16777215
 0.0961244 0.0721585 0.3717160 16777215
 0.1033332 0.0720623 0.3856058 16777215
 0.1105002 0.0757345 0.3965110 16777215
 0.1126728 0.0814738 0.4149801 16777215
 0.1136300 0.0848814 0.4292374 16777215
 0.1171177 0.0856728 0.4430394 16777215
 0.1281437 0.0907852 0.4566578 16777215
 0.1311008 0.0912839 0.4688025 16777215
 0.1352435 0.0938286 0.4811940 16777215
 0.1361848 0.0968695 0.4948631 16777215
 0.1392954 0.1006485 0.5095375 16777215
 0.1451243 0.1032390 0.5210696 16777215
 0.1570584 0.1045936 0.5325952 16777215
 0.1592728 0.1033467 0.5416771 16777215
 0.1593605 0.1049709 0.5531885 16777215
 0.1584865 0.1065720 0.5633781 16777215
 0.1613643 0.1113240 0.5756896 16777215
 0.1683522 0.1120495 0.5872725 16777215
 0.1704982 0.1131706 0.5967082 16777215
 0.1722797 0.1160697 0.6094077 16777215
 0.1734588 0.1177421 0.6172923 16777215
 0.1794508 0.1181736 0.6269693 16777215
 0.1822963 0.1190097 0.6382924 16777215
 0.1837399 0.1216587 0.6525292 16777215
 0.1851916 0.1221582 0.6601559 16777215
 0.1867099 0.1226069 0.6689723 16777215
 0.1923022 0.1255755 0.6818070 16777215
 0.1935266 0.1266675 0.6906409 16777215
 0.1955686 0.1288314 0.6976612 16777215
 0.1974215 0.1296885 0.7069209 16777215
 0.2000031 0.1309326 0.7153090 16777215
 0.2012815 0.1316203 0.7205237 16777215
 0.2024999 0.1328429 0.7231297 16777215
 0.2028264 0.1333979 0.7267020 16777215
 0.2031428 0.1341674 0.7292284 16777215
 0.2041248 0.1333028 0.7312182 16777215
 0.2041295 0.1336154 0.7319282 16777215
 0.2044604 0.1332854 0.7338292 16777215
 0.2055434 0.1331956 0.7351096 16777215
 0.2064166 0.1331966 0.7370222 16777215
 0.2076932 0.1331372 0.7393137 16777215
 0.2071764 0.1342880 0.7421533 16777215
 0.2078790 0.1344952 0.7436516 16777215
 0.2089038 0.1350325 0.7458501 16777215
 0.2102297 0.1353002 0.7483000 16777215
 0.2111409 0.1358933 0.7509436 16777215
 0.2120363 0.1360557 0.7528960 16777215
 0.2125445 0.1366214 0.7546818 16777215
 0.2131040 0.1370361 0.7569541 16777215
 0.2143356 0.1372180 0.7587450 16777215
 0.2147661 0.1377061 0.7608495 16777215
 0.2148512 0.1382439 0.7629606 16777215
 0.2152156 0.1385987 0.7648696 16777215
 0.2158498 0.1388494 0.7668302 16777215
 0.2169351 0.1390573 0.7689010 16777215
 0.2179796 0.1390717 0.7705640 16777215
 0.2184739 0.1393980 0.7723969 16777215
 0.2188313 0.1399625 0.7743576 16777215
 0.2186924 0.1403234 0.7762042 16777215
 0.2196040 0.1408247 0.7785362 16777215
 0.2207946 0.1407395 0.7803082 16777215
 0.2211433 0.1409141 0.7810388 16777215
 0.2212203 0.1413314 0.7826514 16777215
 0.2209982 0.1415396 0.7838261 16777215
 0.2211057 0.1417607 0.7849285 16777215
 0.2213952 0.1413445 0.7858824 16777215
 0.2215167 0.1412954 0.7860057 16777215
 0.2213266 0.1413463 0.7868229 16777215
 0.2213999 0.1414240 0.7879315 16777215
 0.2216591 0.1416263 0.7889427 16777215
 0.2218321 0.1418840 0.7897378 16777215
 0.2222461 0.1420628 0.7906375 16777215
 0.2226900 0.1421666 0.7914736 16777215
 0.2231946 0.1424359 0.7925761 16777215
 0.2234451 0.1426369 0.7936395 16777215
 0.2234873 0.1429843 0.7944320 16777215
 0.2236279 0.1429862 0.7953526 16777215
 0.2242424 0.1429459 0.7957476 16777215
 0.2244315 0.1430183 0.7961034 16777215
 0.2247244 0.1430550 0.7965551 16777215
 0.2246667 0.1430961 0.7970288 16777215
 0.2246839 0.1432781 0.7975340 16777215
 0.2248834 0.1434212 0.7980427 16777215
 0.2251936 0.1434730 0.7985891 16777215
 0.2253391 0.1435850 0.7990100 16777215
 0.2254828 0.1436532 0.7994772 16777215
 0.2255300 0.1437633 0.8001075 16777215
 0.2255403 0.1438845 0.8005462 16777215
 0.2256441 0.1439777 0.8010023 16777215
 0.2257594 0.1441161 0.8015099 16777215
 0.2259210 0.1441174 0.8019449 16777215
 0.2261066 0.1441954 0.8022931 16777215
 0.2263068 0.1442113 0.8027810 16777215
 0.2263801 0.1443270 0.8032550 16777215
 0.2265258 0.1443782 0.8036783 16777215
 0.2268296 0.1444955 0.8041123 16777215
 0.2269394 0.1445270 0.8045609 16777215
 0.2270266 0.1446535 0.8052321 16777215
 0.2269746 0.1447141 0.8057279 16777215
 0.2270770 0.1448264 0.8062296 16777215
 0.2274463 0.1449047 0.8067262 16777215
 0.2276808 0.1449401 0.8071887 16777215
 0.2277407 0.1451216 0.8077528 16777215
 0.2278666 0.1451734 0.8081231 16777215
 0.2280846 0.1452728 0.8087001 16777215
 0.2282628 0.1453083 0.8090144 16777215
 0.2284926 0.1453644 0.8094000 16777215
 0.2285676 0.1454833 0.8098845 16777215
 0.2285244 0.1455455 0.8103102 16777215
 0.2285603 0.1456395 0.8106855 16777215
 0.2287633 0.1457405 0.8111290 16777215
 0.2289655 0.1458076 0.8115854 16777215
 0.2291003 0.1459305 0.8121130 16777215
 0.2291742 0.1459990 0.8126470 16777215
 0.2292652 0.1460274 0.8129416 16777215
 0.2294314 0.1460817 0.8133577 16777215
 0.2296540 0.1462787 0.8137472 16777215
 0.2297399 0.1462453 0.8137999 16777215
 0.2297317 0.1462558 0.8142357 16777215
 0.2297411 0.1462917 0.8145105 16777215
 0.2297914 0.1463394 0.8147573 16777215
 0.2299234 0.1463924 0.8150042 16777215
 0.2301006 0.1464196 0.8151960 16777215
 0.2302255 0.1464603 0.8154544 16777215
 0.2303200 0.1465131 0.8157860 16777215
 0.2303601 0.1465858 0.8159945 16777215
 0.2304788 0.1466438 0.8162647 16777215
 0.2306576 0.1466461 0.8165351 16777215
 0.2307424 0.1467102 0.8167821 16777215
 0.2307662 0.1467457 0.8170470 16777215
 0.2308636 0.1467769 0.8173220 16777215
 0.2309381 0.1468249 0.8175119 16777215
 0.2310999 0.1468754 0.8177250 16777215
 0.2312092 0.1468771 0.8179517 16777215
 0.2312581 0.1469628 0.8181940 16777215
 0.2312957 0.1470196 0.8184776 16777215
 0.2313772 0.1470698 0.8187575 16777215
 0.2315135 0.1471189 0.8189764 16777215
 0.2316200 0.1471361 0.8192554 16777215
 0.2316523 0.1472277 0.8195720 16777215
 0.2316978 0.1473685 0.8198777 16777215
 0.2317275 0.1473386 0.8201091 16777215
 0.2317563 0.1473389 0.8202295 16777215
 0.2317617 0.1473526 0.8202982 16777215
 0.2317758 0.1473658 0.8203726 16777215
 0.2317842 0.1473865 0.8204554 16777215
 0.2317781 0.1473826 0.8205026 16777215
 0.2317959 0.1474017 0.8205622 16777215
 0.2318091 0.1474021 0.8206059 16777215
 0.2318197 0.1474240 0.8206415 16777215
 0.2318178 0.1474170 0.8206837 16777215
 0.2318208 0.1474134 0.8207034 16777215
 0.2318349 0.1474170 0.8207095 16777215
