# .PCD v.7 - Point Cloud Data file format
VERSION .7
FIELDS x y z rgb
SIZE 4 4 4 4
TYPE F F F F
COUNT 1 1 1 1
WIDTH 160
HEIGHT 1
VIEWPOINT 0 0 0 1 0 0 0
POINTS 160
DATA ascii

 0.0000000 0.0000000 0.0000000 16777215
 -0.0283308 0.0032199 -0.0061995 16777215
 -0.0283736 0.0031740 -0.0062037 16777215
 -0.0281656 0.0033252 -0.0062847 16777215
 -0.0282352 0.0032845 -0.0069030 16777215
 -0.0285244 0.0032890 -0.0083336 16777215
 -0.0289769 0.0033243 -0.0112859 16777215
 -0.0291460 0.0037844 -0.0131536 16777215
 -0.0299073 0.0042469 -0.0149921 16777215
 -0.0292508 0.0040592 -0.0159663 16777215
 -0.0304719 0.0053275 -0.0179537 16777215
 -0.0314845 0.0060226 -0.0201590 16777215
 -0.0315705 0.0057773 -0.0215868 16777215
 -0.0320344 0.0054909 -0.0224082 16777215
 -0.0323741 0.0054328 -0.0232291 16777215
 -0.0321222 0.0054741 -0.0237005 16777215
 -0.0319491 0.0053315 -0.0244305 16777215
 -0.0318723 0.0051885 -0.0255237 16777215
 -0.0320423 0.0052360 -0.0257564 16777215
 -0.0319959 0.0052499 -0.0251992 16777215
 -0.0316362 0.0048453 -0.0249338 16777215
 -0.0309069 0.0045019 -0.0259957 16777215
 -0.0303415 0.0043118 -0.0266984 16777215
 -0.0298676 0.0039704 -0.0272404 16777215
 -0.0296405 0.0037789 -0.0277349 16777215
 -0.0300908 0.0039713 -0.0275356 16777215
 -0.0305650 0.0042680 -0.0268871 16777215
 -0.0307378 0.0045310 -0.0262241 16777215
 -0.0316946 0.0051243 -0.0243291 16777215
 -0.0322222 0.0054312 -0.0235917 16777215
 -0.0331147 0.0058330 -0.0221211 16777215
 -0.0347115 0.0059038 -0.0208801 16777215
 -0.0348199 0.0059729 -0.0207015 16777215
 -0.0348462 0.0061347 -0.0200676 16777215
 -0.0348188 0.0061648 -0.0197301 16777215
 -0.0348673 0.0062065 -0.0189874 16777215
 -0.0349272 0.0062088 -0.0186196 16777215
 -0.0348838 0.0063916 -0.0182783 16777215
 -0.0346724 0.0064789 -0.0176061 16777215
 -0.0343648 0.0066097 -0.0172344 16777215
 -0.0339664 0.0066414 -0.0166318 16777215
 -0.0336689 0.0066455 -0.0161229 16777215
 -0.0332614 0.0066941 -0.0156751 16777215
 -0.0330276 0.0067591 -0.0149024 16777215
 -0.0329751 0.0069890 -0.0139555 16777215
 -0.0331357 0.0071206 -0.0129647 16777215
 -0.0331729 0.0072516 -0.0123408 16777215
 -0.0327654 0.0074637 -0.0114048 16777215
 -0.0322719 0.0077283 -0.0104008 16777215
 -0.0318721 0.0077344 -0.0096897 16777215
 -0.0314890 0.0077621 -0.0088838 16777215
 -0.0312756 0.0079527 -0.0079754 16777215
 -0.0310941 0.0081898 -0.0069505 16777215
 -0.0310698 0.0084696 -0.0061552 16777215
 -0.0307623 0.0085894 -0.0051677 16777215
 -0.0300112 0.0089709 -0.0036119 16777215
 -0.0290435 0.0093668 -0.0018664 16777215
 -0.0286220 0.0095819 -0.0007192 16777215
 -0.0284969 0.0098330 0.0005810 16777215
 -0.0278502 0.0099540 0.0017089 16777215
 -0.0273605 0.0100441 0.0027751 16777215
 -0.0264628 0.0099524 0.0034652 16777215
 -0.0260361 0.0099431 0.0041260 16777215
 -0.0258801 0.0100351 0.0049563 16777215
 -0.0256056 0.0103499 0.0059912 16777215
 -0.0258100 0.0107306 0.0064209 16777215
 -0.0252292 0.0108097 0.0075194 16777215
 -0.0247196 0.0109350 0.0081591 16777215
 -0.0242404 0.0108512 0.0093112 16777215
 -0.0240040 0.0108911 0.0100863 16777215
 -0.0239308 0.0109715 0.0108250 16777215
 -0.0238391 0.0107330 0.0110702 16777215
 -0.0237793 0.0108483 0.0115442 16777215
 -0.0237103 0.0108029 0.0119222 16777215
 -0.0235373 0.0109073 0.0124486 16777215
 -0.0232080 0.0109749 0.0132835 16777215
 -0.0229964 0.0110610 0.0140849 16777215
 -0.0228228 0.0111446 0.0147410 16777215
 -0.0228237 0.0111158 0.0153689 16777215
 -0.0226481 0.0111751 0.0156951 16777215
 -0.0224218 0.0113281 0.0161625 16777215
 -0.0222894 0.0113340 0.0162747 16777215
 -0.0222199 0.0113169 0.0164621 16777215
 -0.0222369 0.0113874 0.0167219 16777215
 -0.0222191 0.0114091 0.0169434 16777215
 -0.0222246 0.0114151 0.0170825 16777215
 -0.0221256 0.0114231 0.0172561 16777215
 -0.0219646 0.0114311 0.0174446 16777215
 -0.0219657 0.0114269 0.0175538 16777215
 -0.0218637 0.0114439 0.0177337 16777215
 -0.0219545 0.0114892 0.0179853 16777215
 -0.0219406 0.0115414 0.0180585 16777215
 -0.0219042 0.0115651 0.0182509 16777215
 -0.0217726 0.0115490 0.0184535 16777215
 -0.0217432 0.0115302 0.0185961 16777215
 -0.0216569 0.0115606 0.0187680 16777215
 -0.0217201 0.0115260 0.0187572 16777215
 -0.0216313 0.0115055 0.0189463 16777215
 -0.0214421 0.0115456 0.0192307 16777215
 -0.0214274 0.0115640 0.0193003 16777215
 -0.0213897 0.0115849 0.0194454 16777215
 -0.0213470 0.0115495 0.0195730 16777215
 -0.0212934 0.0116318 0.0197220 16777215
 -0.0212895 0.0116485 0.0198893 16777215
 -0.0211880 0.0116571 0.0200032 16777215
 -0.0211199 0.0116588 0.0200792 16777215
 -0.0211015 0.0117037 0.0201948 16777215
 -0.0211439 0.0116691 0.0203147 16777215
 -0.0211759 0.0116507 0.0203945 16777215
 -0.0210842 0.0116618 0.0204640 16777215
 -0.0210573 0.0116686 0.0205197 16777215
 -0.0210435 0.0116767 0.0206149 16777215
 -0.0210629 0.0116886 0.0206961 16777215
 -0.0210411 0.0116897 0.0207617 16777215
 -0.0210004 0.0116824 0.0208071 16777215
 -0.0209732 0.0116872 0.0208639 16777215
 -0.0209447 0.0116800 0.0209110 16777215
 -0.0209452 0.0116846 0.0209631 16777215
 -0.0209323 0.0117027 0.0210082 16777215
 -0.0209130 0.0117008 0.0210667 16777215
 -0.0208773 0.0117030 0.0211114 16777215
 -0.0208461 0.0117046 0.0211613 16777215
 -0.0208320 0.0116931 0.0211978 16777215
 -0.0208262 0.0117021 0.0212517 16777215
 -0.0208200 0.0117149 0.0212991 16777215
 -0.0208079 0.0117200 0.0213351 16777215
 -0.0207731 0.0117158 0.0213927 16777215
 -0.0207539 0.0117212 0.0214151 16777215
 -0.0207480 0.0117371 0.0214677 16777215
 -0.0207352 0.0117371 0.0215132 16777215
 -0.0207163 0.0117433 0.0215616 16777215
 -0.0206802 0.0117509 0.0216034 16777215
 -0.0206512 0.0117552 0.0216532 16777215
 -0.0206561 0.0117497 0.0217182 16777215
 -0.0206689 0.0117625 0.0217659 16777215
 -0.0206449 0.0117733 0.0218148 16777215
 -0.0206111 0.0117772 0.0218737 16777215
 -0.0205589 0.0117815 0.0219331 16777215
 -0.0205720 0.0117829 0.0219971 16777215
 -0.0205694 0.0117929 0.0220481 16777215
 -0.0205631 0.0117983 0.0221060 16777215
 -0.0205470 0.0118067 0.0221688 16777215
 -0.0205744 0.0118072 0.0221839 16777215
 -0.0205783 0.0118104 0.0221687 16777215
 -0.0205508 0.0118094 0.0221938 16777215
 -0.0205391 0.0117549 0.0222240 16777215
 -0.0205382 0.0117909 0.0222757 16777215
 -0.0205281 0.0117804 0.0222980 16777215
 -0.0205173 0.0117770 0.0223195 16777215
 -0.0205070 0.0117748 0.0223266 16777215
 -0.0205020 0.0117751 0.0223328 16777215
 -0.0204956 0.0117713 0.0223477 16777215
 -0.0204980 0.0117758 0.0223685 16777215
 -0.0204909 0.0117849 0.0223902 16777215
 -0.0204951 0.0117796 0.0224004 16777215
 -0.0204689 0.0117861 0.0224302 16777215
 -0.0204669 0.0117875 0.0224456 16777215
 -0.0204647 0.0117935 0.0224685 16777215
 -0.0204697 0.0117971 0.0224753 16777215
 -0.0204665 0.0117904 0.0224744 16777215
