# .PCD v0.7 - Point Cloud Data file format
VERSION 0.7
FIELDS x y z rgb
SIZE 4 4 4 4
TYPE F F F F
COUNT 1 1 1 1
WIDTH 1218
HEIGHT 1
VIEWPOINT 0 0 0 1 0 0 0
POINTS 1218
DATA ascii
87.18174 -51.689335 117.20492 16711746
69.152618 -43.057426 86.301956 16711746
-1.683357 4.6509709 12.259657 16711746
-172.0408 -44.72522 229.61879 16711746
96.083328 -68.908836 158.00479 16711746
-15.373323 0.21358538 46.309914 16711746
72.043999 -4.9283538 75.038864 16711746
-110.93215 -9.9575291 91.859909 16711746
-249.97449 -26.479471 205.85497 16711746
-73.481285 -9.424531 57.693893 16711746
-180.34964 -30.751343 150.60884 16711746
-38.162636 -8.2300978 113.85261 16711746
-116.82376 -13.87659 119.6339 16711746
-73.463211 -7.4930539 86.540825 16711746
-146.85828 -12.49334 145.66447 16711746
-183.21831 -41.476463 214.45247 16711746
-109.14925 -28.431004 174.36526 16711746
-143.8707 -26.96909 191.78268 16711746
-134.75616 -35.840832 224.0939 16711746
-1.9357986 3.9890473 14.761489 16711746
15.413583 4.1592336 40.113495 16711746
3.5852611 3.5296969 12.216224 16711746
28.904291 8.3487949 71.574562 16711746
28.612432 8.3665819 71.440453 16711746
29.935087 8.4902449 70.526337 16711746
24.712151 8.0031395 69.156281 16711746
24.139103 7.9243045 69.024673 16711746
29.07206 8.48283 70.816879 16711746
27.191486 8.1140566 74.916679 16711746
16.340631 6.5561419 78.141205 16711746
26.494106 8.2887077 72.225311 16711746
28.748539 7.4618444 71.901428 16711746
29.249962 8.363615 69.188896 16711746
29.570774 8.491354 70.949875 16711746
29.994879 8.5972891 74.648125 16711746
32.055614 5.4891119 79.477699 16711746
26.927732 8.3245134 72.165779 16711746
24.417747 7.8186893 68.757393 16711746
27.094059 8.2946444 70.417587 16711746
27.081154 8.3980818 70.687378 16711746
26.608446 8.5591965 73.132538 16711746
28.907969 8.3465576 71.548836 16711746
29.548937 8.4942217 70.969276 16711746
28.543472 8.1558638 71.621521 16711746
28.949928 8.4263983 71.783348 16711746
29.628441 8.5470171 71.099655 16711746
30.99646 5.5598764 77.576279 16711746
28.680248 8.3416061 69.837532 16711746
22.797657 8.0283871 70.313805 16711746
29.934855 8.4855156 70.522545 16711746
34.207611 5.0979738 77.428993 16711746
24.184015 6.6073952 89.972603 16711746
32.431889 2.6526361 86.971504 16711746
30.904451 8.8961105 77.123055 16711746
24.662205 5.9728465 102.1217 16711746
25.096142 5.3162494 92.649788 16711746
4.8712082 4.8170381 84.588287 16711746
33.981899 0.72147882 84.739166 16711746
25.264383 8.393405 77.230103 16711746
32.467583 6.0381818 81.070946 16711746
31.995699 9.0760384 75.600578 16711746
28.340471 2.3351207 75.849777 16711746
27.10854 8.4904327 72.104958 16711746
26.565451 8.2742214 70.857559 16711746
26.448353 8.234128 70.133789 16711746
27.420301 8.5154133 75.265213 16711746
28.496487 8.2646666 71.350563 16711746
28.822407 8.3799248 71.052513 16711746
27.412428 8.5504904 75.368431 16711746
28.69309 8.3026657 69.555855 16711746
26.59066 8.2079058 70.729347 16711746
26.182652 8.1782436 70.375206 16711746
26.534229 8.3127613 70.957939 16711746
29.158981 8.4692307 70.593369 16711746
30.452591 8.2431993 69.696976 16711746
31.129644 1.8180181 87.347771 16711746
29.228853 6.0144377 73.763763 16711746
26.005152 8.1718531 69.5158 16711746
28.94507 8.3279381 70.429756 16711746
26.012976 8.152873 69.909958 16711746
30.695971 8.3462172 70.445717 16711746
24.502575 5.9726596 104.73349 16711746
10.56784 6.8976626 78.380859 16711746
32.010326 4.221982 77.444733 16711746
25.95529 8.1206446 70.61013 16711746
27.247602 8.1238375 71.0476 16711746
29.896374 8.4956217 69.818504 16711746
26.153786 8.1772585 70.541534 16711746
27.154802 8.3767958 71.773636 16711746
29.130136 8.5063868 72.979301 16711746
24.311798 8.1150665 71.043236 16711746
29.7859 8.4419489 72.475143 16711746
26.003132 8.0937757 70.5336 16711746
25.971519 8.1094398 70.585823 16711746
26.17971 8.1875114 70.390045 16711746
25.777977 8.1702909 69.915215 16711746
30.031242 6.3818264 75.108543 16711746
31.33136 8.5811768 71.529785 16711746
39.653149 -1.9858493 96.828751 16711746
42.321117 -0.727633 88.388077 16711746
32.082325 8.4352875 71.624763 16711746
31.633808 7.9601598 70.992706 16711746
28.068172 6.1435604 68.130447 16711746
28.328325 8.2882681 70.366241 16711746
24.379982 8.450778 76.492485 16711746
30.97625 8.614254 70.670815 16711746
28.698999 8.1717291 71.116127 16711746
24.77422 7.7761474 80.118179 16711746
27.277756 8.3139791 71.953537 16711746
30.06531 8.4860029 70.055923 16711746
26.537613 8.6585302 75.900124 16711746
23.727303 8.1012211 71.661011 16711746
18.794411 8.0758753 81.542824 16711746
31.251465 4.6965032 74.34462 16711746
32.729874 8.2493429 70.898697 16711746
29.674868 7.7110343 69.078072 16711746
26.720304 8.1945629 70.96067 16711746
18.911293 7.4983649 76.91951 16711746
31.732151 8.8309288 74.950928 16711746
32.046932 7.8195367 77.660652 16711746
40.594051 -4.0943818 101.55935 16711746
29.645184 8.4652843 70.741035 16711746
30.334209 8.3840542 70.989563 16711746
26.068832 8.4706297 74.926086 16711746
28.619347 8.2699785 71.357971 16711746
22.502954 7.9256539 81.388168 16711746
25.120375 8.1550169 71.231789 16711746
24.851599 8.2130737 72.972443 16711746
26.720329 8.3059425 72.151672 16711746
26.298435 8.6264391 77.73658 16711746
26.558556 8.240613 70.808815 16711746
26.578478 7.9365282 72.673157 16711746
18.274921 6.4817748 77.766899 16711746
30.852764 8.5408869 70.497849 16711746
20.087969 6.5949979 84.12471 16711746
28.975964 8.4129219 72.368683 16711746
25.523401 8.1553221 70.742622 16711746
16.563686 6.1503205 94.085594 16711746
19.936634 5.8590231 89.243248 16711746
21.370911 6.0176597 85.527534 16711746
26.730766 6.3064203 75.753654 16711746
22.854355 4.9278612 82.347099 16711746
22.952705 7.7911167 80.367912 16711746
29.607204 8.6562786 74.794289 16711746
24.514208 6.3890743 80.430542 16711746
31.10276 8.8567524 77.516205 16711746
31.101776 8.892499 77.494652 16711746
34.643494 4.1256447 85.578186 16711746
18.634295 7.0646758 77.351074 16711746
31.79586 8.9828396 76.155487 16711746
41.078831 2.0777075 102.99749 16711746
18.572552 7.6213045 77.404625 16711746
31.988554 3.1573462 85.096359 16711746
28.317062 8.2892151 70.90625 16711746
24.89846 8.1955233 72.904442 16711746
30.959366 8.5338163 70.856453 16711746
19.335512 0.13553812 88.010887 16711746
19.67083 7.89817 80.306961 16711746
19.658665 0.36666441 87.266174 16711746
20.334955 3.5680358 78.212067 16711746
20.428362 1.0265284 85.113518 16711746
28.28384 4.8696952 71.7155 16711746
23.467813 -0.35427245 87.286644 16711746
23.418661 1.9392722 80.310608 16711746
27.529095 3.8806534 74.712784 16711746
25.438927 8.1178656 70.029808 16711746
28.619705 8.3585949 71.410873 16711746
31.286814 8.603714 72.840302 16711746
31.559332 4.8107605 71.921005 16711746
18.817636 8.3657494 86.747391 16711746
40.288273 -3.9776952 101.49719 16711746
28.795376 8.38836 71.127953 16711746
29.462582 8.5088997 71.735809 16711746
32.438568 4.5295687 76.854942 16711746
14.6396 4.0596938 80.963493 16711746
34.49054 4.2423315 78.671211 16711746
36.400795 3.5080025 90.522423 16711746
23.977869 6.2497816 70.993896 16711746
31.298944 8.5643511 71.479073 16711746
26.232447 8.3809938 72.350723 16711746
27.063101 8.5164433 72.095413 16711746
28.984615 8.3979683 72.34581 16711746
29.479063 8.4050827 70.790382 16711746
24.411722 8.2202234 73.747688 16711746
26.451742 8.234148 71.125839 16711746
25.935965 8.1333857 70.628883 16711746
25.129999 8.1637573 71.242821 16711746
26.175581 8.1892605 70.398033 16711746
23.448839 7.25599 82.829071 16711746
35.483913 9.0199022 73.744713 16711746
30.752542 8.6727152 73.240524 16711746
32.63047 8.862443 75.148712 16711746
32.929779 3.861304 76.994545 16711746
25.36969 7.5336347 77.317337 16711746
31.306355 4.7431741 75.989052 16711746
20.789635 7.0474997 77.440506 16711746
18.621197 4.2909975 126.26479 16711746
33.152752 6.0302982 77.355286 16711746
32.363331 5.7202821 80.622597 16711746
28.030947 8.5861149 74.128258 16711746
26.081181 8.1584015 70.643318 16711746
28.04261 8.3508635 73.347466 16711746
26.990366 8.2705402 71.007484 16711746
28.957079 8.5247993 73.718025 16711746
28.381386 8.3858919 72.125237 16711746
29.314966 8.3055182 71.217453 16711746
35.532764 9.1052418 73.492889 16711746
22.009222 -1.4094477 83.185432 16711746
34.043488 -0.75911301 85.187202 16711746
26.846476 8.30375 72.193291 16711746
25.08972 8.3786736 74.808456 16711746
23.351349 6.5948744 94.88221 16711746
35.905815 -3.4458897 91.48912 16711746
21.427893 8.1691475 76.347557 16711746
18.27704 7.4442048 75.696701 16711746
24.568344 -1.8209547 88.301826 16711746
25.367111 8.1659603 73.475555 16711746
29.061274 7.483973 72.448853 16711746
20.819006 5.2974868 81.183342 16711746
26.531279 8.3190489 71.865028 16711746
30.895859 7.9960938 70.64769 16711746
19.30146 7.3196645 81.790062 16711746
26.990877 8.2653227 71.000084 16711746
29.447874 8.4828939 71.654434 16711746
30.147816 8.6043892 71.358749 16711746
30.720005 8.6275625 72.531853 16711746
29.344324 3.7436516 73.233841 16711746
25.147264 8.1566572 71.235847 16711746
26.218185 8.254014 71.811188 16711746
24.732647 8.212182 72.322029 16711746
20.504049 1.0353776 85.058311 16711746
31.692827 1.0526673 82.427704 16711746
34.042759 1.5704004 88.06517 16711746
31.217121 8.5151081 72.201309 16711746
26.973377 6.8406005 90.565865 16711746
26.985931 6.8610234 93.06144 16711746
26.947037 6.1124697 98.276382 16711746
20.001589 7.574481 77.071457 16711746
29.48369 8.4338875 73.374924 16711746
25.380898 8.3178272 72.677231 16711746
24.500683 8.3801565 76.197556 16711746
33.739487 2.0236855 77.21904 16711746
18.940561 5.7325115 77.969292 16711746
18.864347 3.363822 81.797691 16711746
19.79566 4.9674611 82.744034 16711746
25.817469 8.3829308 75.280251 16711746
24.898926 8.2443171 72.355698 16711746
28.368008 8.2775221 71.821564 16711746
24.532543 7.2505751 80.225998 16711746
31.163668 4.0952387 78.001434 16711746
25.24337 8.1117563 71.130638 16711746
31.525736 8.4140711 72.374191 16711746
29.846519 6.4479599 74.235863 16711746
21.017765 -2.7552159 85.84938 16711746
28.374151 8.4344645 72.248344 16711746
29.710405 8.5568562 73.397293 16711746
33.052654 2.4637506 84.53315 16711746
32.733044 8.9258518 75.343994 16711746
26.553251 8.1936417 71.184738 16711746
24.941957 8.2189474 72.284622 16711746
31.249609 8.6796379 72.389069 16711746
34.901844 0.16455455 99.447945 16711746
30.186352 8.6602983 74.687035 16711746
29.675022 8.5138865 71.942764 16711746
26.711756 8.1929169 70.967979 16711746
29.613928 8.4380465 71.787109 16711746
26.243324 8.2321815 71.753952 16711746
25.150814 8.1584654 71.23597 16711746
24.773415 8.1872511 72.72435 16711746
28.93873 8.319828 72.116829 16711746
24.876291 8.3201132 74.474609 16711746
28.996456 8.3932877 72.343887 16711746
25.495499 8.349124 72.842506 16711746
27.966154 8.5832558 75.062584 16711746
28.072701 8.0804234 75.819885 16711746
27.954983 8.8318796 74.925217 16711746
32.658649 8.0828819 71.364395 16711746
28.47735 8.6033697 74.845955 16711746
17.334343 6.4587946 82.679031 16711746
22.431829 4.7713675 77.093033 16711746
20.549231 -3.3243351 89.376144 16711746
29.440132 8.4673681 71.625839 16711746
21.219776 7.0217052 79.449181 16711746
32.362034 4.9346557 74.685608 16711746
14.335989 4.0649905 80.872917 16711746
27.522034 8.4858103 73.707024 16711746
19.864559 7.623724 77.184814 16711746
31.261063 8.6169987 71.846657 16711746
35.404808 5.0853896 73.030876 16711746
26.143425 8.2001743 70.722321 16711746
31.214821 8.5553732 72.223625 16711746
36.566128 3.1269898 75.495995 16711746
32.096138 8.4720984 71.176468 16711746
17.876423 7.164432 84.901901 16711746
18.348047 6.4133062 76.73642 16711746
31.54528 8.8380041 75.576767 16711746
18.079967 5.8980122 79.539841 16711746
23.934328 6.8413639 91.624397 16711746
29.001402 4.1205058 74.85096 16711746
27.320299 6.7917123 86.562851 16711746
32.689396 -5.9226532 109.99683 16711746
34.277542 6.4683437 72.544556 16711746
31.40715 8.3963623 70.791397 16711746
29.452192 4.7466183 75.790688 16711746
26.013649 8.1742916 71.422173 16711746
28.085773 8.4146414 71.816772 16711746
26.255882 8.2364779 71.922981 16711746
27.986107 8.7270126 78.186836 16711746
27.92539 8.4224367 73.367096 16711746
30.830276 5.0552444 71.339455 16711746
28.086355 8.4528923 71.903404 16711746
31.519911 8.4542322 71.803963 16711746
22.783072 5.5179653 74.959511 16711746
24.129175 8.1168165 72.766937 16711746
20.400734 9.1453247 82.015724 16711746
26.057648 8.0878286 70.674416 16711746
17.343765 1.6162335 91.489967 16711746
23.360081 -4.7354679 95.198517 16711746
32.245903 4.2129207 72.963058 16711746
25.757736 6.0341315 80.352211 16711746
16.2087 -4.2434206 96.30471 16711746
27.442303 8.3921394 71.958595 16711746
24.698025 8.3911295 72.163246 16711746
26.080706 8.1713057 71.202286 16711746
24.531731 8.2514668 72.885818 16711746
30.581087 8.5145168 72.24295 16711746
24.718122 8.2143202 72.315506 16711746
30.658318 8.5829268 72.42746 16711746
28.039782 8.3866158 72.248795 16711746
28.004028 8.6618366 72.949471 16711746
34.975914 0.92288905 79.241783 16711746
33.095013 8.5213566 71.706085 16711746
24.788948 8.0756197 73.134109 16711746
30.726799 8.1990509 70.496788 16711746
28.285599 6.4114981 68.653748 16711746
27.427858 8.4285421 71.831841 16711746
27.815138 8.3867884 72.254303 16711746
24.992853 8.2473822 72.302238 16711746
28.901535 8.3018379 71.444817 16711746
31.841314 8.4987497 72.598 16711746
29.992508 5.3448672 72.333717 16711746
31.830025 8.4838696 72.572014 16711746
19.966118 6.0751705 77.429535 16711746
24.118822 2.6624215 75.81382 16711746
21.176294 3.3890197 76.134933 16711746
24.844841 6.982347 75.290726 16711746
27.88278 8.437007 72.06144 16711746
29.962803 8.5564232 72.616714 16711746
31.626377 8.7895098 74.108582 16711746
13.682664 2.2723033 82.43618 16711746
31.813749 5.5699773 78.590973 16711746
31.412117 4.2623901 76.554214 16711746
31.113054 8.0623999 70.432686 16711746
20.316484 6.2952299 78.319389 16711746
26.458876 4.8427925 71.612671 16711746
31.793856 8.3048391 71.483955 16711746
25.805437 5.1159577 72.047615 16711746
30.140661 8.4979954 72.685791 16711746
19.222319 2.466244 81.159729 16711746
23.506399 5.5973773 77.333496 16711746
24.651396 4.3587718 76.210297 16711746
30.861858 7.8446212 70.526855 16711746
25.587431 8.5505943 75.990341 16711746
29.765593 3.911015 74.707535 16711746
34.849876 1.0303766 79.073547 16711746
17.729336 7.829021 79.504196 16711746
24.517332 8.1893053 73.279518 16711746
28.68132 5.7272983 70.898109 16711746
15.689932 5.2232289 88.339516 16711746
22.315371 6.7590008 77.659882 16711746
29.095602 6.1167121 69.52317 16711746
34.069447 8.5222721 78.731712 16711746
32.703278 3.1360068 79.510406 16711746
32.79874 -10.993316 114.10947 16711746
28.678841 6.4899693 69.402634 16711746
24.073626 6.8899608 74.910759 16711746
17.488407 4.455133 82.06514 16711746
27.942049 9.0391674 79.826996 16711746
27.257477 8.3686657 72.783577 16711746
27.867949 6.6094642 68.88813 16711746
24.691603 8.4356565 72.697311 16711746
33.22234 8.268362 73.951271 16711746
18.697992 2.2411191 88.810028 16711746
31.210548 8.5017653 71.358925 16711746
25.308609 8.3575754 71.798874 16711746
24.180981 4.7421985 72.830635 16711746
31.539333 8.6541195 73.003983 16711746
27.989996 8.4999666 72.961884 16711746
19.386303 6.1563711 80.661598 16711746
28.471283 8.6140022 73.641838 16711746
29.91206 8.3318405 72.047279 16711746
27.907064 6.4132915 68.926857 16711746
27.468203 8.3779736 74.730476 16711746
28.603743 5.8317313 69.876862 16711746
26.527695 4.5055437 71.971703 16711746
28.911816 5.842916 70.227097 16711746
28.424604 5.2526588 71.457474 16711746
28.966743 6.2965803 69.165024 16711746
29.526527 8.3849697 72.038071 16711746
28.051016 8.4249601 73.669022 16711746
28.658415 5.8259416 70.5942 16711746
22.486498 6.241632 73.154297 16711746
20.695387 4.8727551 75.278374 16711746
19.759317 3.6550996 78.586433 16711746
28.610237 5.853209 69.483505 16711746
26.445618 4.813333 71.658249 16711746
28.934595 8.0465832 71.705505 16711746
25.428965 4.1968036 72.096695 16711746
28.459183 5.0063863 72.025375 16711746
23.327463 4.3957601 73.825409 16711746
20.683088 6.583468 77.57444 16711746
21.917309 4.6162438 77.092018 16711746
29.158278 3.3844769 75.290825 16711746
28.614759 5.7860703 69.978264 16711746
23.873837 4.5670896 82.790329 16711746
26.205725 2.7967966 81.821457 16711746
21.180212 4.8962035 74.935265 16711746
31.182903 8.6888218 77.089607 16711746
33.515465 1.2266968 77.151062 16711746
33.132721 8.9876537 77.190033 16711746
25.870365 8.0663557 71.607262 16711746
27.340534 8.4047031 73.302376 16711746
29.670441 8.3574028 73.506226 16711746
28.455854 8.3381863 72.86116 16711746
29.376192 8.241889 72.796646 16711746
29.932594 8.4266396 71.945786 16711746
28.684116 6.472877 68.837578 16711746
29.285284 8.0709877 72.793999 16711746
27.40415 8.189517 72.411362 16711746
28.821329 7.4982176 72.722343 16711746
27.576977 5.4367795 70.992172 16711746
27.147442 7.7016377 73.301338 16711746
19.67157 5.810071 77.147758 16711746
23.619982 5.4588189 75.98777 16711746
29.259752 3.3745139 75.26339 16711746
28.218901 8.1339874 74.776657 16711746
27.675251 8.4005499 74.944885 16711746
23.993568 2.475857 76.246521 16711746
29.529272 8.3946915 72.077713 16711746
24.063332 2.5456808 76.109177 16711746
21.784761 7.1410723 73.663055 16711746
26.834393 8.1168804 75.236771 16711746
27.372078 8.1896896 72.299751 16711746
28.674202 8.2166615 71.947945 16711746
31.038729 7.28614 69.970139 16711746
28.320007 7.5312047 72.035126 16711746
26.899933 8.070199 74.963005 16711746
27.501717 8.318778 74.555862 16711746
22.454659 5.4984093 75.209282 16711746
25.716454 8.1399689 71.272301 16711746
30.188559 8.5401926 72.777122 16711746
31.891699 8.7068167 75.592041 16711746
19.019125 4.4174104 85.167793 16711746
19.500692 5.2374783 81.685944 16711746
31.476429 8.6456347 74.305321 16711746
30.010597 8.526988 72.174515 16711746
29.160923 6.9918566 68.480103 16711746
31.023293 7.9517436 70.251854 16711746
23.053541 5.0340281 72.960289 16711746
24.763546 4.0465822 72.909706 16711746
25.363432 7.8537507 71.082375 16711746
26.343058 4.0102887 72.24263 16711746
26.799183 5.8853049 71.372963 16711746
29.248119 5.7466183 70.411095 16711746
17.225704 3.8725827 79.981445 16711746
23.093897 6.6166182 72.880272 16711746
19.477983 6.5659618 79.046074 16711746
22.112782 5.9217272 72.628654 16711746
18.876797 7.4990554 76.644554 16711746
35.190022 2.0124021 75.330269 16711746
19.03968 4.5350876 77.408653 16711746
8.8440742 6.4256639 99.679184 16711746
22.9202 6.8648272 87.2743 16711746
34.246769 2.6684916 74.423187 16711746
30.258047 7.6808648 69.995262 16711746
26.115 7.7200413 70.236626 16711746
25.283003 7.8373928 70.565475 16711746
29.274239 6.1987457 69.061577 16711746
27.994211 6.4741035 69.014816 16711746
28.111113 6.2376804 69.116608 16711746
30.219362 6.3796339 72.471519 16711746
-4.5553236 4.6104984 8.6212454 16711746
-0.19703482 4.7923622 13.436505 16711746
22.574661 -3.3943462 59.398727 16711746
2.3783965 4.3223791 9.1897335 16711746
-6.7944126 4.9394989 9.24582 16711746
0.24953935 3.369961 19.835897 16711746
-2.5581958 4.2680912 8.1650581 16711746
-0.8336767 4.2790241 8.6852102 16711746
-1.4030324 4.425343 9.6193686 16711746
-6.5711107 4.6289511 7.5966191 16711746
-3.3247144 4.7493429 13.450351 16711746
-3.0932729 4.7578816 12.504077 16711746
1.4571776 3.1004224 7.1046305 16711746
-5.7951417 4.3945284 9.3521156 16711746
-7.7725067 4.9023876 8.6366777 16711746
-8.648468 6.1610327 9.0036869 16711746
1.2407641 -0.053401269 6.5022578 16711746
8.0538607 4.2319546 10.075875 16711746
7.0588074 1.3667336 23.132929 16711746
1.5484987 -23.270557 69.74453 16711746
-8.6307449 4.3017979 11.556034 16711746
0.70445532 3.3775785 17.426613 16711746
-1.8528684 4.5139446 9.3547764 16711746
-4.4240918 4.2521067 9.0938749 16711746
-17.402084 5.2014503 17.220747 16711746
-3.2899332 4.2923279 10.224048 16711746
-4.0081205 1.6906 8.9948921 16711746
3.7771075 4.0270658 11.441451 16711746
12.667488 3.5707114 11.203752 16711746
1.4800794 1.6368194 8.5310135 16711746
3.6397367 3.5846157 12.471453 16711746
-14.425566 -9.5342903 17.886726 16711746
12.129854 5.7433319 28.34763 16711746
-1.7989941 4.6700196 14.167069 16711746
-29.842121 -24.490873 68.834724 16711746
8.7222242 5.0461688 19.687256 16711746
-27.948164 -21.406189 79.896095 16711746
-3.4333696 5.0358219 13.186753 16711746
-19.669687 3.9663131 18.492903 16711746
-0.19669977 4.8903599 13.692839 16711746
1.2950276 2.0994465 7.2195292 16711746
1.2003855 1.22987 6.5045047 16711746
1.8416245 -3.5577967 9.6070995 16711746
-5.2850308 3.933552 8.3146591 16711746
-4.8823633 3.4051416 9.266077 16711746
35.10046 -15.949434 35.231651 16711746
-6.8521204 2.8492422 6.4149475 16711746
-2.9841444 3.9276738 9.3749781 16711746
-7.9607558 4.0413942 9.7317381 16711746
-9.3321018 2.933882 10.936898 16711746
6.3848414 4.2592664 9.7150946 16711746
5.9640369 3.1866143 8.5930071 16711746
-1.9375871 3.9582667 14.89959 16711746
13.194115 -2.0394821 34.312428 16711746
-8.1862898 3.1285467 22.170179 16711746
-1.6955864 3.7158375 13.927173 16711746
5.6085377 3.2661049 5.8658814 16711746
-5.0359545 3.5170341 9.5924606 16711746
-5.5276327 3.2865283 5.6229153 16711746
-1.4790694 -5.1071286 12.519902 16711746
16.340778 4.8314352 17.483852 16711746
-5.3106966 -0.85590839 11.288909 16711746
-1.3359729 -4.2739792 12.266594 16711746
80.7948 -44.938538 90.626129 16711746
3.5102689 -6.7232585 17.717688 16711746
-4.2049389 2.2252977 9.3071938 16711746
-6.2665195 1.9337586 16.600418 16711746
64.135971 -42.045757 105.71552 16711746
-10.072442 3.1076899 9.4304285 16711746
-19.372206 -3.7741563 54.125278 16711746
-3.8741937 3.0427885 8.9033833 16711746
-4.8129926 3.3763125 9.1727591 16711746
-7.818891 0.85431194 25.428688 16711746
-19.429287 -19.397541 67.219658 16711746
-1.0847977 5.1401949 14.131588 16711746
1.6047384 1.5710361 8.1196337 16711746
1.2307028 1.9334927 6.7548714 16711746
-4.1084437 3.4282947 9.2008448 16711746
-34.520786 -25.65774 71.140648 16711746
-3.8941443 -2.1964834 10.770432 16711746
12.640606 3.6288178 11.197307 16711746
-1.7706575 3.031702 14.315152 16711746
-4.848454 4.2508211 8.743268 16711746
-1.3846834 4.3561158 9.4937534 16711746
7.7403903 4.7596064 14.653805 16711746
4.6563168 2.0245082 15.358364 16711746
-13.046441 -1.6146666 27.68047 16711746
-5.8065133 4.5186601 7.8717113 16711746
10.00147 4.4557791 14.383689 16711746
5.901166 4.4848938 9.8174133 16711746
7.5450215 4.6332474 14.33637 16711746
-8.0384684 2.6413376 7.0951357 16711746
1.4139068 2.9953835 6.9120746 16711746
13.212316 -2.2882233 16.631027 16711746
-4.643723 4.4236388 9.42731 16711746
-0.17978953 4.8877635 13.756706 16711746
11.838606 3.2412028 18.571428 16711746
-5.9752812 4.375524 11.02555 16711746
-10.166936 2.6880479 12.722239 16711746
-0.98138505 4.8700995 13.386257 16711746
7.8786092 3.8520014 9.2957525 16711746
-9.1615152 2.4371142 11.512704 16711746
15.620272 -0.29195291 17.140247 16711746
-15.395358 -44.529091 128.95041 16711746
-1.6479894 4.4126854 13.794349 16711746
-3.808105 4.1039157 8.6622639 16711746
-9.5909042 2.5430889 7.9904423 16711746
-3.5705781 4.4697523 8.3847427 16711746
-3.0577819 4.3590426 9.0518656 16711746
-1.7778268 4.8888426 13.896151 16711746
9.0976343 5.0298157 18.750237 16711746
4.2559452 4.3509326 10.253354 16711746
-3.7718995 4.0445032 8.558157 16711746
1.4144193 2.1494431 7.9973602 16711746
13.217998 5.2349701 23.532848 16711746
-9.0376358 4.4787641 8.3975 16711746
-1.2044899 4.5765796 11.007589 16711746
-9.8830147 4.0439219 9.113308 16711746
-7.9179578 3.9991875 9.6464434 16711746
-9.667222 4.8176098 9.9964294 16711746
-7.0374432 2.0030355 18.723433 16711746
-9.3009167 2.467742 7.6591797 16711746
3.8918281 1.1743401 13.825942 16711746
-15.401201 1.2454005 28.554657 16711746
-3.7261455 4.1699262 9.0380049 16711746
-4.6490393 2.0260012 12.395161 16711746
-8.0028734 4.2989798 7.8619204 16711746
-9.7148781 4.0386791 9.0325994 16711746
-8.5946627 4.684392 9.3468876 16711746
97.430084 -6.596417 100.05644 16711746
-8.9148989 -0.83608609 11.997977 16711746
-24.181467 4.7638335 23.177092 16711746
-8.6138601 2.9202976 7.1330113 16711746
-7.4066648 2.7962301 19.828815 16711746
-4.9773059 -4.0643601 14.711534 16711746
-4.6706157 3.3490598 9.2723093 16711746
-4.0470457 2.2592266 9.037734 16711746
11.049417 3.1972373 11.732035 16711746
-4.9837751 3.6910391 9.2757244 16711746
-13.246482 4.5337029 12.693636 16711746
8.211113 5.0644636 15.627696 16711746
-8.1178312 5.2830501 10.635727 16711746
30.928329 -7.7519794 38.228363 16711746
-6.658628 3.3911531 7.3651772 16711746
-9.5917854 0.42774725 25.470596 16711746
-11.378929 0.49154496 29.935892 16711746
-4.2804484 2.5819795 9.7261019 16711746
-24.744715 -1.4909637 66.252556 16711746
-0.39066494 4.7634544 15.820833 16711746
-3.436306 5.1133566 15.958672 16711746
5.7228689 4.5344071 12.274137 16711746
8.5197792 4.4316058 14.332624 16711746
-0.039560694 5.0964661 16.693953 16711746
-14.995109 5.1181555 16.218382 16711746
-6.5344076 2.0875816 14.148302 16711746
-4.0368366 2.2398577 8.99333 16711746
-0.97853714 5.0624385 14.05304 16711746
-7.8516717 4.706501 9.5271454 16711746
11.029417 4.6476498 18.519209 16711746
16.375374 5.4790845 34.154621 16711746
-4.7603354 -4.3591657 16.996277 16711746
10.745342 3.6725419 9.0405035 16711746
6.1310158 3.5954604 6.4581733 16711746
-5.7447853 4.3804069 6.4175048 16711746
-0.93488687 4.6797209 11.414219 16711746
-4.2523437 4.3131261 7.4273887 16711746
-7.6290698 4.4300933 7.7608089 16711746
7.498158 4.121624 8.1539125 16711746
5.9020524 2.2927909 4.4821539 16711746
5.3157468 3.8610575 15.80285 16711746
8.8185806 3.2454402 11.780262 16711746
-4.9377995 2.5818858 4.4221406 16711746
9.0075941 3.8105683 15.218785 16711746
-4.0396943 -2.7710817 11.698559 16711746
6.942574 3.1713989 5.3360868 16711746
-9.8028145 -0.30160534 12.994439 16711746
3.0185809 4.3475327 8.57897 16711746
1.1806667 4.4256635 9.7246189 16711746
1.3116127 2.7279043 6.5391183 16711746
1.1658555 3.8350863 7.8151469 16711746
5.9664907 3.4699147 6.236197 16711746
6.2901111 2.8765931 4.6393523 16711746
5.2017608 2.3475864 3.8130221 16711746
-0.75460458 4.8762484 13.31426 16711746
-0.39530638 4.3813629 8.2682781 16711746
-4.9035649 4.0609994 8.3555746 16711746
5.3126235 4.1570902 8.5047407 16711746
0.71672904 4.9153852 14.292235 16711746
0.28623238 4.1191506 19.401266 16711746
-4.2802415 4.6755972 10.159313 16711746
2.3143032 -0.46313456 5.9510441 16711746
5.4923682 3.8493803 8.1686945 16711746
1.3859005 0.8671819 6.5274501 16711746
8.661068 2.8656349 12.587834 16711746
-4.2996941 4.5484996 9.6400089 16711746
-3.0603638 4.9949255 14.245895 16711746
7.9244919 0.87173951 9.3314409 16711746
3.7309446 3.9280829 8.2662735 16711746
-4.0364127 1.6225946 9.0388966 16711746
7.2821684 3.9911907 10.490955 16711746
-5.1333461 3.8895025 8.1090603 16711746
-6.717124 -1.0617629 10.663561 16711746
-1.9162621 4.3595943 9.4090195 16711746
-2.2779548 4.3574462 9.2298365 16711746
-4.5930018 4.3689513 9.3765106 16711746
-3.0765793 4.0571222 8.971734 16711746
-4.6522322 3.8452511 9.5107479 16711746
-0.15316772 4.8407674 13.50585 16711746
4.5067163 4.44488 9.7948465 16711746
1.2173697 1.2768215 6.6196933 16711746
0.028701089 -2.0579593 10.903068 16711746
-9.9350605 2.5726178 8.3034544 16711746
-6.5192218 1.7942146 5.4307437 16711746
4.3264637 1.2714114 15.406719 16711746
-7.0208182 2.3852453 5.9126215 16711746
-2.2344623 0.56340849 15.433105 16711746
-5.2150002 4.3963366 6.6111984 16711746
-1.9039291 3.1816819 14.915309 16711746
0.94176525 4.2665782 8.080842 16711746
-5.7967234 4.8704195 7.3260951 16711746
-10.270275 3.4438205 11.272063 16711746
-9.8835125 2.5888383 12.259617 16711746
5.1958432 4.1452107 7.5292983 16711746
-1.2595466 4.7663665 11.377318 16711746
3.6547153 4.1732569 8.7297335 16711746
3.9124389 4.5349197 9.4708862 16711746
7.6353025 2.567996 6.4045162 16711746
-6.4469056 1.7604238 5.4804349 16711746
1.2909331 4.593051 10.137683 16711746
6.3605113 4.0636849 7.5416851 16711746
-1.4136161 4.4758077 8.8588562 16711746
0.8750999 4.7685194 12.547559 16711746
1.7469972 0.43235421 9.8599405 16711746
-5.6547155 3.824616 6.0130239 16711746
-4.1863332 4.221839 7.2689095 16711746
-0.58201867 4.4425244 10.551797 16711746
-0.49219042 4.1630964 8.1679068 16711746
1.230476 -0.02587286 6.5404239 16711746
-7.2576113 4.890902 8.1039066 16711746
-2.6502855 -2.5687943 9.8064404 16711746
-4.637958 -2.2927957 10.680097 16711746
-8.4627218 -0.38800916 10.29867 16711746
0.92565322 4.8234091 12.686809 16711746
-5.8160086 4.5313034 7.9110894 16711746
-6.4515758 4.5565848 7.4899397 16711746
-3.7297523 4.2387886 7.1110063 16711746
0.78166497 4.4493732 8.4039946 16711746
-2.0863943 4.6681027 9.007555 16711746
-3.9453034 1.3050742 8.7446232 16711746
-9.0732985 2.8195901 10.737489 16711746
-7.9969606 1.293372 5.8232713 16711746
-7.742342 4.6181455 7.7504177 16711746
-4.4351487 2.6587753 9.7540197 16711746
1.3908228 -0.20737706 8.6036253 16711746
5.6572781 1.2651588 3.9570451 16711746
-5.7697515 -1.4958564 3.946816 16711746
0.34619674 -0.034549706 0.71670437 16711746
6.3089671 -2.4473283 3.8215609 16711746
6.1486998 2.8579388 4.6411805 16711746
-7.6816139 3.1697927 7.1974936 16711746
-2.7625082 -2.5128505 8.5941706 16711746
-1.274353 4.7380104 13.508482 16711746
-5.660707 4.3214869 6.3429408 16711746
-14.103957 -0.16837808 10.944028 16711746
-10.787018 4.827065 17.298307 16711746
0.15633102 4.3341403 9.4440184 16711746
-5.3429847 4.4974632 7.8843837 16711746
1.2192863 1.7065841 6.4374695 16711746
-3.7210999 2.9970982 8.6231079 16711746
-3.998749 2.4931269 8.8998804 16711746
-8.1396637 -4.7857552 17.202438 16711746
-3.4312756 -2.9885397 10.546125 16711746
-5.7874107 3.8850238 6.1040983 16711746
-10.708925 4.0885382 10.895288 16711746
-15.161221 3.1317739 14.736952 16711746
-9.0556393 3.4508021 11.417342 16711746
-7.7751422 1.215655 11.993896 16711746
-4.1195893 -3.5295689 10.338566 16711746
0.39064521 -2.9414403 8.6029167 16711746
0.37519836 -2.9193861 8.5115805 16711746
3.0941892 -3.0630343 7.8935733 16711746
7.5642128 -0.72698253 6.7697811 16711746
-4.6440973 4.1966019 7.3796978 16711746
-8.0692234 2.0616448 6.892858 16711746
0.44451457 -3.4778082 10.155658 16711746
-8.1748829 2.6740792 7.065001 16711746
-0.67777932 -3.757098 9.0545359 16711746
5.8546724 0.30009761 4.409133 16711746
6.1154604 1.0066075 4.4917278 16711746
6.6514149 4.5098205 8.2836075 16711746
5.6225753 3.9753153 6.5760031 16711746
-6.9935021 2.6885948 5.6131544 16711746
-6.454493 4.546474 7.4618349 16711746
-1.0520958 -3.7019382 9.9785137 16711746
9.2520685 3.7746146 8.7434111 16711746
10.4117 3.5347028 8.7511225 16711746
7.1887236 3.9096057 7.786386 16711746
2.2190204 -1.2165861 6.5147576 16711746
7.2988124 3.7579505 6.7731318 16711746
0.18109033 -2.3847032 6.5400543 16711746
5.470068 3.9639137 6.1580071 16711746
-5.1617813 3.7399073 5.4665399 16711746
6.3825164 3.607631 5.4227862 16711746
-1.7934066 -1.5577325 5.7699289 16711746
8.8951998 4.3091202 9.1137714 16711746
9.2294912 4.490171 9.3805504 16711746
8.2131042 1.9333743 9.5240555 16711746
-3.1311238 -3.0894544 7.7005343 16711746
2.4764385 4.5412464 9.6413631 16711746
-4.3060651 4.5260606 8.3912325 16711746
-3.0288789 4.9510288 14.149848 16711746
-16.254961 -0.5694887 12.77225 16711746
-1.9435294 3.9686782 14.76901 16711746
1.6756263 4.0213156 10.190394 16711746
-4.0372753 1.5736721 3.3191762 16711746
-4.6860971 -1.6612633 10.557349 16711746
-5.4147401 3.2267761 5.4151735 16711746
-4.1116567 -0.57758909 7.0317569 16711746
-6.522686 -1.608079 11.621625 16711746
-7.6791253 3.8869698 8.035778 16711746
-3.5801713 4.4803462 8.1241817 16711746
-5.1772428 4.5065045 9.2905197 16711746
6.3582888 3.7307229 6.7093048 16711746
6.3553915 0.50216806 4.6328831 16711746
-9.4078913 2.9775271 11.045382 16711746
-4.4206281 -3.0488391 8.4080496 16711746
5.5414391 -5.7403555 14.901881 16711746
-15.124513 -0.58830583 11.908271 16711746
8.1729126 3.3306222 9.5997534 16711746
7.8861432 0.91116714 9.4011316 16711746
-3.7219572 -2.5828862 7.1545281 16711746
0.33018324 -1.796836 5.5190201 16711746
7.9447374 4.1396775 9.9057827 16711746
12.466926 2.8497989 15.995977 16711746
1.2467605 0.83112931 5.6761589 16711746
-1.1265264 -2.9693236 10.096122 16711746
9.6979771 2.076057 8.7206278 16711746
9.5645676 4.3747406 14.370958 16711746
-6.8013501 1.8374264 5.6187716 16711746
5.3689957 4.2931457 7.7573104 16711746
5.674119 1.252279 4.3004775 16711746
1.1772816 -2.1076207 5.7453966 16711746
-4.7936387 3.4284375 5.6583815 16711746
4.2626958 3.7030416 6.8897548 16711746
7.8769097 2.9252939 9.8485727 16711746
5.2900023 4.6941724 8.6416492 16711746
8.1555538 -6.2311025 12.386503 16711746
5.9290586 2.6956112 4.4775081 16711746
-5.6004372 3.4109211 6.9538627 16711746
-4.2684999 4.0606842 8.6492176 16711746
-4.673769 -1.6495514 10.525623 16711746
-4.4019146 4.4213967 8.3142443 16711746
7.0045142 0.75362903 8.4524975 16711746
-5.5620246 4.5850248 9.3590584 16711746
-3.9635046 3.2520132 9.0770092 16711746
-4.3524747 5.4119315 16.844263 16711746
-2.0768847 4.5892324 11.304145 16711746
6.4441266 3.7594335 6.5967226 16711746
5.4586415 4.5575604 8.462101 16711746
6.0959783 0.31786025 4.6093946 16711746
-2.6942611 4.7639914 14.048288 16711746
-3.9197412 2.3369832 9.0007696 16711746
8.0464745 -3.1210277 9.4251671 16711746
-3.0990622 -2.2380147 7.4275508 16711746
10.875535 4.6407518 18.274548 16711746
5.085557 4.5814476 12.999534 16711746
6.29425 0.32575366 4.7415137 16711746
8.366394 -0.44965371 12.766855 16711746
-4.4814692 3.0773628 4.8010292 16711746
12.887542 -6.6900492 16.774124 16711746
-7.6938186 4.6463442 9.3164473 16711746
13.809284 -7.1546817 20.429859 16711746
1.1952512 1.4759997 6.8397923 16711746
10.217504 -5.2753539 15.056325 16711746
-3.4001651 1.2060764 2.8860979 16711746
6.8502722 4.8808751 15.187119 16711746
13.435662 3.8901038 14.28893 16711746
6.6830029 3.2511117 7.8413253 16711746
5.7017903 4.9931717 17.232519 16711746
2.723125 -4.4190316 11.17278 16711746
14.921023 -5.3324704 18.055035 16711746
7.1876202 3.7104127 6.1583767 16711746
1.2581326 1.9859332 6.8600974 16711746
1.3636146 -0.22166111 6.6228762 16711746
-1.4127933 4.4708958 8.8658876 16711746
-3.9492404 2.4072602 8.8087015 16711746
-5.4714179 4.4924521 9.957859 16711746
-3.7156308 4.1962128 9.0550823 16711746
-12.377694 -1.5293074 9.7332668 16711746
8.8190384 4.2376361 8.9300938 16711746
6.5339694 1.4335812 4.9031315 16711746
0.047902487 -0.79109073 5.509387 16711746
-0.75766933 -2.1428061 6.3589444 16711746
-3.8202801 1.967515 9.0915337 16711746
-3.5183053 -3.4706933 9.3164072 16711746
-14.325061 -1.2222278 11.533083 16711746
6.1822839 2.3600721 4.6379776 16711746
12.321946 4.7239676 20.302982 16711746
9.3272181 0.18569234 14.266845 16711746
7.2692347 3.761173 6.207654 16711746
7.7785225 -0.44075015 6.6560659 16711746
-5.9998875 3.6872251 16.003344 16711746
2.2550631 -2.4928854 11.465157 16711746
11.814275 -7.6791945 18.402714 16711746
-5.0489283 1.7225285 4.4364886 16711746
4.7002578 4.6411805 10.23841 16711746
3.2830746 3.078294 11.452459 16711746
10.559335 4.013895 14.578576 16711746
4.5291204 2.9810455 14.181724 16711746
6.1774349 1.3624272 4.6478615 16711746
7.2234011 3.8001916 6.0052385 16711746
5.0352798 4.168344 7.734571 16711746
-2.8559086 4.572298 11.40263 16711746
-7.5325999 2.6929898 7.88867 16711746
-4.2108712 3.3400431 5.0779738 16711746
-13.972445 3.1835001 13.880615 16711746
6.6518188 3.9562371 8.045908 16711746
6.5979986 3.1002944 4.9726448 16711746
1.2366893 1.6695262 6.7137289 16711746
-1.2045884 4.7308264 12.489246 16711746
-0.98783475 4.4256392 9.2205286 16711746
-7.9262648 3.9848197 9.6527061 16711746
-12.010261 2.844044 18.585495 16711746
-3.708777 4.3705626 8.6416292 16711746
9.0231838 3.6733844 8.4801884 16711746
1.0527067 -2.4178388 6.88871 16711746
0.5742287 -2.9505754 7.2664604 16711746
-4.6032457 4.3620386 8.6450682 16711746
-7.1306863 2.9041905 7.4096851 16711746
-1.2455878 4.6403575 11.116574 16711746
-3.7473128 4.3703704 8.1860781 16711746
0.58457094 4.4971132 9.3396397 16711746
2.6862397 4.3398461 12.288692 16711746
14.399294 -5.0976877 17.161709 16711746
11.707713 -6.1311488 17.033615 16711746
13.232709 -9.0273132 20.893595 16711746
10.097615 -0.50168025 15.413208 16711746
6.1976757 2.8628266 4.7924018 16711746
7.2676039 4.98176 13.735237 16711746
8.513216 4.3016257 12.157594 16711746
3.4902248 3.6747792 12.051201 16711746
5.0120873 4.3207483 7.9181356 16711746
10.901664 -7.4434958 17.374998 16711746
10.579113 1.4770246 19.148884 16711746
6.0709677 4.4872785 10.712735 16711746
4.4338627 2.9228992 14.036848 16711746
7.9475064 4.04778 11.448621 16711746
4.1104145 3.9857163 8.855052 16711746
-7.1690245 4.3651867 18.878433 16711746
9.6141949 1.9353256 14.133161 16711746
-23.269802 -2.5919719 21.229177 16711746
13.694194 4.6617317 26.075085 16711746
10.889006 4.191936 19.534592 16711746
-4.0306282 -3.5424781 9.8527117 16711746
-1.5137422 -1.6350309 6.8038092 16711746
2.4939694 -0.39358678 6.1049557 16711746
-3.0364618 -2.1767645 7.779345 16711746
-9.0858727 3.0349097 10.094082 16711746
5.3977904 4.5084758 10.562588 16711746
-4.0006557 2.4565175 8.8988409 16711746
-8.7076302 4.3123717 11.629243 16711746
-9.6541052 -3.3332679 14.368745 16711746
15.173578 -1.1600364 12.585751 16711746
10.904734 3.8354461 12.368898 16711746
-3.3221571 4.166472 9.1512575 16711746
-3.1742713 4.4618344 12.567944 16711746
-2.9317977 4.7288108 11.739632 16711746
8.9796276 -0.10376245 15.533784 16711746
1.2200894 1.6251566 6.6314349 16711746
-1.830755 3.3785396 8.534256 16711746
3.2344182 -0.52152711 11.627947 16711746
1.2557429 1.1865646 6.4494376 16711746
9.5116634 1.9849871 13.916619 16711746
6.1259556 0.30940515 4.5775847 16711746
-9.4138241 2.8821361 9.5768213 16711746
1.349094 -0.21051572 6.6276011 16711746
1.4201397 1.0086424 6.8949623 16711746
8.9455357 -0.55910212 8.7871742 16711746
-5.4157548 4.2766595 9.0891256 16711746
1.2254798 1.6732563 6.5436115 16711746
-3.4512506 3.2652824 9.8383837 16711746
2.312958 -0.47936976 5.9554343 16711746
-8.1950064 4.9329019 21.426035 16711746
7.3148804 4.0305643 7.9551091 16711746
4.4328279 4.372622 11.141201 16711746
8.3295145 5.0363245 18.39905 16711746
8.3704748 4.1735277 10.003288 16711746
5.7780786 1.2710665 4.3923259 16711746
-4.8320861 4.1651959 6.8171563 16711746
-4.2388625 -1.4088809 9.8173199 16711746
-3.478375 5.1877427 16.062069 16711746
4.3961101 4.3185802 9.5644894 16711746
3.8899412 -3.2562604 9.6169348 16711746
2.1118927 -0.28634077 5.098762 16711746
-1.8249705 4.5059376 10.262967 16711746
-1.5277355 4.3593969 8.9364204 16711746
1.2065593 1.7249625 6.5165024 16711746
13.950177 3.9678652 12.301306 16711746
-9.8088846 2.1155388 11.551087 16711746
-5.1321831 3.5846353 9.4936457 16711746
-39.51318 2.8848906 51.471962 16711746
4.9339809 1.8926409 3.6923397 16711746
8.7928314 5.1684527 20.102303 16711746
9.6559038 4.3691778 10.855269 16711746
14.018375 -8.1376972 26.684137 16711746
3.8664677 4.1473193 11.759543 16711746
1.2530575 0.26778486 6.3659711 16711746
1.346591 -0.22528753 6.565937 16711746
-7.1658616 3.7362213 8.8477201 16711746
6.4491763 -0.10407778 6.9491172 16711746
1.329193 2.1706054 7.3910995 16711746
5.2214251 4.7058849 13.398132 16711746
-3.3119676 5.0337029 15.690129 16711746
14.676116 4.1675062 12.946383 16711746
-5.2061162 3.8627033 8.4003773 16711746
-3.6524341 3.9394448 10.143473 16711746
-3.894824 4.0223455 7.7101026 16711746
-1.7141178 4.197454 8.8087711 16711746
-3.4207904 4.1573515 9.9192533 16711746
1.2263372 1.3489906 6.4558778 16711746
-1.016526 6.1137362 23.965754 16711746
1.3692465 0.9760341 6.6837173 16711746
14.426069 4.2292252 15.494056 16711746
7.3158951 1.6516258 10.712922 16711746
2.1615295 -0.24496195 5.1358099 16711746
2.32162 -0.32281211 5.5988903 16711746
1.3514838 1.1098772 6.5140433 16711746
1.3541149 1.1938519 6.2711706 16711746
-0.98826844 4.7330928 12.332619 16711746
14.19845 4.839314 26.988552 16711746
-0.45071304 4.9310589 16.493208 16711746
8.6718283 2.2094567 9.9730844 16711746
3.8065577 4.2952251 11.370352 16711746
5.9890771 4.5607977 9.9282608 16711746
-3.7371428 4.3549232 8.1953354 16711746
-4.4559908 4.3074989 9.2143602 16711746
-3.4976897 4.5071206 10.702063 16711746
-5.9784393 4.6519513 9.7488651 16711746
1.2532103 -0.041004371 6.5512929 16711746
1.2185571 1.0930754 6.5198178 16711746
1.258103 0.26403525 6.3819151 16711746
-7.0106583 3.6590464 8.7063284 16711746
3.0701246 4.2666225 12.294532 16711746
15.137063 4.33044 13.338738 16711746
3.5372946 1.1060045 11.705915 16711746
6.334702 4.2411785 10.026993 16711746
1.3793472 0.91061532 6.8508787 16711746
13.065776 -6.1260538 22.503502 16711746
13.67958 -6.8214927 18.442635 16711746
-32.158867 -6.8190784 25.750044 16711746
6.0500069 5.1398106 17.734335 16711746
7.8313866 0.92633319 9.2594051 16711746
1.2565953 1.1945517 6.437736 16711746
-3.3751199 4.3968143 9.5990686 16711746
1.2498006 -0.025823588 6.1112084 16711746
-3.1403573 4.1928868 9.2229481 16711746
-5.7114921 4.4640269 10.781095 16711746
-4.253664 3.0854187 8.5637646 16711746
-4.6900983 5.0006905 16.322582 16711746
4.9356756 4.2872038 10.325302 16711746
6.9183817 0.33290309 11.812023 16711746
6.7867112 4.6520648 12.939244 16711746
-3.1635303 4.7204003 12.689005 16711746
8.5584574 1.8021129 9.9147806 16711746
10.424058 5.2493773 11.228024 16711746
-4.4012446 3.1810317 8.9050589 16711746
-6.6953702 2.9050429 16.289255 16711746
7.7749057 -2.0246758 15.654249 16711746
1.3447877 1.1946206 6.3768206 16711746
-2.6782181 4.7837052 14.073339 16711746
-35.146832 -4.2916379 30.748331 16711746
-24.67325 -5.2797146 20.130081 16711746
4.8914685 4.3710108 12.541651 16711746
4.497355 4.6787357 13.983289 16711746
11.363163 4.8059072 18.969479 16711746
13.439466 3.7419717 21.314207 16711746
7.9574695 3.9902201 7.9650965 16711746
9.3375454 3.3676798 7.7541914 16711746
-3.9564438 1.3720549 9.1355934 16711746
0.52660215 4.6107745 11.46598 16711746
-4.6059756 4.3959675 9.3682623 16711746
6.7996998 3.7056234 9.8247499 16711746
16.527636 -0.59447467 15.54213 16711746
5.6169434 4.8137169 16.723763 16711746
11.928251 4.4710484 23.842697 16711746
-1.7685487 4.7566352 12.577319 16711746
8.9507389 5.0092883 16.411623 16711746
-6.4041462 2.759064 15.812684 16711746
7.7238154 4.0722136 9.7773743 16711746
-1.2435234 4.5423307 14.117284 16711746
-2.8639302 4.7859473 11.941737 16711746
4.8792248 4.7095113 13.920433 16711746
-2.0576735 4.5703416 11.27363 16711746
-1.7090575 4.7807293 12.557862 16711746
10.593658 4.7289934 13.801449 16711746
3.6480291 4.7386999 14.329928 16711746
27.005848 -13.285367 25.214588 16711746
3.1077194 4.5208478 11.199737 16711746
3.4849923 -0.43057549 12.383527 16711746
8.9737043 2.5684888 11.203693 16711746
-21.652353 9.7800598 65.255974 16711746
6.3395896 4.5850396 12.399472 16711746
3.5527315 3.4699392 12.015142 16711746
3.578757 4.5578656 13.839792 16711746
7.2681603 4.1005111 10.140728 16711746
7.0688839 5.0417786 15.65318 16711746
15.50514 4.5554614 13.619818 16711746
-2.9068069 4.631331 12.194711 16711746
-3.4836173 4.1647768 10.108893 16711746
-5.7944565 1.4038849 9.8996096 16711746
-1.7847642 4.7743092 12.668873 16711746
4.2114229 5.3800969 20.021612 16711746
1.2174829 1.3820819 6.5362997 16711746
-4.5688291 5.5255828 18.672731 16711746
3.7444794 1.6173372 12.093165 16711746
-2.0062528 4.6048369 10.927556 16711746
-6.4196773 4.7015491 15.470162 16711746
-2.5205224 4.5098748 11.332067 16711746
1.207456 1.1046052 6.6009793 16711746
8.0542107 4.9869285 15.219959 16711746
3.5321951 -0.48379442 12.459623 16711746
-3.7022974 4.4932551 10.9652 16711746
1.3081044 0.91392148 6.5446463 16711746
3.4561875 4.230442 12.907444 16711746
4.4074869 5.6952324 21.207745 16711746
30.696159 -7.3871579 36.936314 16711746
24.675655 -10.980145 50.829178 16711746
10.180914 3.4623761 22.048433 16711746
4.8838367 5.6128292 20.973312 16711746
-1.4306939 4.4804444 10.89384 16711746
1.79961 4.8315434 13.729996 16711746
-6.3958101 4.6509118 15.301848 16711746
-6.7430367 4.900126 15.947744 16711746
10.228013 4.5785604 14.644114 16711746
-4.980597 4.6464429 13.234262 16711746
2.4969897 4.8309379 14.620176 16711746
4.9719205 4.4653721 12.601665 16711746
1.2896323 0.8624419 6.5172806 16711746
6.3598013 4.6194658 12.534631 16711746
3.1874862 4.4493637 14.060256 16711746
1.2887059 0.94638705 6.5510669 16711746
14.90002 4.272368 13.11581 16711746
24.175388 6.7795081 37.455013 16711746
7.7413316 4.7655287 14.614269 16711746
4.6371989 0.80061007 14.11155 16711746
6.5258145 4.8107805 20.149155 16711746
-5.0834188 4.7289639 13.445176 16711746
-2.496098 4.4942651 11.318759 16711746
12.30479 0.26824799 12.697519 16711746
6.2367587 5.0917654 15.283721 16711746
1.2259923 1.0788456 6.5251446 16711746
7.299305 5.3181367 16.245527 16711746
2.054461 5.0809302 17.881695 16711746
3.4964185 0.38400826 12.208477 16711746
0.60234839 4.8919663 18.273661 16711746
28.831282 -1.3681328 25.815184 16711746
34.967205 -11.926325 41.162739 16711746
17.611692 4.2666965 14.47983 16711746
0.19584243 4.6318388 13.973223 16711746
3.7939785 -0.25559491 11.599556 16711746
22.098892 -7.4573951 41.542297 16711746
33.137154 -18.546156 83.462936 16711746
21.972553 -9.9937391 21.477802 16711746
-5.5740671 -25.198303 94.895172 16711746
4.2148919 -5.2887707 24.404922 16711746
7.3126779 -3.8071539 21.203123 16711746
-0.31254378 4.769372 15.99984 16711746
8.6335936 2.2726927 21.439611 16711746
12.404217 3.5578361 11.457997 16711746
21.431126 -17.306767 49.26965 16711746
31.417192 -22.77779 45.308464 16711746
4.1176329 1.0392898 9.7286739 16711746
20.409451 -6.8616004 38.635208 16711746
23.840145 -14.531388 34.341114 16711746
3.8591216 -0.2741262 11.836576 16711746
25.084187 -17.681383 36.542286 16711746
66.501053 -23.449144 75.41449 16711746
27.945848 -9.7916288 37.588356 16711746
27.797993 -20.083948 34.91349 16711746
12.647425 1.8200186 22.604456 16711746
9.8921347 1.0850983 28.180731 16711746
4.3177376 3.6884174 13.39962 16711746
47.704956 -1.060403 49.419075 16711746
-1.5816295 4.6097445 12.228571 16711746
33.095562 -18.550177 44.315456 16711746
13.117826 -7.0511656 20.06896 16711746
2.434557 -7.120018 25.041702 16711746
3.9308274 -5.7022238 18.666199 16711746
22.365154 -18.832703 52.344322 16711746
25.619108 -9.3059874 48.301865 16711746
8.6134548 2.3139336 15.321958 16711746
39.289566 -3.8774948 41.411171 16711746
13.71776 4.4030132 12.530466 16711746
-1.3845898 3.6557403 13.292979 16711746
-1.6324244 4.6482162 13.381891 16711746
-1.5105296 3.7244997 13.483294 16711746
3.8232558 2.4695995 12.717918 16711746
25.503235 6.1017823 32.570766 16711746
98.252823 -8.3369551 76.514671 16711746
3.4542117 2.9866378 12.789279 16711746
36.87875 -22.593405 52.140717 16711746
8.8686161 4.245317 11.897181 16711746
3.5236955 -0.28042811 12.069353 16711746
7.3706317 3.2906132 11.474439 16711746
18.614935 -10.280459 19.746719 16711746
21.662573 -17.286108 49.363335 16711746
11.19747 3.173557 10.67141 16711746
0.88080072 4.7582808 17.23782 16711746
5.9375334 -13.584372 39.850105 16711746
0.54174352 4.3671627 12.901402 16711746
3.4987638 4.3113523 13.365562 16711746
4.0221777 -2.4562662 22.993267 16711746
3.5189455 0.47480223 11.793433 16711746
-1.1945961 4.6446443 13.31805 16711746
1.7956583 5.5146642 23.612236 16711746
-1.6282313 2.9707179 13.941659 16711746
10.717061 3.0611176 10.484688 16711746
-0.29192826 -7.615407 29.792765 16711746
3.8825257 -5.0126243 19.67478 16711746
15.893013 -4.7064419 15.121291 16711746
-3.2824883 4.7057319 13.310377 16711746
48.776203 -9.7193661 96.647194 16711746
53.31152 -17.64612 36.286678 16711746
31.02104 -8.6878023 57.801048 16711746
0.83669215 4.7747478 15.003495 16711746
-0.35570627 4.7517667 16.073526 16711746
13.031231 2.427649 23.25304 16711746
3.7885783 2.6595783 12.538932 16711746
1.4577049 4.8269219 16.653179 16711746
99.899925 -2.999552 86.313431 16711746
42.392746 -3.0639508 39.376198 16711746
-5.324769 -15.775903 44.372135 16711746
11.461983 -14.799992 44.44841 16711746
3.3896651 0.91085678 10.793527 16711746
-2.9840412 4.7180009 14.894909 16711746
-3.3978198 -13.540242 36.432472 16711746
-4.090898 -15.547703 40.549038 16711746
