# .PCD v.7 - Point Cloud Data file format
VERSION .7
FIELDS x y z rgb
SIZE 4 4 4 4
TYPE F F F F
COUNT 1 1 1 1
WIDTH 1164
HEIGHT 1
VIEWPOINT 0 0 0 1 0 0 0
POINTS 1164
DATA ascii
-0.0906210 -0.7807283 9.2614222 16711746
-0.4549067 -0.7902231 9.4446650 16711746
0.1388943 -0.7905918 9.4874983 16711746
-0.4648936 -0.7918613 9.4542656 16711746
0.1781318 -0.8224040 9.5987940 16711746
0.0603183 -0.8041031 9.1995134 16711746
0.1267697 -0.7856734 9.4153061 16711746
-0.4460275 -0.7948091 9.4754305 16711746
-0.2051685 -0.7836316 9.3940849 16711746
0.1854312 -0.8311639 9.6770077 16711746
-1.7157500 -1.1998377 10.0652437 16711746
-0.3612348 -0.7981752 9.3160839 16711746
-1.5323042 -0.8841649 9.9909611 16711746
-0.2522975 -0.8173854 9.7820950 16711746
-0.2756634 -0.7794015 9.3244762 16711746
-0.8163113 -0.8193552 10.0856314 16711746
-0.1697741 -0.8414518 9.9349318 16711746
-0.0159304 -0.7993190 9.4106846 16711746
-0.1651347 -0.8539004 10.2640934 16711746
-0.3177699 -0.7860249 9.2935362 16711746
-0.1618022 -0.8477107 10.3578539 16711746
-0.7341232 -0.7673905 9.2984028 16711746
-0.6003637 -0.8041668 9.7722797 16711746
-0.3578188 -0.7910317 9.4359283 16711746
-0.2237046 -1.0936288 10.8445873 16711746
2.6075966 -1.8754354 12.7321720 16711746
-0.8492373 -0.8718572 10.1107225 16711746
3.2842894 -2.4391320 15.1515093 16711746
-0.9053382 -1.3324499 10.6499891 16711746
-0.9100614 -1.3330238 10.6539745 16711746
-0.0500788 -0.7924544 9.4052505 16711746
-0.1253867 -0.7934270 9.4165001 16711746
-0.4780298 -0.7850081 9.3991213 16711746
0.0794480 -0.7951350 9.4844990 16711746
-0.3411371 -0.7928750 9.4150305 16711746
-0.5636781 -0.8013984 9.5233326 16711746
-0.1918850 -0.7981452 9.4182940 16711746
-0.1463116 -0.7779826 9.3211021 16711746
0.0099982 -0.7802700 9.4514780 16711746
-0.1778321 -0.7799522 9.3204403 16711746
-0.2277244 -0.7799051 9.3313189 16711746
0.0133207 -0.8037682 9.4119987 16711746
-0.1587321 -0.7876948 9.3005810 16711746
-0.3877980 -0.7899203 9.4726887 16711746
-0.3844223 -0.7838301 9.4350100 16711746
0.1960385 -0.8211569 9.6105289 16711746
-0.6397105 -0.8097308 9.6205702 16711746
-0.1415541 -0.7960420 9.4388046 16711746
-0.1525361 -0.7952344 9.3515625 16711746
-0.3269014 -0.7982038 9.4993486 16711746
0.0432610 -0.8108773 9.5427580 16711746
-0.2911063 -0.7890352 9.3542805 16711746
-0.0872379 -0.7731683 9.3449430 16711746
-0.0058853 -0.8004181 9.4347782 16711746
-0.0457497 -0.8165862 9.4280691 16711746
-0.4073349 -0.8072318 9.5535450 16711746
-0.1532795 -0.7751468 9.3190699 16711746
-0.3809062 -0.7894700 9.4247351 16711746
-0.4009976 -0.7836975 9.3172102 16711746
-0.3720511 -0.7861154 9.2540941 16711746
-0.5142273 -0.7993869 9.7070990 16711746
-0.3343683 -0.8029877 9.5612478 16711746
-0.2763669 -0.7780550 9.3266230 16711746
-0.1045968 -0.8228817 9.6991377 16711746
-0.7581899 -0.8905726 10.0037203 16711746
-0.6814001 -0.8157363 9.7006998 16711746
-0.2489006 -0.7836841 9.3916225 16711746
-0.3343004 -0.8035256 9.5590162 16711746
-0.9216201 -0.8557298 10.3541965 16711746
0.0506501 -0.7568895 9.3291426 16711746
0.5803989 -1.2671938 10.2017183 16711746
-0.1640176 -0.8062201 9.5024719 16711746
-0.2764824 -0.7924243 9.4990330 16711746
-0.4071124 -0.7972946 9.4637861 16711746
-0.3122376 -0.7845958 9.3465872 16711746
-0.2188294 -0.7908149 9.4868507 16711746
-0.2633983 -0.7808972 9.4066381 16711746
-0.1734301 -0.7973858 9.5004406 16711746
-0.8044249 -1.0648491 9.8548603 16711746
-0.8875932 -0.8310171 10.1902122 16711746
-0.3224584 -0.7986851 9.4939747 16711746
-0.0751449 -0.7921898 9.2951355 16711746
-0.3853078 -0.8123056 9.5610437 16711746
-0.4405914 -0.8079345 9.7758741 16711746
-0.3002391 -0.8062121 9.5518208 16711746
-0.2252578 -0.7841740 9.4038706 16711746
-0.2650709 -0.7822251 9.4280720 16711746
-0.5633669 -0.7777470 9.3836470 16711746
-0.1622811 -0.7844397 9.3743963 16711746
-0.4135815 -0.7866340 9.3898191 16711746
-0.3794729 -0.7900950 9.4233437 16711746
-0.6228122 -0.8031988 9.5330067 16711746
-0.1242798 -0.7850156 9.3214560 16711746
0.0001123 -0.8045574 9.5120220 16711746
0.0117677 -0.7812675 9.4039259 16711746
-0.3039248 -0.7862910 9.3866482 16711746
-0.6755588 -0.8106475 9.5849619 16711746
-0.1168850 -0.8082231 9.5263710 16711746
-0.3813809 -0.7878776 9.3584089 16711746
-0.0852727 -0.7959722 9.4076862 16711746
-0.4761598 -0.7873904 9.3974009 16711746
-0.0200536 -0.8109603 9.4122658 16711746
-0.5732558 -0.7978199 9.4894657 16711746
-0.1315286 -0.7882846 9.4173965 16711746
0.2488404 -0.8877845 9.4999704 16711746
-0.1614994 -0.7977453 9.5112810 16711746
-0.2285934 -0.7817564 9.3753757 16711746
-0.4446677 -0.8077710 9.5423527 16711746
-0.5516895 -0.8006716 9.5929365 16711746
-0.0076632 -0.7995656 9.4368324 16711746
-0.1642846 -0.8155920 9.5896921 16711746
-0.1635732 -0.8184866 9.6751604 16711746
-0.2942539 -0.7938643 9.4538507 16711746
-0.0750391 -0.7991357 9.3874760 16711746
0.2501937 -0.8850671 9.5054340 16711746
-0.5813004 -0.7927219 9.4960260 16711746
0.0572502 -0.6905386 9.5483217 16711746
0.0329510 -0.7980968 9.4005461 16711746
-0.1715772 -0.7989453 9.3861427 16711746
-0.1455706 -0.7883741 9.4665403 16711746
-0.3476458 -0.8121711 9.6316814 16711746
-0.1067565 -0.7900553 9.3761368 16711746
-0.0735627 -0.8097460 9.5143499 16711746
-0.1094117 -0.7756464 9.3641510 16711746
-0.2613379 -0.7827032 9.4019670 16711746
-0.4508530 -0.7936133 9.4403973 16711746
-0.2500316 -0.7964434 9.4144068 16711746
-0.2521769 -0.8066223 9.6759329 16711746
-0.0738211 -0.7993968 9.4242134 16711746
-0.6391296 -0.8112341 9.7271729 16711746
-0.4824623 -0.7812998 9.4087019 16711746
1.1688693 -0.9062226 10.7520514 16711746
-0.4669702 -0.8183206 9.5983381 16711746
-0.7005040 -0.8909855 9.4160728 16711746
-0.1662073 -0.8404218 9.9360151 16711746
-0.2029935 -0.7922906 9.4712381 16711746
-0.1477423 -0.9174016 10.4324236 16711746
-0.1150587 -0.7966666 9.4274797 16711746
-0.2270888 -1.3438983 11.1840210 16711746
-0.8383988 -0.8764948 10.0987005 16711746
-0.6016697 -0.7967950 9.5157089 16711746
0.0734345 -0.7946433 9.4009380 16711746
-0.0715456 -0.7878036 9.3898096 16711746
-0.0488127 -0.7962329 9.4236097 16711746
0.0818921 -0.8085521 9.5745268 16711746
-0.0554915 -0.7981980 9.4566727 16711746
-0.3833234 -0.8141910 9.5562315 16711746
-0.6518130 -0.7948851 9.4398594 16711746
-0.2602614 -0.7822780 9.4019661 16711746
0.0609676 -0.8145454 9.5432949 16711746
-0.1267118 -0.7925245 9.4366665 16711746
-0.1738154 -0.7736117 9.3953228 16711746
-0.6752834 -0.8106295 9.5833025 16711746
0.0506348 -0.7736329 9.3603859 16711746
0.0423323 -0.7897704 9.3560371 16711746
-0.2757025 -0.7957737 9.4941139 16711746
-0.2189014 -0.8182482 9.4850779 16711746
-0.2917298 -0.8036607 9.5706406 16711746
-0.0404661 -0.7869208 9.3763180 16711746
-0.6738545 -0.8121686 9.5810642 16711746
-0.5501451 -0.8069509 9.3604422 16711746
-0.1542709 -0.8113264 9.6079798 16711746
-0.0028822 -0.8068423 9.4539814 16711746
-0.0904238 -0.7968408 9.3975153 16711746
-0.8083307 -0.7992492 9.5737543 16711746
-0.3047477 -0.7946713 9.3788700 16711746
-0.0318447 -0.8261905 9.6640196 16711746
-0.5403009 -0.7668221 9.4540854 16711746
-0.0318249 -0.7957132 9.3665724 16711746
-0.1620350 -0.8148902 9.6657724 16711746
-0.1024568 -0.8007592 9.4588108 16711746
0.1878797 -0.8097528 9.4733725 16711746
-0.5808141 -0.7955398 9.4934492 16711746
0.1182816 -0.7696466 9.6646357 16711746
-0.1618204 -0.8184727 9.6783972 16711746
-1.4517496 -0.8294702 10.3679018 16711746
-0.1487946 -0.8102653 9.4559708 16711746
-0.5892836 -0.7805576 9.4068756 16711746
-0.6094067 -0.7983705 9.4878588 16711746
0.5050157 -0.8303103 9.9194431 16711746
-0.2098779 -0.8148419 9.6589909 16711746
-1.2534693 -0.8620692 10.1318893 16711746
-0.7048792 -0.8228673 9.6574059 16711746
-0.4137287 -0.8074858 9.4864674 16711746
-0.1057850 -0.8250040 9.6887560 16711746
1.2061473 -1.0440117 10.5891933 16711746
-0.3114053 -0.8290749 9.7652655 16711746
0.1369397 -0.7946805 9.4784794 16711746
-0.2070848 -0.7928245 9.4880266 16711746
0.0674466 -0.8068947 9.5312901 16711746
1.1931238 -0.9027570 10.7674627 16711746
-0.0128182 -0.7963014 9.4283657 16711746
-0.1182823 -0.8030466 9.5247297 16711746
-0.2886360 -0.7969971 9.5362034 16711746
1.2468933 -0.8970118 10.8864040 16711746
-0.3816760 -0.7984275 9.4537363 16711746
-0.4556101 -0.7884988 9.4496660 16711746
-0.2888385 -0.8445592 10.1104765 16711746
-0.1004580 -0.8600681 10.2865353 16711746
-0.3372821 -0.8331068 10.0647964 16711746
-0.3369615 -0.8364375 10.0521812 16711746
0.1480234 -0.8181101 9.6727619 16711746
-0.1811844 -0.8376800 9.8513317 16711746
4.8249793 -2.0107536 14.4815960 16711746
-0.2409453 -0.8261709 9.8842754 16711746
0.1538317 -0.8109204 9.5319786 16711746
-0.1741659 -0.8174304 9.6916246 16711746
-0.0546152 -0.8312728 9.7589121 16711746
-0.0122425 -0.7969626 9.4126711 16711746
-0.3510967 -0.7946890 9.4677620 16711746
0.3197405 -0.8321791 9.9637728 16711746
-0.2289054 -0.8170339 9.8030577 16711746
-0.2918729 -0.8077410 9.7792969 16711746
-0.0295512 -0.8026118 9.4366570 16711746
-1.4630100 -0.8305168 10.3752174 16711746
-0.4268986 -0.8213457 9.7447424 16711746
0.2154043 -0.8423628 9.8497076 16711746
-0.0934277 -0.8691313 9.9239922 16711746
-0.2426690 -0.8098382 9.5105982 16711746
-0.4616254 -0.8273461 9.6806831 16711746
-0.0541159 -0.8103474 9.5161476 16711746
1.0500914 -1.1426290 10.6821775 16711746
-0.0390090 -0.7995943 9.4878883 16711746
-0.1855171 -0.8093799 9.6380463 16711746
-0.1455339 -0.8053073 9.4702940 16711746
0.0407621 -0.8323705 9.7711372 16711746
0.0236885 -0.7926305 9.3894920 16711746
-0.5539360 -0.7952580 9.4240208 16711746
-0.7017303 -0.7986566 9.4856710 16711746
-0.5047415 -0.8046598 9.5357227 16711746
-0.3303566 -0.7931848 9.4307327 16711746
-0.2283635 -0.8048480 9.6294813 16711746
-0.3753670 -0.8233780 9.4361267 16711746
-0.4024081 -0.8324969 10.0243177 16711746
0.1044878 -0.8496369 10.1286621 16711746
-0.0790596 -0.8161271 9.5816660 16711746
-0.2854794 -0.7833040 9.4325285 16711746
-0.1777289 -0.8758266 10.0999022 16711746
-0.2888086 -0.7976359 9.5338402 16711746
-0.7760433 -0.8338436 10.0084105 16711746
5.8159313 -2.6654289 15.5423889 16711746
-0.4820704 -0.9128567 10.8329630 16711746
3.7552712 -1.9214188 12.8728304 16711746
-0.0038309 -0.8090410 9.4494152 16711746
-0.0999860 -0.7990599 9.4999437 16711746
0.1176269 -0.8021035 9.5173588 16711746
-0.0124746 -0.7899849 9.3613605 16711746
-0.0828791 -0.8065369 9.4435444 16711746
-0.3210844 -0.7980758 9.4939508 16711746
-0.4857055 -0.7778502 9.4115152 16711746
-0.6328266 -0.7710199 9.3551588 16711746
-0.8326920 -0.7866698 9.5991678 16711746
0.2447110 -0.8046586 9.6796112 16711746
-0.1517568 -0.8118085 9.6078300 16711746
-0.0189789 -0.8172225 9.4301672 16711746
-0.5743423 -0.7694967 9.3947468 16711746
-0.6365715 -0.7687669 9.3555164 16711746
-0.5114374 -0.7987809 9.5483742 16711746
0.0699043 -0.7961732 9.4397430 16711746
-0.1004624 -0.7977473 9.4641237 16711746
0.2503196 -0.8891819 9.5015402 16711746
0.2116908 -0.8975939 9.4675961 16711746
-0.4407268 -0.7985739 9.4636326 16711746
-0.2173120 -0.8010150 9.6006746 16711746
-0.4076278 -0.7976443 9.4643259 16711746
-0.0091505 -0.7944890 9.4197283 16711746
1.3202544 -0.8883773 10.9280910 16711746
-0.2349087 -0.8279314 9.8713226 16711746
-0.2812563 -0.7950535 9.6427212 16711746
-0.4572913 -0.7898538 9.4264994 16711746
0.0403449 -0.7999924 9.3896885 16711746
-0.2147645 -0.8100340 9.6541939 16711746
-0.0051379 -0.7839212 9.3681059 16711746
0.1586003 -0.8024445 9.4584665 16711746
0.1251485 -0.7989956 9.5231352 16711746
-0.2825179 -0.8075699 9.6292725 16711746
0.0244854 -0.7875237 9.3890858 16711746
-0.1079585 -0.7935625 9.4301510 16711746
-0.3343849 -0.8011793 9.5643101 16711746
-0.3301532 -0.7837755 9.4466343 16711746
-0.7038605 -0.7679209 9.4493847 16711746
-0.1920089 -0.7987141 9.4378204 16711746
-0.0684279 -0.8110757 9.4353704 16711746
-0.5460554 -0.7891292 9.4545460 16711746
-0.1562283 -0.8217080 9.4835606 16711746
-0.3757995 -0.7919961 9.4449854 16711746
-0.7702531 -0.8137406 9.5375824 16711746
0.1995539 -0.8045496 9.4870510 16711746
0.0056304 -0.8134522 9.3419895 16711746
-0.7044634 -0.7960673 9.4928417 16711746
0.0167063 -0.8102217 9.4191923 16711746
0.9691991 -0.9134289 10.4165592 16711746
-0.2837052 -0.7855880 9.4296474 16711746
-0.2150710 -0.7930312 9.4576826 16711746
-0.0080759 -0.8774077 10.1632843 16711746
-0.5232584 -0.8056083 9.6643496 16711746
-0.3929891 -0.8156179 9.7330027 16711746
-0.1690681 -0.8441201 9.9296522 16711746
-0.5095226 -0.8013557 9.5434818 16711746
-0.7028332 -0.8056647 9.5317736 16711746
-0.1723787 -0.8470423 9.9113693 16711746
-0.9752735 -1.2043830 9.8929415 16711746
-0.9399734 -0.7986229 9.6764355 16711746
-0.2608015 -0.8309247 10.0413227 16711746
-0.1361508 -0.7920408 9.4363289 16711746
-0.1008220 -0.8187685 9.7137690 16711746
-0.4548908 -0.7900884 9.4452257 16711746
0.0384685 -0.8470215 10.1235380 16711746
-0.0246020 -0.8416213 9.7877884 16711746
-0.9371459 -1.0047885 10.0615368 16711746
-0.1382695 -0.8099124 9.4735470 16711746
0.2485837 -0.8811831 9.5154066 16711746
-0.2159531 -0.8188511 9.7400093 16711746
0.7280582 -0.8738440 10.4104633 16711746
-0.5420412 -0.7825786 9.4079390 16711746
-0.1198901 -0.8455988 9.7779322 16711746
0.7366608 -0.8718232 10.4278221 16711746
-0.5569683 -0.7919598 9.4776068 16711746
-0.2868608 -0.7848535 9.4418936 16711746
-0.3286071 -0.8269463 9.8668718 16711746
-0.9197856 -0.7991723 9.7532787 16711746
0.0970090 -0.8090756 9.5913067 16711746
-0.3859190 -0.8119463 9.4975567 16711746
-0.7741380 -0.8339765 10.0063581 16711746
-0.2417679 -0.8285119 9.8743029 16711746
-1.7891587 -0.8847110 10.3642492 16711746
-0.3482889 -0.8048640 9.5767107 16711746
-0.4180980 -0.7990716 9.4576502 16711746
-0.0737855 -0.7852486 9.4300337 16711746
-0.4085912 -0.7925656 9.4308949 16711746
-0.8286446 -0.7903566 9.5936308 16711746
0.0056562 -0.8105543 9.5306168 16711746
0.1768750 -0.8253661 9.6209459 16711746
-0.0805371 -0.8173431 9.5780878 16711746
-0.4587582 -0.8001165 9.6615610 16711746
-0.5067036 -0.8035917 9.5399103 16711746
-0.4406399 -0.8062818 9.4983807 16711746
-0.4118450 -0.8475509 9.5265112 16711746
-0.4376898 -0.8211696 9.6004715 16711746
-0.1160439 -0.8246891 9.6443424 16711746
-0.3816523 -0.8074060 9.4710436 16711746
0.0602801 -0.8416020 9.4410439 16711746
-0.2943029 -0.8177422 9.7480316 16711746
-0.0775915 -0.8160409 9.5834751 16711746
-1.2464690 -1.1107353 9.9808578 16711746
0.1897014 -0.7739623 9.5792723 16711746
-0.3807954 -0.8145567 9.4899855 16711746
0.0077310 -0.8087846 9.5355988 16711746
0.0809740 -0.7973231 9.4647808 16711746
-0.6443567 -0.8025371 9.5830402 16711746
-0.0383737 -0.8281177 9.6610718 16711746
0.7383893 -1.0419543 10.3384809 16711746
-1.1492366 -0.8664368 9.7918425 16711746
-0.4223724 -0.8690859 9.5419588 16711746
-0.6820403 -0.8189447 9.7613010 16711746
-0.0568074 -0.7963123 9.4244461 16711746
0.0190777 -0.8953364 10.6521616 16711746
-0.8173072 -0.9842865 10.1593113 16711746
-1.0933409 -1.0459465 10.4067745 16711746
-0.2674106 -0.8072894 9.5946827 16711746
-0.0888877 -0.8159449 9.5240288 16711746
-1.0073516 -1.0095769 10.1629906 16711746
-0.5158108 -0.9227692 10.0110407 16711746
-1.0119987 -0.9716884 10.1884727 16711746
-0.2182676 -0.8508397 10.1263800 16711746
-1.5612588 -1.2575125 10.1710157 16711746
-0.0224908 -0.8911496 10.0573711 16711746
-0.3816408 -0.7849955 9.4302855 16711746
-0.2917885 -0.7864326 9.4742002 16711746
-0.3925285 -0.8141356 9.6947803 16711746
-0.2708769 -0.8268179 9.8005209 16711746
-0.4076097 -0.7988250 9.4633150 16711746
-0.2825503 -0.8064475 9.6327009 16711746
0.1220625 -0.8073171 9.5212870 16711746
0.0040174 -0.8119239 9.5297527 16711746
-0.9378232 -0.7982376 9.6750679 16711746
-0.5602514 -0.7951033 9.6081409 16711746
-0.1392571 -0.7889511 9.4202480 16711746
-0.2432658 -0.8112902 9.6960773 16711746
-0.2756185 -0.7896871 9.5066757 16711746
-0.3689359 -0.8325415 9.8996887 16711746
4.0596452 -1.1085389 13.6207094 16711746
0.0969412 -0.8608336 10.3771133 16711746
-0.3474528 -0.8155920 9.6244097 16711746
-0.5897845 -0.7802665 9.4055233 16711746
-0.5746037 -0.8037221 9.6736231 16711746
-0.5327804 -0.9409901 9.8689766 16711746
-0.5487916 -0.8191776 9.6326981 16711746
-1.2121507 -0.8700673 10.0906906 16711746
-0.3719662 -0.8016237 9.5465260 16711746
-0.1243617 -0.8189787 9.6337252 16711746
-0.6828495 -0.7953377 9.4695663 16711746
-0.4141254 -0.8242810 9.8397198 16711746
-0.4339238 -0.8212075 9.7462063 16711746
-1.8833581 -1.3711094 10.5571661 16711746
-0.5034687 -1.2284762 10.0534992 16711746
-0.6121902 -0.7958276 9.4936314 16711746
-0.6168427 -0.7999865 9.5077982 16711746
-0.1100591 -0.8306469 9.6740360 16711746
-1.4457812 -0.8354115 10.3195114 16711746
-0.0823789 -0.8455956 9.8158674 16711746
-0.2783485 -0.8300492 9.7770634 16711746
-0.2937104 -0.8272833 9.8892345 16711746
-0.6934670 -0.8131383 9.8458395 16711746
-0.0687440 -0.8344587 9.7427979 16711746
-0.0859202 -0.8115218 9.5182543 16711746
-0.0756275 -0.8397411 9.5574989 16711746
-0.2145860 -0.8094908 9.6573381 16711746
-1.8179594 -1.0407988 10.2505016 16711746
-0.1127389 -0.8117666 9.5284901 16711746
-0.2166640 -0.8100331 9.5009117 16711746
-0.5366989 -0.7916719 9.4828854 16711746
-0.4931665 -1.2220126 10.0027132 16711746
-0.6563457 -0.8116609 9.6970873 16711746
-0.0577348 -0.8311415 9.7137756 16711746
-0.3737465 -0.8260117 9.9262552 16711746
-0.1667821 -0.8533999 10.2557268 16711746
-0.5369937 -0.7907745 9.4836121 16711746
-0.2218439 -0.8076633 9.5956354 16711746
-1.0145124 -0.9744316 10.2157555 16711746
-0.2800375 -0.8212486 9.7950506 16711746
2.1005037 -1.0580180 11.5567493 16711746
-1.4075423 -0.8397394 10.2700930 16711746
-0.5516127 -0.8005892 9.5908384 16711746
-0.3340227 -0.8152716 9.6121368 16711746
-0.1160454 -0.8067570 9.5283842 16711746
-0.0862658 -0.8132861 9.5153017 16711746
-0.6378166 -0.8044555 9.3977919 16711746
-0.7283871 -0.8090618 9.6330738 16711746
-0.4683228 -0.8023061 9.4996195 16711746
-0.6737287 -0.8233561 9.8138962 16711746
-0.9520674 -0.7876791 9.6878605 16711746
-0.2031429 -0.7900956 9.4744625 16711746
0.3939292 -0.8190550 9.8602190 16711746
-0.0386511 -0.7928119 9.5013075 16711746
-0.6530833 -0.8115638 9.4462328 16711746
0.1906315 -0.8280127 9.6887178 16711746
-0.0280940 -0.8267375 9.6650581 16711746
-0.5733883 -0.7922961 9.3934879 16711746
-0.4535686 -0.7928180 9.4396334 16711746
-0.1186330 -0.7863593 9.4964781 16711746
-0.0175834 -0.7784523 9.5181246 16711746
-0.5345019 -0.7912168 9.4833450 16711746
-0.3476201 -0.8024710 9.5152712 16711746
-0.4752649 -0.7955811 9.5097265 16711746
-0.4907801 -0.8038023 9.5910683 16711746
-0.4279030 -0.8193828 9.5579958 16711746
0.0004597 -0.8125808 9.5405884 16711746
-0.4798289 -0.8036039 9.4405956 16711746
0.0307293 -0.8001394 9.4623661 16711746
-0.4303247 -0.8189999 9.5621061 16711746
-0.3347704 -0.7992876 9.5434132 16711746
-0.5157559 -0.8048360 9.5040464 16711746
-0.3341730 -0.8015715 9.5388184 16711746
-0.4354146 -0.7972152 9.6615829 16711746
-1.9221989 -1.3060157 10.5618553 16711746
-0.5769719 -0.7926960 9.4995499 16711746
-0.8029059 -0.8174913 9.9526386 16711746
-2.3456795 -1.4755017 10.9742308 16711746
-0.2241103 -0.8429286 9.9472771 16711746
-1.4867549 -0.9188987 10.3310795 16711746
-0.1136915 -0.8234126 9.6449223 16711746
-0.4585476 -0.8462570 10.0722733 16711746
0.5721210 -0.9013331 11.6746235 16711746
-0.3819145 -0.8236099 9.8006630 16711746
-0.1905738 -0.8456408 10.4475870 16711746
-1.4557323 -1.2273693 9.9746866 16711746
-0.2301995 -1.4041892 11.3888025 16711746
-0.5007833 -0.8827829 10.6912651 16711746
-0.0135288 -0.8385720 9.6676197 16711746
-0.3573180 -0.8194302 9.7248888 16711746
-0.4968980 -0.7989106 9.5103998 16711746
-1.2903877 -0.8163822 9.9340096 16711746
0.0250260 -0.7791705 9.4856167 16711746
-0.4609051 -0.8000302 9.4936419 16711746
-1.1989779 -0.8187085 9.9034328 16711746
0.0476379 -0.8271108 9.7804966 16711746
0.1804201 -0.8980829 10.1040983 16711746
-0.6698192 -0.8229916 9.7765236 16711746
-0.5782343 -0.9157970 9.9193668 16711746
0.0055616 -0.8101254 9.5319138 16711746
-0.1153704 -0.8231603 9.6477652 16711746
0.1661185 -0.9026332 10.0713377 16711746
-0.0539769 -0.8466403 9.6656876 16711746
-1.3400265 -1.1351223 10.2751951 16711746
-0.0453664 -0.8400696 9.6898003 16711746
-0.3589160 -0.8133093 9.6788568 16711746
-0.6173736 -0.7910951 9.4395905 16711746
-0.1326481 -0.8270868 9.7141075 16711746
-0.3500570 -0.8146888 9.5722084 16711746
-0.4703287 -0.7969635 9.4612389 16711746
-0.0606016 -0.8138214 9.5235052 16711746
-0.3558238 -0.9450938 11.7148209 16711746
-0.6091735 -0.7901922 9.5635414 16711746
-0.3184822 -0.8171303 9.6472092 16711746
-0.3723701 -0.8069573 9.5864620 16711746
-0.1752222 -0.8208012 9.6853514 16711746
-0.5953323 -0.7839856 9.4376621 16711746
-0.2381672 -0.8103389 9.6506634 16711746
-0.5380177 -0.7887756 9.4643202 16711746
-0.1951566 -0.8125626 9.6441936 16711746
-0.3948648 -0.8115492 9.4964447 16711746
-0.2177095 -0.8021981 9.5959616 16711746
-0.1119964 -0.8233256 9.6511831 16711746
-0.6827833 -0.8572128 9.6893969 16711746
-0.9730399 -0.7837104 9.7033405 16711746
-0.6018849 -0.8246079 9.3718843 16711746
-0.2248681 -0.7997745 9.5496655 16711746
-0.2914498 -0.8033519 9.5701427 16711746
-0.1398326 -0.8218874 9.5215168 16711746
-0.6880850 -0.8048884 9.5921907 16711746
-0.6083562 -0.7880004 9.4476080 16711746
-0.3159255 -0.8223503 9.7759399 16711746
-1.5263377 -1.4326049 10.1373758 16711746
-0.3743891 -0.7982408 9.4878340 16711746
-0.5550642 -0.7888149 9.4990511 16711746
-0.1571574 -0.8011492 9.5661440 16711746
0.3532400 -0.8305548 9.8175335 16711746
-0.7543728 -0.8175858 9.4875183 16711746
-0.1592370 -0.8048469 9.5593729 16711746
-0.2104363 -0.8313788 9.7286806 16711746
-0.3733832 -0.8272383 9.9202509 16711746
-0.1925687 -0.8035934 9.6058941 16711746
-0.1668192 -0.8409413 9.9335184 16711746
-0.3920962 -0.8143940 9.7367849 16711746
-0.1689002 -1.1479299 9.8972321 16711746
-1.4674009 -1.0357201 10.1588268 16711746
-0.2661527 -0.8173773 9.7756853 16711746
-0.0483145 -0.8186719 9.6168633 16711746
-0.2159987 -0.8187235 9.7381659 16711746
-0.5745390 -0.7980694 9.4216928 16711746
-0.3911251 -0.8154233 9.6903105 16711746
-0.0771332 -0.8449104 9.8234329 16711746
-0.1655465 -0.8282236 9.7458429 16711746
-0.2661485 -0.8123025 9.6460838 16711746
-0.4173711 -1.1639311 9.8523750 16711746
-0.6241726 -0.8028867 9.5829468 16711746
-0.6255033 -0.8005301 9.5209284 16711746
-0.4418404 -1.3967075 10.6239738 16711746
-0.2841620 -0.8333628 10.1674442 16711746
-0.9660990 -0.9304008 10.2348251 16711746
0.3724578 -0.8669454 10.2805777 16711746
-0.1316163 -0.8081453 9.5463276 16711746
-0.3001415 -0.8083657 9.5476561 16711746
-0.0412990 -0.7992418 9.4870319 16711746
-0.0615363 -0.8416189 9.7519789 16711746
-0.3891813 -0.8133940 9.6135435 16711746
-0.0522031 -0.8218996 9.6078568 16711746
-0.0845854 -0.8093076 9.5462551 16711746
-0.3136556 -0.8187407 9.7075386 16711746
-0.8042939 -0.8055096 9.7418880 16711746
-0.0895943 -0.8272536 9.6426563 16711746
-0.1962995 -0.8249756 9.8146057 16711746
-0.6361343 -0.7854676 9.4867659 16711746
-0.6445674 -0.7916247 9.5984497 16711746
-0.2242845 -0.7984500 9.5511293 16711746
0.0320672 -0.8190094 9.7150183 16711746
-0.0596102 -0.8447813 9.5148106 16711746
0.0253607 -0.8226334 9.7069921 16711746
-0.6904445 -0.7902640 9.5519114 16711746
-0.7821687 -0.7890697 9.5721998 16711746
-0.6486618 -0.7902381 9.6066246 16711746
-0.3831007 -0.8170405 9.5532322 16711746
-0.2152921 -0.8068954 9.7649078 16711746
-0.0802035 -0.8162511 9.6095819 16711746
-0.6556909 -0.8052463 9.4301481 16711746
-0.2617207 -0.8220456 9.8060646 16711746
-0.0564434 -0.8016139 9.4999962 16711746
-0.0116947 -0.8764817 9.9762983 16711746
-0.0302960 -0.8301010 9.6588993 16711746
-0.6348791 -0.7901341 9.5233107 16711746
-0.0801230 -0.8170265 9.5797272 16711746
-0.1304837 -0.8414455 9.7778625 16711746
-0.6120808 -1.2011566 9.9065914 16711746
-1.7897593 -1.3712126 10.3255939 16711746
-1.6731150 -0.8930275 10.2899618 16711746
-0.0935134 -0.8220785 9.6414366 16711746
-0.0788253 -0.8150325 9.5843363 16711746
-0.3038326 -0.8198779 9.7463064 16711746
-0.1082094 -0.8080401 9.5325022 16711746
-0.6069839 -0.8059093 9.6289568 16711746
-0.3755835 -0.8198316 9.7418480 16711746
-1.2865735 -0.9460942 10.5960875 16711746
-0.4454313 -0.9478056 9.7781734 16711746
-0.1880829 -0.8203887 9.6760626 16711746
-0.1799279 -0.8033457 9.5924559 16711746
-0.2177674 -0.8013488 9.6000547 16711746
-1.7042742 -0.9615713 10.1648798 16711746
-0.2375077 -0.8384359 10.2569647 16711746
-0.2656917 -0.8202997 9.7678499 16711746
-0.1277187 -0.8306266 9.6667252 16711746
-0.2001479 -0.8187071 9.7724447 16711746
-0.1590269 -0.8286744 9.8060675 16711746
-0.0217124 -0.8261142 9.6685352 16711746
-0.0974433 -0.8034865 9.5085611 16711746
-0.2541485 -0.8129141 9.7741842 16711746
0.0313960 -0.8646277 10.2879496 16711746
-0.2314491 -1.2955509 10.8714180 16711746
-1.7524049 -0.8869269 10.3816338 16711746
-0.2377731 -1.2731086 10.7642956 16711746
-0.2183884 -1.1037575 11.0257311 16711746
-0.5463870 -0.7914979 9.5687504 16711746
-0.1284706 -0.8229888 9.7216444 16711746
-0.2461223 -0.8177086 9.6809368 16711746
-0.1478663 -0.8168018 9.6752739 16711746
-0.2324984 -0.8100470 9.6230831 16711746
-0.1836373 -0.8066795 9.6412525 16711746
-0.0259228 -0.8215033 9.6850748 16711746
-0.4138823 -0.7999130 9.5680389 16711746
-0.2237482 -0.8164381 9.7233229 16711746
-0.3231584 -0.8235654 9.7037420 16711746
-0.2319298 -0.8086320 9.6264582 16711746
-0.1847178 -0.8088825 9.6379566 16711746
-0.0167183 -0.8266979 9.7064791 16711746
-0.3849702 -0.7941571 9.5625868 16711746
-0.3634177 -0.8092439 9.6177416 16711746
-0.4486230 -0.8131459 9.6660242 16711746
-0.6613840 -0.7692633 9.5053558 16711746
-0.0591964 -0.8244638 9.6780615 16711746
-0.1141917 -0.8040744 9.5314417 16711746
-0.1935822 -0.8294929 9.8309803 16711746
-0.4388850 -0.8055315 9.5866814 16711746
-0.3462445 -0.8108293 9.6347837 16711746
-0.0095419 -0.8091437 9.5769596 16711746
-0.2809595 -0.8095333 9.6244440 16711746
-0.1062894 -0.8497940 9.7778797 16711746
-0.3193205 -0.8163622 9.5854740 16711746
-0.1902762 -0.8166008 9.6810989 16711746
-0.5774184 -0.8418687 10.0810909 16711746
-0.1647437 -0.8171626 9.5860577 16711746
-0.2196944 -0.8013079 9.6145792 16711746
-0.1821755 -0.8261743 9.7727900 16711746
-0.6469761 -0.8339696 10.2084398 16711746
-0.4124602 -0.9603551 9.6741581 16711746
-0.3528545 -0.8041825 9.5975094 16711746
0.0164897 -0.8598418 10.0718565 16711746
-0.2947745 -0.8254297 9.9015656 16711746
-0.1378321 -0.9048119 10.6255083 16711746
-0.2241586 -0.8656801 10.7111301 16711746
-0.1654441 -0.8276994 9.7316713 16711746
0.1149212 -0.8283808 9.8036671 16711746
-0.4125645 -0.8186747 9.7178564 16711746
-0.3408726 -0.8195643 9.6768875 16711746
-1.3046334 -0.8137623 9.9448576 16711746
-0.1345030 -0.8608124 10.0917902 16711746
-0.2878839 -0.8151550 9.6786556 16711746
-0.3974101 -0.8271158 9.8342094 16711746
-0.1536913 -0.7949628 9.5730238 16711746
-0.0204574 -0.8381606 9.8583651 16711746
0.5888139 -0.8749695 10.6227369 16711746
-0.5817682 -0.7930027 9.5563049 16711746
0.0787391 -0.8631910 9.5318184 16711746
-0.6496210 -0.8260260 10.0608397 16711746
-0.0678980 -0.8358811 9.7413406 16711746
-0.1915158 -0.8201789 9.7134991 16711746
-0.1296044 -0.8466853 10.0006056 16711746
-0.0591090 -0.8105557 9.5281038 16711746
-0.3916617 -0.8168411 9.6890335 16711746
-0.4214949 -0.8097818 9.6995201 16711746
-0.4252879 -0.8180575 9.7934446 16711746
-0.1803044 -0.8442995 10.0724773 16711746
-0.1256743 -0.8587509 10.4307718 16711746
-0.5541394 -0.8136898 9.9213257 16711746
-0.3063232 -0.8116218 9.6162081 16711746
0.0644123 -0.8510679 10.5253639 16711746
-0.6596039 -0.8110109 9.7017469 16711746
-0.1525250 -0.8122641 9.6071825 16711746
-0.6833294 -0.8079230 9.5895939 16711746
-0.1316873 -0.8162547 9.6247997 16711746
-0.3759979 -0.7968429 9.6031322 16711746
-0.1197183 -0.8144422 9.6401033 16711746
-0.4921580 -0.8104967 9.6780901 16711746
-0.4368155 -0.8130739 9.7184801 16711746
-0.4726935 -0.8161716 9.7276487 16711746
-0.2758837 -0.8197563 9.7030897 16711746
-0.2496234 -0.8017569 9.6103983 16711746
-0.0151359 -0.8476778 9.8837738 16711746
-0.1663697 -0.8301535 9.7408733 16711746
-0.2066040 -0.8135400 9.6890364 16711746
0.1508425 -0.8458759 9.8513365 16711746
-0.4898923 -0.8077861 9.6627941 16711746
-0.8144185 -0.8822163 9.5241423 16711746
-0.9837072 -1.0675334 9.6891775 16711746
-0.3562818 -0.8258581 9.7685051 16711746
-0.0810532 -0.8488621 9.8090925 16711746
-0.2765249 -0.8199880 9.7410793 16711746
-0.4651222 -0.8078214 9.6345329 16711746
-0.1365368 -0.8199691 9.6604137 16711746
-0.7027967 -0.7974496 9.6054173 16711746
-0.1296670 -0.8066813 9.5839262 16711746
-0.3758970 -0.8191248 9.7432251 16711746
-0.3898021 -0.8165661 9.6609764 16711746
0.0239114 -0.8237141 9.7214851 16711746
-0.0667542 -0.8224929 9.6575422 16711746
0.1736687 -0.8750322 10.1464596 16711746
-0.1711171 -0.8462123 9.9086113 16711746
-0.1657765 -0.8302645 9.7222853 16711746
-0.3514699 -0.8036015 9.6501036 16711746
-0.2393550 -0.8625634 10.3321447 16711746
-0.5693177 -0.7973241 9.9907999 16711746
-0.1382368 -0.8127204 9.5943518 16711746
-0.4413601 -0.8196244 9.7464466 16711746
-0.1882271 -0.8384978 9.8650293 16711746
-0.1829367 -0.8264332 9.7703581 16711746
-2.0207078 -1.3764925 11.6689482 16711746
-0.2516661 -0.8171231 9.7834368 16711746
-0.6990802 -0.8490385 10.0533619 16711746
-0.7155580 -0.8433329 10.0837240 16711746
-0.2792323 -0.8108636 9.6668777 16711746
-0.6749806 -0.8210986 9.9351463 16711746
-0.7141936 -0.8430493 10.0834150 16711746
-0.3205190 -0.8237454 9.8159561 16711746
-0.2268597 -0.8124269 9.7161922 16711746
-0.2151739 -0.8192632 9.7272396 16711746
-0.3605628 -0.8139117 9.6082668 16711746
-0.0782193 -0.8571862 9.9611778 16711746
-0.1926891 -0.8007088 9.6458054 16711746
-0.0879089 -0.8264808 9.6615534 16711746
0.1112095 -0.8676357 10.0938187 16711746
0.7112364 -0.9206235 10.7715731 16711746
0.0494849 -0.8261596 9.7810678 16711746
-0.0119891 -0.8503811 9.8932142 16711746
-0.0594478 -0.8329060 9.7076550 16711746
-0.2433794 -0.8147284 9.6903639 16711746
-1.8557544 -0.9288114 10.2582455 16711746
-0.5522083 -0.8232143 9.9676466 16711746
-0.0086883 -0.8237245 9.7450686 16711746
-0.4206865 -0.8161304 9.6331367 16711746
-0.1321238 -0.9084303 9.7623043 16711746
-0.3037286 -0.8275552 9.7022715 16711746
0.2446878 -0.8324479 9.8859682 16711746
-0.4933754 -0.8048580 9.7583590 16711746
-0.1372502 -0.9107558 9.7493153 16711746
-0.4201745 -0.8194506 9.7550917 16711746
-1.9219863 -0.8459665 10.3829870 16711746
-0.2813155 -0.8147390 9.6612749 16711746
-0.3067329 -0.8184366 9.7211418 16711746
-0.3051840 -0.8275574 10.1042910 16711746
0.0633906 -0.8688316 10.2883396 16711746
-0.2196424 -0.8483059 10.1387663 16711746
-0.2118460 -0.8726641 10.8350801 16711746
-0.5097119 -0.8152894 9.6709261 16711746
-0.4002412 -0.8184671 9.7463074 16711746
0.0917587 -0.8548961 10.0974398 16711746
0.1347509 -0.8111290 9.7411184 16711746
-0.0117783 -0.8237546 9.7116051 16711746
-0.0538499 -0.8290648 9.7138700 16711746
-0.1923197 -0.8190215 9.7123652 16711746
-0.1737905 -0.8112866 9.6486092 16711746
-0.3194613 -0.8141827 9.6508083 16711746
-0.0833808 -0.8511562 9.8067503 16711746
-0.1660944 -0.8297889 9.7399940 16711746
-0.1258607 -0.8508358 9.7680988 16711746
-0.2079986 -0.7923284 9.6871452 16711746
-0.3399229 -0.8306040 10.0697670 16711746
-0.6021218 -0.8303202 10.1278067 16711746
0.0189014 -0.8371024 9.8555012 16711746
-0.1574729 -0.9204195 10.4826450 16711746
-0.4139507 -0.8153082 9.7260294 16711746
-0.1177274 -0.8991161 10.1324673 16711746
-0.0871007 -0.8245178 9.6832066 16711746
-0.3759860 -0.8198627 9.7395115 16711746
-0.3423448 -0.8172926 9.6807051 16711746
-0.3888925 -0.8159245 9.6991997 16711746
-0.3592915 -0.8171707 9.6667414 16711746
-0.4054591 -0.8158877 9.6789122 16711746
-0.1487218 -0.8110303 9.6394157 16711746
-0.0643548 -0.8040583 9.6286392 16711746
-0.8291541 -0.8343844 9.6235065 16711746
-0.4303231 -0.8163176 9.6147747 16711746
-0.2864428 -0.8199158 9.6714125 16711746
0.1605123 -0.8417611 9.8641520 16711746
-0.5367315 -0.8107344 9.8399477 16711746
-1.1028751 -0.9289702 9.7082968 16711746
-0.1389318 -0.8240503 9.6826811 16711746
0.1982972 -0.9153194 10.1140242 16711746
-0.8467793 -1.2817533 10.5314608 16711746
-0.3337014 -0.8183607 10.3302927 16711746
-0.1616922 -0.8154973 9.6623058 16711746
-0.6321216 -0.8438269 10.1668930 16711746
-0.0923586 -0.8330972 9.7128763 16711746
-0.3264711 -0.8325519 9.8477879 16711746
-0.3589564 -0.8167115 9.6678791 16711746
-0.0859264 -0.8239455 9.6536369 16711746
-0.3964165 -0.8260446 9.7863808 16711746
-0.1320440 -0.8277945 9.7108812 16711746
0.1307677 -0.8361428 9.8952675 16711746
-0.1765452 -0.8196319 9.6873312 16711746
-0.3032488 -0.8266014 10.1030426 16711746
-1.0106698 -0.9191726 10.3009071 16711746
-0.2117341 -0.8792359 10.8475389 16711746
-0.3011954 -0.8241285 10.2628078 16711746
-0.4472155 -0.8176764 9.7327719 16711746
-0.2364898 -0.8073528 9.6538572 16711746
-0.1116312 -0.8305353 9.7245827 16711746
-0.4226586 -0.8198875 9.6771164 16711746
-0.4330214 -0.8163408 9.7513533 16711746
-0.5509025 -0.8159842 9.9141951 16711746
-0.7691490 -0.8472655 9.5727415 16711746
0.1944339 -0.8394071 9.8411398 16711746
-0.4243300 -0.8118427 9.6428976 16711746
-0.0980429 -0.8206396 9.6695404 16711746
-0.4245717 -0.8105199 9.6441517 16711746
-0.1052207 -0.8939577 9.8256788 16711746
-0.4484989 -0.8144240 9.6649122 16711746
-0.2445760 -1.1652510 9.9509096 16711746
-0.0456454 -0.8166842 9.6261587 16711746
-0.0596936 -0.8253372 9.6782122 16711746
-0.3195256 -0.8179135 9.6458330 16711746
-0.3896969 -0.8165547 9.6985254 16711746
-0.2222654 -0.8200288 9.7329874 16711746
-0.3645101 -0.8289211 9.8898392 16711746
-0.5006986 -0.8146371 9.7585535 16711746
-0.2147868 -0.8083710 9.6606617 16711746
-0.3741782 -0.8119004 9.6438189 16711746
-0.5288007 -0.7998450 9.6173944 16711746
-0.3538888 -0.8228515 9.7192078 16711746
-0.4740109 -0.8149999 9.7324419 16711746
-0.1868114 -0.8105437 9.6661797 16711746
-0.4242207 -0.8166931 9.6820879 16711746
-0.0231850 -0.8242759 9.7068539 16711746
-0.2515737 -0.8158590 9.7519426 16711746
-0.2759298 -0.8182394 9.7430763 16711746
-0.3118895 -0.8234581 9.7975798 16711746
-0.4113770 -0.8211921 9.7114344 16711746
-0.2203483 -0.8204425 9.7758017 16711746
-0.2253755 -0.8209054 9.7139559 16711746
-0.1708355 -0.8348570 9.8303146 16711746
-0.4255799 -0.8159847 9.6837835 16711746
-0.0570435 -0.8226178 9.6798429 16711746
-0.2655856 -0.8198320 9.7670488 16711746
-0.3033631 -0.8250238 9.7718649 16711746
-0.0709656 -0.8354051 9.7406206 16711746
-0.3027458 -0.8219923 9.7404470 16711746
-0.5106496 -0.8044344 9.6545763 16711746
-0.5616573 -0.8035511 9.7160769 16711746
-0.0099380 -0.8323916 9.6232786 16711746
-0.3882191 -0.8208607 9.6806383 16711746
-0.1522259 -0.8273318 9.7061615 16711746
-0.0881797 -0.8086628 9.7156792 16711746
-0.0818245 -0.8484712 9.7438698 16711746
-0.3376417 -0.8293112 9.8165731 16711746
-0.7842561 -0.8368309 10.2021236 16711746
0.1100532 -0.8226274 9.7157736 16711746
-0.4522922 -0.8210889 9.7864580 16711746
0.0965012 -0.8240662 9.7842197 16711746
-0.4718966 -0.8180322 9.7227268 16711746
-0.3337727 -0.8249910 9.7431707 16711746
-0.1209045 -0.8357896 9.7452936 16711746
-0.1861933 -0.8416741 9.8915405 16711746
-1.1961789 -0.8045818 10.9625587 16711746
-1.6448499 -1.2515945 11.0271006 16711746
-0.2241600 -0.8258007 9.8675776 16711746
-0.2450620 -0.8702204 10.0769262 16711746
-0.4508735 -0.8221171 9.7832718 16711746
-0.0209546 -0.8504529 9.8756046 16711746
-0.0126842 -0.8455806 9.8929415 16711746
-0.4984680 -0.8150982 9.8285017 16711746
-0.3266104 -0.8198225 9.6977072 16711746
0.1816515 -0.9165951 10.0986557 16711746
-0.3279507 -0.8366256 9.8396025 16711746
0.0594733 -0.8703301 10.9179325 16711746
-0.4167561 -0.8130426 9.6417332 16711746
-0.2692840 -0.8254369 9.8058796 16711746
-0.4468815 -0.8178945 9.7322655 16711746
-0.0504780 -0.8282673 9.7318230 16711746
-0.3854341 -0.8254291 9.7878294 16711746
0.2701796 -0.8545154 10.0222721 16711746
-0.3358338 -0.8279041 9.8185368 16711746
-0.1161425 -0.8445374 9.7966194 16711746
-0.0726535 -0.8264858 9.7118196 16711746
-0.2884073 -0.8126448 9.6835241 16711746
0.2506633 -0.8519607 9.8830662 16711746
-0.4555480 -0.8100081 9.6914845 16711746
-0.1053645 -0.8251699 9.6883268 16711746
-0.1416140 -0.8573598 9.9463272 16711746
-0.2402684 -0.8300047 9.8769464 16711746
-0.6503835 -0.8335027 9.7579517 16711746
0.1727099 -0.8480139 10.2012968 16711746
-0.1468231 -0.9151874 10.0094471 16711746
-0.3006972 -0.8375658 9.8420420 16711746
-0.4881472 -0.8212780 9.7701054 16711746
-0.1558711 -0.8299676 9.8025188 16711746
-0.3897898 -0.8203783 9.7213039 16711746
0.1907853 -1.1479492 10.1242561 16711746
-0.7235872 -0.8061836 9.8696699 16711746
-0.0025721 -0.8269705 9.8244991 16711746
-0.1919716 -0.8211676 9.7130146 16711746
-0.4653312 -0.8192577 9.7599545 16711746
-0.7926334 -0.9723170 9.9976454 16711746
-0.5895151 -0.8112243 9.7589293 16711746
-0.6601013 -0.8230170 10.0674820 16711746
-0.9793440 -0.8158908 10.1676769 16711746
0.0218532 -0.8667245 10.2645950 16711746
-0.8168872 -0.8117161 9.9690094 16711746
-0.5232936 -0.8103999 9.7848253 16711746
-0.4294833 -0.8762074 9.9356108 16711746
-0.1115205 -0.8491710 9.7752419 16711746
-0.6116656 -0.7875322 9.7900906 16711746
-0.0648755 -0.8325282 9.7458754 16711746
0.7351932 -1.2358838 10.8180037 16711746
-0.3520139 -0.8394163 10.2164268 16711746
-0.2243222 -0.8321536 10.1714983 16711746
-0.5125471 -0.8034968 9.6566544 16711746
-0.0590330 -0.8258135 9.6773405 16711746
-0.2869264 -0.8518522 10.2869787 16711746
-0.3572159 -0.8270341 10.2803926 16711746
-0.4168143 -0.8544874 10.0822515 16711746
-0.4166790 -0.8250938 9.7647018 16711746
-0.1905430 -0.8676479 10.7432499 16711746
-0.3548606 -0.8447769 10.4375782 16711746
-0.9428759 -1.0801284 10.1611614 16711746
-0.3860236 -0.8421682 10.4538956 16711746
-0.2274537 -0.8130084 9.7148676 16711746
-0.5523903 -0.8012634 9.6787291 16711746
-0.5325494 -0.8080423 9.7091208 16711746
-0.3224593 -0.8201692 9.7091351 16711746
-0.3027752 -0.8197767 9.7450333 16711746
-0.8014029 -0.8163434 9.9307404 16711746
-0.2035995 -0.8502560 10.3036003 16711746
-2.0337372 -0.8319882 10.5011129 16711746
-0.1677324 -0.8379455 9.8150721 16711746
-0.5115472 -0.8030754 9.6568861 16711746
-0.3989173 -0.8250810 9.8400373 16711746
-1.7581469 -0.8605985 10.2690859 16711746
0.1056037 -0.8278303 9.7635307 16711746
-0.4473502 -0.8283728 9.9287958 16711746
-0.1785291 -0.8449123 9.8395710 16711746
-0.1018006 -0.8233841 9.6934328 16711746
-0.3748221 -0.8218293 9.7376337 16711746
-0.7657090 -1.0672423 10.1566973 16711746
-0.1828130 -0.9166620 10.0290117 16711746
-1.4238380 -1.0993690 10.4215555 16711746
4.7196317 -2.3730335 15.8280783 16711746
-0.5560448 -0.7917374 9.6571360 16711746
0.1370357 -0.8301211 9.9643393 16711746
-0.4885111 -0.7944670 9.6604919 16711746
-0.0640142 -0.8350347 9.7511044 16711746
-0.3714873 -0.8104721 9.6925716 16711746
-0.2635369 -0.8145971 9.6932478 16711746
-0.3963218 -0.8171278 9.6737537 16711746
-0.1694755 -0.8449340 9.9055490 16711746
-0.6200481 -0.7955255 9.6407089 16711746
-0.1616764 -0.8234597 9.7546425 16711746
0.1426109 -0.8672478 10.0240650 16711746
-0.2545421 -0.8089756 9.7251911 16711746
-0.3932240 -0.8648953 9.6910448 16711746
-0.2067880 -0.8217168 9.7840338 16711746
-0.0440501 -0.8254139 9.6444712 16711746
-0.9300489 -0.9115312 9.9011345 16711746
-0.6137872 -0.8077401 9.7196846 16711746
-0.6147760 -0.8056929 9.6942377 16711746
-0.1693546 -0.8221379 9.7226400 16711746
-0.2954021 -0.8214153 9.7420607 16711746
-0.4217195 -0.8499159 10.1143665 16711746
-0.5196044 -0.8026690 9.7134047 16711746
-0.2808600 -0.8389139 10.1382542 16711746
-0.2320641 -0.8717488 10.6518183 16711746
-1.2174656 -1.0352637 10.1309643 16711746
-1.4071290 -1.3899664 10.9677200 16711746
-0.5452564 -1.5456240 11.8245335 16711746
-0.2242189 -0.8254606 9.7224121 16711746
-0.0997633 -0.8219530 9.6661367 16711746
-0.0828843 -0.8263425 9.6918316 16711746
-0.5560274 -0.8124551 9.9228048 16711746
0.0221486 -0.8246747 9.7741814 16711746
-0.5930316 -0.8012717 9.6507292 16711746
-0.8011138 -0.8932732 9.9006672 16711746
-0.2078906 -0.8135071 9.7051315 16711746
-0.2522584 -0.8176473 9.7488527 16711746
-0.6817247 -0.8170787 9.7885332 16711746
-0.1776150 -0.8235180 9.6822052 16711746
-0.2361956 -0.8388504 9.8916779 16711746
-0.4065792 -0.8297123 9.8649387 16711746
-0.6012977 -0.8177044 9.5615711 16711746
-0.5944830 -0.8191615 9.9141684 16711746
0.0189593 -0.8275466 9.7702656 16711746
0.1061242 -0.8272921 9.7664080 16711746
-0.2814280 -0.8307668 10.0525036 16711746
-0.6875113 -1.1783775 10.1760616 16711746
-0.7202616 -0.8699286 10.2401648 16711746
0.9936760 -1.4953451 11.0552158 16711746
-0.0552458 -0.8130524 9.6695261 16711746
-0.1776867 -0.8256037 9.7544546 16711746
-0.2271821 -0.8207952 9.8151026 16711746
-0.5289949 -0.8088400 9.7403660 16711746
-0.4320950 -0.8170817 9.7501545 16711746
-0.3635603 -0.8225304 9.7592354 16711746
-0.6146075 -0.8061033 9.7217588 16711746
-0.6007916 -0.8033603 9.7713680 16711746
-0.1178402 -0.8442307 9.8289928 16711746
-0.1356418 -0.8235555 9.6966267 16711746
-0.2939911 -0.8275869 9.8903189 16711746
-0.3885405 -0.8140625 9.7349520 16711746
-0.2283088 -0.8240811 9.8094482 16711746
-0.0908721 -0.8326535 9.7147217 16711746
-0.4909417 -0.8120087 9.6773882 16711746
-0.5235684 -0.8108487 9.7839479 16711746
0.2513902 -0.8584566 10.0052662 16711746
-0.1217916 -0.8342897 9.7470036 16711746
-0.1152207 -0.8423832 9.7833853 16711746
-0.0346118 -0.8377252 9.8476582 16711746
-0.1139118 -0.8428822 9.8002710 16711746
-0.3082474 -0.8230520 9.7749548 16711746
-0.2523666 -0.8316222 9.7551947 16711746
-0.0932082 -0.8497063 9.7858248 16711746
-0.3415403 -0.7938271 9.8902302 16711746
-0.7339709 -0.8136903 9.7289572 16711746
-0.6353573 -0.8101374 9.7249956 16711746
-0.2231473 -0.8212277 9.7345409 16711746
-0.0192309 -0.7979201 9.8051968 16711746
-0.4982275 -1.0310689 9.6224852 16711746
-0.5153809 -0.7983702 9.6624365 16711746
-0.1013178 -0.8208334 9.7823086 16711746
-0.6725143 -0.7885481 9.7585497 16711746
-0.4574430 -0.7996817 9.6813717 16711746
-0.8024885 -0.8161385 9.9315691 16711746
-0.2774847 -0.8260443 9.9466267 16711746
-0.1040002 -0.8143278 9.6624260 16711746
-0.6345036 -0.7856144 9.7339821 16711746
-0.4840473 -0.8182622 9.7364111 16711746
-1.1863074 -1.2635082 10.0758924 16711746
-0.2327981 -0.8227434 9.7892990 16711746
-1.0033827 -1.1967828 10.1015749 16711746
-0.0457014 -0.8339164 9.8494673 16711746
-0.8530487 -1.1247178 9.8714676 16711746
-0.4858962 -0.9057645 9.8838291 16711746
-1.0897317 -1.2340517 10.0001621 16711746
-1.0069382 -0.9960502 9.9937878 16711746
-0.1017452 -0.8229865 9.6923838 16711746
-0.3659936 -0.8224000 9.6983919 16711746
-0.1909959 -0.8280921 9.8327570 16711746
-0.3999405 -0.8358455 10.0145826 16711746
0.1017554 -0.8277912 9.7625875 16711746
-0.1307313 -0.8468081 9.9829607 16711746
-0.1450469 -0.8353625 9.9119072 16711746
-0.5839506 -0.8050220 9.7120056 16711746
0.0802550 -0.8326010 9.7657270 16711746
0.2734796 -0.8894001 10.1534157 16711746
-0.0531606 -0.8263104 9.7188950 16711746
-0.3402128 -0.8257408 9.7611876 16711746
-0.3915029 -0.8224126 9.7565060 16711746
-0.3959891 -0.8131341 9.7284279 16711746
0.4060753 -0.8370306 10.2899437 16711746
-0.2622921 -0.8172262 10.0632200 16711746
-0.2035188 -0.8183593 9.7464018 16711746
-0.3929923 -0.8144487 9.7108908 16711746
-0.0902052 -0.8256283 9.6815052 16711746
-0.6189076 -0.8048743 9.6974401 16711746
-1.0035217 -0.9401432 9.8113222 16711746
-0.8696372 -0.8787947 10.3927946 16711746
-0.8939947 -1.3479897 10.5117893 16711746
-0.1925919 -0.8283179 9.8370914 16711746
-1.0878884 -1.4650165 10.8537273 16711746
-0.7760204 -0.8468381 10.1305094 16711746
-0.5362277 -0.8287774 10.2698660 16711746
-0.2840287 -0.8338358 10.1920414 16711746
-0.7266417 -0.8125048 9.7178497 16711746
-0.4939854 -0.8481266 10.3408403 16711746
-0.2007546 -0.9122537 10.6206169 16711746
0.1009238 -0.8808182 10.2328291 16711746
-0.2615306 -0.8302730 10.7601633 16711746
-1.7779552 -1.4818132 11.2815475 16711746
-1.8642507 -1.4310919 11.4335871 16711746
-1.9434097 -1.4370910 11.5561209 16711746
-0.4340203 -0.8689470 10.7031250 16711746
0.1844721 -0.8973881 10.1987057 16711746
0.1914366 -0.8955459 10.1959734 16711746
-0.0773540 -0.8207508 9.6523151 16711746
-0.1157546 -0.8346378 9.7163477 16711746
-0.3873078 -0.8158436 9.7316542 16711746
-0.1770921 -0.8212442 9.7815084 16711746
-0.2125979 -0.8180310 9.7290373 16711746
-0.5482814 -0.7977302 9.6502075 16711746
-0.1572100 -0.8498871 9.7640743 16711746
-0.0648834 -0.8753986 9.8054066 16711746
-0.1514143 -0.8105116 9.7165899 16711746
-0.3854881 -0.8246778 9.8112335 16711746
-0.3238411 -0.8207440 9.7067852 16711746
-0.1227815 -0.8867388 9.7735739 16711746
-0.6005283 -0.8334363 9.6238518 16711746
-0.5730736 -0.8208908 9.7668829 16711746
-0.1574138 -0.8202961 9.7399826 16711746
-0.5185285 -0.8245282 9.8090210 16711746
-0.6301989 -0.7890896 9.6897726 16711746
-0.5422346 -0.7539048 9.8414326 16711746
-0.7097644 -0.8195474 9.6985598 16711746
-0.2357035 -0.8209090 9.8334103 16711746
-0.0569505 -0.8640580 9.9639997 16711746
0.2151169 -0.8493555 10.5969143 16711746
-0.7123163 -0.8620779 10.0820045 16711746
-0.2830948 -0.8247995 9.8669186 16711746
-0.6204349 -0.8166841 9.8479853 16711746
-0.1461368 -0.8142788 9.6775084 16711746
-0.2192584 -0.8274805 9.8603544 16711746
0.2152324 -0.8477176 10.6109285 16711746
-0.0238185 -0.8289363 9.7743530 16711746
-0.5189151 -0.8345889 9.8347397 16711746
-0.7462190 -0.8255091 9.9528942 16711746
0.1980504 -0.8488281 10.0104246 16711746
-0.5312113 -0.8332377 10.2500563 16711746
-0.0848214 -0.8817073 11.0547447 16711746
-0.1823681 -0.8558736 9.9207640 16711746
-0.1621734 -0.8245420 9.7518864 16711746
-0.4553005 -0.8195511 9.7203274 16711746
-0.1816979 -0.8471037 10.0615635 16711746
-0.2155099 -0.8196574 9.7826786 16711746
-0.6765414 -0.8592904 10.0081997 16711746
-0.5947241 -0.8126731 9.8129454 16711746
-0.6981611 -0.8522068 10.0426350 16711746
-0.3525075 -0.8196537 9.8855877 16711746
-0.1533844 -0.8605020 10.1482658 16711746
0.1145128 -0.8448135 9.8755083 16711746
-0.6349809 -0.8400163 9.9510498 16711746
-0.5675564 -0.7887955 9.6925058 16711746
-0.2416838 -0.8368658 9.7982168 16711746
-0.5140010 -0.8875014 9.9515333 16711746
-0.5702821 -0.8519803 10.3573895 16711746
-1.5895694 -0.9123179 10.4389362 16711746
-0.5423500 -0.8095577 9.7037868 16711746
-0.5774043 -0.8112191 9.6804771 16711746
-0.3047502 -0.8154101 9.7475510 16711746
-0.2776397 -0.8279346 9.7269239 16711746
-0.4627938 -0.8087120 9.8068438 16711746
-0.3789538 -0.8152849 9.8299980 16711746
-0.6753817 -0.8216109 9.8150005 16711746
-0.4581424 -0.8147439 9.7965727 16711746
-0.4952890 -0.8077702 9.6819239 16711746
-0.6265804 -0.8098285 9.7695761 16711746
-0.5936207 -0.8184873 9.6770420 16711746
-0.4219189 -0.8115372 9.8643808 16711746
-0.5613358 -0.8028763 9.7171030 16711746
-0.1283900 -0.8821748 9.7079144 16711746
-0.2186664 -0.8350558 10.1215458 16711746
-0.4347532 -0.8158620 9.7104559 16711746
-0.1824674 -0.8531596 9.9265690 16711746
-0.1788865 -0.8494982 9.9407625 16711746
0.4527891 -0.8685781 10.2039070 16711746
-1.5138808 -0.8207721 10.3699379 16711746
-0.4056943 -0.8390063 9.8053741 16711746
0.0336206 -0.9693407 10.1667614 16711746
-0.2890447 -0.8174078 9.7766886 16711746
-0.7555929 -0.8653804 10.3099566 16711746
-0.2215977 -0.8294190 9.8564873 16711746
-0.0252791 -0.8397050 9.8104057 16711746
-0.3567893 -0.8278188 9.7835417 16711746
-0.3270376 -0.8228039 9.7369003 16711746
-0.9428266 -0.8612788 10.3981371 16711746
-0.3255368 -0.8288285 9.8660774 16711746
-0.4856361 -1.0301830 9.6660337 16711746
-0.5520590 -0.8058948 9.7258263 16711746
-0.3532926 -0.8148718 9.8943291 16711746
-0.6982186 -0.8057863 10.1221952 16711746
-0.3918249 -0.8182712 9.7048931 16711746
-0.2346016 -0.8192532 9.8341045 16711746
-0.3265826 -0.8189566 9.7439156 16711746
-0.3996565 -0.8158141 9.7591219 16711746
-0.2244941 -0.8180441 9.7801399 16711746
-0.6152397 -0.8053420 9.9480820 16711746
0.0469535 -0.8738530 9.8917227 16711746
-0.1682746 -0.8361107 9.7865152 16711746
-0.2349647 -0.8365892 9.8958941 16711746
-0.2506335 -0.8221653 9.7689276 16711746
-0.6488182 -0.8393279 9.7907352 16711746
