# .PCD v.7 - Point Cloud Data file format
VERSION .7
FIELDS x y z rgb
SIZE 4 4 4 4
TYPE F F F F
COUNT 1 1 1 1
WIDTH 129
HEIGHT 1
VIEWPOINT 0 0 0 1 0 0 0
POINTS 129
DATA ascii

 0.0515781 -0.0499147 -0.0770787 16777215
 0.0557826 -0.0473486 -0.0781716 16777215
 0.0641990 -0.0449163 -0.0813310 16777215
 0.0622371 -0.0431671 -0.0813922 16777215
 0.0624874 -0.0428387 -0.0815504 16777215
 0.0593123 -0.0429161 -0.0800345 16777215
 0.0556629 -0.0430713 -0.0784250 16777215
 0.0537679 -0.0447576 -0.0788733 16777215
 0.0420932 -0.0500363 -0.0742900 16777215
 0.0368640 -0.0514585 -0.0729138 16777215
 0.0289634 -0.0537701 -0.0696923 16777215
 0.0267452 -0.0571669 -0.0699982 16777215
 0.0303828 -0.0572649 -0.0701630 16777215
 0.0415369 -0.0558989 -0.0721404 16777215
 0.0501933 -0.0593177 -0.0753556 16777215
 0.0528101 -0.0636402 -0.0743209 16777215
 0.0407670 -0.0778307 -0.0654334 16777215
 0.0338748 -0.1024537 -0.0546087 16777215
 0.0579726 -0.1174725 -0.0440439 16777215
 0.1104517 -0.1164908 -0.0088653 16777215
 0.1200792 -0.1308019 0.0331221 16777215
 0.1357061 -0.1454157 0.0849005 16777215
 0.1464457 -0.1627226 0.1141872 16777215
 0.1706938 -0.1700570 0.1880520 16777215
 0.1842002 -0.1765220 0.2415333 16777215
 0.2435184 -0.1664337 0.3219202 16777215
 0.2693345 -0.1594911 0.4091144 16777215
 0.3133845 -0.1709749 0.4777353 16777215
 0.3431821 -0.1996838 0.5273700 16777215
 0.3964026 -0.2157196 0.6015217 16777215
 0.3995978 -0.2591406 0.6887770 16777215
 0.4103230 -0.2968718 0.7419016 16777215
 0.4982753 -0.3297618 0.8120326 16777215
 0.4792022 -0.3572459 0.8855011 16777215
 0.5145332 -0.3859679 0.9425101 16777215
 0.5647759 -0.4063754 1.0020517 16777215
 0.6029866 -0.4426217 1.0756559 16777215
 0.6308765 -0.4599105 1.1430651 16777215
 0.6918088 -0.4614517 1.2017415 16777215
 0.7188619 -0.5157193 1.2702485 16777215
 0.7210943 -0.5198098 1.3167346 16777215
 0.7571532 -0.5407358 1.3509387 16777215
 0.8052508 -0.5470354 1.4065946 16777215
 0.7967472 -0.5440246 1.4914114 16777215
 0.8325430 -0.5821677 1.5400896 16777215
 0.8918548 -0.5579677 1.5997849 16777215
 0.9265310 -0.5524253 1.6620193 16777215
 0.9344457 -0.5940866 1.7381108 16777215
 0.9787598 -0.5937843 1.8126502 16777215
 1.0266277 -0.5859172 1.8737774 16777215
 1.0480133 -0.5981166 1.9360076 16777215
 1.0405637 -0.6322619 1.9860573 16777215
 1.0766109 -0.6477020 2.0652761 16777215
 1.1010340 -0.6388746 2.1405544 16777215
 1.1220474 -0.6737909 2.1964960 16777215
 1.1358442 -0.6914977 2.2553554 16777215
 1.1548585 -0.6916564 2.3289449 16777215
 1.1934636 -0.7134138 2.3651652 16777215
 1.2091990 -0.7165990 2.4234443 16777215
 1.2142462 -0.7263218 2.4818161 16777215
 1.2158165 -0.7457008 2.5466959 16777215
 1.2397635 -0.7596264 2.5793786 16777215
 1.2541237 -0.7538555 2.6324594 16777215
 1.2681162 -0.7778800 2.6638942 16777215
 1.2663302 -0.7953922 2.7012815 16777215
 1.2969199 -0.7764159 2.7718737 16777215
 1.2739801 -0.7802140 2.8079686 16777215
 1.2758747 -0.8121794 2.8786993 16777215
 1.2753699 -0.7866470 2.9149404 16777215
 1.2792317 -0.6800336 2.9935825 16777215
 1.2710862 -0.7057074 3.0387266 16777215
 1.2970846 -0.7472509 3.0882659 16777215
 1.2657769 -0.7260051 3.1585815 16777215
 1.2702292 -0.7379344 3.2176728 16777215
 1.2959917 -0.7473031 3.2866805 16777215
 1.2897787 -0.7678404 3.3239331 16777215
 1.2130202 -0.8065976 3.3919339 16777215
 1.2916209 -0.8384479 3.4221983 16777215
 1.3262286 -0.8562577 3.4692142 16777215
 1.3320931 -0.8575555 3.5125704 16777215
 1.3773414 -0.8685324 3.5578725 16777215
 1.3916612 -0.8663261 3.5952151 16777215
 1.4082626 -0.8949002 3.6381030 16777215
 1.4055512 -0.9294796 3.6558499 16777215
 1.4173248 -0.9451510 3.6950338 16777215
 1.4671229 -0.9441848 3.7439098 16777215
 1.4796474 -0.9640720 3.7740092 16777215
 1.4792758 -0.9927988 3.8275151 16777215
 1.4891547 -1.0024186 3.8479571 16777215
 1.5037522 -0.9457874 3.8929563 16777215
 1.5370770 -0.9626902 3.9111950 16777215
 1.5573138 -0.9648263 3.9453430 16777215
 1.5622169 -0.9729091 3.9799972 16777215
 1.5827631 -0.9767263 4.0105133 16777215
 1.5984211 -0.9363112 4.0513630 16777215
 1.6267394 -0.9367043 4.0786190 16777215
 1.5992699 -0.9819098 4.1124625 16777215
 1.6087754 -0.9753487 4.1417556 16777215
 1.6471555 -0.9599687 4.1636815 16777215
 1.6050438 -0.9489883 4.1841078 16777215
 1.5690376 -0.9520619 4.2070255 16777215
 1.5106075 -0.9223523 4.2598267 16777215
 1.5685331 -0.9276825 4.2596149 16777215
 1.5801885 -0.9580994 4.2940187 16777215
 1.5456467 -0.9930731 4.3131380 16777215
 1.5635529 -1.0011095 4.3414354 16777215
 1.5398183 -1.0260465 4.4090767 16777215
 1.5520792 -1.0491081 4.4456587 16777215
 1.5798116 -1.0073428 4.4780202 16777215
 1.6086425 -1.0074140 4.5207853 16777215
 1.6137389 -1.0028790 4.5635834 16777215
 1.6260619 -1.0107801 4.6309361 16777215
 1.6378682 -0.9915705 4.7009249 16777215
 1.6407336 -1.0010829 4.7465620 16777215
 1.6491507 -1.0196067 4.7862558 16777215
 1.6607624 -1.0333905 4.8199654 16777215
 1.6614536 -1.0369995 4.8432422 16777215
 1.6748126 -1.0400511 4.8793917 16777215
 1.6938972 -1.0335920 4.9093800 16777215
 1.7018517 -1.0449991 4.9614220 16777215
 1.7121062 -1.0661194 4.9845753 16777215
 1.7043908 -1.0487278 5.0233436 16777215
 1.7374121 -1.0743119 5.0514307 16777215
 1.7574871 -1.0797243 5.0781455 16777215
 1.7708890 -1.0901822 5.1001534 16777215
 1.7669144 -1.0887095 5.1210537 16777215
 1.7986476 -1.0751107 5.1505957 16777215
 1.7920628 -1.0940876 5.1732960 16777215
 1.7934319 -1.0957848 5.2041321 16777215
