# .PCD v.7 - Point Cloud Data file format
VERSION .7
FIELDS x y z rgb
SIZE 4 4 4 4
TYPE F F F F
COUNT 1 1 1 1
WIDTH 142
HEIGHT 1
VIEWPOINT 0 0 0 1 0 0 0
POINTS 142
DATA ascii

0.8827325 -0.7597903 0.5833051 16711746
0.3857476 -0.6381961 1.1959602 16711746
0.4533010 -0.6972176 1.4344517 16711746
0.4346750 -0.7052460 1.3924286 16711746
1.3605336 -0.9270854 0.7650618 16711746
0.1738684 -0.7352082 1.1069485 16711746
0.3796326 -1.0994354 1.2895821 16711746
0.3164675 -0.8618145 0.6483512 16711746
0.3481920 -1.0220168 1.0169761 16711746
0.7612445 -0.5498093 1.1022999 16711746
0.5073087 -0.5354903 0.8181849 16711746
0.0953099 0.8706031 -0.0609955 16711746
0.1806418 0.9380614 -0.0348944 16711746
0.2653148 1.1244286 -0.0392007 16711746
0.2023675 1.0230815 -0.0746178 16711746
0.1672269 0.9574550 -0.0467504 16711746
0.2878798 1.1471307 -0.0638101 16711746
0.1909254 0.9359840 -0.0127918 16711746
0.1928702 -1.0695565 1.2986336 16711746
0.8737174 -0.6386246 1.3131622 16711746
0.7097117 -0.6598552 0.8688353 16711746
1.0346996 -0.8733711 1.1893716 16711746
0.4522949 -0.7825536 1.1134598 16711746
0.4488268 -0.6786094 0.9852795 16711746
0.3649008 -0.6500495 1.0729653 16711746
1.0082672 -0.5963216 0.4934261 16711746
0.1494485 -0.5413356 1.4240053 16711746
0.0986613 -0.4529630 1.6340281 16711746
0.0813841 -0.4650547 1.5973110 16711746
0.2165185 0.9886501 0.0120676 16711746
0.1894078 1.0578601 -0.1244656 16711746
0.8522767 -0.4301742 1.5873665 16711746
-0.2263592 -0.5518166 1.3710220 16711746
-0.2116445 -0.6314811 1.4764761 16711746
0.3561253 -0.9328940 1.3649269 16711746
0.7400604 -1.0594292 1.0239482 16711746
0.4941403 -0.5262116 1.1989750 16711746
0.5055350 -0.5274599 1.6398185 16711746
0.3000575 -0.5081763 1.1342636 16711746
0.4963336 -0.4786952 1.3024057 16711746
0.6419508 -0.5064644 1.4277776 16711746
0.0534458 -0.5260758 1.2684152 16711746
0.1925798 -0.5291592 1.3396562 16711746
0.1323141 -0.5476949 1.5307195 16711746
0.3308549 -0.5321606 1.6559943 16711746
-0.4147683 -0.8476278 0.8677631 16711746
-0.1827466 -0.9667123 0.9212686 16711746
-0.0772198 -0.7888775 1.4559913 16711746
-0.0923210 -0.6980861 0.7848136 16711746
0.2409997 1.0769409 -0.0092112 16711746
0.2432371 1.4805100 0.0840982 16711746
0.3911757 -0.4747526 1.3365223 16711746
0.2787181 -0.4775198 1.3271426 16711746
0.3494681 -0.4845056 1.0210106 16711746
0.4331126 -0.4677885 1.2408332 16711746
0.3419753 -0.4936759 1.0020285 16711746
0.0537478 0.8426567 0.2796795 16711746
0.1212891 0.9610936 0.2803746 16711746
0.3817828 -0.5176789 1.0959698 16711746
0.8670952 -0.5215527 0.6657005 16711746
0.1763433 -0.7293466 0.9465244 16711746
0.9473273 -0.4648421 0.8582919 16711746
1.1020561 -1.0299361 1.0034504 16711746
1.0689836 -1.0426084 1.0493954 16711746
-0.3091091 -0.7829737 1.1525680 16711746
-0.5655951 -0.6588893 1.1725469 16711746
0.3607423 -0.6505515 1.1084232 16711746
0.3415634 -0.6609606 1.1257561 16711746
0.2781735 -0.6700272 0.8659974 16711746
0.7253951 -1.0667104 1.0922157 16711746
0.8588602 -0.8775590 0.9651945 16711746
0.4466552 -0.5705656 1.0487572 16711746
0.5271960 -0.5752691 1.0460800 16711746
0.6002602 -0.5976870 1.1717252 16711746
0.6783714 -0.5458629 1.0473473 16711746
0.9645559 -0.5902926 0.7906673 16711746
0.4146774 -0.5686260 1.4318233 16711746
0.4686210 -0.5997043 1.6233028 16711746
0.1967611 -0.9813508 1.1233208 16711746
0.4443597 -1.0003833 1.0702212 16711746
0.5039755 -0.9891589 0.9944734 16711746
0.8108039 -0.9502003 1.3675680 16711746
0.5811507 -1.1074988 1.2027352 16711746
0.3805685 -0.6399410 1.1365798 16711746
1.2562227 -0.7954873 0.9094328 16711746
0.4179451 -0.5739205 1.1025498 16711746
0.1047330 -0.5104553 1.2715577 16711746
0.1772830 -0.4575993 1.3618562 16711746
0.0609306 -0.6453184 1.0533512 16711746
0.4950597 -0.5121320 1.3328599 16711746
0.7040934 -0.8195413 0.5734553 16711746
0.3426740 -0.6701454 0.9573587 16711746
0.4402348 -0.7873462 1.2236456 16711746
0.6576880 -0.5875959 1.4583331 16711746
0.4523769 -0.5384463 1.2642685 16711746
0.3756170 -0.5445981 1.1301343 16711746
0.8046681 -0.8167949 1.4042195 16711746
0.4125136 -0.6967130 0.8820963 16711746
0.8729794 -0.7974392 0.8424746 16711746
0.9286906 -0.7177405 0.5906918 16711746
-0.5005680 -0.6529243 1.0262349 16711746
0.4306952 -0.6264091 1.0628858 16711746
1.0808694 -0.6151974 1.1066175 16711746
0.7775930 -0.5724879 0.9201173 16711746
0.6247055 -0.5741498 1.2182906 16711746
0.7145585 -0.5974141 0.8113642 16711746
0.4689948 -0.5286470 1.2852062 16711746
0.3318222 -0.5424237 1.2348404 16711746
0.1451140 -0.5778034 1.1643630 16711746
0.1269683 -0.5949447 1.3396308 16711746
0.7431404 -0.4729168 0.7756481 16711746
0.5609930 -0.4774760 0.9603691 16711746
0.7893477 -0.4856131 1.2801481 16711746
0.4281702 -0.5028316 0.8750672 16711746
0.8936136 -0.5291226 0.8211240 16711746
0.7169397 -0.4897616 0.7284858 16711746
0.2609827 -0.9642515 1.2306994 16711746
0.3406170 -0.6664410 0.9939668 16711746
0.1622623 -0.6070614 1.1298851 16711746
0.5992584 -0.6120058 1.3342346 16711746
0.5884374 -0.5585870 0.9472912 16711746
-0.3133827 -0.7181683 1.0126801 16711746
0.4073872 -0.6577211 0.9189708 16711746
0.1577723 -0.5436360 1.3413799 16711746
0.4220907 -0.8414082 0.7624050 16711746
0.1522320 -0.9896978 0.9917768 16711746
0.5443476 -0.6307216 1.1724668 16711746
0.6150602 -0.6774993 1.1600884 16711746
0.3642792 -0.8059316 1.5858852 16711746
0.2345660 -0.7097828 1.0384275 16711746
0.7927494 -0.5649412 0.6810376 16711746
0.8110706 -0.5373347 0.7457927 16711746
0.9223765 -0.6048369 0.7481940 16711746
0.2387026 -0.5825834 1.4503335 16711746
0.7563257 -0.6385668 0.7600921 16711746
-0.2656403 -0.6155798 1.0993799 16711746
0.2733591 -0.7595853 1.4457660 16711746
0.4469978 -0.7870933 0.6959207 16711746
-0.1098131 -0.7511020 0.9624698 16711746
0.4217366 -0.6349008 1.2595911 16711746
0.4646826 -0.6882669 1.6367910 16711746
0.6751651 -0.8742442 0.9156035 16711746
