# .PCD v.7 - Point Cloud Data file format
VERSION .7
FIELDS x y z rgb
SIZE 4 4 4 4
TYPE F F F F
COUNT 1 1 1 1
WIDTH 195
HEIGHT 1
VIEWPOINT 0 0 0 1 0 0 0
POINTS 195
DATA ascii

0.3732182 -1.3410335 0.3651849 16711746
0.3106023 -1.3050606 1.0384645 16711746
0.7761808 -2.0294204 1.2264912 16711746
0.8673405 -2.3531966 0.7801160 16711746
0.4846172 -1.3077184 0.4392932 16711746
0.2898583 -0.7774115 0.3594793 16711746
-0.1212657 -1.2146374 0.2637761 16711746
-0.2716031 -0.7303269 0.1365371 16711746
-0.1764320 -1.0522490 0.2423093 16711746
-0.1664221 -0.7364519 0.1634164 16711746
-0.0152744 -0.4851300 0.0930387 16711746
-0.0123781 -0.5753263 0.0747259 16711746
0.0558002 -0.5192901 0.1002672 16711746
0.4067546 -0.7663826 0.2153966 16711746
0.3245839 -0.6619391 0.1939075 16711746
0.7795749 -0.5339110 0.3566435 16711746
0.3554780 -0.8795552 0.2238332 16711746
0.2150598 -0.4806810 0.1504694 16711746
-0.5166607 -1.3733962 0.4206352 16711746
-0.6672333 -1.5289452 0.4425909 16711746
-0.8539736 -1.9698765 1.1056966 16711746
-1.4533880 -2.8294809 1.9610929 16711746
0.4892156 -1.1204209 0.3003117 16711746
0.2744431 -1.2763504 0.2724394 16711746
0.1717309 -0.5437529 0.1465207 16711746
0.1863185 -0.7948916 0.2511976 16711746
0.5308009 -0.5528708 0.3084164 16711746
1.0570962 -0.7737859 0.3492555 16711746
0.5048993 -0.5058861 0.2117500 16711746
0.9005378 -0.7915167 0.3727772 16711746
-0.6011383 -0.8980544 0.1641552 16711746
-0.3142573 -0.6599113 0.1262133 16711746
-0.9176990 -1.3953937 0.2581320 16711746
-0.4826896 -0.8404620 0.1858583 16711746
0.6473878 -1.3219242 0.7301942 16711746
-0.1331190 -2.1988425 1.0065287 16711746
-0.0637329 -1.0067562 0.4899085 16711746
-0.4411844 -0.9378556 0.2200070 16711746
-0.1293098 -0.9044971 0.1319555 16711746
-0.1845666 -1.1980703 0.5945616 16711746
-1.8411294 -3.2778399 2.7448461 16711746
-1.1910897 -2.0208890 1.6744248 16711746
0.2513554 -0.4781698 0.2089762 16711746
0.2987084 -0.5515729 0.2182373 16711746
0.5839884 -0.8297989 0.3892939 16711746
0.5253155 -0.7250399 0.3413025 16711746
-0.4774867 -1.1443880 0.2490290 16711746
-1.8028238 -3.4931252 2.7554052 16711746
-1.3502856 -2.4315209 1.8421235 16711746
0.1578718 -0.8024439 0.4984149 16711746
0.7838780 -0.9218742 0.5883421 16711746
0.4694557 -0.5878850 0.3950363 16711746
-0.3148482 -1.2276832 0.5081221 16711746
0.4324186 -0.6326311 0.3081873 16711746
-1.1299404 -1.1902525 0.4394963 16711746
0.2147081 -0.5670499 0.1715120 16711746
-0.0492940 -0.6551888 0.2161209 16711746
-0.1220163 -0.9077952 0.2707534 16711746
0.2171424 -0.6307424 0.1272674 16711746
0.7558883 -1.1915848 0.7213597 16711746
2.3755972 -2.9079163 1.3943027 16711746
0.6918098 -0.8952119 0.4867213 16711746
0.4292181 -0.7151653 0.4004403 16711746
0.3619543 -0.4112884 0.1818880 16711746
0.4614488 -0.5223308 0.1966266 16711746
0.3686448 -0.5438408 0.3522129 16711746
0.1941711 -0.7452963 0.2575906 16711746
-0.6277457 -1.6896368 0.6754602 16711746
-0.3788723 -1.3161721 0.5750614 16711746
-0.5867463 -1.7186047 0.9262403 16711746
-0.4110554 -1.8858204 0.9877765 16711746
-0.2773659 -1.3343366 0.6668856 16711746
-0.1139158 -0.8395517 0.3057139 16711746
-0.0326249 -1.0412484 0.4326538 16711746
-0.4691999 -2.8001771 0.9641264 16711746
-0.1312704 -0.8955380 0.3126105 16711746
1.1041770 -0.9016277 0.6763974 16711746
0.6256151 -0.8435333 0.5105401 16711746
0.6892708 -0.9934261 0.5599478 16711746
0.5943009 -0.6462891 0.2503372 16711746
0.3731744 -0.3802604 0.0736684 16711746
-3.3754661 -3.8398955 3.1666541 16711746
0.6964966 -0.6845136 0.3483806 16711746
0.4148960 -2.0496809 0.9651312 16711746
0.2995284 -0.7369652 0.3638952 16711746
0.7445543 -2.2246685 0.9205449 16711746
0.7682611 -0.8634635 0.0282791 16711746
0.2002966 -1.1845541 0.6468651 16711746
0.3885405 -1.3350251 0.6693051 16711746
0.3520249 -1.2145056 0.7032430 16711746
0.3361754 -0.9236552 0.5048569 16711746
0.2520753 -0.9212865 0.5197321 16711746
0.3994864 -0.7328936 0.2849498 16711746
0.3879659 -0.7847971 0.3620017 16711746
0.3125012 -1.3221743 0.5240973 16711746
0.1766101 -0.4890301 0.1375316 16711746
0.0658086 -0.8141504 0.1335876 16711746
-0.4929248 -1.5349427 0.8634034 16711746
0.3112546 -0.8418084 0.3619381 16711746
0.3179933 -0.9077605 0.3652144 16711746
-0.3171467 -1.5196227 0.6726068 16711746
0.2805972 -0.6635445 0.3475140 16711746
0.5475636 -1.2138284 0.5432333 16711746
0.2535948 -1.9273645 1.1639435 16711746
0.3072731 -0.6753742 0.2867504 16711746
0.2452325 -0.5394017 0.2409280 16711746
0.3143267 -0.7182578 0.2778975 16711746
-0.3563884 -1.0006516 0.2737387 16711746
0.5082523 -0.6697716 0.2832833 16711746
1.1812840 -1.8020458 0.6642099 16711746
1.0774039 -1.5741590 0.5594130 16711746
0.7944572 -0.7151374 0.4655116 16711746
0.2465493 -0.5019243 0.2097353 16711746
0.7325279 -0.9714186 0.4736893 16711746
-0.3952032 -0.9994009 0.4755307 16711746
0.6934854 -1.3517586 0.2919436 16711746
0.2554542 -0.5210484 0.1587346 16711746
-0.0501509 -1.3584019 0.3293538 16711746
-0.0168916 -0.7623579 0.2109750 16711746
0.5945591 -1.2282872 0.4793198 16711746
0.1831191 -2.0020771 1.3265930 16711746
0.0884408 -0.3442974 0.0985117 16711746
0.0262077 -0.5848284 0.1062852 16711746
0.0563007 -0.3660346 0.0881557 16711746
-0.0247528 -0.4959984 0.1264635 16711746
-0.7881531 -1.1089159 0.3115408 16711746
-0.9398984 -1.1549569 0.3003445 16711746
-0.5184087 -0.9758013 0.4030156 16711746
-0.6836959 -1.0872040 0.4042265 16711746
-0.0388177 -0.6490409 0.3329486 16711746
1.1267328 -1.5881525 1.0077746 16711746
0.3355517 -0.6578709 0.4147334 16711746
0.6972450 -1.5754648 0.9105530 16711746
-1.1077867 -2.0065939 0.4536180 16711746
0.5416844 -1.8505421 0.6802503 16711746
0.4849211 -0.5737502 0.1925772 16711746
0.6744622 -0.7765254 0.2021865 16711746
0.2146278 -0.5462673 0.1798105 16711746
0.0783651 -0.4561660 0.1100761 16711746
0.2155857 -0.6554146 0.1444683 16711746
0.2153108 -0.7150632 0.1281161 16711746
0.6461602 -0.9057333 0.5664525 16711746
0.2515306 -1.3315690 0.6247553 16711746
0.5947385 -1.6286753 0.8065316 16711746
-0.4690332 -1.0736547 0.2781576 16711746
0.2318333 -0.8989640 0.3421530 16711746
0.2361874 -0.8634095 0.3258408 16711746
-0.1146350 -1.4962689 0.4045461 16711746
-0.8480282 -1.9483501 0.3926011 16711746
-0.4053159 -1.0929005 0.2475998 16711746
0.4448006 -1.0013497 0.8281553 16711746
0.8191264 -1.3896700 0.8846920 16711746
0.2383456 -0.8233449 0.5341793 16711746
-1.5647573 -2.6221967 1.8565243 16711746
-2.5774572 -4.0836768 3.3475227 16711746
-0.8517796 -1.3970293 0.8906913 16711746
-1.5407550 -3.2274337 2.5258319 16711746
0.4795820 -0.8328533 0.3219499 16711746
0.3208106 -0.6490400 0.2157501 16711746
0.2183989 -1.6184338 1.1022753 16711746
0.2278354 -1.7618324 1.1437407 16711746
0.1511686 -0.3807625 0.0884493 16711746
0.0422456 -1.0254810 0.3031980 16711746
-0.3187414 -1.2697322 0.4976861 16711746
0.1462231 -0.4441002 0.0943535 16711746
0.2649711 -0.9355687 0.2601794 16711746
-0.3357888 -1.0028095 0.2619443 16711746
-0.1328277 -0.9346045 0.2921888 16711746
0.4670330 -0.5677844 0.2422733 16711746
-0.2042601 -1.6977046 0.7745816 16711746
0.0168657 -0.6692308 0.2143786 16711746
0.0504278 -1.0563725 0.2713409 16711746
0.5673847 -1.6820341 0.9313618 16711746
0.2395487 -1.0989841 0.5953217 16711746
0.4774143 -0.4469629 0.2671697 16711746
0.6286958 -0.5764811 0.3084963 16711746
-0.1548011 -0.9847857 0.4420182 16711746
-0.2541139 -1.1302532 0.4879218 16711746
0.5246255 -1.3035159 0.7148786 16711746
0.3211160 -2.2587647 1.2451904 16711746
0.3435567 -2.2379980 1.1922295 16711746
0.1523709 -1.9156744 1.3491143 16711746
-0.2715993 -1.9510148 0.8310613 16711746
-0.2359032 -1.9183506 0.7910686 16711746
-0.1208058 -0.9322677 0.4242403 16711746
-0.1621071 -1.1382687 0.5816010 16711746
-0.5754359 -1.5226902 0.4011818 16711746
0.4288011 -0.8344098 0.2369388 16711746
-0.5715867 -1.4388248 0.6844106 16711746
-0.7518103 -2.1976779 0.9365695 16711746
-0.5106111 -1.4217035 0.6496377 16711746
-0.1706378 -0.8610999 0.3273645 16711746
0.2079355 -0.4711614 0.2387518 16711746
0.3200800 -0.8665431 0.6141229 16711746
0.2995033 -0.7231046 0.5046625 16711746
