# .PCD v.7 - Point Cloud Data file format
VERSION .7
FIELDS x y z rgb
SIZE 4 4 4 4
TYPE F F F F
COUNT 1 1 1 1
WIDTH 109
HEIGHT 1
VIEWPOINT 0 0 0 1 0 0 0
POINTS 109
DATA ascii

0.2814149 -0.7333124 0.6234127 16711746
0.1097905 -0.6127355 0.5804647 16711746
-0.8131307 -1.3114991 0.8787244 16711746
-0.2003328 -1.3406714 0.9886919 16711746
-0.2317944 -1.6132069 1.0145018 16711746
0.6047881 -3.5329533 2.3106349 16711746
2.3121641 -3.2530425 3.6054914 16711746
4.6259990 -7.3336687 7.3640079 16711746
1.0816108 -1.3721989 1.7575781 16711746
0.4231581 -2.2184246 2.3548644 16711746
0.7382222 -0.8833282 1.1396635 16711746
0.7331651 -1.1347480 1.2875117 16711746
-1.0016525 -1.4614196 0.9256533 16711746
-1.1418107 -1.5195018 0.9395095 16711746
0.4433469 -0.7135262 0.6342835 16711746
0.4471923 -1.4896998 1.5118998 16711746
0.9010918 -0.7478659 0.9177487 16711746
0.4689261 -2.8362534 2.6003048 16711746
0.3112790 -1.4185002 1.5615510 16711746
0.6265322 -1.6723592 1.4002726 16711746
0.6307374 -1.7037567 1.3829486 16711746
0.7299258 -0.5364969 0.7600809 16711746
0.7387815 -0.5400701 0.7501999 16711746
0.6638200 -1.1391246 0.9428782 16711746
0.4657074 -0.7933303 0.6739978 16711746
1.1320629 -0.6772069 0.9479590 16711746
0.4155956 -3.0133703 2.6380281 16711746
11.5245590 11.5231657 -9.8545465 16711746
11.7002268 11.7111158 -9.6995955 16711746
0.6686324 -1.1653391 0.9106661 16711746
-0.4973471 -3.0356014 1.4779187 16711746
-0.2294423 -1.6552243 1.2165527 16711746
0.5505146 -0.4734178 0.7642354 16711746
1.0265597 -0.9605502 0.8560351 16711746
1.0303825 -0.5841926 0.8820641 16711746
0.0972287 -1.6572707 0.9964335 16711746
0.0805769 -1.6783317 0.9805005 16711746
0.4913295 -0.9661614 0.8546014 16711746
0.5873087 -0.5073183 0.8770872 16711746
0.1200645 -1.1908585 1.0186808 16711746
0.1062523 -0.9569411 0.9418623 16711746
5.2928495 8.2309103 -7.7116332 16711746
5.0716090 9.2553368 -8.4541683 16711746
0.3099465 -0.9611493 0.5899920 16711746
0.4264927 -0.7227877 0.5878032 16711746
0.3594592 -0.7192812 0.6262290 16711746
0.5958789 -0.6722701 0.8504574 16711746
0.4938470 -0.8699315 0.9433054 16711746
1.0130126 -1.5142255 1.6052564 16711746
0.7474639 -0.8835801 1.1578797 16711746
0.5225579 -1.5317918 1.4699228 16711746
-2.3847284 5.9764609 -6.7060108 16711746
-3.0784454 4.3024788 -5.0609789 16711746
-4.6958508 7.8629746 -9.3839102 16711746
-2.1781130 4.0962100 -5.1312718 16711746
0.4397132 -1.1959479 1.6075075 16711746
0.1486817 -0.6654893 0.6388162 16711746
0.1274404 -0.8613791 0.6326581 16711746
0.1652603 -0.7395428 0.6883329 16711746
0.8887230 -1.1387557 1.3203547 16711746
2.7419713 -13.3866806 4.7015328 16711746
0.7422705 -0.4931749 0.7769536 16711746
-0.4367311 -1.2990206 0.7611548 16711746
-0.3625675 -0.8563809 0.5705898 16711746
0.1493495 -0.8104907 0.7110565 16711746
0.2171274 -0.8492876 0.5706865 16711746
0.2850990 -1.1014248 0.6708862 16711746
-0.4350044 -1.1009883 0.7719330 16711746
0.7430381 -0.5495699 0.8147290 16711746
0.7184868 -0.5855377 0.8118398 16711746
0.7831659 -1.2276201 1.2259616 16711746
2.0077567 -3.1942456 3.1115584 16711746
0.7292987 -0.6759862 0.8209720 16711746
-0.0516587 -0.8621213 0.8661421 16711746
-0.0134237 -0.8553439 0.8619953 16711746
0.0677684 -1.2596220 0.9834501 16711746
0.1085006 -1.2063643 0.9511964 16711746
0.6989543 -0.9367523 1.1117939 16711746
-0.5379421 -1.6650237 1.3474730 16711746
-0.4239151 -1.6339349 1.3057938 16711746
0.4781172 -1.3038243 1.1512483 16711746
0.3121605 -0.6554408 0.6133479 16711746
0.7368972 -1.3732078 1.0909063 16711746
-1.0959268 -1.5020157 1.0116066 16711746
0.3630334 -0.8170269 0.6060759 16711746
0.6403422 -0.5495143 0.9433801 16711746
0.0029168 -1.1944066 1.0942873 16711746
1.0083044 -3.4676409 2.3923795 16711746
0.6613647 -0.7337176 0.9053234 16711746
0.7351485 -1.1796111 1.2525051 16711746
0.9383039 -1.6652238 1.4843858 16711746
0.4940066 -1.5391424 1.4926785 16711746
-0.2767164 -1.8883198 1.0448941 16711746
0.7227147 -0.6837984 0.8082228 16711746
-14.1988821 -16.1070271 4.4274731 16711746
0.3254787 -0.9819382 1.0891709 16711746
0.3134727 -0.9801674 1.0791885 16711746
0.6499836 -1.1571240 0.8856160 16711746
0.5983240 -0.9804187 0.8314595 16711746
0.7503519 -0.3928032 0.7327396 16711746
0.5715020 -0.6289103 0.8626244 16711746
-0.2349840 6.5655780 -7.7148542 16711746
-0.8497341 5.8130527 -7.1008716 16711746
1.5211400 -2.5871501 3.1736448 16711746
-3.3931525 4.8947692 -5.4126616 16711746
-9.6377974 9.5471373 -12.9145069 16711746
-9.0662889 8.7424507 -10.7087822 16711746
-0.2590788 -1.4998693 1.3487360 16711746
16.0799599 11.0999908 -11.8310804 16711746
