# .PCD v.7 - Point Cloud Data file format
VERSION .7
FIELDS x y z rgb
SIZE 4 4 4 4
TYPE F F F F
COUNT 1 1 1 1
WIDTH 107
HEIGHT 1
VIEWPOINT 0 0 0 1 0 0 0
POINTS 107
DATA ascii

 1.7166331 -0.2782875 4.2317677 16777215
 0.0437660 -0.0026317 0.0987973 16777215
0.3766376 -0.8730323 0.1386252 16711746
0.0591898 -0.5937585 0.2690816 16711746
1.0857604 -1.5475352 0.6373417 16711746
0.5712377 -1.0126976 0.1439049 16711746
0.4544636 -0.8131709 0.0919718 16711746
0.3920205 -0.7728013 0.1001350 16711746
0.4787003 -0.9753979 0.3384536 16711746
0.0262135 -0.9089060 0.1901829 16711746
-0.2753256 -1.0143791 0.2846715 16711746
0.5520411 -0.9866226 0.1599258 16711746
0.0872582 -0.5706112 0.1913328 16711746
-0.0585831 -0.7805420 0.4240988 16711746
-0.6291813 -3.8874602 1.6110487 16711746
0.5802324 -0.8372477 0.1551671 16711746
-0.1559007 -1.0356988 0.7519749 16711746
-0.2774959 -0.9280694 0.1792163 16711746
-1.1018971 -4.9249783 2.0028698 16711746
-0.6995165 -3.5148299 1.4173682 16711746
1.8300380 -3.8938451 1.9067519 16711746
1.3594934 -3.4143176 1.6945498 16711746
0.9269549 -2.1315846 1.0940092 16711746
-0.4552163 -1.7831329 0.4089441 16711746
0.2877479 -0.6941947 0.1185356 16711746
-0.0395825 -0.9196951 0.3526593 16711746
0.0038142 -1.0372831 0.3638568 16711746
-0.4180506 -1.0990154 0.2863592 16711746
-0.2870289 -0.7508748 0.1913263 16711746
-0.0682571 -0.5057498 0.1324402 16711746
0.2166027 -0.5055900 0.1022366 16711746
0.2356385 -0.8686255 0.1708161 16711746
0.2796315 -1.1503119 0.1694973 16711746
0.1928927 -0.8309491 0.1397720 16711746
1.8108344 -1.7358471 1.0146978 16711746
-0.9336398 -1.7611043 0.5811722 16711746
2.2209396 -2.7921591 2.0475340 16711746
-0.2869320 -0.7693211 0.1859105 16711746
-0.0262808 -1.0699880 0.2187708 16711746
0.0955015 -0.5957974 0.1407432 16711746
0.0242857 -0.9419364 0.1080208 16711746
0.0062758 -0.6855436 0.0881637 16711746
-0.1602640 -1.2702591 0.7364914 16711746
-0.0150998 -0.8121380 0.1773139 16711746
-0.2123218 -1.8310723 1.1630262 16711746
0.3976294 -1.0113693 0.2197059 16711746
0.3965234 -0.9448497 0.2869136 16711746
0.4874677 -1.0543456 0.2726507 16711746
0.5332047 -1.3467211 0.3149701 16711746
0.2485702 -0.7439687 0.1693796 16711746
0.1050142 -0.5905161 0.1838184 16711746
0.5174444 -0.8490388 0.1026832 16711746
-0.2150027 -0.6565412 0.2731119 16711746
-0.7003510 -2.1277065 0.7966783 16711746
-1.0584108 -2.0668128 0.4547882 16711746
1.0496523 -2.8446853 0.8931817 16711746
0.9693074 -2.7663343 0.8451918 16711746
0.1098783 -0.6141752 0.1380193 16711746
0.1558130 -0.7930546 0.1321884 16711746
-0.0418379 -0.9399210 0.3199993 16711746
0.1021846 -0.6099501 0.1120415 16711746
1.0985186 -2.9282172 1.6046772 16711746
0.4720415 -0.5918741 0.1121893 16711746
1.0592294 -1.4699271 0.6543843 16711746
0.9816275 -4.0660596 2.9669735 16711746
6.4947801 5.0748272 -3.4587293 16711746
-1.4412947 -1.5147476 0.6024611 16711746
-0.7970703 -1.2782693 0.5893669 16711746
-1.9335366 -1.5460100 0.7653409 16711746
-0.0519093 -0.7675954 0.4545942 16711746
-0.1963386 -4.0302796 2.5158272 16711746
-0.4168697 -1.1866436 0.3442569 16711746
0.1176420 -2.3513365 1.1295414 16711746
-0.0430403 -0.9265904 0.3318825 16711746
0.8177108 -1.4623659 0.5547873 16711746
0.1251205 -0.7518747 0.0943657 16711746
0.1002867 -0.7348818 0.0834723 16711746
0.2844064 -1.0160068 0.3177315 16711746
0.9743463 -1.0279926 0.3158997 16711746
0.2122311 -1.0716226 0.1304068 16711746
0.1318690 -0.7626520 0.1235714 16711746
-2.0584693 -3.8692932 1.1076871 16711746
-1.2093433 -2.5179446 0.7176546 16711746
0.3048823 -0.6132587 0.1238773 16711746
0.3844643 -1.5417200 0.3176548 16711746
0.1729859 -0.7811876 0.1915443 16711746
0.7671130 -1.8773112 0.5694265 16711746
0.3998247 -0.9326365 0.3112979 16711746
-0.0978630 -0.8273764 0.2068958 16711746
0.5289333 -0.8063919 0.1657998 16711746
0.8130457 -2.4222889 0.8319038 16711746
0.9033636 -1.9660946 0.6555526 16711746
-1.9054575 -3.3354683 1.0445168 16711746
-0.8420669 -1.4004732 0.2807783 16711746
-0.6799018 -0.9665651 0.2774035 16711746
-0.5429717 -0.9784892 0.2799000 16711746
-0.7761129 -1.2362686 0.3178807 16711746
-0.5359270 -0.9361978 0.2408403 16711746
-0.1057654 -1.0614895 0.4639691 16711746
-0.0047022 -1.0765505 0.2945972 16711746
0.4403342 -0.8103995 0.0840847 16711746
0.1588976 -0.5244703 0.0973065 16711746
1.5761290 -3.9746234 1.6644969 16711746
1.2733467 -2.7164943 1.2097696 16711746
0.8855129 -1.8056072 0.7180558 16711746
0.0328921 -0.7382758 0.1238248 16711746
-2.2045162 -2.6873748 0.7982883 16711746
