# .PCD v.7 - Point Cloud Data file format
VERSION .7
FIELDS x y z rgb
SIZE 4 4 4 4
TYPE F F F F
COUNT 1 1 1 1
WIDTH 216
HEIGHT 1
VIEWPOINT 0 0 0 1 0 0 0
POINTS 216
DATA ascii

0.7119296 -1.0413740 0.4870503 16711746
1.3022286 -1.4459125 0.5787125 16711746
3.0562506 -3.6896951 1.0750697 16711746
2.8720136 -3.5278232 1.0201498 16711746
6.4184813 -4.2901044 1.1341796 16711746
0.7503977 -1.3361617 0.4146702 16711746
0.4566001 -1.0598614 0.5560533 16711746
0.1477845 -0.4706144 0.4243158 16711746
0.1965750 -0.7915390 0.5583217 16711746
-0.1230619 -0.5027732 0.3101529 16711746
0.8477507 -1.2300013 0.9770791 16711746
0.1915475 -0.7299690 0.6573921 16711746
0.2401145 -0.8811257 0.5111247 16711746
-0.2517590 -0.5932782 0.2678647 16711746
-0.1887894 -0.4514428 0.2566999 16711746
-0.2224564 -0.5593399 0.2648151 16711746
-0.2063512 -0.4614495 0.2469217 16711746
-0.3087701 -0.3724011 0.3295128 16711746
0.1467462 -0.6063840 0.4856521 16711746
0.5054062 -0.8718871 0.2679092 16711746
0.7205769 -1.1343044 0.2373937 16711746
0.5073390 -0.7787867 0.5318227 16711746
0.5343080 -1.0010835 0.4636225 16711746
0.4984991 -0.9706223 0.4232357 16711746
0.3424457 -0.7783166 0.4003079 16711746
0.4349824 -0.8616679 0.4977229 16711746
0.3380176 -0.9188303 0.4288499 16711746
0.4156346 -1.0150902 0.5090392 16711746
4.8061876 -3.5728364 1.8180799 16711746
4.0777812 -4.4735513 2.0755637 16711746
0.5439811 -1.1214762 0.8301979 16711746
0.4176418 -0.9009128 0.7053039 16711746
4.3855829 -6.3145757 4.1761875 16711746
0.3407163 -0.6785492 0.2243780 16711746
0.4792845 -1.1773282 0.2055697 16711746
0.8721741 -0.9470930 0.3555681 16711746
0.1922787 -0.6362514 0.4584428 16711746
-0.1273959 -0.4865920 0.2864285 16711746
4.2144942 -4.0119824 1.5714910 16711746
3.4472308 -2.7748160 1.1069893 16711746
0.4607767 -0.6960948 0.3507048 16711746
0.4697925 -0.8056847 0.3794697 16711746
0.4176932 -0.6600421 0.3305730 16711746
0.1763060 -0.7638197 0.5321810 16711746
12.6823502 -9.2023354 1.6214285 16711746
1.5059730 -1.8627573 1.7079165 16711746
0.5246288 -0.7776551 0.8140976 16711746
0.3116325 -1.1511049 0.9943624 16711746
0.1198835 -0.5539562 0.6542329 16711746
0.3850977 -0.7283052 0.2652442 16711746
0.7602184 -1.6448926 0.3798224 16711746
0.4529067 -0.9350907 0.2981465 16711746
11.1908369 -7.6805158 3.1083500 16711746
15.5113182 13.6947126 -14.9709501 16711746
1.0101662 -1.0883310 0.8584635 16711746
0.6033568 -0.7729470 0.5375096 16711746
1.6638075 -2.4744694 1.2140427 16711746
0.8940181 -1.0987444 0.4193854 16711746
2.1163359 -2.9325185 1.6667272 16711746
0.8330382 -1.0874280 0.2644470 16711746
2.2255230 -2.2409430 1.7659044 16711746
0.7531533 -0.7791126 0.7548143 16711746
0.5146138 -1.2437907 0.2882051 16711746
1.1787282 -1.4767460 0.8244947 16711746
0.5416539 -1.0268685 0.6124433 16711746
0.2955163 -1.0999889 1.0866534 16711746
0.3564784 -1.7967687 1.6214035 16711746
0.2198669 -0.7336963 0.7695206 16711746
5.4355145 -6.3226600 1.4294704 16711746
-2.0811732 1.7486200 -2.4432464 16711746
-2.0552351 1.8206891 -2.3689234 16711746
8.7955465 -7.3932471 9.1168375 16711746
0.0069323 -0.7368091 0.7666049 16711746
0.1076282 -0.9844967 1.0310140 16711746
-0.1329492 -0.5091265 0.6213136 16711746
0.0922040 -0.6213818 0.8074074 16711746
0.4592216 -0.6237258 0.2778015 16711746
0.7191443 -1.1189184 0.3184884 16711746
0.6084735 -0.9513137 0.3923868 16711746
2.8896275 -5.3965096 4.2639108 16711746
0.3052582 -0.6782862 0.7171002 16711746
-0.2944611 -0.4073190 0.3226892 16711746
-0.0573201 -0.5716820 0.4979242 16711746
-0.0887380 -0.5251438 0.4144070 16711746
0.5871596 -0.9675630 0.3027088 16711746
0.3198127 -1.3561901 0.6116662 16711746
-0.1886259 -0.4578623 0.2888160 16711746
-0.1445990 -0.3990077 0.2741751 16711746
0.0923113 -0.5689608 0.5116854 16711746
0.5078974 -0.9114371 0.7456846 16711746
0.7000000 -1.2763957 0.9207688 16711746
0.6134279 -0.9887327 0.3425961 16711746
0.6961176 -1.2746733 0.3696117 16711746
0.4678637 -0.7178654 0.2993077 16711746
0.3803069 -0.7333547 0.3691130 16711746
-0.0215840 -0.4771301 0.4702648 16711746
-0.0840126 -0.7607901 0.4789375 16711746
-0.1399036 -0.4221101 0.2514717 16711746
2.5333879 -2.6053288 0.7957180 16711746
5.8139505 -4.2903810 1.9292881 16711746
0.5268443 -0.8539144 0.4590732 16711746
-0.0199415 -0.4767929 0.3381321 16711746
-0.0588160 -0.5905734 0.3609126 16711746
0.0952445 -0.6891629 0.6289378 16711746
0.8040264 -1.0405689 0.3315099 16711746
0.8422880 -1.6113191 0.9987062 16711746
-0.0355062 -0.5981994 0.3532577 16711746
0.1190679 -0.7151252 0.6734881 16711746
0.0797939 -0.6492413 0.6160709 16711746
0.5601853 -0.6078218 0.5251558 16711746
0.9614780 -1.2361895 0.8376778 16711746
1.1393387 -1.3709345 0.8835847 16711746
0.6374537 -0.7258129 0.4635474 16711746
0.5400856 -0.9742826 0.7438999 16711746
0.5211257 -1.1337560 0.6202468 16711746
0.4488649 -1.3315220 0.3569002 16711746
0.5588342 -1.5772198 0.3391632 16711746
0.5055617 -1.0089980 0.3530960 16711746
0.5975161 -1.1518171 0.2550233 16711746
2.5382550 -3.3938031 2.0179489 16711746
0.4555236 -0.8868018 0.5564012 16711746
0.8022962 -1.5537220 0.7651564 16711746
0.5128046 -0.9747819 0.5591843 16711746
0.5715263 -0.7030458 0.3412829 16711746
0.7402745 -1.0321050 0.5938386 16711746
-0.1290252 -0.4824196 0.2624927 16711746
0.5039355 -1.0761008 0.7151222 16711746
6.6512465 -5.7193909 2.5140908 16711746
8.5894957 -7.3263550 2.9795578 16711746
1.8405458 -2.1155303 1.1552984 16711746
2.5501339 -1.8160529 0.7671844 16711746
0.5914419 -0.6997899 0.4372945 16711746
1.6124821 -1.7014415 0.6881832 16711746
-0.1325148 -0.4646366 0.2417807 16711746
-0.1858438 -0.4970837 0.2436446 16711746
-0.1877690 -0.4676189 0.2734457 16711746
-0.1419685 -0.6096083 0.2785192 16711746
-0.0316081 -0.5588604 0.1942081 16711746
-4.8236637 6.8483529 -8.6845722 16711746
-6.4599366 7.7039771 -9.3905039 16711746
-4.5906701 6.5537505 -7.9051347 16711746
2.7143474 -4.7330217 4.9465795 16711746
3.8065717 -5.7968988 6.0058017 16711746
6.4934597 -10.2487888 9.9790258 16711746
-5.0227089 11.2880201 -12.4251604 16711746
5.0734963 -7.4708042 8.1833277 16711746
0.1373093 -0.6661614 0.7966785 16711746
0.3144739 -0.6398976 0.7960830 16711746
0.5628859 -1.1467363 1.4154829 16711746
0.4409758 -1.3209696 0.3407709 16711746
2.6567254 -3.2464006 0.8915364 16711746
1.0960503 -1.3784360 0.8089527 16711746
-0.2475602 -0.3954030 0.2939783 16711746
0.3823337 -0.9704380 0.4822065 16711746
8.0347948 -6.4830546 1.0212146 16711746
4.2810283 -3.7518432 0.6507890 16711746
4.1338844 -7.4498596 5.3762121 16711746
0.4480198 -0.7917110 0.3482429 16711746
0.7741942 -1.6360266 0.4650228 16711746
0.2125744 -0.6578371 0.4802230 16711746
1.1529309 -1.0264363 0.3198850 16711746
0.6971894 -0.9111626 0.4685107 16711746
0.2832201 -0.8262522 0.3489008 16711746
0.2450666 -0.7647880 0.3347221 16711746
0.6585634 -0.8993894 0.3472819 16711746
0.7848360 -1.0137985 0.3477339 16711746
4.3118310 -4.9868026 1.5399704 16711746
0.5931435 -0.7673838 0.5709420 16711746
1.1690749 -1.7736245 1.0089022 16711746
0.2007315 -0.7274926 0.5779299 16711746
1.1106697 -1.7888801 0.7215819 16711746
-0.0504426 -0.4302116 0.3655914 16711746
11.7618465 -11.2236977 3.0300734 16711746
0.1787111 -0.7034140 0.5482696 16711746
0.3893731 -0.7912812 0.5427419 16711746
0.4634126 -1.0495312 0.6533352 16711746
0.3388317 -1.1340570 0.2225174 16711746
1.1558446 -1.5516225 0.5859063 16711746
0.8313389 -1.4507686 1.1245344 16711746
1.9126213 -1.9152578 1.7758892 16711746
8.8641052 -8.8897219 7.0047321 16711746
2.5324619 -2.4087834 2.5800362 16711746
9.5104847 -9.2241135 8.3276396 16711746
8.1243324 -6.6442189 6.1665893 16711746
8.0508471 -5.2068496 4.0461197 16711746
8.6102953 -9.3475447 5.4233389 16711746
10.0252199 -10.2154665 6.1006069 16711746
3.0612257 -3.8214760 2.5665338 16711746
0.2877822 -0.5943779 0.5971579 16711746
1.9016685 -2.5050328 1.6865704 16711746
0.4487109 -1.1175126 0.3353953 16711746
0.0617525 -0.5043375 0.4968752 16711746
0.1912671 -0.6597657 0.7474965 16711746
0.9436351 -1.3642824 0.4195332 16711746
2.0707843 -3.1936135 0.6510987 16711746
1.1942363 -1.9685909 0.4709967 16711746
-0.1651369 -0.4621574 0.2658598 16711746
-0.1143469 -0.4136311 0.2530174 16711746
1.5190594 -2.0737917 1.3809063 16711746
0.6322818 -0.8702278 0.7102378 16711746
0.4702048 -0.6744710 0.6550288 16711746
-0.0270301 -0.5781942 0.2266764 16711746
-0.2470792 -0.4262233 0.2908568 16711746
-0.1377062 -0.4320042 0.3092716 16711746
-0.1269569 -0.6197881 0.5066190 16711746
-0.1269174 -0.4841123 0.3080904 16711746
2.8076251 -10.1113129 4.2602978 16711746
1.1887394 -4.2706046 4.3994823 16711746
-5.2503538 -11.9876375 3.7487059 16711746
7.0361085 -15.8709230 7.4167423 16711746
8.3939667 -18.6023026 8.6111794 16711746
25.8650494 -32.4154053 19.1433811 16711746
56.5693626 -79.2164536 38.6111336 16711746
42.0842857 -52.5344772 30.8626347 16711746
57.8710632 -69.8905487 43.1132622 16711746
42.5109711 -101.4735107 29.1864185 16711746
