# .PCD v.7 - Point Cloud Data file format
VERSION .7
FIELDS x y z rgb
SIZE 4 4 4 4
TYPE F F F F
COUNT 1 1 1 1
WIDTH 97
HEIGHT 1
VIEWPOINT 0 0 0 1 0 0 0
POINTS 97
DATA ascii

0.8659468 -0.8864659 0.4340305 16711746
0.4863082 -0.9494069 0.3116770 16711746
0.5455562 -0.9891924 0.2876186 16711746
0.3342728 -1.0280296 0.1693627 16711746
1.2558137 -0.8016545 0.3423474 16711746
1.2568110 -0.8983305 0.3713731 16711746
1.2512743 -0.8026932 0.3149230 16711746
0.5990801 -0.9033440 0.3932851 16711746
0.6904110 -0.9213266 0.3056617 16711746
0.6630711 -0.9769397 0.3355046 16711746
0.4434426 -1.0161227 0.4762102 16711746
-0.2236792 0.6544789 -0.7018965 16711746
0.3794211 -0.5982434 0.5697059 16711746
0.3039522 -0.6489944 0.5629937 16711746
0.4178064 -0.6265854 0.6080849 16711746
0.5834476 -0.6996149 0.6386813 16711746
0.4189509 -0.6506563 0.5788192 16711746
-0.2973911 0.6624985 -0.6791632 16711746
0.0392157 -0.0463975 0.0703896 16711746
0.5830940 -0.6781503 0.7081176 16711746
-0.1221959 0.8299080 -0.8125911 16711746
0.0183053 -0.0085788 0.0309696 16711746
-0.5520272 0.5314245 -0.6740577 16711746
0.6396304 -0.6451034 0.6932069 16711746
-0.3759159 -0.9690802 0.7711036 16711746
0.6233639 1.0658749 -1.2523837 16711746
0.2813628 0.8351977 -1.0511065 16711746
0.5109623 -1.1062284 0.0748840 16711746
0.4934528 -1.0472028 0.1341622 16711746
0.3658777 -1.0705665 0.3048585 16711746
1.1857201 -0.9563245 0.2630807 16711746
0.6205988 1.1954485 -1.0952166 16711746
0.8241712 -0.9145787 0.3078440 16711746
0.3871247 -0.7882670 0.4322385 16711746
0.3610905 -0.9293479 0.3428845 16711746
0.3501986 -0.9750854 0.3632337 16711746
0.9904637 -0.9224958 0.2934659 16711746
1.0794489 -0.8518837 0.2641980 16711746
1.0343710 -0.8993975 0.2694543 16711746
0.1821505 -0.7111270 0.4695964 16711746
0.3719739 -0.9373851 0.4116970 16711746
-0.1386899 -0.9688521 0.3528465 16711746
0.5424635 -0.7688907 0.5113292 16711746
0.5868445 -0.7805648 0.4966995 16711746
0.5719955 -0.8505421 0.5312541 16711746
0.3869393 -0.7367921 0.4752804 16711746
0.4103149 -0.7871292 0.4945771 16711746
0.7911591 -0.9713001 0.1629984 16711746
0.6818204 1.1463453 -1.1621958 16711746
0.6141596 -1.0137160 0.3280201 16711746
0.8275834 -1.0627789 0.0913174 16711746
0.6232919 -0.9995003 0.3617435 16711746
0.7860160 -0.7411473 0.5869588 16711746
0.7532401 -0.9168609 0.6943093 16711746
0.7732471 -0.7283942 0.6143580 16711746
0.9484111 -0.7095470 0.6773036 16711746
0.8777500 -0.7212487 0.6835290 16711746
1.3511820 -0.7988858 0.5584288 16711746
0.7516668 -0.9556048 0.4715953 16711746
-0.3659107 0.5985206 -0.6862277 16711746
-0.2982117 0.6161563 -0.7066461 16711746
-0.1231458 0.7108334 -0.7363130 16711746
-0.2856386 0.6167352 -0.7121933 16711746
0.4635845 -0.7498330 0.5314288 16711746
0.4609733 -0.8299325 0.6993616 16711746
0.4334869 -0.7231943 0.5590316 16711746
0.1656566 -0.5351192 0.4501322 16711746
0.3679388 -0.8970920 0.4680412 16711746
0.5626515 -1.0293566 0.4966385 16711746
0.4214388 -0.8445593 0.5068679 16711746
0.3744782 -0.8682876 0.4950322 16711746
0.4186003 -0.7482866 0.4712558 16711746
0.2306279 -0.7650027 0.4731891 16711746
1.2078876 -0.7337577 0.6182363 16711746
1.0680768 -0.8280621 0.3500288 16711746
0.8655635 -1.0433427 0.2799781 16711746
0.5458029 -0.8429386 0.4724888 16711746
0.5498698 -0.8142574 0.4398226 16711746
0.3902629 -0.8864074 0.3550996 16711746
0.5396222 -0.7889782 0.4804995 16711746
0.7922345 -1.0962824 0.0813645 16711746
0.4345896 -0.9995663 0.2337899 16711746
0.8051296 -1.0115552 0.2151283 16711746
0.7032132 -0.8217669 0.5534879 16711746
0.4076698 -0.9044960 0.4406015 16711746
0.5218857 -0.9751436 0.3604983 16711746
0.4182252 -0.9481227 0.2619832 16711746
0.5196525 -1.1020081 0.2927966 16711746
0.4702201 -1.1020861 0.2915555 16711746
1.5346000 -0.7178863 0.4659727 16711746
0.3151784 -0.9099998 0.5410774 16711746
0.8402102 -0.9036963 0.3117263 16711746
-0.0423055 -1.0706556 0.3425780 16711746
0.4817530 -1.1263666 0.0940657 16711746
0.5736694 1.0563351 -1.2145698 16711746
0.6181103 1.0981226 -1.2266392 16711746
0.7538670 -0.7924162 0.5706338 16711746
