# .PCD v.7 - Point Cloud Data file format
VERSION .7
FIELDS x y z rgb
SIZE 4 4 4 4
TYPE F F F F
COUNT 1 1 1 1
WIDTH 187
HEIGHT 1
VIEWPOINT 0 0 0 1 0 0 0
POINTS 187
DATA ascii

 1.2386812 -0.2032747 3.0564554 16777215
 0.0128600 -0.0031817 0.0345553 16777215
0.8720698 -1.0272779 0.7125717 16711746
-0.1467005 -0.7544772 0.5336929 16711746
-0.1887899 -0.7894265 0.4285766 16711746
0.7351792 -1.3405199 0.2696183 16711746
0.5059980 -0.9915226 0.2244948 16711746
0.2616844 -0.8920761 0.0737316 16711746
0.1149881 -0.9012347 0.6987678 16711746
0.1725898 -0.7883812 0.5781444 16711746
0.2516526 -0.9107949 0.7214631 16711746
0.1574187 -0.8672300 0.7485133 16711746
0.5799255 -1.0363861 0.0814516 16711746
0.5020192 -0.9975020 0.2007963 16711746
0.5205540 -1.0037334 0.1881144 16711746
0.0213866 -0.9032513 0.6593466 16711746
0.0586837 -0.9168862 0.6523729 16711746
0.5489699 -1.1127541 0.5837122 16711746
-0.0474735 -0.1788697 0.0916004 16711746
-0.1873115 -0.6846053 0.2447056 16711746
0.1717447 -0.7510431 0.2811828 16711746
0.5476353 -1.5921541 0.5015488 16711746
0.6940439 -0.9893833 0.3180078 16711746
-0.3859477 -0.4709207 0.0473134 16711746
-0.4657092 -0.8526808 0.0815331 16711746
-0.2275173 -0.6464707 -0.0028538 16711746
-0.1664740 -0.6854667 0.0030100 16711746
-0.2738729 -0.6165301 0.0349423 16711746
-0.1796329 -0.6079047 0.0764506 16711746
-0.5385499 -0.6355849 0.2352132 16711746
-0.4598550 -0.4016556 0.1638001 16711746
0.2709216 -1.0208926 0.1606791 16711746
0.5575215 -0.7577191 0.3421869 16711746
0.3874616 -0.9070187 0.2221838 16711746
0.3274709 -0.9080625 0.4038222 16711746
-0.4215308 -0.7954501 0.1960272 16711746
0.1467132 -1.0178260 0.5301152 16711746
0.5293018 -1.0040296 0.6526434 16711746
0.3909398 -0.9577941 0.2848567 16711746
0.3713171 -0.9548392 0.2868967 16711746
0.5363546 -1.0143111 0.6427211 16711746
0.6776937 -1.0674359 0.6827288 16711746
0.1484797 -0.9905705 0.5757082 16711746
0.1237556 -0.8470488 0.4906263 16711746
0.1224388 -0.9461448 0.6477516 16711746
0.3012753 -0.9839972 0.6263205 16711746
0.7194635 -0.7787724 0.8901429 16711746
0.2337340 -0.7264898 0.7508752 16711746
0.1636921 -0.9333107 1.0140899 16711746
0.3484146 -0.7794247 0.8672767 16711746
0.3906627 -0.6760008 0.1812542 16711746
0.4434373 -0.8503268 0.2174469 16711746
0.5542866 -1.6254051 0.4586187 16711746
-0.1836461 -0.7703013 0.4979528 16711746
-0.1940962 -0.7512508 0.4955693 16711746
0.7123089 -0.9170436 0.4659781 16711746
0.4564656 -1.1305196 0.4696728 16711746
0.4051906 -0.9299645 0.3686475 16711746
0.3867586 -0.6506108 0.1183158 16711746
0.5158122 -1.3373184 0.1035270 16711746
0.8235800 -1.1162182 0.6174218 16711746
0.6704320 -0.8839801 0.4722362 16711746
0.0880935 -0.8208184 0.0201477 16711746
0.5337166 -1.0856246 0.1160610 16711746
0.6847384 -1.2016550 0.5325134 16711746
-0.1357663 -0.6971662 0.2089360 16711746
0.5037774 -1.1715187 0.4265342 16711746
0.8575179 -1.2406250 0.4991595 16711746
0.4811808 0.6313879 -0.5853735 16711746
-0.2170143 -0.9132049 0.5473645 16711746
0.4054503 -1.0495855 0.5664848 16711746
0.4058535 -1.0808767 0.5236959 16711746
0.6916080 -1.1160516 0.5736831 16711746
0.7028615 -1.1769345 0.5742379 16711746
0.2000933 -1.0678452 0.4727635 16711746
0.1725508 -0.7405214 0.3821456 16711746
0.3195725 -0.8949499 0.4349550 16711746
0.4608012 -0.9685669 0.2784281 16711746
0.3001190 -0.6483174 0.1713911 16711746
0.3410608 -0.9583216 0.2647179 16711746
-0.2196340 -0.5350198 0.1079548 16711746
0.2416560 -0.6635543 0.0326428 16711746
0.5175281 -1.1645472 0.0499877 16711746
0.2446491 -1.0524266 0.0368839 16711746
0.6231984 -0.8302896 0.5815074 16711746
0.9040811 -1.1288141 0.2329503 16711746
0.6810519 -0.7845170 0.1526662 16711746
0.6857266 -0.8913773 0.1872447 16711746
0.2953950 -1.0412800 0.1064882 16711746
0.4007724 0.6022339 -0.5925832 16711746
0.1557820 -0.7760632 0.4110021 16711746
0.1410652 -0.8642960 0.4542721 16711746
0.3414259 -1.0681980 0.0406604 16711746
0.2816453 -0.9017849 0.0284958 16711746
0.6228081 -0.9751055 0.3241453 16711746
0.5082121 -0.9662117 0.3039177 16711746
0.9062023 -1.3455505 0.3864059 16711746
0.5060454 -0.8536051 0.2488047 16711746
0.5255224 -0.7697276 0.1262404 16711746
0.6574214 -0.9016450 0.1080708 16711746
0.6006374 -0.8893428 0.1198090 16711746
-0.1116499 -1.0151441 0.4096140 16711746
0.3251242 0.5320483 -0.6234090 16711746
-0.1188661 -0.9053037 0.2546598 16711746
-0.1469533 -0.8507374 0.3456306 16711746
0.3900284 0.6360408 -0.5852127 16711746
0.7946319 -0.9518214 0.3677160 16711746
-0.2370244 -0.8072642 0.3321862 16711746
-0.3209388 -0.5601101 0.1040028 16711746
0.3645503 -0.9815518 0.6440509 16711746
0.2624226 -1.0074342 0.1992658 16711746
0.6204184 -0.8873682 0.4255997 16711746
-0.1723731 -0.6563709 0.2878588 16711746
0.3322339 -0.9966729 0.6171054 16711746
0.4588510 -1.3018161 0.7602928 16711746
0.7437097 -0.9173223 0.1102780 16711746
0.3743669 -0.8483486 0.5499005 16711746
0.4017949 -0.9966363 0.6334600 16711746
0.4459804 -1.0534874 0.1583736 16711746
0.3167838 -0.8163365 0.6048476 16711746
0.3522083 0.5656003 -0.6119593 16711746
0.4681781 -1.2898962 0.2020357 16711746
0.6926658 -1.1192788 0.1296353 16711746
0.3370680 -0.8387480 0.1616332 16711746
0.8621306 -1.4155847 0.2320940 16711746
0.2936150 -0.9653403 0.2231998 16711746
0.1687773 -1.0817068 0.0107602 16711746
0.1956210 -0.8680068 0.0957266 16711746
0.5345418 -0.7534109 0.3583614 16711746
0.5419492 -0.9418994 0.3778906 16711746
0.2922598 -0.8686189 0.5702471 16711746
0.4600662 0.5862625 -0.6608174 16711746
0.5845633 -0.8896266 0.0910012 16711746
0.6776027 -0.9606932 0.3755840 16711746
1.1302277 -1.1913056 -0.0575026 16711746
0.5518934 -0.9495868 0.3622224 16711746
0.5149298 -0.9418326 0.3701704 16711746
0.4560899 -0.8346109 0.3101074 16711746
-0.1731940 -0.8913428 0.2444342 16711746
0.3122471 -0.7855703 0.6623738 16711746
0.6251896 -0.9573270 0.3667730 16711746
0.6366605 -0.9660472 0.3505918 16711746
0.5052806 -1.1029119 0.0366583 16711746
0.3801221 -0.8454336 0.1707305 16711746
0.4414285 -0.9924927 0.1862711 16711746
-0.1154378 -0.8870606 0.3184038 16711746
-0.2797112 -0.6115732 0.0441564 16711746
-0.3004616 -0.5976114 0.0251135 16711746
0.1742048 -0.8888994 0.3387899 16711746
-0.3443387 -0.4516177 0.1228824 16711746
-0.1631751 -0.7855378 0.4538968 16711746
0.2020559 -1.0029737 0.5729573 16711746
0.1913753 -1.0218543 0.5737762 16711746
0.4287901 -1.0530573 0.1492602 16711746
0.6839587 0.5919819 -0.6522815 16711746
0.1643632 -0.7546892 0.6446866 16711746
0.4526325 -0.9704487 0.3832897 16711746
0.0907977 -0.6902365 0.3480881 16711746
0.4015634 -1.3250266 0.7159079 16711746
0.6506070 -1.2926396 0.3508715 16711746
0.2410462 -0.7806190 0.8671902 16711746
-0.4404989 -0.5382597 0.3227929 16711746
-0.3387011 -0.3891778 0.2491552 16711746
-0.3335766 -0.3849877 0.2560921 16711746
0.0002475 -0.7765461 0.6004643 16711746
0.0090862 -0.8419857 0.5107140 16711746
0.0314252 -0.7314196 0.4757729 16711746
0.0215527 0.5550097 -0.7151772 16711746
0.4157374 0.5344959 -0.6520429 16711746
-0.1114427 -0.2796913 0.3016608 16711746
0.0911906 -0.6931726 0.3494282 16711746
-0.3838513 -0.2965953 0.1671204 16711746
-0.4039195 -0.3191977 0.1691066 16711746
-0.5516119 -0.7013705 0.1551757 16711746
-0.5363626 -0.6409717 0.2278424 16711746
-0.6914034 -0.6404673 0.1940209 16711746
0.0498625 -0.7190421 0.3782264 16711746
-0.2329758 -0.6062914 0.3134734 16711746
0.4019617 0.5848407 -0.6052875 16711746
0.4525256 -1.1085888 0.5003487 16711746
0.3022080 -1.4270445 0.5570795 16711746
0.3514360 -0.9116067 0.7275564 16711746
0.3140575 -0.9136676 0.7191023 16711746
0.2044638 -0.9153264 0.7052693 16711746
0.7791452 -0.7934680 0.6126325 16711746
0.6743398 -1.0596288 0.2629422 16711746
0.5913814 -0.9999564 0.2420916 16711746
