# .PCD v.7 - Point Cloud Data file format
VERSION .7
FIELDS x y z rgb
SIZE 4 4 4 4
TYPE F F F F
COUNT 1 1 1 1
WIDTH 114
HEIGHT 1
VIEWPOINT 0 0 0 1 0 0 0
POINTS 114
DATA ascii

-0.7265745 -0.9678537 0.1672928 16711746
-0.7791099 -0.9650089 0.1576108 16711746
0.9658152 -0.8803772 0.3504203 16711746
0.0123811 -0.9410591 0.5175126 16711746
0.5502383 -0.9109054 0.2893613 16711746
0.6177719 -0.9319118 0.3599529 16711746
0.7073471 -0.7999393 0.1053551 16711746
0.0597967 -0.8648894 0.6778374 16711746
-0.4922194 -0.9466241 0.1492685 16711746
0.2342334 -0.8986751 0.1393557 16711746
0.5527304 -0.8881367 0.4720345 16711746
0.6053026 -0.8652980 0.4904241 16711746
0.5747092 -0.9172114 0.5237203 16711746
0.2765944 -0.9071164 0.2570206 16711746
0.2188337 -0.9774106 0.4500704 16711746
0.4486006 -0.9184346 0.3181275 16711746
0.6007854 -0.9219356 0.3605805 16711746
0.4974702 -0.9125767 0.5916035 16711746
0.7727274 -0.8953475 0.5004299 16711746
1.0897982 -0.9084186 0.2780664 16711746
0.3574481 -0.8880250 0.6952837 16711746
0.3377326 -0.9476578 0.3498583 16711746
0.7270015 -0.9091951 0.4325131 16711746
0.5075548 -0.9103835 0.3897191 16711746
0.4936769 -0.9443789 0.4192578 16711746
0.5257618 -0.8930022 0.2496910 16711746
0.5032914 -0.8509240 0.7499242 16711746
-0.8699903 -0.9590847 0.2042200 16711746
0.2693212 -0.9288801 0.1586387 16711746
0.3639229 -0.9298590 0.2230353 16711746
0.3960387 -0.8992957 0.1978675 16711746
0.7742954 -0.9857804 0.4324448 16711746
0.4152715 -0.9266525 0.3968829 16711746
0.4362259 -0.9516755 0.3772377 16711746
0.4163221 -0.9432514 0.3836214 16711746
0.4949616 -0.9059744 0.3411494 16711746
0.4917446 -0.9411932 0.3418697 16711746
0.1917167 -0.9097287 0.1650643 16711746
0.2509505 -0.8741248 0.0699208 16711746
0.3945442 -0.9385382 0.3341554 16711746
0.4170517 -0.9528636 0.3190567 16711746
0.3765180 -0.9508564 0.3104667 16711746
0.3436666 -0.9286376 0.3327882 16711746
0.3489811 -0.9292046 0.3205173 16711746
0.3337851 -0.9286867 0.3171335 16711746
0.1409700 -0.9015548 0.1589401 16711746
0.0948115 -0.8986585 0.1527089 16711746
0.2555239 -0.9487930 0.4891377 16711746
0.4458120 -0.9198283 0.4147261 16711746
0.2692054 -0.9251928 0.2023145 16711746
0.1664730 -0.8736739 0.0695273 16711746
0.1406041 -0.8748651 0.0727482 16711746
0.5087057 -0.8623682 0.1600872 16711746
0.2515663 -0.8489637 0.0558831 16711746
0.0670692 -0.9019125 0.6654646 16711746
0.7345985 -0.8078868 0.1234945 16711746
0.0305160 -0.8464344 0.7051740 16711746
0.0115527 -0.8669461 0.7101845 16711746
0.6763263 -0.8375923 0.7216108 16711746
-0.3785177 -0.9336917 0.1392991 16711746
0.3530912 -0.9568329 0.4435055 16711746
0.7817180 -0.7935833 0.0437774 16711746
0.5062183 -0.8352242 0.0687016 16711746
0.3618715 -0.9459642 0.3842037 16711746
0.5473745 -0.9120009 0.4598976 16711746
0.3018914 -0.9360855 0.4177331 16711746
0.3177538 -0.9542647 0.2911433 16711746
0.3955134 -0.9299783 0.3500493 16711746
0.8154317 -0.7831354 0.1439444 16711746
-0.7077696 -0.9810252 0.1263393 16711746
0.3270692 -0.7343170 0.8338709 16711746
0.0011759 -0.8569503 0.6852571 16711746
0.0449559 -0.8175179 0.7589667 16711746
-0.0101773 -0.8072416 0.7253358 16711746
0.8309169 1.5246731 -2.2393177 16711746
0.4693370 -0.8488666 0.1132687 16711746
0.3328436 -0.9019299 0.1761019 16711746
0.4112866 -0.7943509 0.0192482 16711746
0.4427398 -0.7933052 0.0507169 16711746
0.3881793 -0.8692632 0.0902347 16711746
0.1142177 -0.9250119 0.1079526 16711746
0.4865710 -0.9182785 0.2918399 16711746
0.6629573 -0.8694645 0.3555155 16711746
0.5983483 -0.8843439 0.3837726 16711746
0.6394870 -0.8607554 0.7204220 16711746
0.4935469 -0.8973503 0.6528000 16711746
0.5674686 -0.8743355 0.6332844 16711746
0.0792118 -0.8965998 0.6671472 16711746
0.9053073 -0.8477332 0.5964329 16711746
-0.8081971 1.5847824 -2.2249358 16711746
0.4916078 -0.8049217 0.7906771 16711746
0.4856383 -0.7457871 0.8255137 16711746
0.0564943 -0.1522151 0.2164854 16711746
0.6066747 -0.8533415 0.2143032 16711746
-0.4479697 -0.9566826 0.1319025 16711746
-0.4945275 -0.9820888 0.1323630 16711746
0.2373691 -0.8977940 0.0986835 16711746
0.6177182 -0.9269837 0.5853112 16711746
0.0366897 -0.9144044 0.6407011 16711746
0.0417666 -0.8918473 0.6084431 16711746
0.4133748 -0.9286565 0.4685492 16711746
0.4563906 -0.9363253 0.4505465 16711746
0.1952520 -0.8908708 0.0792396 16711746
0.1389917 -0.8782435 0.0811743 16711746
-0.1629783 -0.8486927 0.6698616 16711746
0.4828907 -0.9703119 0.5073720 16711746
0.5564912 -0.8372983 0.1237421 16711746
0.5028987 -0.8986650 0.4345292 16711746
0.8299811 -0.8217681 0.2209376 16711746
0.2528418 -0.9471411 0.5480698 16711746
0.4647667 -0.9141250 0.5787148 16711746
0.6809435 -0.9073979 0.4989524 16711746
0.3645079 -0.9636386 0.4836834 16711746
0.4044656 -0.9505576 0.4664270 16711746
