# .PCD v.7 - Point Cloud Data file format
VERSION .7
FIELDS x y z rgb
SIZE 4 4 4 4
TYPE F F F F
COUNT 1 1 1 1
WIDTH 74
HEIGHT 1
VIEWPOINT 0 0 0 1 0 0 0
POINTS 74
DATA ascii

-0.3400187 -1.0884383 0.8690752 16711746
-0.4293933 -1.0281699 0.9330103 16711746
-0.5373840 -1.0671337 0.8825017 16711746
-0.1599240 -1.1993847 0.7595083 16711746
-0.3988757 -1.0810610 0.7666195 16711746
-0.3098170 -1.1682044 0.8109826 16711746
0.2570151 0.2895172 -0.3465877 16711746
0.0748196 0.0708881 -0.0325261 16711746
0.1277394 0.3154844 -0.3291281 16711746
0.0656485 0.0623360 -0.0406761 16711746
-0.1759168 -1.0028677 0.9621802 16711746
-0.2873686 -0.5897551 0.5877383 16711746
0.1501574 0.1933990 -0.1834312 16711746
0.3834954 -0.8022851 0.5620459 16711746
-0.1140115 -0.9867587 0.9220846 16711746
-1.2802397 -1.3211583 0.5957952 16711746
0.2028030 -0.8922319 0.3424801 16711746
0.3312874 -0.8226912 0.4257837 16711746
-0.0545396 -1.0441271 0.6589875 16711746
0.4182271 -0.7302383 0.4496040 16711746
0.2321877 0.2583986 -0.1864448 16711746
0.2981578 0.3753885 -0.2709295 16711746
0.2129190 -0.9015506 0.8149917 16711746
0.2434660 -0.8790886 0.7706735 16711746
0.2227999 -0.8643959 0.5482604 16711746
0.3897868 -0.7393105 0.6241142 16711746
0.5215719 -0.6216328 0.6007139 16711746
0.3373263 -0.7808205 0.6627239 16711746
0.3279993 -0.7414435 0.7396524 16711746
0.6924930 -0.7073925 1.0110375 16711746
0.3206191 -0.3709866 0.5539213 16711746
-0.6090462 0.8119450 -1.1742873 16711746
-0.1193585 0.6862340 -0.7963356 16711746
-0.0652894 0.4744834 -0.5234594 16711746
-0.1561685 0.5540127 -0.7283227 16711746
0.4037924 -0.7702273 0.9444805 16711746
0.4493761 -0.8213781 0.9401010 16711746
0.2183014 0.2363921 -0.1721806 16711746
0.1547663 -0.9047371 0.8517469 16711746
0.1381946 -0.7870036 0.7287273 16711746
0.1442302 0.3637951 -0.4377065 16711746
0.2090673 -0.9445975 0.7990287 16711746
-0.0810269 -1.0221832 0.4760807 16711746
-0.0342162 -1.1028970 0.3781929 16711746
-0.1228152 -1.0517091 0.5456017 16711746
0.3342781 -0.8286684 0.4204479 16711746
-0.0924171 -1.0963426 0.7760485 16711746
-0.0194407 -0.9892371 0.5283935 16711746
-0.2420034 -1.1242870 0.5614056 16711746
0.3393492 0.4861469 -0.5508579 16711746
0.4657428 0.5619448 -0.4866240 16711746
0.2565482 -0.8789269 0.9117358 16711746
0.2183116 -0.6881871 0.7479044 16711746
0.3476633 -0.7338573 0.7614095 16711746
0.6979825 -0.5653650 0.7576745 16711746
0.4916888 0.6543688 -0.5183400 16711746
0.9735192 0.8018348 -0.5804041 16711746
-0.2306959 -0.8904551 0.7071530 16711746
0.1923859 -0.9887137 0.6819003 16711746
1.0085260 0.8198023 -0.6484211 16711746
0.2330545 -0.8686267 0.6582924 16711746
0.1973900 -0.8489106 0.6339264 16711746
0.4855271 -0.7079242 0.3541855 16711746
-0.5596396 -1.1840661 0.6444855 16711746
0.2832059 -1.1192423 0.7273343 16711746
72.1806641 -104.3661728 126.9654617 16711746
21.4122696 -39.1035767 34.3474884 16711746
13.1059074 -87.9074326 35.9925117 16711746
79.6421585 -148.3057404 124.8027267 16711746
3.8757153 -5.2457275 7.2123055 16711746
15.8944016 -69.5868607 27.8975506 16711746
21.1767483 -93.4865036 34.8337669 16711746
31.5283165 -210.6249695 86.1070633 16711746
-131.6413574 -382.2723694 96.9188385 16711746
