# .PCD v.7 - Point Cloud Data file format
VERSION .7
FIELDS x y z rgb
SIZE 4 4 4 4
TYPE F F F F
COUNT 1 1 1 1
WIDTH 107
HEIGHT 1
VIEWPOINT 0 0 0 1 0 0 0
POINTS 107
DATA ascii

-0.4230401 -1.9419841 0.1930749 16711746
-0.2768319 -0.7958775 0.4185561 16711746
0.3739199 -1.2042966 0.2322623 16711746
0.6505626 -0.7116881 0.6698216 16711746
0.2076994 -0.9001273 0.5206848 16711746
0.1763595 -0.6021546 0.3703875 16711746
1.1072643 -0.7303471 0.6555372 16711746
-0.6761959 -1.0798407 0.1995526 16711746
0.0510186 -1.5970449 0.6752632 16711746
0.1813238 -0.5863001 0.5586367 16711746
0.4977414 -1.1630179 0.8922150 16711746
0.4693825 -0.6769165 0.6260291 16711746
0.6554642 -0.7067568 0.7004268 16711746
0.6727316 -0.6782089 0.8059475 16711746
-0.2990901 0.3771653 -0.5499045 16711746
0.2009750 -0.4703004 0.5485008 16711746
-0.0719612 -0.5529670 0.4780231 16711746
-0.4470194 -0.8011984 0.6011493 16711746
-0.3647066 -0.6122703 0.5103100 16711746
0.0262753 -0.7541822 0.5131213 16711746
0.0121656 -0.9381463 0.5763544 16711746
-0.0014119 -0.7559729 0.4689663 16711746
-0.0539528 -0.5889586 0.4528557 16711746
0.3224101 -0.7308239 0.3928359 16711746
0.4071214 -0.7976989 0.5458653 16711746
-0.2349632 -0.9888950 0.3860345 16711746
-1.2152667 -1.3530918 0.3327413 16711746
-0.0075639 -0.5946419 0.4364410 16711746
0.4631011 -0.6689994 0.6785322 16711746
0.2616172 -0.6638250 0.6804817 16711746
0.4735052 -0.7746153 0.5934169 16711746
0.3079668 -1.2059481 0.1358372 16711746
0.5200265 -1.0001248 0.6288708 16711746
-0.1743468 -1.2023764 0.3454413 16711746
0.3441976 -0.8459376 0.2717009 16711746
-0.8761318 -1.6331189 0.1880721 16711746
0.8107073 -0.9311438 0.3581463 16711746
0.1103504 -0.9042267 0.4802795 16711746
0.1328120 -1.5525854 0.7607494 16711746
0.1122045 -1.2276520 0.5940711 16711746
0.6001023 -1.3825864 0.7536918 16711746
0.5605419 -1.5263532 0.8272247 16711746
-1.2232664 -1.2879682 0.3868698 16711746
0.2946957 -0.9983522 0.2003265 16711746
0.3429574 -1.2007527 0.1920570 16711746
0.0544171 -0.7822855 0.5074691 16711746
0.1398711 -0.6828146 0.5986584 16711746
0.1433992 -0.7453426 0.6240095 16711746
0.4980415 -0.7688718 0.5305700 16711746
0.5255147 -1.3602940 0.6250414 16711746
0.3642761 -0.8493886 0.4630683 16711746
0.5794906 -1.4637269 0.7233385 16711746
0.4375184 -1.0163419 0.4521509 16711746
0.3833865 -1.0084964 0.4426271 16711746
-0.3549021 -1.6302276 0.4648384 16711746
0.4868038 -1.3278580 0.5285001 16711746
0.7563851 -0.9172147 0.7240546 16711746
0.7151596 -0.6923500 0.5959673 16711746
0.1682772 -0.7710197 0.3886340 16711746
0.0622888 -0.7397990 0.4740391 16711746
0.1256573 -0.6128543 0.4495202 16711746
0.1579669 -0.9105793 0.6414627 16711746
0.3618214 -0.9669379 0.2417242 16711746
0.3313355 -0.9590565 0.1430755 16711746
-0.3698819 -0.9508319 0.5127826 16711746
0.0515688 -1.2597840 0.7226403 16711746
0.0248899 -0.9392883 0.5600390 16711746
0.0087099 -0.4901169 0.4094725 16711746
0.3694337 -0.5869636 0.6133270 16711746
0.4895990 -0.7504702 0.7311053 16711746
0.6950043 -0.8225688 0.7097763 16711746
0.6681792 -0.7091982 0.5772238 16711746
-0.0405829 -0.5772712 0.4515716 16711746
-0.5952109 -1.3940237 0.7912667 16711746
0.1306844 0.4163595 -0.4827819 16711746
0.1191263 0.4129554 -0.4950299 16711746
-0.1294747 -0.5532902 0.6316700 16711746
0.1307624 -0.9363195 0.3010183 16711746
0.3814219 -1.3187401 0.4038141 16711746
0.2631339 -1.2529813 0.1438309 16711746
0.2183076 -1.1179019 0.5742366 16711746
0.1571106 -1.1998795 0.6919170 16711746
0.2405598 -0.8931273 0.5398927 16711746
0.3516034 -1.0372655 0.4051603 16711746
0.2841031 -1.0555780 0.3621372 16711746
0.1985941 -0.8991099 0.4129625 16711746
0.8374494 -0.7413499 0.4021173 16711746
-0.1236948 -1.0652734 0.2156360 16711746
-0.1206648 -1.5580539 0.2372020 16711746
0.0771115 -1.5049826 0.4071625 16711746
0.0890166 -1.3361770 0.0693885 16711746
-0.0493728 -1.4612459 0.1741348 16711746
-0.5816991 -1.6769435 0.1292964 16711746
0.4886143 -0.6779329 0.8869772 16711746
0.2374510 -0.3711547 0.5419662 16711746
0.3270903 -0.3716452 0.6027840 16711746
0.0319637 -0.5680633 0.6489341 16711746
-0.4380704 0.3672386 -0.7044126 16711746
0.3612199 0.3112141 -0.1753727 16711746
-0.4309651 -0.5803095 0.4983020 16711746
0.1921464 -1.1609296 0.5417311 16711746
-0.4860465 -1.2951909 0.4664617 16711746
-0.5431045 -1.4878968 0.5101172 16711746
0.7388924 -0.8898125 0.6198795 16711746
0.4134112 -1.3012905 0.3754916 16711746
0.3414008 -0.9973288 0.2887195 16711746
0.0635048 -1.5386174 0.4803328 16711746
