# .PCD v.7 - Point Cloud Data file format
VERSION .7
FIELDS x y z rgb
SIZE 4 4 4 4
TYPE F F F F
COUNT 1 1 1 1
WIDTH 152
HEIGHT 1
VIEWPOINT 0 0 0 1 0 0 0
POINTS 152
DATA ascii

-0.0265075 -0.6903836 0.0720741 16711746
-0.3482082 -6.6761780 0.5129451 16711746
4.0739145 -8.7512121 1.2663672 16711746
4.5896783 -9.4247561 5.3288136 16711746
1.1143866 -3.8997130 1.1011701 16711746
1.7205703 -3.2359531 1.5498276 16711746
5.9435625 -12.3653860 5.7850561 16711746
-0.0462887 -0.6844725 0.2818624 16711746
5.0888886 -10.2693176 2.4654853 16711746
-0.1623752 -0.4061028 0.1158304 16711746
0.2674507 -0.4187388 0.4137662 16711746
3.4553266 -5.9589772 4.4448142 16711746
5.9154382 -8.9526758 4.8605824 16711746
0.4038357 -0.8005928 0.5659522 16711746
7.7434049 -9.9725523 5.1711321 16711746
-3.7971027 5.2539930 -6.0793858 16711746
-3.2337377 4.4893761 -6.0182447 16711746
-4.7095056 8.6896429 -10.6645994 16711746
-2.3387558 2.2921000 -3.0697153 16711746
-3.6454349 9.3107929 -10.0359087 16711746
-4.4821572 9.7968388 -12.7422810 16711746
4.8147554 -7.3402677 6.5675349 16711746
4.2054167 -13.9853258 -1.0063925 16711746
0.2236336 -0.9666252 0.3295528 16711746
-0.1764550 -0.3737752 0.1356439 16711746
-0.0716601 -0.4028304 0.1821138 16711746
-0.1172952 -0.3164526 0.1341551 16711746
3.6097925 -12.8972034 0.5000162 16711746
-0.0647802 -0.7444767 0.0568563 16711746
-0.1040294 -0.8021724 0.0231833 16711746
-0.0847284 -0.3259646 0.2151280 16711746
0.3527035 -0.8013794 0.2875609 16711746
5.5219083 -8.7629337 2.2780702 16711746
-0.1498234 -0.2785209 0.1118830 16711746
-0.0531541 -0.4989399 0.1040448 16711746
5.2339492 -14.1673164 3.6588888 16711746
-0.1106920 -0.7354314 0.3489792 16711746
5.1297240 -15.8634548 0.3563944 16711746
0.1665874 -0.8787044 0.1534126 16711746
0.1776954 -1.0602331 0.1578398 16711746
2.0499260 -3.7614985 1.2843474 16711746
3.4584055 -5.9487066 1.9364949 16711746
0.4346186 -0.8308228 0.6243749 16711746
3.9765151 -7.2034583 4.6381650 16711746
2.9256546 -8.5997171 1.9080775 16711746
-0.0221086 -0.4379655 0.2822163 16711746
-0.1678386 -0.2277018 0.0834445 16711746
-0.0117647 -0.7993547 0.0995872 16711746
0.3869399 -0.8834717 0.3642354 16711746
0.2433019 -0.6140978 0.2733602 16711746
0.8485612 -2.0299766 0.7169569 16711746
0.2406957 -0.5872055 0.2523681 16711746
-0.0577443 -0.5774060 0.2331342 16711746
6.2717528 -10.8041668 3.1214800 16711746
0.4309115 -0.9217214 0.4870228 16711746
3.1668167 -7.0566316 -0.5540981 16711746
-0.0950363 -0.3747222 0.1584240 16711746
4.3764858 -13.8870869 2.2329121 16711746
3.5463262 -16.3181229 -0.3169433 16711746
2.0849006 -6.9177899 1.3426832 16711746
5.3868399 -9.8106718 2.8515823 16711746
4.8475056 -11.7857380 1.2810186 16711746
-0.0705165 -0.5041125 0.1952133 16711746
-0.0841547 -9.3226671 -0.5514348 16711746
2.4319406 -7.7175140 2.5685685 16711746
0.1462135 -1.0597768 0.0725499 16711746
0.0828183 -0.8590752 0.0830791 16711746
3.1707115 -5.3834405 5.6973982 16711746
5.1915922 -9.4524689 9.0792418 16711746
4.5495853 -8.8629980 8.5468197 16711746
5.9089160 -8.0314522 8.5461540 16711746
-2.6855237 11.3540344 -11.6974583 16711746
7.3471541 -8.2472734 8.0265074 16711746
-0.0434170 -0.4289785 0.3782241 16711746
-0.0624807 -0.2537092 0.2307111 16711746
-0.0715503 -0.2353764 0.2471400 16711746
1.6288514 -11.8939333 0.6836073 16711746
1.9127389 -12.8209267 0.4336625 16711746
6.2540278 -10.9858274 3.7752070 16711746
0.4098402 -1.5396991 0.4933431 16711746
0.0092725 -0.5929521 0.1567851 16711746
-0.0001466 -0.6847770 0.1546181 16711746
-0.1227316 -0.4250113 0.1132854 16711746
-0.2599458 -0.8162795 0.1750972 16711746
-0.0963536 -0.4881527 0.1340299 16711746
-0.1084092 -13.5496502 -0.6018261 16711746
0.3223278 -6.6663537 0.0991495 16711746
-0.1024798 -0.4528680 0.0889065 16711746
-0.1602068 -0.2410526 0.1529426 16711746
-0.1535619 -0.1906027 0.1454859 16711746
5.6869783 -13.2314053 0.6999270 16711746
5.0059996 -12.3134031 0.6545765 16711746
-0.0699154 -0.4377302 0.2499760 16711746
4.0623136 -14.2076120 0.7694822 16711746
-0.0007842 -0.4727781 0.2941033 16711746
-0.2600928 -0.7573608 0.2377703 16711746
-0.0982506 -0.3257732 0.1397173 16711746
0.2437811 -3.9214752 -0.0463832 16711746
6.1932082 -14.1804371 -0.1666410 16711746
0.8893796 -3.2915404 0.8377770 16711746
0.4489867 -0.9625837 0.3058534 16711746
6.5551066 -7.6382179 2.8848093 16711746
1.8252363 -2.0092812 0.7312568 16711746
0.3212945 -1.3257964 0.3212067 16711746
4.7385716 -11.6706457 2.2713511 16711746
-0.0752625 -0.9229290 0.3456632 16711746
-0.1358629 -0.7951503 0.1033468 16711746
-0.0908609 -0.4734828 0.0787803 16711746
5.1085691 -9.8197317 4.2909136 16711746
2.1162415 -6.7687721 1.6226050 16711746
2.7606571 -8.3108721 1.7883695 16711746
-0.1029833 -0.2600968 0.1052655 16711746
-0.0209254 -0.9482428 0.1709104 16711746
-0.1183316 -0.4763402 0.1255652 16711746
4.9692993 -8.9312820 4.9305582 16711746
-0.1945532 -0.5362183 0.1584485 16711746
-0.1621436 -0.4556696 0.1320754 16711746
0.6953642 -1.7895756 0.1847467 16711746
2.6162775 -7.9963360 0.6570594 16711746
2.6531208 -8.4362459 2.4404016 16711746
-0.0538227 -0.5119159 0.0691512 16711746
-0.1449332 -0.8835865 0.2759108 16711746
-0.1527061 -0.3658831 0.1484230 16711746
-0.1193363 -0.2321111 0.1154995 16711746
-0.1694631 -0.4005361 0.1832439 16711746
-0.0762374 -0.6026157 0.2887173 16711746
-0.0401187 -1.0147469 0.2710952 16711746
11.5617895 -24.5584507 12.9193068 16711746
8.7266350 -13.8892679 12.0658436 16711746
1.9151689 -3.0358279 2.8328023 16711746
0.3615747 -1.6567327 1.5343907 16711746
3.5375977 -6.8009443 4.1728339 16711746
-0.7423888 -29.9213276 11.3674479 16711746
10.1153412 -19.5783577 13.9338169 16711746
2.1457255 -3.4547632 2.9687898 16711746
10.3737869 -22.3834934 12.0860548 16711746
2.1215649 -3.4177587 2.9382753 16711746
-0.6866071 -37.2020798 14.8673344 16711746
8.6854525 -20.9738007 7.1964073 16711746
-1.8263040 -38.5313110 13.1046658 16711746
3.5495076 -6.1265578 4.6116519 16711746
0.3199417 -1.4280114 1.3342658 16711746
-0.0007438 -4.0137506 2.0584350 16711746
-0.7661554 -32.1812592 12.0022812 16711746
13.7519255 -33.5019264 11.4863358 16711746
-3.9924021 -61.3564148 16.0296307 16711746
-1.1059809 -21.2543926 7.3229160 16711746
0.9375947 -1.7091663 1.1889740 16711746
-0.9071816 -46.8167381 16.7087650 16711746
22.8675804 -25.8863373 10.4563179 16711746
10.9944563 -53.7386665 7.8764372 16711746
31.2017555 -172.3698578 16.4656563 16711746
