# .PCD v.7 - Point Cloud Data file format
VERSION .7
FIELDS x y z rgb
SIZE 4 4 4 4
TYPE F F F F
COUNT 1 1 1 1
WIDTH 85
HEIGHT 1
VIEWPOINT 0 0 0 1 0 0 0
POINTS 85
DATA ascii

-4.4124017 3.3408203 -5.8540707 16711746
-3.2339404 2.9845264 -5.0062780 16711746
0.6350939 -0.5126047 0.7392850 16711746
0.4361047 -0.2784467 0.4539555 16711746
0.3469395 -0.9068095 0.2037240 16711746
0.4482868 -0.8365540 0.1936223 16711746
0.1874687 -0.5448347 0.3488504 16711746
0.1178095 -1.1500436 0.9618245 16711746
0.4690536 -1.3587166 0.2890646 16711746
0.3373362 -0.7962816 0.4681790 16711746
1.1866239 -3.6876538 2.4773648 16711746
0.7145399 -2.2048750 0.7983183 16711746
0.5309758 -0.5061677 0.2859190 16711746
0.5368460 -0.5528241 0.3031406 16711746
0.1492778 -1.4385370 0.7923158 16711746
0.9037371 -0.9248072 0.3738295 16711746
0.3285242 -3.1785338 1.7194077 16711746
0.4235336 -0.8128384 0.2857763 16711746
0.5652685 -0.9976628 0.8327789 16711746
0.4708431 -0.6159064 0.4885367 16711746
1.2849342 -2.4183726 1.5406588 16711746
0.2997724 -0.4888595 0.3886239 16711746
0.4594303 -0.4991307 0.5323442 16711746
0.3322069 -0.8542991 0.5135873 16711746
0.2106481 -1.7308333 0.7038404 16711746
0.1777933 -4.1639991 1.1419188 16711746
0.0221389 -1.3254137 0.4652829 16711746
0.0332837 -1.0479200 0.4176166 16711746
0.7403013 -1.1690600 0.3092744 16711746
0.0996775 -1.3151215 0.4820064 16711746
0.6443488 -1.7659768 0.7000761 16711746
2.3668416 -8.5857716 5.1580019 16711746
0.6770824 -0.5952932 0.2997627 16711746
0.5677988 -0.5804811 0.2230166 16711746
0.7221093 -1.4719789 1.0805553 16711746
0.0916749 -0.7662481 0.3682569 16711746
0.2208158 -0.6000792 0.1914420 16711746
0.4464760 -0.5412363 0.2759012 16711746
0.5588977 -1.3557535 0.4996836 16711746
0.6361485 -1.6744626 0.5880565 16711746
0.3519590 -0.8867210 0.1460102 16711746
0.4305755 -2.4250176 0.7223008 16711746
0.2763004 -0.7324540 0.1497404 16711746
0.5938285 -0.3644200 0.4052616 16711746
-2.7912645 3.9771044 -4.7922220 16711746
2.1436660 -4.0993018 3.9925072 16711746
0.4090571 -0.5708942 0.7177900 16711746
2.7423599 -4.4493995 4.4451208 16711746
0.5162913 -1.1907622 1.3747301 16711746
-2.7788856 2.6885288 -4.0185075 16711746
0.4094948 -0.7635034 0.5370962 16711746
3.5493171 -8.4137268 4.5165472 16711746
0.1984687 -0.8373451 0.2676533 16711746
0.2088769 -0.9234711 0.2661572 16711746
0.2837147 -1.6990758 0.3858674 16711746
0.0040295 -0.9976426 0.6589944 16711746
-0.1462947 -2.0321841 1.1654302 16711746
0.5928737 -1.0698007 0.8178949 16711746
0.6679581 -1.3006957 0.9232549 16711746
0.1629364 -1.1293255 0.1008806 16711746
0.7242909 -0.6591212 0.0947975 16711746
0.3292190 -0.3664143 0.3506957 16711746
0.7964430 -0.8927274 0.3526589 16711746
0.2000152 -1.7276939 1.2167817 16711746
-0.7953994 -3.2110584 0.3024547 16711746
-0.5049825 -1.9299356 0.2546664 16711746
0.1893727 -0.5282156 0.3467834 16711746
0.5063852 -2.4649265 0.3806096 16711746
0.3217919 -2.0636384 0.9347863 16711746
0.2207795 -1.0248510 0.5175028 16711746
-0.3531255 -1.9983256 0.0264012 16711746
-0.0241961 -2.3274369 0.8909214 16711746
0.4215778 -0.4541842 0.1723327 16711746
0.5100487 -0.5820784 0.1746506 16711746
-0.1190372 -0.8074274 0.3217543 16711746
0.2842981 -0.4768684 0.4099230 16711746
0.4041935 -0.7685760 0.5618822 16711746
0.2025076 -1.1959168 0.5278257 16711746
0.6810289 -0.9622977 0.2686045 16711746
8.5690718 -10.5674982 15.6926060 16711746
0.8107315 -5.1419220 5.9588785 16711746
93.1355591 -163.7614441 33.1645889 16711746
0.4892592 -7.3221002 5.3211412 16711746
2.7182856 -4.2846184 4.5472741 16711746
-4.2797999 -38.1184006 5.6822333 16711746
