# .PCD v.7 - Point Cloud Data file format
VERSION .7
FIELDS x y z rgb
SIZE 4 4 4 4
TYPE F F F F
COUNT 1 1 1 1
WIDTH 231
HEIGHT 1
VIEWPOINT 0 0 0 1 0 0 0
POINTS 231
DATA ascii

 2.2643218 -0.3389881 5.9124784 16777215
 0.0278313 -0.0054781 0.0718139 16777215
0.3080896 -0.8910491 0.3613573 16711746
0.2594418 -0.8789127 0.3622013 16711746
-0.1177524 -0.9244489 0.6027725 16711746
0.3783141 -0.9923866 0.3072912 16711746
0.4279395 0.7680147 -0.7340696 16711746
0.4724191 -0.9361547 0.3600700 16711746
0.5014462 -1.3904247 0.3760866 16711746
0.3983534 -1.0537615 0.2833729 16711746
0.8175163 -1.0824399 0.0761666 16711746
0.4960349 0.8264002 -0.7461779 16711746
0.1812837 -1.0048470 0.3651500 16711746
0.8132533 -0.7538409 0.4040617 16711746
0.1354594 0.5587544 -0.5515471 16711746
0.3031740 0.5739484 -0.6212332 16711746
0.4228872 0.6317788 -0.6767419 16711746
-0.0769466 -0.7370725 0.6996514 16711746
0.2551299 0.6546152 -0.5562311 16711746
0.6406720 -1.5007612 0.3318185 16711746
0.1890242 -0.9529410 0.1455865 16711746
-0.7379760 -0.9135641 0.4854012 16711746
-0.8289601 -0.8920318 0.5381765 16711746
-0.8008987 -0.8241982 0.4729599 16711746
-0.0934779 -0.8578600 0.6039097 16711746
0.0174542 -0.8263872 0.7056147 16711746
-0.4891643 -0.9287187 0.7592272 16711746
-0.1999668 -0.8800510 0.4736158 16711746
-0.2654133 -0.9148043 0.2837398 16711746
0.1175763 -1.1446133 0.1208336 16711746
0.9295461 -0.6868225 -0.0002547 16711746
-0.1614634 -0.7913150 0.5801076 16711746
-0.0164656 -0.9148780 0.5261008 16711746
0.5599164 -1.0286268 0.5726081 16711746
-0.4145728 -1.3059659 0.3385239 16711746
-0.3848750 -1.0919336 0.2705971 16711746
0.6333191 -0.7355732 0.8047385 16711746
0.8233150 -0.6791382 0.8365833 16711746
0.7538669 -0.6267841 0.6882476 16711746
1.0238469 -0.7379498 0.6417709 16711746
0.9964010 -0.7103403 0.6930048 16711746
-0.1835239 0.4885206 -0.5265553 16711746
-0.4247608 0.6903183 -0.8238177 16711746
0.1050567 -0.9317671 0.3382769 16711746
1.0429500 -0.8053032 0.5242135 16711746
0.5468686 0.8006018 -0.6113539 16711746
0.9597366 -0.8881967 0.4870082 16711746
0.7959857 -1.0329337 0.5106978 16711746
0.3787487 -1.4936931 0.1279398 16711746
0.2831254 -1.1362900 0.1046093 16711746
0.6770092 -0.8448136 0.0709840 16711746
0.6448790 -1.1405985 0.0845866 16711746
0.5023583 -0.9587984 0.0615340 16711746
0.0391847 -0.9447672 0.3576405 16711746
0.4489580 -1.2474474 0.1774529 16711746
0.3047326 -0.8960945 0.1172516 16711746
0.3366989 -1.0351701 0.1303306 16711746
-0.3163370 -0.8966303 0.3781184 16711746
-0.4944022 -1.2492779 0.4911070 16711746
-0.0086563 -0.9118318 0.3599427 16711746
0.0081329 -1.1596582 0.4180483 16711746
0.0270635 -0.9764287 0.4433265 16711746
0.0624640 -1.0172076 0.4488899 16711746
0.3894146 -0.9675109 0.8081573 16711746
0.4551915 -1.0019860 0.0318067 16711746
-0.2959179 -1.2899003 0.3577765 16711746
-0.2381983 -1.2775618 0.3321899 16711746
0.6762602 -0.7238893 0.6739320 16711746
-0.0522506 -1.2183225 0.2050286 16711746
-0.1083917 -1.2371562 0.1749811 16711746
0.6079601 -0.8572377 0.7343672 16711746
0.4163220 -0.7617790 0.7696482 16711746
0.4229015 -0.8879441 0.8517357 16711746
0.5390577 -0.8334376 0.8111471 16711746
0.2635261 -0.8546979 0.6692514 16711746
0.2755009 -0.8408438 0.7768513 16711746
-0.1071326 -0.9355420 0.4011290 16711746
0.0224512 -0.9546682 0.4800695 16711746
0.5257913 -0.9645721 0.2591346 16711746
-0.1846977 -0.9557552 0.4622090 16711746
0.4985375 -0.9356989 0.7515153 16711746
0.3858481 -0.8493582 0.6853329 16711746
0.5812421 -1.0426167 0.5181332 16711746
0.5047934 -0.7794851 0.4179502 16711746
0.0437258 -0.8645401 0.3708537 16711746
0.0667940 -0.8616746 0.6137114 16711746
0.5182473 -1.1427599 0.4074365 16711746
1.1687917 -0.8109719 0.2024491 16711746
0.3088138 -1.0018009 0.4186815 16711746
0.6095628 -0.9046540 0.3694503 16711746
0.8031516 -0.7566442 0.4221626 16711746
0.6220674 -0.8255323 0.4640240 16711746
0.8965710 -0.9086860 0.5563123 16711746
1.1239172 -0.8051410 0.3336983 16711746
-0.7986709 -1.1356233 0.0593165 16711746
-0.0054092 -0.9245904 0.2061298 16711746
-0.3050474 -1.2121485 0.1242853 16711746
-0.0669994 -0.8132706 0.5088390 16711746
1.0337631 -0.8635898 0.1569136 16711746
0.1259352 -1.0301412 0.3396255 16711746
0.1398958 -0.9281912 0.2921090 16711746
-0.2024530 -1.0701820 0.4891701 16711746
-0.1506402 -0.9860111 0.4422834 16711746
-0.2541035 -1.2202879 0.5650517 16711746
0.5538299 -0.7213500 0.4475518 16711746
0.7050641 -0.7804591 0.4473307 16711746
0.4985650 -0.8177471 0.2815258 16711746
0.9262381 -0.9600090 0.1251842 16711746
0.7349761 -0.9949221 0.3791191 16711746
-0.1843305 -0.9415647 0.5094060 16711746
0.2085157 -0.7947057 0.8646674 16711746
-0.5947204 0.5674092 -0.7512996 16711746
0.6328452 -0.6079925 0.8053215 16711746
0.6506629 -0.6521668 0.7616193 16711746
-0.6833646 -0.9694801 0.6750154 16711746
-0.5868862 -0.7891494 0.5126728 16711746
0.8144611 0.8833979 -0.5858126 16711746
-0.5799109 -0.7694808 0.5889643 16711746
-0.5719438 -1.0996159 -0.0279924 16711746
0.7576748 -0.7474720 0.5337248 16711746
0.5270602 -0.8440583 0.6889768 16711746
0.6582440 -1.0029804 0.4789221 16711746
0.0485343 -0.8693579 0.2869867 16711746
0.9371850 -0.9556223 0.1750639 16711746
0.3993919 -1.2868265 0.1250275 16711746
0.8698704 -0.9842640 -0.0031075 16711746
0.4912966 -1.0986661 0.5541702 16711746
0.3723399 -0.8411958 0.4603624 16711746
0.5432315 -1.0156250 0.6131479 16711746
0.2859831 -0.8455036 0.4612463 16711746
0.3626322 -0.8722321 0.2963065 16711746
0.5074860 -1.0692945 0.3474542 16711746
-0.8387769 -1.1340377 0.2404418 16711746
-0.4724391 -0.9684734 0.2761151 16711746
-0.0444555 -1.0456229 0.4575050 16711746
-0.1167954 -1.0414003 0.5146212 16711746
-0.4626389 -1.0637327 0.4713553 16711746
-0.0556091 -1.0714164 0.3891492 16711746
-0.0163291 -1.3002242 0.4343359 16711746
-0.3857492 -0.8744405 0.2355452 16711746
-0.1870073 -0.9933633 0.2435324 16711746
0.4300933 -1.2521058 0.2513236 16711746
0.2075661 -0.8011957 0.1461574 16711746
0.6069939 -1.2466129 0.0773382 16711746
0.4967571 -0.9780974 0.0959578 16711746
0.3896564 -1.0110409 0.0914506 16711746
0.5145780 -0.9658376 0.0996779 16711746
0.2956385 -1.0596545 0.0540687 16711746
0.1324446 -1.1377008 0.1140503 16711746
-0.1321964 0.4984944 -0.5352378 16711746
-0.1257577 0.4336734 -0.5307249 16711746
0.3787379 -0.7727779 0.7849899 16711746
-0.3069728 0.4813627 -0.5131986 16711746
0.5823640 -0.7711514 0.9743197 16711746
0.2517677 -0.7560343 0.7487885 16711746
-0.5586596 -1.2880111 0.2697443 16711746
0.4535809 -1.1769192 0.4628010 16711746
1.0179737 -0.8705341 0.1283338 16711746
0.6205869 -0.6898876 0.5305861 16711746
-0.0723627 -0.8530390 0.7019874 16711746
0.0961750 -1.0226959 0.6136483 16711746
0.5000433 -1.3441274 0.0357635 16711746
-0.0972050 -0.8380127 0.4132670 16711746
0.5148622 -1.1048369 0.5046614 16711746
0.8870092 -0.8861353 0.4130561 16711746
0.9005186 -0.9573061 0.4373355 16711746
0.0907109 -0.9881778 0.2688347 16711746
0.0103969 -0.7591555 0.6245704 16711746
-0.5032799 -1.0511726 0.5112563 16711746
0.8022328 -0.8071798 0.1402948 16711746
0.7493295 -0.8085523 0.1578559 16711746
0.3600058 -0.9886254 0.6191397 16711746
1.1935519 -0.7514126 0.3760847 16711746
0.3595581 -0.9411899 0.5281512 16711746
0.0171800 -0.8874136 0.5826703 16711746
0.1882948 -1.1422529 0.1999924 16711746
0.6082094 -1.2535849 0.1483942 16711746
0.4026509 -0.8439097 0.1148584 16711746
-0.4396394 -1.0896397 0.3017395 16711746
0.9631198 -0.5863318 0.4903727 16711746
-0.5670953 -1.0765408 0.2307542 16711746
-0.5803682 -1.2466162 0.0025233 16711746
-0.5160187 -1.0847827 -0.0229963 16711746
-0.0925440 -0.9141673 0.3823388 16711746
0.3584638 -0.8888870 0.5276844 16711746
-0.2141430 -1.0794246 0.1946642 16711746
-0.0987715 -1.9049041 0.0502146 16711746
0.0801053 -1.2774713 0.0647475 16711746
0.1021845 -1.4653178 0.0301875 16711746
0.0472534 -1.7646147 -0.0008460 16711746
-0.0885014 -1.1364065 0.0943345 16711746
-0.7986258 -0.9372292 0.2867057 16711746
-1.2483916 -1.3154713 0.4409751 16711746
-0.7426144 -1.0608648 0.3020361 16711746
0.3625598 -0.9681969 0.6471328 16711746
0.4797009 -1.0598809 0.6283512 16711746
0.3179578 -0.8512282 0.5132979 16711746
0.5822629 -0.9499491 0.6570917 16711746
0.5655228 -0.9361483 0.6904180 16711746
1.0385840 -0.6687295 0.7024692 16711746
0.8639854 -0.7437164 0.7673741 16711746
0.3231942 -1.0200909 0.3097809 16711746
0.3598467 -0.8696144 0.1352452 16711746
0.4256950 -0.9904534 0.1264916 16711746
0.5061846 -1.3613567 0.1552885 16711746
0.3282224 -0.9369759 0.4262705 16711746
0.7424654 -1.0985518 0.0507680 16711746
0.5582997 -1.0919186 0.4539876 16711746
0.3509544 -1.0711795 0.2724953 16711746
-0.2891175 -0.9607428 0.5139604 16711746
0.6280870 -0.7485604 0.5958742 16711746
0.6464246 -0.7947525 0.6191559 16711746
0.2592059 -0.9733787 0.7129691 16711746
0.3669486 -1.0249953 0.0430661 16711746
-0.9571177 -0.9131370 0.3838869 16711746
-0.8487964 -0.9119651 0.3606631 16711746
1.0137407 -0.8943198 0.2318332 16711746
0.9811360 -0.9225670 0.2272367 16711746
0.8075751 -0.7624129 0.1848316 16711746
-0.0487557 -0.8819336 0.3948200 16711746
40.6324463 -70.1138535 56.7716789 16711746
4.7647862 -12.1987972 9.7465296 16711746
49.2215080 -85.7459793 69.0678711 16711746
57.8746681 -150.0557404 35.9403458 16711746
10.8693371 -15.0892601 17.7796555 16711746
57.2863274 -91.4097519 75.9048767 16711746
33.5576515 -78.2198029 57.4172974 16711746
77.2904053 -152.6156769 35.5494843 16711746
114.2665863 -146.0173340 103.6379395 16711746
-7.9240503 -49.4846687 27.8079643 16711746
12.6092987 -292.5917969 92.1700592 16711746
