# .PCD v.7 - Point Cloud Data file format
VERSION .7
FIELDS x y z rgb
SIZE 4 4 4 4
TYPE F F F F
COUNT 1 1 1 1
WIDTH 82
HEIGHT 1
VIEWPOINT 0 0 0 1 0 0 0
POINTS 82
DATA ascii

-0.0786024 -0.9896827 0.4017426 16711746
-0.0224903 -0.9816945 0.3170468 16711746
0.0853835 -0.7547415 0.7048147 16711746
0.1500017 -0.7602641 0.7308082 16711746
0.0294529 -0.4941910 0.5546753 16711746
0.2616571 -0.6902485 0.7869846 16711746
0.6876770 -0.6368720 0.8320755 16711746
-0.1881498 -0.7773508 0.5748778 16711746
-0.2391790 -0.8007555 0.6159140 16711746
-0.2578548 -0.7553179 0.6621563 16711746
0.2854074 -0.7520380 0.7925582 16711746
0.5144849 -0.7997727 0.8633897 16711746
0.5040057 -0.8087454 0.8282958 16711746
-0.3803270 0.7077259 -0.8181195 16711746
0.4792631 -0.9344850 1.0316854 16711746
0.2640893 -0.6535887 0.7508774 16711746
0.1376764 -0.7146815 0.7386162 16711746
0.0805659 -0.8002357 0.6442777 16711746
0.0791906 -0.7958627 0.6230896 16711746
0.0538264 -1.1208403 0.5164334 16711746
-0.0833693 -0.9209493 0.4075510 16711746
0.0601082 -0.9167909 0.5015687 16711746
0.3786626 -0.8253211 0.6764102 16711746
0.5270752 -0.8271967 0.7920493 16711746
0.3181865 -0.8238394 0.6486154 16711746
0.2964112 -0.9088634 0.3795205 16711746
0.4508438 -0.8463989 0.6339235 16711746
0.4716494 -0.8509163 0.6223594 16711746
0.4995718 -0.8571624 0.5955619 16711746
0.1409413 -1.0151032 0.3811471 16711746
-0.0644420 -0.9871857 0.3652847 16711746
0.1514173 -0.8470646 0.6439402 16711746
0.1327329 -0.9314363 0.3375959 16711746
-0.1093587 -0.8718715 0.4642763 16711746
0.4194774 -0.9733443 0.5412247 16711746
0.3998679 -0.8619912 0.5265404 16711746
0.4137544 -0.9767997 0.5565403 16711746
-0.1580641 -0.7315503 0.3833361 16711746
0.4838538 -0.8299192 0.7352832 16711746
0.0655336 -0.8541070 0.6421152 16711746
0.0259586 -0.7708361 0.6423819 16711746
0.1634591 -0.8629899 0.7460735 16711746
0.3176170 -0.8850363 0.5469449 16711746
0.0824185 -0.8919696 0.5250304 16711746
0.9314780 -0.6862113 0.7829897 16711746
-0.0383623 0.3757779 -0.4698772 16711746
-0.0043524 -0.8718212 0.3254961 16711746
0.0085323 -0.9620516 0.3545256 16711746
-0.1158004 -0.9918697 0.5080485 16711746
0.1012907 -1.0561044 0.3942441 16711746
0.4018723 -0.8487482 0.5890848 16711746
-0.1478505 -0.7042526 0.4569444 16711746
0.0402500 -0.9239148 0.4983257 16711746
0.4603077 -0.8887480 0.5277475 16711746
0.2297841 -0.7710329 0.7157668 16711746
0.4009082 -0.8537324 0.5646146 16711746
0.0381414 -1.0881963 0.4846378 16711746
-0.1638724 -0.7828143 0.5633733 16711746
-0.0588313 -0.8325213 0.5979707 16711746
0.0301241 -0.9898010 0.3446829 16711746
0.0235369 -1.2811257 0.4228241 16711746
-0.1502682 -0.8733902 0.4715256 16711746
0.0446301 0.3341683 -0.4021856 16711746
0.2445948 0.4134621 -0.4498425 16711746
0.1975594 0.3987115 -0.3381579 16711746
0.0833597 -0.9555607 0.2433135 16711746
0.2673569 -0.9130626 0.4171200 16711746
0.2719139 -0.9236127 0.4735776 16711746
0.0818634 -0.8999821 0.4741354 16711746
-0.0349730 -1.1594985 0.2775202 16711746
-0.0151844 -1.0596015 0.3205763 16711746
-0.0372586 -0.9812828 0.2901963 16711746
-0.0519676 -0.8181953 0.5217662 16711746
-0.0697825 -0.8864807 0.5462858 16711746
-0.4319271 -1.4298625 0.3200303 16711746
-0.0239815 -0.9796902 0.2474406 16711746
0.0613454 -0.8689534 0.3444571 16711746
-0.0871959 -0.9937454 0.4480806 16711746
-0.0263927 -0.8754857 0.4442323 16711746
0.2748346 -0.8476784 0.5848708 16711746
0.2628302 -0.8492231 0.5514718 16711746
0.1879950 -1.0012040 0.3247253 16711746
