# .PCD v.7 - Point Cloud Data file format
VERSION .7
FIELDS x y z rgb
SIZE 4 4 4 4
TYPE F F F F
COUNT 1 1 1 1
WIDTH 62
HEIGHT 1
VIEWPOINT 0 0 0 1 0 0 0
POINTS 62
DATA ascii

 1.9730003 -0.2995616 5.0223799 16777215
 0.0260038 0.0030478 0.0458421 16777215
1.3041997 -0.5806214 0.9857863 16711746
0.3929896 -0.7729301 0.4657032 16711746
0.7597853 -0.7486500 0.9944538 16711746
-0.6168171 -1.0088246 0.6797730 16711746
-0.1029977 -0.8933747 0.6508051 16711746
-0.2627270 -1.0286248 0.7347358 16711746
-0.2517975 -1.0218410 0.7074791 16711746
-0.2459761 -0.9073057 0.7329579 16711746
0.0037549 -0.8234219 0.6968063 16711746
-0.3211907 -1.0376860 0.8081374 16711746
-0.1375649 -0.8442730 0.5537532 16711746
-0.4211137 -0.9448842 0.4770340 16711746
0.3229699 0.6551613 -0.6856185 16711746
0.4274322 0.7723742 -0.7672927 16711746
0.4131088 0.6060512 -0.7234799 16711746
-0.0364658 -0.8165135 0.7648373 16711746
0.2619741 -0.8886042 0.6274653 16711746
0.0087639 -0.8188838 0.5155564 16711746
0.0674505 -0.8195093 0.5126863 16711746
-0.2942769 -0.8756807 0.4195086 16711746
0.0444999 -0.8356695 0.6066089 16711746
0.2946868 -0.8182424 0.9014664 16711746
0.0650835 -0.8827342 0.4836601 16711746
0.0204625 -0.0012048 0.0488600 16711746
-0.4983291 -0.8568979 0.0401693 16711746
0.8599021 0.9482751 -0.8177342 16711746
0.2305940 -0.8084158 0.4037331 16711746
0.2169555 -0.8289241 0.4750178 16711746
-0.0506567 -0.8749707 0.4728083 16711746
-0.1165982 -0.8520994 0.4503355 16711746
0.4787645 -0.8804992 0.7385095 16711746
0.3208898 -0.8285466 0.6770188 16711746
0.4911124 -0.7974520 0.6357756 16711746
0.6079502 -0.8490264 0.8425995 16711746
0.4822410 -0.7854716 0.7634169 16711746
0.5556152 -0.8008382 0.7623997 16711746
-0.1045669 -0.8690912 0.5495175 16711746
0.6420731 -0.7154068 0.7088834 16711746
0.0297670 -0.8200933 0.6737015 16711746
0.8839436 0.9346651 -0.9395285 16711746
0.0530878 -0.8528458 0.7531203 16711746
0.3537606 0.6585606 -0.7187838 16711746
0.4073826 0.6959167 -0.7288807 16711746
0.0153311 -0.8183658 0.7372706 16711746
0.0106421 -0.8547550 0.8631316 16711746
-0.3665251 -0.9400812 0.3668044 16711746
0.3114890 -0.7770230 0.8004145 16711746
0.5243704 -0.6866881 0.8860488 16711746
0.5250881 -0.7330854 0.8805562 16711746
0.2458355 -0.9148725 0.8897457 16711746
-0.7335377 0.8853475 -1.2855804 16711746
1.1999421 -0.6075681 0.9255728 16711746
-0.6301864 0.6030095 -0.7857684 16711746
0.5136458 -0.7958921 0.7202938 16711746
0.2387202 -0.9005148 0.7312016 16711746
0.2274021 -0.8067187 0.6214358 16711746
0.2879152 -0.8163854 0.7165178 16711746
1.1841216 -0.6643509 0.8306320 16711746
1.0546880 -0.7159359 0.8695895 16711746
-0.4253281 0.6144145 -0.7612098 16711746
