# .PCD v.7 - Point Cloud Data file format
VERSION .7
FIELDS x y z rgb
SIZE 4 4 4 4
TYPE F F F F
COUNT 1 1 1 1
WIDTH 169
HEIGHT 1
VIEWPOINT 0 0 0 1 0 0 0
POINTS 169
DATA ascii

 0.6690724 -0.0880662 1.5508635 16777215
 -0.4506156 0.9514120 0.7564042 16777215
-0.5179818 1.0080987 0.4801675 16711746
0.7993567 -0.1944780 1.6762159 16711746
0.3796588 -0.6239823 1.4981562 16711746
-0.0926855 -0.7150335 1.5726213 16711746
-0.5742859 -0.5327929 1.7134135 16711746
-0.5121332 -0.3096344 1.7737634 16711746
-0.5307996 -0.3194253 1.7575238 16711746
-0.5928592 -0.3236006 1.8389549 16711746
0.5612664 -0.3173737 1.8498478 16711746
0.3464601 -0.8164859 2.4987440 16711746
0.1319107 -0.0919745 2.0117824 16711746
0.3005321 -0.9270576 2.4182799 16711746
0.1864443 -0.7509125 1.7693170 16711746
-0.6948232 -0.3701662 1.5826132 16711746
-1.0272825 -0.5194698 1.1951712 16711746
-0.5976771 -0.4270946 1.5368185 16711746
-0.9287763 -0.5832700 2.3525784 16711746
-0.4637117 -0.4087486 1.3165741 16711746
1.3590813 -0.5344078 1.7526070 16711746
0.2319466 -0.7894976 1.7880707 16711746
0.2414440 -1.0572314 2.3038013 16711746
-1.0275669 -0.7039716 1.2694621 16711746
-0.9555425 -0.6898206 1.2404025 16711746
-0.4206831 -0.3422577 1.4554954 16711746
-0.5553490 -0.3918899 1.7435112 16711746
-0.1394770 -0.6603447 2.1685269 16711746
-0.3647935 -0.2682490 1.3224936 16711746
0.5152813 -0.5956867 1.9428593 16711746
0.3945166 -0.5419557 1.9007387 16711746
0.0695030 -0.0992092 1.6504366 16711746
0.5871017 -0.0505181 1.9994756 16711746
0.1277292 -0.1380178 1.3010277 16711746
0.5576720 -0.0782418 2.1125166 16711746
0.2917429 -0.1911051 1.7215173 16711746
0.0279042 -0.1219108 1.6353344 16711746
0.2983306 -0.1024511 2.1085947 16711746
1.2477682 -0.0593366 1.8134491 16711746
0.2196585 -0.0924207 1.3623370 16711746
0.4409235 0.0483926 1.7018528 16711746
-0.7576727 -0.2592587 1.4451183 16711746
-0.0668430 -0.1222701 1.4763823 16711746
-0.5736633 -0.2075804 1.4707156 16711746
-0.3967546 -0.2182345 1.2582036 16711746
-0.4981764 -0.2780264 1.2548002 16711746
-0.6052903 -0.2492045 1.7894739 16711746
-1.2653579 -0.5876495 1.3870931 16711746
-1.6207960 -0.6480446 1.5799682 16711746
0.5311786 -0.3663026 1.8704973 16711746
0.4046000 -0.3545558 1.8443331 16711746
-0.1790152 -0.1534274 1.7747072 16711746
0.2492975 -0.4109387 1.4821917 16711746
-0.7183754 -0.3789059 1.7365038 16711746
-0.9001465 -0.5120977 2.0139003 16711746
0.2830741 -0.8395383 1.7844145 16711746
0.5114829 -0.6798846 1.9208121 16711746
0.2476652 -0.7201439 1.8269219 16711746
-0.6751266 1.0121772 0.3749610 16711746
-0.7198647 1.0462193 0.4295882 16711746
0.2313200 -0.4686053 1.8381848 16711746
0.4936216 -0.3154341 1.8485035 16711746
0.6060242 -0.3052547 2.4641862 16711746
0.0200356 -0.7251322 1.7444584 16711746
0.5781035 -0.5301226 1.9345551 16711746
-0.6951472 -0.4870033 1.3635821 16711746
-0.8934922 -0.5681400 1.6026168 16711746
0.4252495 -0.8246475 1.8414210 16711746
-1.3332014 -0.6716802 1.5386460 16711746
0.2877743 -0.2149620 1.7471484 16711746
0.4941939 -0.8141201 2.5753183 16711746
0.3261546 -0.6764560 1.8705693 16711746
0.5628280 -0.3824363 1.8827167 16711746
0.4169053 -0.4594932 1.8909285 16711746
-0.6137044 0.7761194 0.9042051 16711746
-0.6827598 -0.2220971 2.0633578 16711746
-0.5320109 1.0242664 0.5060855 16711746
-0.6012650 -0.2107338 1.6024867 16711746
-0.6499651 0.9912622 0.3530371 16711746
-0.7446263 1.0435787 0.4143474 16711746
-0.4679297 1.4135462 0.7232485 16711746
-0.4098459 1.0844163 0.5533301 16711746
-0.5008121 0.9963284 0.4674685 16711746
-0.4766435 0.9854332 0.4720336 16711746
-0.4450384 0.9792901 0.4776862 16711746
-0.5091270 1.6757680 0.9510018 16711746
-0.5321952 0.8217639 0.9115710 16711746
-0.5653137 1.0168225 0.4563036 16711746
0.0428465 -0.5799941 1.3776784 16711746
0.4046971 -0.7045346 1.8978922 16711746
0.2246780 -0.7235556 2.4372249 16711746
0.0837495 -1.0587411 2.1379385 16711746
-0.0988346 -0.9864852 1.9747914 16711746
0.9090854 -0.5095545 1.9193318 16711746
0.9310417 -0.2997569 1.7503639 16711746
-0.8140996 -0.5533893 1.3734971 16711746
-0.8725856 -0.7477347 1.2387090 16711746
-1.9251655 -1.0504074 1.4689332 16711746
-0.8807941 -0.4052967 1.0805022 16711746
-1.3236392 -0.4648217 1.3199849 16711746
-1.0727181 -0.4881856 1.6758674 16711746
-0.0708059 -0.2527118 1.4081118 16711746
-0.6234343 -0.3565048 1.8202531 16711746
-0.7468966 -0.3209738 1.6924775 16711746
-0.1706457 -0.4399294 1.6328139 16711746
0.0076016 -0.0955118 1.9551780 16711746
0.4647278 -0.4000306 1.8996602 16711746
1.0610533 -0.0596648 1.9679894 16711746
0.4975670 -0.2798138 1.8033133 16711746
0.4749764 -0.2879254 1.8286934 16711746
0.0454532 -0.5351710 1.3930659 16711746
0.8536289 -0.7907494 1.9991750 16711746
-0.5655751 -0.2918848 1.7121491 16711746
1.3648494 -0.6529729 1.7700044 16711746
0.6572839 -0.6727757 1.9408634 16711746
0.3970578 -0.4956587 1.9040505 16711746
0.1384005 -0.8530431 2.2560139 16711746
0.4276786 -0.8093107 1.8758738 16711746
0.6245234 -0.6307333 1.9436584 16711746
1.0702116 -0.6559495 2.0133138 16711746
0.7219460 -0.1686388 2.3301725 16711746
1.8719140 -3.9655292 1.8567548 16711746
1.7588736 -3.8100991 1.9124119 16711746
2.0472922 -4.2105703 1.8590922 16711746
2.4455490 -5.1162314 1.5811802 16711746
1.6940489 -3.3768477 2.0130270 16711746
1.7439985 -3.7740061 1.9020098 16711746
1.5069897 -3.0660310 2.0515754 16711746
1.8885659 -3.9930377 1.8600317 16711746
2.1955040 -4.7835422 1.6552589 16711746
1.9163609 -4.0695109 1.8837520 16711746
1.5703162 -3.2639709 2.0343337 16711746
1.2594668 -2.1509283 2.1225817 16711746
0.7742537 -2.4508202 1.7591716 16711746
1.4908469 -2.6983166 2.0531960 16711746
1.5282190 -3.1836863 2.0137515 16711746
1.4239001 -3.0869176 2.0765884 16711746
1.9200938 -4.1031284 1.8932195 16711746
1.3393489 -2.2630932 2.0996163 16711746
-0.5604527 -1.2301596 1.8028157 16711746
1.3244678 -2.2144907 2.0825377 16711746
1.3761463 -2.3119030 2.1054492 16711746
3.7027080 -7.3843412 4.1257362 16711746
1.5349147 -3.2130277 2.0351174 16711746
1.8853767 -4.1414447 1.8368503 16711746
0.7559122 -2.4202967 1.7607365 16711746
1.3451564 -2.3332899 2.0882032 16711746
1.4788424 -2.6816103 2.0541995 16711746
1.7700516 -3.5405691 2.0057039 16711746
3.2140279 -8.1915398 6.2733812 16711746
0.6908101 -0.9801562 1.6217250 16711746
1.5153995 -3.1283753 2.0200987 16711746
1.5936512 -2.9039543 2.1378982 16711746
1.3896208 -2.4857972 2.0862265 16711746
1.2615371 -2.4291773 2.2084632 16711746
1.3239965 -1.9968621 2.0820148 16711746
2.2142878 -4.3525424 1.8326401 16711746
1.2933030 -2.2321405 2.1197028 16711746
1.6010640 -3.0493059 2.0487127 16711746
0.0778135 -2.1243579 1.7670914 16711746
1.5059880 -3.0851192 2.0210662 16711746
1.3930997 -2.2501528 2.0863781 16711746
1.4794010 -2.8938928 2.0002847 16711746
1.7213606 -3.4684594 2.0508182 16711746
1.6977887 -3.5149293 1.9912630 16711746
1.4147974 -2.2665460 2.0734363 16711746
1.8993227 -3.7135425 1.9565629 16711746
1.6893362 -3.6801176 1.9646323 16711746
1.3734940 -2.1204884 2.1178095 16711746
