# .PCD v.7 - Point Cloud Data file format
VERSION .7
FIELDS x y z rgb
SIZE 4 4 4 4
TYPE F F F F
COUNT 1 1 1 1
WIDTH 85
HEIGHT 1
VIEWPOINT 0 0 0 1 0 0 0
POINTS 85
DATA ascii

0.1938231 -1.0887657 0.7602893 16711746
0.1301634 -0.5680846 0.4108092 16711746
0.3264576 -1.5649937 1.2205434 16711746
0.4049067 -0.9532267 0.3700694 16711746
0.6096854 -1.5520304 0.5789280 16711746
0.4708124 -0.4466055 0.2755971 16711746
-0.0869285 -1.0730997 0.7052229 16711746
-0.0260891 -0.3697135 0.2652784 16711746
0.4835340 -0.9238336 0.8956924 16711746
0.2758238 -0.6227954 0.5624002 16711746
0.6401412 -0.9801388 0.9499171 16711746
0.2382191 -1.5501988 1.1939353 16711746
0.1507828 -0.5514231 0.4332550 16711746
0.0950579 -0.4410184 0.4072082 16711746
0.1033078 -0.5879120 0.3951680 16711746
0.1184148 -0.5947405 0.4006511 16711746
-1.1253923 1.7850143 -2.2656770 16711746
-0.0878786 -1.0127369 0.7317155 16711746
-0.1577587 -0.9833043 0.8050716 16711746
-0.1354545 -0.9560319 0.8058838 16711746
-0.7591449 -1.4492480 1.1731232 16711746
-0.1061536 -0.2967288 0.2757148 16711746
-0.7594010 -1.7595460 1.4451272 16711746
-0.2168584 -1.8805948 1.0807066 16711746
0.2702141 0.7441790 -0.8551394 16711746
0.4295519 -0.9071555 0.4219394 16711746
-0.0958796 -1.1060067 0.6981969 16711746
-0.1939512 -1.8006829 1.1068894 16711746
-0.2652900 -0.9505878 0.4206116 16711746
-0.3854280 -1.4290200 0.7121208 16711746
-0.4110801 -1.0290258 0.5462428 16711746
-0.3011814 -1.3624543 0.6369672 16711746
-0.3161117 -1.4252346 0.6301832 16711746
0.2637801 -0.4737012 0.3246661 16711746
-0.0973590 -0.9885312 0.7506203 16711746
0.5873765 0.8415491 -1.0830894 16711746
0.3993278 -0.8176968 0.4836471 16711746
0.5338489 -1.2829840 0.7916062 16711746
0.3322915 -1.7672583 1.0778826 16711746
0.2138489 -1.1597409 0.6843077 16711746
-0.0271155 -0.7298531 0.2597530 16711746
0.2523467 -0.7570233 0.4181755 16711746
-0.0236576 -1.0500602 0.4230885 16711746
0.5358466 -1.3079344 0.7814879 16711746
-0.3074139 -1.6234552 0.5305778 16711746
0.0954272 -0.4939241 0.3956836 16711746
0.3419414 -0.9258556 0.3630570 16711746
0.3292098 -0.6711639 0.5831057 16711746
0.5287954 -0.7906155 0.6995611 16711746
0.6069949 -1.0979141 0.8988477 16711746
0.5622841 -0.2998121 0.4177136 16711746
0.7111589 0.9942566 -1.1505091 16711746
0.3694828 0.7897239 -0.8807037 16711746
0.3603477 0.8489851 -0.8633047 16711746
-0.5351426 -1.2385886 1.0844721 16711746
0.4643062 0.8714955 -0.8434600 16711746
0.2811962 -0.5903576 0.2678544 16711746
0.3508580 -0.5210643 0.3236713 16711746
-0.1672878 -0.6391556 0.1473004 16711746
0.6096556 1.1081438 -1.2350144 16711746
0.5891161 0.9217305 -1.0884631 16711746
-0.1175023 -1.6386943 0.3190069 16711746
0.1430039 -0.7395216 0.3887887 16711746
0.4214037 -1.2989194 0.4361017 16711746
0.4615631 -0.7894857 0.5969894 16711746
0.3756051 -0.7318214 0.5612414 16711746
0.4225325 -0.7454759 0.6142954 16711746
0.4237734 -0.7548659 0.5990682 16711746
-0.2121782 1.3273712 -1.7345871 16711746
0.3703045 -0.6573452 0.7345268 16711746
0.3540180 -0.7790649 0.8463120 16711746
0.3746973 -0.8764418 0.8498319 16711746
0.4875777 -0.7185578 0.8066861 16711746
0.4047632 -0.6755916 0.7631851 16711746
0.4712139 -0.7213042 0.7675765 16711746
0.6242625 -1.3059894 1.5010304 16711746
0.6096296 -1.4018422 1.5627829 16711746
0.1140512 -0.9945484 0.9699173 16711746
0.4195932 -1.4586666 1.3665456 16711746
0.4475420 -1.3206236 1.5055233 16711746
0.4111886 -1.3632926 1.4437118 16711746
-2.1441553 1.6605195 -2.5318367 16711746
-1.8698528 1.6683074 -2.6674640 16711746
-1.3138629 -1.4658899 1.0217304 16711746
-0.0856115 -0.4649791 0.3397526 16711746
