# .PCD v.7 - Point Cloud Data file format
VERSION .7
FIELDS x y z rgb
SIZE 4 4 4 4
TYPE F F F F
COUNT 1 1 1 1
WIDTH 46
HEIGHT 1
VIEWPOINT 0 0 0 1 0 0 0
POINTS 46
DATA ascii

0.7381998 -1.6241275 0.2221697 16711746
0.5469701 -1.5721253 0.4546613 16711746
0.4130756 -1.0079712 0.0344271 16711746
-0.2895086 -1.6527190 0.4994304 16711746
0.4095306 -1.0792230 0.1299825 16711746
0.3547933 -0.9196886 -0.0001440 16711746
-0.6104519 -1.1442417 0.0245586 16711746
0.3380990 -1.1229628 0.0267168 16711746
0.3554895 -1.0859638 -0.0061635 16711746
0.8496877 -1.0578893 0.0870716 16711746
0.1638332 -0.8956858 0.0343820 16711746
-0.2084556 -1.3301064 0.3861128 16711746
-0.2996932 -1.5299529 0.4256409 16711746
-0.2937397 -1.7823242 0.4531278 16711746
-0.6400177 -0.8820041 0.1122280 16711746
-0.6137924 -0.7784331 0.0906140 16711746
0.7371185 -1.3618758 -0.0305530 16711746
-0.3660933 -0.7437817 -0.0169895 16711746
-0.7915510 -0.9588271 0.1614454 16711746
-0.7445483 -0.8463157 0.1489021 16711746
-0.6876332 -1.3328567 0.0742392 16711746
-0.7112565 -1.1494230 0.1354439 16711746
0.8063915 -1.1229675 0.0877871 16711746
-0.0374627 -1.4337456 0.4579732 16711746
0.2820930 -1.0032095 -0.0042105 16711746
0.4099839 -1.3870829 0.1843916 16711746
-0.5800301 -0.9481618 0.0297543 16711746
-0.5184256 -0.8169503 0.0245242 16711746
0.7712515 -0.9617056 0.1729389 16711746
0.4736836 -1.5265908 0.3660649 16711746
-0.7405675 -0.8411656 0.0748205 16711746
-1.1189458 -1.0342180 0.1217401 16711746
-0.5006437 -0.8408393 0.0487115 16711746
-0.0622335 -1.2387619 0.1947075 16711746
-0.0548782 -1.3187284 0.3862706 16711746
0.1764362 -0.9295241 0.0157020 16711746
0.4431433 -1.1408401 0.1124620 16711746
0.3597812 -1.2710384 0.1317623 16711746
0.2063260 -1.0320148 0.0408809 16711746
0.2063327 -1.2389989 0.0570424 16711746
0.5343825 -0.8887910 0.0117543 16711746
0.4917051 -1.4861676 0.1985757 16711746
-0.3730811 -1.2812159 0.6209846 16711746
0.3910784 -1.0146167 0.0794170 16711746
0.3343672 -0.9072202 0.0605694 16711746
0.1233302 -0.7935305 0.0096455 16711746
