# .PCD v.7 - Point Cloud Data file format
VERSION .7
FIELDS x y z rgb
SIZE 4 4 4 4
TYPE F F F F
COUNT 1 1 1 1
WIDTH 84
HEIGHT 1
VIEWPOINT 0 0 0 1 0 0 0
POINTS 84
DATA ascii

2.4632974 -2.7025034 2.6894195 16711746
1.3456581 -1.6072974 1.5428325 16711746
-0.1221217 2.2145927 -2.6168158 16711746
-0.4720192 2.6786761 -3.4964707 16711746
0.1052619 -0.1388824 0.2229766 16711746
0.1311387 -0.1437958 0.2301427 16711746
0.4664531 -0.6988994 0.7545813 16711746
0.0372101 -0.3564380 0.3756413 16711746
0.0531001 -2.5137975 1.9753180 16711746
2.9259853 -3.3034377 0.8563817 16711746
3.2787125 -3.2527366 1.3884323 16711746
-0.0596492 -0.3119349 0.1764574 16711746
1.8769062 -3.3598466 1.6057059 16711746
0.8277338 -2.8311281 1.6316046 16711746
0.0531490 -0.1662582 0.2293490 16711746
0.5755910 -1.1010615 0.6024783 16711746
0.1212882 -0.1982002 0.1858682 16711746
1.2643976 -2.7590590 1.6459357 16711746
0.4911444 -0.9219880 0.5988262 16711746
1.2450031 -2.7821136 1.5964979 16711746
0.2709099 -1.0904335 0.6375211 16711746
0.1918507 -0.2886784 0.2796207 16711746
1.7314702 -2.9981904 1.8853424 16711746
0.2739791 -3.3795106 1.1426033 16711746
0.0709101 -0.2777244 0.1807495 16711746
0.2161287 -0.9741986 0.5873747 16711746
1.9094679 -2.7837808 2.2520225 16711746
0.1602795 -0.1927295 0.2622724 16711746
0.5774496 -2.9853814 2.5783939 16711746
-0.0064651 0.9136701 -0.8294838 16711746
-1.8184816 1.7277101 -2.4082367 16711746
-0.2934301 0.2356667 -0.3394852 16711746
-0.6581357 -2.0637481 1.0395391 16711746
-1.2156682 -3.7071092 1.9637152 16711746
0.3613764 0.3893126 -0.3195785 16711746
1.4256219 2.2437968 -1.7679701 16711746
0.1259563 -0.4012852 0.0964219 16711746
1.6592574 -3.3989294 1.3116198 16711746
1.6206031 -3.9137642 1.5427887 16711746
1.4446716 -3.5742390 1.8147814 16711746
0.0990241 -0.2932231 0.2025788 16711746
0.0136505 -0.1843769 0.0906241 16711746
1.9794028 -4.1411819 2.0850265 16711746
1.3007576 -2.9466999 1.4697108 16711746
1.3702093 -3.3064339 1.0316317 16711746
-0.0698771 -0.3120627 0.1921261 16711746
-0.6073081 -1.9891865 0.6438324 16711746
0.1537320 -1.6408463 0.6432723 16711746
-0.1021651 -1.0495760 0.3877788 16711746
0.2282370 -0.5215662 0.1964814 16711746
1.2060769 -3.3309705 0.6545706 16711746
0.2918631 -3.2311811 1.3986887 16711746
0.1542303 -0.3951983 0.1295154 16711746
-0.0174495 -0.7733380 0.1513156 16711746
0.0296066 -0.1768209 0.1075517 16711746
-0.3933246 -4.0941734 0.2818362 16711746
0.1192160 -0.2120661 0.1687088 16711746
0.1440385 -0.3023488 0.1948558 16711746
1.7890702 -4.0184655 2.1278663 16711746
0.1262075 -0.3639155 0.3884530 16711746
0.2511625 -4.3307419 2.0971355 16711746
1.7254611 -2.3810334 0.6461881 16711746
0.0561765 -0.1912111 0.2567129 16711746
-0.0641121 -0.2995897 0.2051670 16711746
1.0088423 -3.0264089 0.7829958 16711746
0.5181462 -1.8191738 0.4743128 16711746
0.4095613 -0.6604915 0.3399139 16711746
-1.4061450 -3.9084904 1.7789903 16711746
-0.0640694 -0.1762194 0.1208618 16711746
0.0876253 -0.2460288 0.2042599 16711746
0.2096121 -0.8370925 0.6804001 16711746
0.1671855 -0.7368671 0.6573308 16711746
0.5225912 -0.9510754 0.6519416 16711746
0.4433058 -0.8016585 0.6049500 16711746
0.8757932 -2.3071332 1.6039739 16711746
0.9050174 -2.4458523 1.5078738 16711746
0.0860627 -0.2472659 0.2385756 16711746
-0.0369526 -0.2965071 0.1992693 16711746
0.5712094 -4.0872397 1.1071848 16711746
0.0691689 -0.1815621 0.1608658 16711746
0.0129063 -0.2885771 0.1049157 16711746
-0.0540785 -0.1875065 0.0878213 16711746
0.1314819 -1.5017800 0.1100869 16711746
-0.1729699 -0.2273535 0.1455294 16711746
