# .PCD v.7 - Point Cloud Data file format
VERSION .7
FIELDS x y z rgb
SIZE 4 4 4 4
TYPE F F F F
COUNT 1 1 1 1
WIDTH 99
HEIGHT 1
VIEWPOINT 0 0 0 1 0 0 0
POINTS 99
DATA ascii

 0.2840556 -0.0247558 0.5424947 16777215
 0.0086206 -0.0017893 0.0109648 16777215
0.1832222 -0.2771466 0.2801469 16711746
-0.1054540 -0.8571528 0.4727950 16711746
0.2719328 -0.9755681 0.4626834 16711746
0.2558321 -1.0184356 0.4810400 16711746
0.2349763 -0.8940142 0.4423957 16711746
-0.1576942 -0.8515694 0.5510402 16711746
-0.1840564 -0.7929410 0.5049505 16711746
-0.1224348 -0.7340042 0.4583471 16711746
0.9988986 -1.3804890 0.7212961 16711746
0.0385566 -0.7844540 0.5836869 16711746
0.0030461 -0.7494721 0.5622158 16711746
0.2877446 -0.6882159 0.3998997 16711746
0.0120889 -0.6765348 0.4327992 16711746
0.5914410 -0.6565596 0.4145624 16711746
0.4926477 -1.0033883 0.5759441 16711746
0.5381255 -1.0738277 0.5920451 16711746
0.4728974 -1.0000787 0.5423318 16711746
0.0896355 -0.7151423 0.4294584 16711746
-0.1163276 -0.8247061 0.5072621 16711746
0.8281835 -1.5736804 0.6010247 16711746
0.7989227 -2.3695083 0.7051364 16711746
-0.1291278 -0.9737424 0.5626152 16711746
0.7952867 -1.8424816 0.7292461 16711746
0.8083394 -2.0309672 0.8004813 16711746
0.5791720 -1.5859360 0.6041021 16711746
0.7777222 -2.4539227 0.8621899 16711746
0.6714418 -1.2374657 0.5513971 16711746
0.6551943 -1.9675493 0.8654570 16711746
1.1834233 -2.0030053 0.6632913 16711746
1.0981007 -1.5052972 0.6156674 16711746
0.0828635 -0.5451131 0.4787280 16711746
-0.0931768 -0.7119719 0.5270144 16711746
-0.0915405 -0.7112904 0.5120628 16711746
1.4973580 -1.2010814 0.5672797 16711746
0.4280233 -1.1433159 0.6427662 16711746
0.6578355 -1.4852253 0.8112631 16711746
0.4543046 -1.1027519 0.5665110 16711746
0.4562755 -1.1792865 0.6135090 16711746
0.5982807 -1.4559501 0.7199364 16711746
0.7414984 -1.5824072 0.5996106 16711746
1.0925752 -2.2514195 0.7212716 16711746
-0.2152272 -1.6747570 0.6197103 16711746
0.7548002 -1.9700763 0.5445549 16711746
1.2853396 -2.1623290 0.7748926 16711746
0.7143792 -1.3474299 0.5031084 16711746
0.0506485 -0.8833910 0.5483257 16711746
0.0055571 -1.0426867 0.6064078 16711746
0.7929778 -2.2934515 0.5441843 16711746
0.4605551 -0.8715748 0.5840896 16711746
0.3475872 -0.7256311 0.4837807 16711746
0.3906878 -0.7912766 0.4984334 16711746
0.0639026 -1.3971102 0.7305187 16711746
0.5481533 -1.8915687 0.6989574 16711746
0.5649313 -0.7181809 0.4273137 16711746
0.0641554 -0.9483931 0.5365101 16711746
0.0048872 -0.7567409 0.4292976 16711746
0.0569745 -1.7231833 0.9294344 16711746
0.2705214 -0.4826615 0.3588906 16711746
0.2557255 -0.5306445 0.4120080 16711746
0.2530429 -0.4353718 0.3719185 16711746
0.0567620 -0.8398517 0.5985872 16711746
0.2563052 -0.7329195 0.3796279 16711746
0.3467350 -0.7770062 0.4799552 16711746
0.3522937 -0.5424765 0.3751328 16711746
0.5752401 -1.2291533 0.7107273 16711746
0.0764692 -0.9158888 0.4982180 16711746
0.3769275 -0.2812391 0.2816105 16711746
0.3188995 -0.3977278 0.3253068 16711746
0.2496334 -0.2650968 0.2558033 16711746
0.5227550 -0.5919546 0.3642056 16711746
0.6319554 -0.8385277 0.5726337 16711746
0.5986457 -0.5891937 0.3898534 16711746
-0.6472799 0.9090364 -1.1329553 16711746
-0.6513352 0.8393268 -1.1836075 16711746
0.1382110 -0.2175279 0.2239254 16711746
0.1882341 -0.3131588 0.2923791 16711746
0.0785869 -0.5511366 0.4664457 16711746
0.0349502 -0.2202970 0.2286449 16711746
0.0412091 -0.2231217 0.2315559 16711746
0.0580003 -0.2775150 0.2658740 16711746
-0.7562434 0.7658086 -1.2055212 16711746
0.3236340 -0.3129010 0.3243770 16711746
0.0470403 -0.0532817 0.0668509 16711746
0.0189668 -0.0187446 0.0273299 16711746
-0.0193151 -0.6668661 0.4685035 16711746
-0.0255040 -0.8090952 0.5010908 16711746
-0.1728605 -0.8706910 0.6225852 16711746
-0.1536813 -0.9873582 0.5663635 16711746
-0.0553293 -0.7241405 0.4236600 16711746
0.6874111 -1.3714018 0.6114109 16711746
0.4507172 -1.9797618 0.7388948 16711746
0.2046831 -0.9639294 0.4290248 16711746
0.9613045 -0.6675478 0.3470309 16711746
0.8385348 -1.7368379 0.6600487 16711746
0.6052579 -0.9702868 0.9561391 16711746
1.4482909 -3.0259800 2.0732200 16711746
-1.4792463 -15.7399235 6.7371459 16711746
