# .PCD v.7 - Point Cloud Data file format
VERSION .7
FIELDS x y z rgb
SIZE 4 4 4 4
TYPE F F F F
COUNT 1 1 1 1
WIDTH 79
HEIGHT 1
VIEWPOINT 0 0 0 1 0 0 0
POINTS 79
DATA ascii

-0.0193285 -1.0014392 0.4673990 16711746
-0.2407265 -1.1937053 0.4895016 16711746
-0.2187284 -1.2376080 0.4771125 16711746
-0.6951963 -0.7211011 0.3397855 16711746
-0.4481176 -0.9131907 0.1534158 16711746
-0.6900023 -1.1099364 -0.0237716 16711746
-0.1038585 -1.1320986 0.3135321 16711746
0.0247359 -0.9171118 0.3109066 16711746
0.4563467 -0.7800364 0.2410306 16711746
-0.1036887 -0.8611765 0.3775633 16711746
0.1759897 -0.8844785 0.3207975 16711746
-0.5076391 -1.2198642 0.2658008 16711746
-0.3987003 -1.0479646 0.2034644 16711746
-0.4214938 -0.9925429 0.1957615 16711746
0.4746184 -1.0318978 0.2472913 16711746
0.2396290 -1.0197434 0.7421059 16711746
-0.7025861 -0.7671591 0.2848432 16711746
-0.9087290 -0.9832438 0.3856269 16711746
-0.4672310 -0.7836313 0.1506360 16711746
-0.0406912 -1.0241801 0.2817757 16711746
-0.3697050 -0.8102299 0.1848046 16711746
0.3077744 -1.3743517 0.2329398 16711746
0.2700965 -1.3733677 0.2095761 16711746
-0.4784226 -1.3208945 0.1916948 16711746
-0.7024724 -0.9905622 -0.0400308 16711746
0.0142401 -0.9725281 0.3137917 16711746
-0.6898693 -0.7448459 0.0054091 16711746
-0.4814989 -1.2678447 0.3484354 16711746
0.1370659 -1.1910844 0.1045140 16711746
0.6436084 -1.1208631 0.0325209 16711746
-0.0536099 -1.2147230 0.1594559 16711746
0.3094300 -0.8195335 0.4628797 16711746
-0.2029036 -0.7689554 0.3898019 16711746
-0.0642124 -1.0962492 0.4166364 16711746
-0.0718828 -0.8005604 0.3127933 16711746
0.5109971 -0.8826494 0.1966727 16711746
0.5585029 -1.0714097 0.0965163 16711746
0.1669632 -1.0134414 0.7429956 16711746
-0.7664289 -0.7831402 0.4040242 16711746
-0.0838244 -0.9585095 0.5284663 16711746
-0.3693565 -1.1603447 0.7240116 16711746
-0.3726460 -0.8979960 0.7694153 16711746
0.3260198 -0.9059469 0.5464249 16711746
0.6474692 -1.1031122 0.2006551 16711746
0.5249745 -1.2617352 0.3866495 16711746
-0.0350043 -0.9526653 0.3066720 16711746
-0.0486090 -1.1604575 0.3417712 16711746
-0.0551409 -0.8469474 0.2544360 16711746
-0.0428501 -0.9339927 0.3300713 16711746
-0.5867333 -0.8456121 -0.0049177 16711746
-0.5794919 -0.8703597 -0.0212624 16711746
0.4954726 -1.1570339 0.2784144 16711746
0.1219059 -1.0744021 0.1404133 16711746
0.4618517 -1.4275218 0.1149093 16711746
0.1718445 -1.3433510 0.0129162 16711746
0.3907205 -1.4219998 0.0491050 16711746
0.0850477 -1.0596757 0.0677281 16711746
0.7660269 -1.0301428 0.0619389 16711746
-0.1463050 -0.9641141 0.1902703 16711746
-0.3199638 -1.1949997 0.1123342 16711746
-0.2106598 -0.8916733 0.1598490 16711746
0.0043349 -1.1668292 0.3866894 16711746
-0.8037950 -0.8243151 0.7058020 16711746
-0.8089510 -0.8085923 0.6873478 16711746
0.0606986 -1.0424101 0.1958409 16711746
-0.6832642 -0.8056118 0.0166958 16711746
0.3795956 -0.8958548 0.0944642 16711746
-0.7002820 -1.0407282 -0.0459898 16711746
-0.6991533 -1.0491338 -0.0588902 16711746
-0.5696566 -0.9035033 -0.0278874 16711746
-0.0357732 -1.2291262 0.1235173 16711746
0.5664180 -0.9940177 0.3968870 16711746
-0.0200611 -0.7714727 0.3779480 16711746
0.2501960 -1.0979232 0.4299128 16711746
0.0665150 -1.2302518 0.3455220 16711746
0.0981348 -0.9682401 0.1054710 16711746
0.0794472 -0.9611480 0.0845166 16711746
0.0438411 -1.1731424 0.4085823 16711746
-0.5278767 -1.0305579 -0.0250346 16711746
