# .PCD v.7 - Point Cloud Data file format
VERSION .7
FIELDS x y z rgb
SIZE 4 4 4 4
TYPE F F F F
COUNT 1 1 1 1
WIDTH 70
HEIGHT 1
VIEWPOINT 0 0 0 1 0 0 0
POINTS 70
DATA ascii

0.3008069 -0.6557211 0.6668742 16711746
0.3291225 -0.7208773 0.6768106 16711746
0.4443480 -0.6677215 0.6762176 16711746
-0.7629299 -0.7555030 0.6449469 16711746
-0.2783737 -0.8730304 0.5858966 16711746
-0.2442629 -0.9355947 0.4856189 16711746
-0.3102466 -0.9199141 0.5141423 16711746
0.5542436 0.4346593 -0.4862156 16711746
0.2317999 0.4637504 -0.5187454 16711746
0.2121658 0.4045768 -0.5089917 16711746
0.0591754 0.4876889 -0.6046679 16711746
0.3043999 0.4269041 -0.5087827 16711746
-0.1826042 -1.0042259 0.3447258 16711746
-0.5487505 -1.0281140 0.2809384 16711746
-0.3835874 -1.0902004 0.1338103 16711746
-0.0842333 -0.9064376 0.4973443 16711746
-0.2447950 -0.9878448 0.3895249 16711746
-0.0194462 -1.0814556 0.6026357 16711746
-0.5405285 -1.1382159 0.1646656 16711746
-0.2044610 -0.9301878 0.4708657 16711746
-0.0867300 -0.9866717 0.4998186 16711746
0.5269657 0.5023430 -0.4691222 16711746
-0.3198313 -1.0868032 0.3462767 16711746
-0.6371884 -1.1215351 -0.0397429 16711746
0.3119337 -0.7731800 0.6011856 16711746
0.2433955 -0.7733817 0.5934151 16711746
0.0514143 -0.7581397 0.6378114 16711746
0.0069529 -0.7699145 0.6347349 16711746
0.4437812 -0.8700641 0.5844197 16711746
0.1090647 -0.8795159 0.4810683 16711746
-0.3614237 0.7277849 -0.8907598 16711746
-0.2284656 0.5906602 -0.7389383 16711746
-0.2313018 0.6286382 -0.7061641 16711746
-0.5292227 0.7938565 -1.0383275 16711746
-0.2359397 -0.7876058 0.7059015 16711746
-0.0507883 -0.7551035 0.6833204 16711746
0.2284190 0.5369379 -0.5193797 16711746
-0.3736850 -0.7988456 0.6859764 16711746
0.0022805 -0.0137952 0.0359426 16711746
0.0401198 -1.0816675 0.3186200 16711746
-0.9577044 -0.9994268 0.3087060 16711746
-0.7145731 -1.0922629 0.3504405 16711746
-1.0308566 -0.9690927 0.3708650 16711746
-0.9549875 -0.9231708 0.3193570 16711746
-0.8704417 -1.1350077 0.2500328 16711746
-0.2604522 -1.1205088 0.3073453 16711746
-0.9000610 -1.0217258 0.2301735 16711746
-0.3443716 -1.1465518 0.3066839 16711746
-0.9470202 -0.7354202 0.5713683 16711746
0.4099307 -0.8288245 0.6146047 16711746
-0.3174500 -1.1257936 0.2141214 16711746
0.5441633 -0.9139330 0.6602643 16711746
0.2852505 0.5213751 -0.5230787 16711746
0.2678629 0.5754278 -0.5520877 16711746
-0.6638535 -1.1749594 0.1562850 16711746
0.5375343 0.5060976 -0.4636519 16711746
-0.1626635 -0.9868337 0.3343317 16711746
-0.6234388 -1.0353513 0.1787651 16711746
0.2587463 0.4745029 -0.5044544 16711746
0.3576414 -0.8285784 0.5577055 16711746
-0.2430611 0.7170712 -0.7683117 16711746
-0.2444200 0.7256444 -0.7629544 16711746
0.0902748 -0.9366692 0.5342804 16711746
-0.9044117 -1.0182821 0.2712137 16711746
-0.5923829 -1.0515628 0.3242619 16711746
-0.0915649 -0.9660445 0.3592318 16711746
-0.4092814 -1.0537460 0.2142355 16711746
-0.0510549 -1.1113052 0.5065761 16711746
-0.1169778 -0.9423108 0.4239313 16711746
-0.5115221 -0.9638436 0.4107145 16711746
