# .PCD v.7 - Point Cloud Data file format
VERSION .7
FIELDS x y z rgb
SIZE 4 4 4 4
TYPE F F F F
COUNT 1 1 1 1
WIDTH 141
HEIGHT 1
VIEWPOINT 0 0 0 1 0 0 0
POINTS 141
DATA ascii

0.5096282 -1.0013615 0.5619950 16711746
0.6450799 -1.4320439 0.7499102 16711746
0.8044470 -0.4659609 0.3967872 16711746
0.4312010 -0.5414467 0.3296832 16711746
0.5675991 -0.7128490 0.2786908 16711746
0.1416411 -1.7326925 1.0394711 16711746
0.1204007 -1.1964175 0.7230245 16711746
0.8871939 -0.5183152 0.3636805 16711746
0.5908458 -0.8545167 0.2483093 16711746
0.5689111 -0.7724730 0.2139358 16711746
0.8882073 -0.6819235 0.6125662 16711746
-0.1811409 -1.9680727 0.6061487 16711746
0.3105551 -0.7314203 0.1609754 16711746
-0.2709068 -1.5823578 0.1547812 16711746
-0.3806891 -2.0841115 0.2896900 16711746
1.0146160 -0.5144039 0.4757103 16711746
0.9025139 -0.6640297 0.5678207 16711746
0.5817788 -0.6652676 0.5602777 16711746
0.8549526 -0.6564544 0.3569908 16711746
0.5542304 -0.7497721 0.3881615 16711746
0.6394833 -0.6048555 0.3240002 16711746
-0.0196656 -2.5618055 0.4577134 16711746
0.8111619 -0.5257453 0.8324893 16711746
0.7818124 -0.5842431 0.8951167 16711746
0.9321160 -0.5906639 0.6601889 16711746
0.7100264 -0.8036023 0.7340116 16711746
0.7122880 -0.7300722 0.6701475 16711746
0.8790328 -0.8085593 0.7478889 16711746
0.6696585 -0.7758031 0.8199764 16711746
0.4734778 -0.9528972 0.6185297 16711746
0.4490905 -1.2049005 0.7501397 16711746
0.4779404 -0.8668563 0.5792701 16711746
0.3366795 -0.8719211 0.6228184 16711746
0.3702471 -0.5603536 0.4361091 16711746
0.4974438 -1.2459425 0.6392088 16711746
0.2809777 -0.9712300 0.4152200 16711746
0.6711565 -0.7465467 0.3339026 16711746
0.7052103 -0.4260030 0.3261102 16711746
0.3759990 -0.4939538 0.2742199 16711746
0.4090836 -0.6832224 0.4254558 16711746
0.8296814 -0.9962859 1.0949396 16711746
0.6480301 -0.5834785 0.2973082 16711746
-0.1928375 -1.7814827 0.7150535 16711746
0.5613503 -1.1729985 0.8988516 16711746
0.3713797 -0.4427387 0.3740019 16711746
-0.1205316 -2.0645578 0.5772096 16711746
-0.1944859 -2.1535089 0.5731046 16711746
0.4144768 -1.2257559 0.8178961 16711746
0.4284884 -1.2816111 0.8234951 16711746
0.6388255 -1.4002757 0.7597809 16711746
0.6845748 -0.5969349 0.6479795 16711746
0.4572644 -1.3114977 0.7480785 16711746
0.3506086 -1.0186541 0.5879831 16711746
0.7804871 -0.7447755 0.5011099 16711746
0.5891799 -0.5832353 0.4214981 16711746
0.3796337 -1.4491917 0.4269117 16711746
0.5269104 -1.1200508 0.5213540 16711746
0.1911632 -1.3202375 0.5614969 16711746
0.6907363 -0.9052892 0.3598980 16711746
0.3895301 -0.5222208 0.2345804 16711746
0.4081976 -1.0560552 0.4557042 16711746
0.0915215 -0.9679515 0.8178906 16711746
0.3334301 -0.9233065 0.3176506 16711746
0.3588456 -1.0884544 0.5609276 16711746
0.5664806 -1.0089360 0.8026064 16711746
0.2248960 -0.6368623 0.3849714 16711746
0.2157597 -0.8159258 0.3427596 16711746
0.5635847 -0.6505786 0.1821477 16711746
0.3863794 -0.7431171 0.2136166 16711746
0.4779471 -0.9051480 0.2218166 16711746
0.3167298 -1.1479203 0.2087189 16711746
0.6655571 -0.4901940 0.2428376 16711746
0.7077569 -0.9356033 0.3926287 16711746
0.5623978 -0.6559603 0.2731909 16711746
-1.4162781 0.6404249 -1.3771437 16711746
0.6028385 -0.4965126 0.7791104 16711746
0.8829601 -0.7816844 1.3850462 16711746
0.7049935 -0.6397309 1.0523221 16711746
0.4661196 -0.9070028 0.2790577 16711746
0.5572554 -1.1984817 0.4227651 16711746
0.3322974 -1.9202700 0.4404140 16711746
0.5651960 -0.6850337 0.1902228 16711746
0.2345089 -1.4916165 0.8758507 16711746
0.3899679 -1.2137917 0.9102760 16711746
0.3727789 -1.3183227 0.9478033 16711746
-0.0619938 -1.8374028 0.4694945 16711746
0.0050397 -1.6576009 0.4212118 16711746
0.5653813 -0.7349223 0.7037554 16711746
0.2452810 -1.1446942 0.8644032 16711746
0.7828483 -0.3714138 0.6235759 16711746
0.6392328 -0.5100441 0.6832942 16711746
0.7733323 -0.8356419 1.0915021 16711746
0.7976695 -0.7018149 0.9241504 16711746
0.6004245 -0.8903538 0.2242852 16711746
0.4722340 -0.7459941 0.2021184 16711746
0.4931743 -0.7499252 0.1902515 16711746
0.8677312 -0.5371241 0.3685957 16711746
0.5619375 -0.7885197 0.2511154 16711746
0.5141852 -1.1265873 0.5438071 16711746
0.5961887 -0.9524059 1.1146674 16711746
0.2133113 -1.2203702 1.2294896 16711746
0.5575296 -1.4558682 1.0530676 16711746
0.5617178 -0.8728875 0.7429813 16711746
0.5659646 -0.8677239 0.7280498 16711746
0.6797286 -1.0060936 0.9656798 16711746
0.2956931 -1.0069499 0.3482700 16711746
0.4594631 -0.8512133 0.6248712 16711746
0.6267090 -0.5404466 0.2067364 16711746
0.1327465 -1.4071405 0.6992772 16711746
0.2388649 -0.9330502 0.7958403 16711746
0.5753214 -0.6295468 0.2396604 16711746
0.6736072 -0.7516555 0.2139907 16711746
0.7343430 -0.5257129 0.3275044 16711746
0.7530690 -0.6124181 0.3535160 16711746
0.5046090 -1.3728946 0.6247272 16711746
0.0679438 -1.1873288 0.8406639 16711746
0.2726321 -0.9300718 0.3879880 16711746
0.5497071 -0.7906975 0.3599420 16711746
0.3903538 -0.6264218 0.2270134 16711746
0.4920312 -0.7430198 0.2400912 16711746
0.6563646 -0.5468146 0.2683217 16711746
0.6889502 -1.0755403 0.9929955 16711746
0.5380042 -0.5484073 0.2837225 16711746
0.6696046 -0.7191002 0.3230911 16711746
0.5676911 -0.6231745 0.2529360 16711746
0.4483499 -0.5291205 0.2293285 16711746
0.4792311 -0.5600897 0.2225526 16711746
0.4797482 -0.8605280 0.2502477 16711746
0.5718074 -0.5246007 0.2931634 16711746
0.6712950 -0.9823356 0.4113868 16711746
0.4125467 -1.3314613 0.3624734 16711746
0.3051216 -1.7551404 1.2089516 16711746
0.4693572 -0.9777815 0.9913015 16711746
0.5681148 -1.0374855 1.2549462 16711746
0.4018024 -0.9098868 1.0513309 16711746
0.3730283 -0.8685994 1.0807176 16711746
0.5429406 -0.7711377 1.0222667 16711746
0.5044211 -0.8863857 1.2757810 16711746
-0.6058307 0.5155084 -1.0775249 16711746
-0.8501159 0.5856211 -1.2674080 16711746
1.1246004 -0.4545757 0.9915619 16711746
