# .PCD v.7 - Point Cloud Data file format
VERSION .7
FIELDS x y z rgb
SIZE 4 4 4 4
TYPE F F F F
COUNT 1 1 1 1
WIDTH 1169
HEIGHT 1
VIEWPOINT 0 0 0 1 0 0 0
POINTS 1169
DATA ascii
-0.6142904 -1.4534423 6.8540640 16711746
0.0357262 -1.6120616 7.7258730 16711746
-1.3886427 -1.5409991 7.5301433 16711746
-0.3303213 -1.3612213 6.8711872 16711746
-0.5457563 -1.4182569 7.1206470 16711746
-0.8007697 -1.5157567 7.2573996 16711746
-0.7997019 -1.3941088 6.8646593 16711746
-0.6407205 -1.4427488 7.0713964 16711746
-0.6886660 -1.4025578 6.9195099 16711746
-0.7185984 -1.5137700 7.2794409 16711746
-0.5750074 -1.3883253 6.8936462 16711746
-0.6497926 -1.3828522 6.8337588 16711746
-0.2633480 -1.3854566 6.9038844 16711746
0.9446333 -1.6974794 8.5274887 16711746
-0.9849435 -1.4890244 7.1958203 16711746
-0.7926950 -1.4814333 7.1504579 16711746
-0.2032431 -1.4453715 7.0746684 16711746
-0.7177380 -1.4810747 7.3432646 16711746
-0.4266351 -1.4233295 7.1368275 16711746
-0.1073435 -1.4285890 7.0148368 16711746
-0.1995381 -1.4336500 7.0266061 16711746
-0.5228067 -1.4182009 7.0757895 16711746
-0.7238531 -1.5187377 7.2986550 16711746
-0.6035579 -1.4330307 7.0903139 16711746
-0.7461904 -1.4599537 7.1307616 16711746
-0.1707840 -1.6674446 7.7590332 16711746
-0.3928768 -1.4816002 7.2964058 16711746
-0.5985915 -1.5007541 7.2635384 16711746
-0.1333782 -1.3909553 6.9013519 16711746
-0.7506065 -1.3853743 6.7285328 16711746
-0.7537519 -1.5410656 7.3343430 16711746
-0.5312600 -1.4332083 7.1018271 16711746
0.0300928 -1.3685185 6.9469008 16711746
-0.4383658 -1.3765693 6.9863353 16711746
-0.6077996 -1.3699796 6.7580180 16711746
-0.3925702 -1.4800897 7.3093500 16711746
-0.6836340 -1.5250731 7.3454003 16711746
-0.3746797 -1.3532027 6.8727932 16711746
-0.8532799 -1.5710926 7.5664287 16711746
-0.8043126 -1.3934671 6.8334942 16711746
-0.7631818 -1.4557723 7.1055002 16711746
-0.8090186 -1.4547198 6.8864846 16711746
-0.7125576 -1.4510566 7.0981827 16711746
-0.6789485 -1.3809865 6.7822571 16711746
-0.4661816 -1.4526871 7.2372379 16711746
-0.4577022 -1.4630820 7.3041053 16711746
-0.4229830 -1.4200028 7.1649165 16711746
-1.1128564 -2.9960899 9.3117180 16711746
0.5430996 -1.5802685 7.8435774 16711746
-0.1513114 -1.4940317 7.2183695 16711746
-0.3878577 -1.4634342 7.2662263 16711746
-0.6422713 -1.5026442 7.2766809 16711746
-0.0262674 -2.7013745 8.3535318 16711746
-0.7251296 -1.5648290 7.6089320 16711746
-0.6658186 -1.5231804 6.5347385 16711746
-0.6142479 -1.4711865 7.2267795 16711746
-0.5603100 -1.4350207 7.1713028 16711746
-0.7201888 -1.3816428 6.8106155 16711746
-0.3880101 -1.4419253 7.1738400 16711746
-0.1713157 -1.5248213 7.2933016 16711746
-0.4910604 -1.7231268 8.2708158 16711746
-0.0414751 -4.3643842 11.9040871 16711746
2.0218427 -4.1453400 11.0565042 16711746
-2.3121774 -4.1512103 11.3505802 16711746
-0.0966577 -1.4718285 7.1956124 16711746
0.0225702 -1.3953518 6.9586205 16711746
0.1464155 -1.4245602 7.0342755 16711746
-0.8386831 -1.4355855 6.9977417 16711746
-1.3139790 -1.4875933 7.3038983 16711746
-0.7706993 -1.3983951 6.8874049 16711746
-0.3375736 -1.4331357 7.1239715 16711746
-0.7739277 -1.3758546 6.8708262 16711746
-1.3502108 -1.5006400 7.2958241 16711746
-0.2443210 -1.3959543 6.8846302 16711746
-0.2756608 -1.3765436 6.8738790 16711746
-0.0358681 -1.3794001 6.8464837 16711746
-0.8006108 -1.4235600 6.9447069 16711746
-0.5231695 -1.4065645 7.0526609 16711746
-0.5034788 -1.3832210 6.9744816 16711746
-0.7706426 -1.4768358 7.1608763 16711746
-0.7154878 -1.3922914 6.8820868 16711746
-0.5069500 -1.4000005 7.0205965 16711746
-0.0037006 -1.4176679 7.0160680 16711746
-0.3939082 -1.4196639 7.0155568 16711746
-0.2474941 -1.3994105 6.9156122 16711746
0.2088535 -1.4329010 7.0767188 16711746
-0.0024865 -1.4337367 7.0418086 16711746
-0.7033676 -1.3573635 6.8108568 16711746
-0.5597506 -1.3846767 6.9400306 16711746
-0.2274852 -1.3982394 6.9324565 16711746
-1.4601018 -1.5654411 7.7209625 16711746
-0.6429112 -1.4421375 7.0754404 16711746
-0.5224026 -1.4085789 7.0429516 16711746
-0.6968833 -1.3842164 6.8396463 16711746
-1.4744315 -1.5002536 7.2823677 16711746
-0.1736130 -1.4572771 7.1352386 16711746
-0.8301428 -1.4352965 7.0127497 16711746
-0.3439891 -1.4188638 7.0484381 16711746
-0.5913012 -1.3734398 6.9068875 16711746
-0.8168516 -1.4535568 7.0113993 16711746
-0.7685539 -1.3608140 6.8392568 16711746
-0.6584439 -1.4216232 6.9502144 16711746
-0.6975306 -1.4309182 7.0214682 16711746
0.1398073 -1.4135824 7.0209622 16711746
-0.8672991 -1.3889863 6.8291001 16711746
-0.2412262 -1.3911183 6.8934808 16711746
-0.2696284 -1.3899471 6.8948708 16711746
-0.0685733 -1.5638043 7.3554473 16711746
-1.3116721 -1.5462023 7.2440367 16711746
-0.1366162 -1.4433093 7.1276364 16711746
0.3732392 -1.5979531 7.5025697 16711746
-0.6979364 -1.4037808 6.9236517 16711746
-0.7340313 -1.4785646 6.9280362 16711746
-0.6634859 -1.4167048 6.9666963 16711746
-0.6813553 -1.4163883 6.8913379 16711746
-1.3463970 -1.5023996 7.2888570 16711746
-0.6547477 -1.4096217 7.1042533 16711746
-1.1261836 -1.5438311 7.2759461 16711746
0.0240532 -1.3947344 6.9597120 16711746
-0.5002611 -1.3907719 7.0151892 16711746
-0.8212176 -1.5382767 7.3483152 16711746
-0.8234045 -1.4141558 6.9318595 16711746
0.7590654 -1.7396673 8.1225471 16711746
-1.6517829 -1.6263590 7.7250986 16711746
-0.5288368 -1.3704742 6.9220123 16711746
-0.2096183 -1.3929292 6.8949575 16711746
0.2640093 -1.4213548 7.1355238 16711746
-0.3404670 -1.4585341 7.2569499 16711746
-0.2448991 -1.4231392 7.0596957 16711746
-0.1146201 -1.3854868 6.9176550 16711746
-0.8519293 -1.3963164 6.8934631 16711746
-0.6402455 -1.4431840 7.0706182 16711746
-0.4235567 -1.4258503 7.1366148 16711746
-0.7764435 -1.4129957 6.9207253 16711746
-0.2391741 -1.5706004 7.5386939 16711746
-0.3026253 -1.4645684 7.1618209 16711746
0.0539863 -1.4138544 7.0107441 16711746
-0.8219200 -1.5405645 7.3453355 16711746
-0.8628157 -1.4088408 6.8758030 16711746
-0.3519983 -1.4479972 7.1782408 16711746
-0.6918104 -1.4887359 7.2308583 16711746
-0.0584768 -1.4644649 7.1231613 16711746
0.2285402 -1.4001367 7.0335240 16711746
-0.8662392 -1.4292471 6.9389210 16711746
-0.3943648 -1.4516611 7.1849184 16711746
-0.0252189 -1.3982179 6.9417830 16711746
0.0772496 -1.5430408 7.4239264 16711746
-1.1190751 -1.5037334 7.1615200 16711746
-0.5212637 -1.4668621 7.3007264 16711746
-0.5516701 -1.4560616 7.1407948 16711746
-0.8596171 -1.3901736 6.8269558 16711746
-0.8428914 -1.3912466 6.9204993 16711746
-0.3748326 -1.3981019 7.0420132 16711746
-0.5695132 -1.4525189 7.1666665 16711746
-0.5934785 -1.5249723 7.5133142 16711746
-0.4387724 -1.4100485 7.1297693 16711746
-0.8414910 -1.3754466 6.8054147 16711746
-0.2781548 -1.4415463 7.0629687 16711746
-0.8050371 -1.4200529 6.9543581 16711746
-0.6491163 -1.4125290 6.9504333 16711746
0.1705925 -1.4923449 7.3545280 16711746
0.5276862 -2.8952956 8.8809357 16711746
-0.5482012 -1.3954160 6.9674325 16711746
-0.3140123 -1.4990336 7.2481613 16711746
-0.3760553 -1.4213970 7.1056466 16711746
-0.6910995 -1.4733922 7.1974669 16711746
-0.3536369 -1.5885497 7.6956468 16711746
-0.5552737 -1.3742793 6.9209094 16711746
-0.3129918 -1.4458474 7.1547570 16711746
0.5400261 -3.2037227 9.2936230 16711746
-0.5325550 -1.4256204 7.1347184 16711746
-0.7406126 -1.4121702 6.9257741 16711746
-0.5043360 -1.4895735 7.3755851 16711746
0.1835514 -1.6301110 7.0167279 16711746
-0.4714257 -1.6409371 6.7024131 16711746
-0.0713755 -3.0027492 9.0518312 16711746
-0.8694887 -1.6947780 8.1328344 16711746
0.5252245 -3.3935082 9.4978733 16711746
-0.8105401 -1.7467949 8.2919483 16711746
-1.0724574 -3.6198614 10.1364365 16711746
0.1312143 -1.7383298 6.9668074 16711746
-0.8131015 -1.6197711 7.8727379 16711746
-2.4759407 -4.1578512 11.3983936 16711746
2.7894397 -2.0510480 9.0710583 16711746
-0.7382004 -1.5662519 7.6589994 16711746
-0.5283402 -1.4523650 7.1874523 16711746
-1.0246109 -1.4803451 7.1456189 16711746
-0.3887136 -1.3906294 7.0133481 16711746
-0.2953297 -1.4125758 6.9898171 16711746
-0.1376742 -1.4169307 6.9612017 16711746
-0.1510144 -1.4940298 7.2143197 16711746
-0.2511971 -1.5030103 7.2889476 16711746
-0.7508060 -1.4624891 7.0908642 16711746
-0.1763765 -1.4179912 7.0191717 16711746
-0.6489531 -1.4000920 6.9249716 16711746
-0.7076144 -1.4256512 6.9891710 16711746
0.1042074 -1.4232534 6.9977331 16711746
-0.5024849 -1.4187080 7.0732303 16711746
-0.8236756 -1.4085269 6.9333634 16711746
-0.7433172 -1.4873245 7.2208962 16711746
-0.1705048 -1.5298874 7.2882609 16711746
-1.4579914 -1.4987822 7.2681131 16711746
-1.5079197 -1.5261390 7.4269199 16711746
0.0018953 -1.4421501 7.1039014 16711746
-0.0374087 -1.4557521 7.1662822 16711746
-0.5493774 -1.3980991 6.9154739 16711746
-0.7006591 -1.4214029 6.9888911 16711746
-0.6526201 -1.4243457 6.9852839 16711746
0.1014298 -1.3939333 6.9644461 16711746
-0.2209424 -1.4240277 7.0050230 16711746
-0.8437923 -1.3987271 6.8832560 16711746
0.1314409 -1.4893503 7.3124847 16711746
0.1769926 -1.3909111 6.9419246 16711746
-0.3357038 -1.4331727 7.1254768 16711746
-0.6795025 -1.5131423 7.2689624 16711746
-0.2347411 -1.5696310 7.5669527 16711746
-0.2508681 -1.5384241 7.4061117 16711746
-0.6237423 -1.4796542 7.2410393 16711746
-0.7003784 -1.4150325 6.9441190 16711746
-0.7096554 -1.3816360 6.8487005 16711746
-0.6099569 -1.4148104 6.9564672 16711746
-0.7884782 -1.5550120 7.2966509 16711746
-0.6535557 -1.4243028 6.9870934 16711746
-0.5042388 -1.4557171 7.2502875 16711746
-0.7441003 -1.5198109 7.2409334 16711746
-0.7232199 -1.4987565 7.1739912 16711746
-0.0105451 -1.5489693 7.3124480 16711746
-0.9713933 -1.4571062 7.0318270 16711746
-0.4653585 -1.4573896 7.2180090 16711746
-0.1427949 -1.4611056 7.0636306 16711746
0.0309698 -1.3896191 6.9331532 16711746
-0.5196668 -1.4688163 7.3021054 16711746
-0.7244829 -1.4468074 7.0942225 16711746
-1.2751483 -1.5373186 7.4757109 16711746
-0.2778634 -1.4519302 7.0805764 16711746
0.3116592 -1.4245003 7.0330873 16711746
-0.3884649 -1.4060320 7.0334029 16711746
-0.3853715 -1.4002546 7.0841637 16711746
0.0399925 -1.3819395 6.9488301 16711746
-0.8631281 -1.4317243 6.9330783 16711746
-0.7758440 -1.5625509 7.2968216 16711746
-1.2787745 -1.5051461 7.2257628 16711746
-0.6454052 -1.4008477 6.9851422 16711746
0.0104817 -1.4291173 7.0715394 16711746
-0.3312403 -1.4154242 7.0690908 16711746
-0.9191800 -1.3822366 6.9145532 16711746
-0.6941372 -1.4278916 7.1053147 16711746
-0.5740652 -1.3929204 7.0718985 16711746
-0.8196771 -1.4605526 7.0054455 16711746
0.0597829 -1.4838933 7.2035842 16711746
-0.6673519 -1.4623684 7.1362782 16711746
-0.9352729 -1.4186782 6.8718886 16711746
-0.1164125 -1.4021238 6.9290671 16711746
-0.9359806 -1.4003602 6.8773689 16711746
-0.7099623 -1.5413409 7.4141536 16711746
-0.8063390 -1.3691286 6.7716122 16711746
-0.9172392 -1.3832158 6.9156137 16711746
-0.3822829 -1.4177626 7.0593958 16711746
-0.4854243 -1.5275923 7.3850336 16711746
0.2334581 -1.8525509 8.6963167 16711746
-0.2830925 -1.4833877 7.2297311 16711746
-0.2144315 -1.4737265 7.1956120 16711746
-0.5123189 -1.4464827 7.2107382 16711746
-0.4497233 -1.5127113 7.4502378 16711746
-0.7109643 -1.4236466 6.9945760 16711746
-0.5854819 -1.5266373 7.4610925 16711746
-0.8988572 -1.4546173 6.9749179 16711746
-0.2437968 -1.4045461 6.9363542 16711746
0.1223854 -1.3908916 6.8610010 16711746
-0.2986463 -1.4955971 7.2689281 16711746
-0.5772464 -1.4471216 7.2110162 16711746
0.1345179 -1.4910034 7.2576833 16711746
-1.5195862 -1.5638564 7.5386891 16711746
-0.0867478 -1.3696997 6.8477411 16711746
-0.3297096 -1.4078065 7.0053849 16711746
-1.3255163 -1.4790540 7.2417946 16711746
-0.3102557 -1.4459242 7.1576347 16711746
-0.7729629 -1.4762540 7.1737347 16711746
-0.2168128 -1.4265842 7.0096030 16711746
-0.1943402 -1.4394749 7.0947208 16711746
-0.5676855 -1.5046968 7.4326820 16711746
-0.0112601 -1.6132940 7.7378297 16711746
-0.8918268 -1.3920453 6.8885870 16711746
-0.5054395 -1.4348937 7.1495008 16711746
-0.4632383 -1.4709811 7.3227305 16711746
0.0375469 -1.3904637 6.8927898 16711746
-0.7207364 -1.4722315 7.3098540 16711746
-0.2667589 -1.4216186 7.0193920 16711746
-0.5704376 -1.4341965 7.0606632 16711746
-0.5139877 -1.4889102 7.3020692 16711746
0.0263434 -1.8814340 8.5515223 16711746
-0.5824363 -1.4766456 7.2548757 16711746
-0.3932382 -1.4063045 7.0465002 16711746
-0.3499645 -1.4132210 7.0393815 16711746
-0.4872462 -1.4299893 7.1595836 16711746
-0.5583933 -1.4810021 7.3266864 16711746
-0.5109781 -1.4254432 7.1448526 16711746
-0.3432864 -2.4487150 8.3681746 16711746
-0.3399985 -2.7069204 9.0163174 16711746
-0.0394238 -1.8345251 8.1727991 16711746
5.2863169 -2.6722202 12.0175085 16711746
-0.6925680 -1.7857143 8.4129763 16711746
5.0506487 -5.2009478 11.4503918 16711746
-0.7361907 -1.8748995 8.9759655 16711746
-0.6986447 -1.4317199 7.0341206 16711746
-0.4229755 -1.4268285 7.1372137 16711746
-0.3782232 -1.4226073 7.0974884 16711746
-0.7140946 -1.4573277 7.1269727 16711746
-0.6848131 -1.4749168 7.1823416 16711746
-0.2060007 -1.4930068 7.2727909 16711746
0.0596461 -1.5365847 7.4305382 16711746
-0.2067838 -1.4204538 7.0338583 16711746
0.0890870 -1.4517648 7.1708469 16711746
-0.3909229 -1.4049447 7.0525203 16711746
-0.1532124 -1.4070438 6.9937572 16711746
-0.5021362 -1.4922609 7.3620138 16711746
-0.7744333 -1.4964780 7.1852827 16711746
-0.5262850 -1.4130529 7.0923314 16711746
-0.6073063 -1.5081722 7.4032340 16711746
-0.7301732 -1.5443183 7.2613411 16711746
0.0918650 -1.4733019 7.2524157 16711746
-0.4225915 -1.4323982 7.1387682 16711746
-0.8130373 -1.3883556 6.8794589 16711746
-1.7807653 -1.5972118 7.6204138 16711746
-0.6622898 -1.5298909 7.2785168 16711746
-1.5337187 -1.5059944 7.3310981 16711746
-0.2181158 -1.4852993 7.2312045 16711746
-0.2910712 -1.4414529 7.1355634 16711746
-0.7802591 -1.5865620 7.6097984 16711746
-0.2688404 -1.4064143 6.9649673 16711746
-0.4249273 -1.4195473 7.1160455 16711746
-0.6257902 -1.4087132 6.9681754 16711746
-0.2500138 -1.4274079 7.0515885 16711746
-0.7604177 -1.3619093 6.8412118 16711746
-0.1866532 -1.4514486 7.1349783 16711746
-0.3042894 -1.4467031 7.1355114 16711746
-0.6898763 -1.4024175 6.9208798 16711746
-0.4039022 -1.4392440 7.1335373 16711746
0.4910572 -1.6743255 7.9727969 16711746
-0.7322306 -1.4261661 7.0264201 16711746
-1.4602674 -1.5426551 7.3829536 16711746
0.2574334 -1.6476153 7.5810361 16711746
-0.2584060 -1.4659840 7.2346721 16711746
-0.1495775 -1.4929808 7.2161779 16711746
-0.2656483 -1.5096959 7.2269731 16711746
-0.4038419 -1.4098086 7.0787687 16711746
-0.5919659 -1.4213346 7.0006633 16711746
-0.7556928 -1.4194854 6.9304509 16711746
-0.6971050 -1.4152778 6.9669051 16711746
-0.3908131 -1.4056679 7.0461411 16711746
-0.8303481 -1.4378219 6.9867711 16711746
-0.3692610 -1.4307313 7.1366296 16711746
-0.3675551 -1.4459115 7.1858382 16711746
-0.6631627 -1.4858575 7.2683349 16711746
-0.7150054 -1.4565278 7.1289873 16711746
-0.6847826 -1.5047938 7.2455606 16711746
-0.4969596 -1.3931556 7.0513544 16711746
-0.1011818 -1.3713009 6.8695598 16711746
-0.5556000 -1.4419162 7.1428561 16711746
-0.6575341 -1.4221294 6.9875636 16711746
-0.3013646 -1.4259880 7.0342512 16711746
-0.0101312 -1.3861389 6.9601545 16711746
-0.6961719 -1.4157482 6.9639511 16711746
-0.6070682 -1.4686469 7.1893573 16711746
0.0364680 -1.6326404 7.7683692 16711746
-0.5284926 -1.5913299 7.7579937 16711746
-0.6576681 -1.6641947 7.9866929 16711746
-0.6304210 -1.4251378 7.0140204 16711746
-1.5119917 -1.5360684 7.4444952 16711746
-1.5214483 -1.5476897 7.4023986 16711746
-0.4996755 -1.4117138 7.0687618 16711746
-0.7005859 -1.4132042 6.9685688 16711746
-0.1263728 -1.4125351 6.9801698 16711746
0.1135031 -1.5741082 7.4197059 16711746
-0.6941094 -1.4081073 6.9135799 16711746
-0.7580131 -1.4584851 7.0991230 16711746
-0.8779115 -1.4452494 6.8207240 16711746
-0.1484074 -1.3952790 6.9559121 16711746
-0.5968204 -1.4271469 6.9906297 16711746
-0.6194012 -1.4059019 7.0938573 16711746
-0.8205507 -1.4169022 6.9216242 16711746
-0.8773289 -1.4068166 6.8946805 16711746
-0.7993438 -1.5176930 7.2520947 16711746
-0.7273160 -1.3992798 6.9330144 16711746
-1.0016928 -1.4487593 6.9431796 16711746
0.1950365 -1.4821163 7.5213313 16711746
-0.1621367 -1.4917477 7.2475171 16711746
-0.7618477 -1.4191998 6.9692092 16711746
-0.7475649 -1.4598843 6.9376488 16711746
-0.0198424 -1.4392484 7.0321736 16711746
-0.5575958 -1.4056433 7.0142674 16711746
-0.0125587 -1.4468325 7.0792079 16711746
-1.3470792 -1.4617786 7.2179089 16711746
-0.4387787 -1.5334593 7.5130501 16711746
-0.3850168 -1.4041572 7.0742745 16711746
-0.7586433 -1.5658674 7.5093513 16711746
-0.5589250 -1.4985684 7.4824357 16711746
-0.6923297 -1.4744905 7.1887369 16711746
-0.3861840 -1.3988565 7.1004977 16711746
-0.5353288 -1.4053886 7.0155311 16711746
-0.3515287 -1.4488121 7.1787391 16711746
-0.7529160 -1.5701011 7.4064674 16711746
-0.5112267 -1.4282794 7.1282058 16711746
-0.3380988 -1.5564804 7.5110502 16711746
-0.7670652 -1.5669627 7.4591870 16711746
-0.4503942 -1.6209885 8.0249004 16711746
-0.6644707 -1.5439292 7.4013124 16711746
-0.3865331 -1.4088136 7.0610118 16711746
0.0640381 -1.4554855 7.1375213 16711746
-0.5431891 -1.4620243 7.2521424 16711746
-0.4400990 -1.5552676 7.6483274 16711746
-0.5476238 -1.4618477 7.2812309 16711746
-0.7560164 -1.6822184 8.1059208 16711746
0.7244027 -3.2939358 9.4376163 16711746
-0.7510990 -1.4981451 7.2684679 16711746
-0.2877296 -3.0980210 9.8474827 16711746
-2.6948528 -3.6204956 10.0292444 16711746
-0.7702975 -3.2719405 10.1998873 16711746
-0.7034551 -1.4174246 6.9415903 16711746
0.0700473 -1.4660314 7.2891426 16711746
-1.3354471 -1.4790568 7.2113643 16711746
-0.9812327 -1.4949310 7.4587069 16711746
-0.7633599 -1.4515740 7.1677599 16711746
-0.8366288 -1.5348893 7.3736982 16711746
-0.4500995 -1.5145465 7.4568295 16711746
-0.6580065 -1.4372921 7.0545416 16711746
-0.8509575 -1.4250157 6.9431286 16711746
-0.3813886 -1.4434562 7.1784077 16711746
-0.5227610 -1.4079916 7.0497108 16711746
-0.5090169 -1.5299804 7.4717612 16711746
-0.7317380 -1.5416385 7.3258171 16711746
-0.5479450 -1.4683127 7.2724538 16711746
-0.7099953 -1.4401518 7.0831261 16711746
-1.7328212 -1.5952777 7.7264705 16711746
-0.3718706 -1.4321287 7.1325951 16711746
-1.1706105 -1.4445610 7.0177836 16711746
-0.4561510 -1.4933151 7.3820057 16711746
-0.5249649 -1.4042572 7.0611677 16711746
-1.8275294 -1.5950592 7.6756244 16711746
0.0419274 -1.5377668 7.3973207 16711746
0.0229665 -1.6145664 7.6868219 16711746
-0.4546893 -1.4942794 7.3929634 16711746
-0.5853438 -1.4152360 7.0054626 16711746
-0.5255872 -1.5043255 7.3577380 16711746
-0.6436392 -1.4366294 7.0493932 16711746
-0.5062101 -1.4545488 7.2611551 16711746
-0.5260339 -1.4166256 7.0808425 16711746
-0.7075144 -1.4128293 6.9560795 16711746
-0.8008828 -1.5382107 7.5470290 16711746
-0.7086971 -1.4436408 7.0557652 16711746
-0.1790792 -1.4688579 7.1619234 16711746
0.0785400 -1.4593328 7.1975975 16711746
0.4896319 -1.6064208 7.6678252 16711746
-0.7569823 -1.4148086 6.9437528 16711746
-1.0515717 -1.4496228 6.9921589 16711746
-0.7676487 -1.5367155 7.3576798 16711746
-0.2410482 -1.6663386 7.4933758 16711746
-0.0482055 -1.7864673 8.2809458 16711746
-0.3426569 -1.6509222 7.8386989 16711746
-0.1752749 -1.4459732 7.1064310 16711746
-1.4085245 -1.4940609 7.3102279 16711746
-0.6363488 -1.4219484 6.9713826 16711746
-0.6847895 -1.6051601 7.6300907 16711746
-0.4996880 -1.4729782 7.2845235 16711746
-0.5574166 -1.5530882 7.5797601 16711746
-0.6054140 -1.5828151 7.6660991 16711746
-0.1047236 -1.4725059 7.2190280 16711746
-0.2752689 -1.4767931 7.1945219 16711746
-0.4395493 -1.4373626 7.2063684 16711746
-0.5445633 -1.4219348 7.0991125 16711746
-0.7004195 -1.4379215 7.0521016 16711746
-0.7185712 -1.4799037 7.2355847 16711746
-0.0848136 -1.4704624 7.2210507 16711746
1.5848109 -3.0914016 8.6947861 16711746
-0.5550970 -1.4833918 7.2350850 16711746
-0.7859698 -1.7443656 8.1514940 16711746
-0.7525896 -1.5691836 7.4086490 16711746
-0.7343993 -1.5417622 7.2766132 16711746
-0.7443761 -1.5151968 7.2538013 16711746
-0.0143146 -1.5637987 7.4912143 16711746
-0.4380299 -1.4399801 7.1943707 16711746
-0.8885160 -1.7908732 8.2410669 16711746
-1.3543178 -1.4768991 7.2305799 16711746
-0.7833447 -1.5719359 7.3432965 16711746
-2.4366248 -3.2944436 9.6137724 16711746
-0.5993038 -1.4590597 7.1637502 16711746
-0.6493863 -1.4087431 6.9358010 16711746
-0.4393975 -2.4188821 8.1571836 16711746
-0.7081608 -1.5271266 7.2671690 16711746
-0.9519397 -1.5124538 7.2810817 16711746
-1.8287503 -3.4290540 10.2614021 16711746
-5.1094584 -2.3495381 9.6778898 16711746
-0.7390647 -1.3982806 6.8831053 16711746
-0.5561275 -1.5116985 7.3674092 16711746
-0.4624480 -1.4285690 7.1307840 16711746
0.0219389 -1.5223625 7.3600698 16711746
-0.2965673 -1.5187017 7.3564672 16711746
-1.3345743 -1.4640388 7.3578711 16711746
-0.2693660 -1.4110664 7.0683217 16711746
-0.9508240 -1.5235622 7.3656135 16711746
-0.7345488 -1.4459243 7.0295892 16711746
-0.7988879 -1.4782604 7.1711488 16711746
-0.5205334 -1.4711913 7.2896252 16711746
-0.7818007 -1.4096211 6.9145398 16711746
-0.7779558 -1.5235770 7.3506646 16711746
0.1450575 -1.5065429 7.3106451 16711746
-1.2655596 -1.4736691 7.2896924 16711746
-0.2937063 -1.4280766 7.0645599 16711746
-0.6268851 -1.4578842 7.1323857 16711746
-0.6758584 -1.4093183 6.9809394 16711746
-1.1381794 -1.4495348 7.0725889 16711746
-0.5286751 -1.4292597 7.1192741 16711746
-0.5011918 -1.4356923 7.1415038 16711746
-0.8436925 -1.4932145 7.1587863 16711746
0.0548535 -1.5384175 7.4075098 16711746
-0.2667698 -1.5122142 7.3354959 16711746
-0.6195273 -1.4473741 7.0846796 16711746
-0.8372236 -1.5544747 7.4048967 16711746
-0.1848947 -1.4324274 7.1119008 16711746
-0.2545991 -1.4785028 7.2073603 16711746
-0.1664015 -1.4522359 7.1147432 16711746
-0.6232402 -1.4297187 7.0049677 16711746
-0.4487417 -1.4291532 7.2063527 16711746
-1.3379267 -1.4627303 7.2183828 16711746
-0.7363621 -1.3953186 6.9431372 16711746
-0.8809958 -1.5129675 7.2866907 16711746
-1.4975785 -1.5428174 7.4298077 16711746
-1.0264231 -1.4704931 7.1172314 16711746
0.1172709 -1.6458464 7.3931465 16711746
-0.9359636 -1.4473503 6.9870548 16711746
-0.8110068 -1.5451306 7.3280058 16711746
0.0993332 -1.6442918 7.3604331 16711746
-0.6753445 -1.4237584 7.0814338 16711746
-0.7087914 -1.4306816 6.9922414 16711746
-0.5220667 -1.4465346 7.1881461 16711746
-0.7549415 -1.4046866 6.9410858 16711746
-0.9510573 -1.4532087 6.9847341 16711746
-0.6394747 -1.4249851 7.0060768 16711746
-0.8623548 -1.4399737 6.8753147 16711746
-0.7134342 -1.4209925 7.0020552 16711746
-0.7477016 -1.4735466 7.1780219 16711746
-0.4137814 -1.4672968 7.2610512 16711746
-1.0555267 -1.4643996 7.0564666 16711746
-0.1575461 -1.4323499 7.0910511 16711746
0.0591455 -1.4467621 7.2331772 16711746
-0.6787606 -1.5128943 7.2634988 16711746
-0.1762046 -1.4454614 7.1051083 16711746
-0.0425185 -1.4401356 7.1473565 16711746
-0.7997411 -1.5659368 7.5518532 16711746
-1.4179574 -1.5023906 7.2383022 16711746
-0.5729945 -1.4391019 7.1155915 16711746
-0.6345726 -1.4294651 6.9949841 16711746
-0.8717097 -1.5097755 7.2551179 16711746
-0.7602654 -1.4664732 7.1489844 16711746
-0.4859343 -1.4912752 7.3536034 16711746
-0.6864438 -1.5293856 7.3632426 16711746
-0.7480044 -1.5720216 7.3970318 16711746
-0.7321305 -1.4729828 7.2153664 16711746
-0.0888492 -1.4705101 7.2049146 16711746
-0.3579179 -1.4299319 7.1460958 16711746
-0.4175328 -1.4599564 7.2242241 16711746
-0.8632711 -1.5544009 7.4183221 16711746
-0.5086755 -1.4021002 7.1158895 16711746
-0.5202724 -1.4175435 7.3306394 16711746
0.0500986 -1.4023486 7.0162611 16711746
-0.2648928 -1.4413124 7.1152625 16711746
-0.7589882 -1.4598385 7.0610104 16711746
-0.9262792 -1.6847177 7.4668183 16711746
-1.6610174 -1.5996516 7.5327888 16711746
-0.6900545 -1.5117774 7.3883910 16711746
-0.8175535 -1.5960132 7.3772669 16711746
-0.8292108 -1.4350896 7.0051680 16711746
-0.7062568 -1.4193846 6.9984460 16711746
-0.7862180 -1.5373813 7.3150048 16711746
-1.3248919 -1.4792424 7.2449002 16711746
-0.5097405 -1.4780071 7.3192043 16711746
-0.9680145 -1.5881298 7.7016511 16711746
-0.7812213 -1.6154952 7.9195828 16711746
-0.8127050 -1.5842950 7.7145534 16711746
-0.6990615 -1.4244184 6.9830542 16711746
-0.6531461 -1.4542300 7.1077342 16711746
-0.9064288 -1.5930692 7.5640550 16711746
-0.4101630 -1.5117296 7.4906678 16711746
-0.4456871 -1.4798443 7.3757830 16711746
-0.9876454 -1.4518396 7.0477319 16711746
-0.1956210 -1.4422175 7.0919566 16711746
0.0399721 -1.4551202 7.2052732 16711746
-0.3865495 -1.5428867 7.4847913 16711746
-0.5201788 -1.4830797 7.3221769 16711746
-0.7125187 -1.4388026 6.9991250 16711746
-0.5584432 -1.7136031 8.1437931 16711746
-0.4553988 -1.4368216 7.1800547 16711746
-0.4641800 -1.5296191 7.6105213 16711746
-1.5002193 -1.5336351 7.4336572 16711746
-0.4464904 -1.6205469 7.8636818 16711746
-1.2978492 -1.5002291 7.3169236 16711746
-0.2823700 -1.4835649 7.2273517 16711746
-0.3310998 -1.5844487 7.5908103 16711746
-0.3381697 -1.6067760 7.6724792 16711746
-0.3928682 -1.4815855 7.3037710 16711746
-0.4005372 -1.5524434 7.5365577 16711746
-0.6250242 -1.4580282 7.1372881 16711746
-0.7623851 -1.4041144 6.8992834 16711746
-0.4389501 -1.4295167 7.1630616 16711746
-0.6951472 -1.5394839 7.4150414 16711746
-0.3974386 -1.4327753 7.1514201 16711746
-0.2679842 -1.5113670 7.3417435 16711746
-0.3327205 -1.4204882 7.0959854 16711746
-0.7013027 -1.6052862 7.7010627 16711746
-0.8139360 -1.5861285 7.7366104 16711746
-0.5518711 -1.5150303 7.4744868 16711746
-0.6445775 -1.4506009 7.0870299 16711746
-0.4781058 -1.4780523 7.2953000 16711746
-0.3221167 -1.4573585 7.1793685 16711746
-0.2205998 -2.0069294 7.3152356 16711746
-0.0933121 -2.0530145 7.7226057 16711746
-0.1375394 -2.0584366 7.8215475 16711746
-0.5060423 -1.4993895 7.5159674 16711746
-0.0293643 -1.7959445 8.3431206 16711746
-0.8514048 -1.9264822 8.3727102 16711746
-0.4380242 -1.5633663 7.5897002 16711746
0.7029008 -3.1788797 9.0311127 16711746
-0.2308648 -2.4175606 8.1478481 16711746
-0.7197074 -1.6776745 8.1022511 16711746
-0.2526818 -1.6343051 7.7688293 16711746
-0.7316049 -1.6797193 7.9906569 16711746
-0.1412573 -2.0232053 7.8127046 16711746
-0.7753273 -1.7337726 8.4288931 16711746
4.9992666 -3.1529253 14.8217497 16711746
-0.5753054 -1.4814798 7.2927213 16711746
-0.8885509 -1.5436312 7.3827620 16711746
-0.3220576 -1.4888957 7.2958484 16711746
-0.0604170 -1.4555836 7.1797910 16711746
0.0286496 -1.4382126 7.0700173 16711746
-0.2280342 -1.4695843 7.1836352 16711746
-0.3054928 -1.4425442 7.1650071 16711746
-0.3920996 -1.4809669 7.3067369 16711746
-0.7237596 -1.4599051 7.0937338 16711746
-0.5146658 -1.4811575 7.2552786 16711746
0.2771420 -1.4759905 7.3295865 16711746
0.0129908 -1.4456816 7.0551734 16711746
-0.3440872 -1.4461156 7.1573520 16711746
-0.7862705 -1.5193001 7.2383533 16711746
-0.1361153 -1.5724080 7.4201341 16711746
0.0434075 -1.4752762 7.2445989 16711746
-0.3443000 -1.4651066 7.2133718 16711746
-0.4754072 -1.4166020 7.0808825 16711746
0.3464298 -1.5156907 7.5103908 16711746
-0.2523462 -1.5015453 7.2871094 16711746
-0.1659897 -1.4274133 7.0748768 16711746
-0.3683795 -1.4287198 7.1412039 16711746
-0.3407904 -1.4393821 7.1764507 16711746
-0.2864110 -1.4588697 7.1790466 16711746
-0.5898571 -1.4709984 7.2039270 16711746
0.0610095 -1.4156950 7.1878386 16711746
-0.5019957 -1.4690900 7.1993589 16711746
0.3016128 -1.4663006 7.3577023 16711746
0.0996495 -1.6487095 7.3716769 16711746
-0.8875614 -1.5325844 7.3214059 16711746
-0.7984260 -1.4185070 6.9878092 16711746
-0.6138449 -1.5190456 7.2709732 16711746
-0.2120619 -1.5219527 7.3769789 16711746
-0.3915759 -1.4708211 7.2352080 16711746
0.0850762 -1.4360758 7.1524873 16711746
-0.2617151 -1.4716954 7.1731248 16711746
-0.7262216 -1.4667273 7.0963001 16711746
-0.6522745 -1.5241191 7.1750627 16711746
-0.6636648 -1.4661472 7.1241255 16711746
-0.8018851 -1.4221631 6.9459991 16711746
-0.5594559 -1.5607959 7.6662765 16711746
-0.6230035 -1.4590522 7.1332641 16711746
-0.4985424 -1.5163784 7.4179435 16711746
-0.7510973 -1.5287145 7.2902451 16711746
-0.5511672 -1.5282191 7.4754834 16711746
-0.5526100 -1.4814651 7.3225551 16711746
-0.6257128 -1.4434576 7.0971351 16711746
-0.2926076 -1.4383821 7.1176023 16711746
-0.5097510 -1.4770814 7.3258133 16711746
-0.6639147 -1.4443574 7.0838900 16711746
-0.7448325 -1.4658624 7.0843205 16711746
-0.8077089 -1.5582412 7.3414440 16711746
-0.3216500 -1.4892476 7.2992506 16711746
-0.8957809 -1.5274726 7.3293128 16711746
-0.8037619 -1.5583344 7.3309088 16711746
-0.5977704 -1.5828515 7.6848769 16711746
-0.9549927 -1.4401362 7.0059500 16711746
-0.8447039 -1.4989588 7.2774520 16711746
-0.5560974 -1.5050550 7.4534354 16711746
-0.7553990 -1.4614834 7.0625029 16711746
-0.3044600 -1.5177580 7.3529611 16711746
-0.2221708 -1.5092746 7.3195224 16711746
-0.4355284 -1.4709797 7.2621555 16711746
-0.6049864 -1.6920582 7.6047230 16711746
-0.6343085 -1.8084490 8.1665926 16711746
-0.7259462 -1.4458693 6.9834533 16711746
-0.6627286 -1.4836553 7.2030520 16711746
-0.6997430 -1.4297438 7.0266075 16711746
-0.6049126 -1.4568145 7.1706061 16711746
-0.7098735 -1.4415995 7.0632935 16711746
-0.2243768 -1.5634710 7.5012012 16711746
-0.3081027 -1.5486828 7.4322329 16711746
-0.3038180 -1.4972875 7.2970972 16711746
-1.0571585 -1.5836146 7.6104984 16711746
-0.5047057 -1.4592963 7.2506986 16711746
-0.7764236 -1.6099738 7.5940847 16711746
-0.4362799 -1.5623977 7.6201997 16711746
-0.5130210 -1.4603393 7.2453794 16711746
-0.7731219 -1.6433260 7.8149476 16711746
0.0038354 -2.0853372 7.4241538 16711746
-0.4935560 -1.6622065 8.0060320 16711746
-0.5378193 -1.4642401 7.2217350 16711746
-0.8573719 -1.9339467 8.3729620 16711746
-0.7482079 -1.6242853 7.9243331 16711746
0.8519734 -2.1642780 9.0446482 16711746
-0.7231472 -1.8446534 8.2458620 16711746
0.2993510 -3.0244284 9.0945511 16711746
0.1454140 -2.4754732 8.0578966 16711746
-0.6080459 -1.6505016 8.0796852 16711746
0.6076010 -1.6470399 7.8038449 16711746
-0.3819429 -1.6838362 8.1637888 16711746
0.6570946 -3.6484282 9.9335012 16711746
-0.0631126 -3.0932162 9.2077103 16711746
-0.5632386 -3.2414448 9.4537592 16711746
1.1171300 -3.5191758 9.5970564 16711746
1.0225664 -3.6907861 9.9196892 16711746
-0.7180472 -3.2108550 9.5488710 16711746
-1.0958054 -1.5850270 7.5723801 16711746
-0.1216816 -1.4584841 7.1782050 16711746
-0.6046680 -1.4702356 7.1748118 16711746
-0.3610912 -1.4608660 7.2420812 16711746
-0.3864571 -1.4499050 7.1987710 16711746
-0.7275998 -1.4699547 7.1464853 16711746
-0.5541615 -1.5035701 7.3878636 16711746
-0.2368602 -1.4926009 7.2750511 16711746
-0.9588708 -1.5597750 7.4445915 16711746
-0.9984384 -1.5331299 7.3716922 16711746
-0.6665492 -1.4331589 7.0316763 16711746
-0.5503232 -1.5147518 7.4265137 16711746
-0.6863586 -1.4485886 7.1085010 16711746
-0.7614697 -1.5309151 7.5632186 16711746
-0.2694997 -1.4662194 7.1904650 16711746
-1.0146698 -1.6764617 7.5752697 16711746
-0.0057616 -1.5882405 7.5345216 16711746
0.0677927 -1.4643015 7.2073116 16711746
-0.9832090 -1.5360386 7.3532524 16711746
-0.2549162 -1.5336730 7.3928843 16711746
-0.3852558 -1.5014571 7.3478065 16711746
-0.5928724 -1.4573982 7.1641812 16711746
-0.0698160 -1.4396994 7.1332355 16711746
-0.4544094 -1.4495368 7.2337413 16711746
-0.4102156 -1.5117054 7.3967252 16711746
-0.9904661 -1.5876538 7.4965119 16711746
-0.6418316 -1.5498593 7.4203739 16711746
-0.5955483 -1.4340239 7.0497327 16711746
0.0521331 -1.4552995 7.0741000 16711746
-0.0098198 -1.5946847 7.5282979 16711746
-0.2259215 -1.5118833 7.3084054 16711746
-0.4157878 -1.4700447 7.2599773 16711746
-0.7011465 -1.5554397 7.3330092 16711746
0.0359159 -1.4788927 7.2403498 16711746
-1.0253322 -1.5774859 7.4960852 16711746
0.2196875 -1.7798620 7.4610462 16711746
0.0306372 -1.4632468 7.1223412 16711746
-0.6261711 -1.5144713 7.2302480 16711746
-0.2142514 -1.5085979 7.2796483 16711746
-0.8590197 -1.5057305 7.2423654 16711746
-0.5151985 -1.4634582 7.2461987 16711746
-0.1638647 -1.4973860 7.2331777 16711746
-0.7459636 -1.4878166 7.2203317 16711746
-0.5148817 -1.4653327 7.2422285 16711746
-0.7842450 -1.5556366 7.2859621 16711746
-0.7057697 -1.5410436 7.4064555 16711746
-0.8554491 -1.5090044 7.2354379 16711746
-0.7875854 -1.5293703 7.2249904 16711746
-0.7200012 -1.5299872 7.3135738 16711746
0.0343086 -1.5401984 7.4043460 16711746
-0.0742934 -1.4630524 7.1690216 16711746
-0.6567166 -1.5228515 7.3825417 16711746
-0.4491757 -1.5156329 7.4353018 16711746
-0.6993690 -1.5115315 7.2534089 16711746
-0.4556374 -1.4978060 7.3757453 16711746
0.0163878 -1.5399787 7.3900356 16711746
-0.6324162 -1.6046087 7.6952257 16711746
-0.6118958 -1.5831225 7.6777372 16711746
-0.5914616 -1.4876640 7.2379804 16711746
-0.7065024 -1.5344529 7.2893558 16711746
-0.3930551 -1.6158545 7.7748775 16711746
0.5879876 -2.7986436 8.6759624 16711746
0.5789506 -1.5228869 7.6368518 16711746
-0.7495165 -1.5975300 7.6736493 16711746
-0.0418919 -1.7664328 8.1886139 16711746
-0.6727573 -1.7454288 8.0961123 16711746
-0.3094629 -1.6551218 7.8381114 16711746
-0.7577041 -1.5889032 7.5343342 16711746
0.3816632 -1.4864094 7.4504857 16711746
0.5251313 -1.7269564 8.3834782 16711746
-0.5756056 -1.4369229 7.0625973 16711746
-0.5666083 -1.4530755 7.1958675 16711746
-0.6330934 -1.5374559 7.3819470 16711746
-0.6580826 -1.4698087 7.1825900 16711746
-0.9835347 -1.5354428 7.3537850 16711746
-0.1763477 -1.4558910 7.1360941 16711746
-0.4542251 -1.4542723 7.2211576 16711746
-0.7556473 -1.5898261 7.5308385 16711746
-0.7477550 -1.4936022 7.2183433 16711746
-0.8250045 -1.5350348 7.2637043 16711746
-0.7106804 -1.5508881 7.3638339 16711746
0.0323045 -1.4549403 7.2274489 16711746
-0.0094803 -1.4777303 7.2794313 16711746
-0.6376615 -1.4940788 7.2415924 16711746
-0.5513264 -1.4835902 7.3161840 16711746
0.1297452 -1.4957494 7.3193712 16711746
-0.7811054 -1.5402677 7.3090644 16711746
-0.5251963 -1.5106982 7.3406973 16711746
-0.4985743 -1.4983835 7.3334994 16711746
-0.4959088 -1.5360159 7.4662042 16711746
-0.0196246 -1.6969049 7.9683790 16711746
-0.6691598 -1.5865541 7.6159205 16711746
-0.5738497 -1.4455332 7.1908078 16711746
-0.4135807 -1.6295196 7.8322315 16711746
-0.9293488 -1.7375867 8.2629042 16711746
-0.2135310 -1.5231766 7.3817196 16711746
-0.4749644 -1.5205282 7.6816258 16711746
-0.8196635 -1.7288500 8.1942835 16711746
-0.6635136 -1.5719148 7.5118465 16711746
-0.1144201 -2.6783092 8.6075249 16711746
-0.4804968 -1.7244186 8.2102547 16711746
-0.0833355 -2.4267061 8.0284319 16711746
-0.6323543 -1.8546236 8.7099066 16711746
-0.6286709 -1.5221330 7.2515626 16711746
-0.6794856 -1.5134112 7.2693563 16711746
-0.0167145 -1.5644960 7.4885736 16711746
-0.3228023 -1.4894116 7.2928391 16711746
-0.4500168 -1.5043958 7.5148101 16711746
-0.2363920 -1.5253981 7.3797941 16711746
-0.1716910 -1.4638484 7.1870613 16711746
0.0363154 -1.4990695 7.3298697 16711746
-0.7726061 -1.6143358 7.5929203 16711746
-0.6940462 -1.5754257 7.4795594 16711746
-0.6354403 -1.5198313 7.2679210 16711746
-0.4724369 -1.4725934 7.3060141 16711746
-0.2407736 -1.5733572 7.5268707 16711746
0.0552938 -1.4856580 7.1909108 16711746
-0.3510014 -1.4776831 7.2657986 16711746
0.0362033 -1.4994670 7.3290491 16711746
-0.6561759 -1.4893008 7.2371526 16711746
-0.8891799 -1.5426261 7.3833227 16711746
-0.5299133 -1.5134511 7.3885245 16711746
-0.7821580 -1.4704044 7.1681581 16711746
-1.0338956 -1.5801781 7.4976287 16711746
-0.5513883 -1.5662539 7.5858865 16711746
-0.2230594 -1.5079030 7.3178058 16711746
-0.6328128 -1.5370418 7.3861723 16711746
-0.0920367 -1.6332847 7.7635813 16711746
-0.2156515 -1.4822850 7.2354941 16711746
-0.2337498 -1.4587079 7.1550503 16711746
-0.1784149 -1.4688765 7.2035146 16711746
-0.5923737 -1.4472800 7.1367111 16711746
-0.8583051 -1.5028428 7.2381225 16711746
-0.2532058 -1.5009006 7.2831225 16711746
-0.0573444 -1.4712553 7.2126808 16711746
-0.3874413 -1.4614221 7.2385993 16711746
-0.5038534 -1.4592334 7.2543602 16711746
-0.3935204 -1.5313320 7.4470339 16711746
-0.2936918 -1.5185012 7.3827310 16711746
-1.0136763 -1.5887715 7.4606333 16711746
-0.2921548 -1.6340532 7.7505341 16711746
-0.6928069 -1.4885216 7.2250323 16711746
-0.7247475 -1.5119267 7.2940426 16711746
-0.6437860 -1.4651003 7.1528625 16711746
-0.0074241 -1.5929927 7.5374823 16711746
1.1019405 -1.5671232 7.9326692 16711746
-0.7872184 -1.4418836 7.1454740 16711746
-0.8286604 -1.4521320 7.1721621 16711746
0.0423275 -1.4763087 7.1639838 16711746
-0.9021580 -1.4670335 7.1681337 16711746
-0.8297548 -1.5468483 7.2980132 16711746
-0.5464790 -1.4674069 7.2758350 16711746
-0.6542498 -1.5181694 7.2549658 16711746
-0.6799769 -1.4805055 7.1667085 16711746
-0.7439859 -1.4708923 7.1613851 16711746
-0.3175692 -1.5538321 7.4088950 16711746
-0.6352789 -1.4877700 7.2162189 16711746
-0.8479819 -1.4655843 7.1186051 16711746
-0.6380560 -1.4903501 7.2357254 16711746
-0.4600587 -1.4734485 7.2990165 16711746
0.0628947 -1.7079214 7.3743763 16711746
-0.2556761 -1.5042375 7.2854595 16711746
-0.7964383 -1.4604033 7.2023129 16711746
-0.5320122 -1.4965715 7.3990269 16711746
-0.7913221 -1.4723475 7.3139963 16711746
-0.0523884 -1.4584122 7.2005014 16711746
-0.2589130 -1.6846287 7.8527575 16711746
-0.5285839 -1.4482995 7.2028618 16711746
-0.0390873 -1.6179706 7.6676583 16711746
-0.8968859 -1.4738178 7.1984844 16711746
-0.5886983 -1.6084433 7.7651520 16711746
-0.5555495 -1.4502492 7.2381806 16711746
-0.4562657 -1.4920863 7.3808446 16711746
-0.5817730 -1.4978242 7.3385401 16711746
0.5401258 -1.5887289 7.6546669 16711746
-0.3752029 -1.4927394 7.3301382 16711746
-0.2431113 -1.5185577 7.3359480 16711746
-0.4109958 -1.5096834 7.4053626 16711746
-0.4957912 -1.5032586 7.3161216 16711746
-0.3235911 -1.5256190 7.3895502 16711746
-0.5895860 -1.6075320 7.7718863 16711746
-0.4989124 -1.6043569 7.7455134 16711746
-0.4444679 -1.5891567 7.6863937 16711746
-0.6416944 -1.4843571 7.2595253 16711746
-0.2386389 -2.1065342 7.5551634 16711746
-0.4445603 -1.5835177 7.7316928 16711746
-0.6590030 -1.5497868 7.3793106 16711746
-0.6223164 -1.5429182 7.3561516 16711746
-0.6627453 -1.5504930 7.3861995 16711746
-0.7672448 -1.6658704 7.7995515 16711746
-0.5896508 -1.5260932 7.4760861 16711746
-0.1139030 -1.6950151 8.0135412 16711746
-0.4624856 -1.5402889 7.4941082 16711746
-0.4781695 -1.4730053 7.3119226 16711746
-0.8109022 -1.6607612 7.6769028 16711746
-0.2116701 -2.3727138 8.0741043 16711746
-0.4389102 -1.5328342 7.4796572 16711746
-0.7570521 -1.6132367 7.6557598 16711746
-0.0382359 -2.6828446 8.3999329 16711746
-0.4359355 -1.5616851 7.6515660 16711746
-0.8000695 -1.4980557 7.1722994 16711746
-0.7506520 -1.5337251 7.3044152 16711746
-0.5796750 -1.6322167 8.0478296 16711746
-0.5081283 -2.0075932 7.4420695 16711746
-0.6413440 -1.4683895 7.1743021 16711746
-0.4007148 -1.4953903 7.3507175 16711746
-0.0281936 -1.6141764 7.6878862 16711746
0.4294270 -1.5213103 7.5043664 16711746
-0.4653253 -1.5488482 7.8420510 16711746
0.0716743 -1.4869941 7.1915455 16711746
-0.6032947 -1.5106750 7.3758402 16711746
0.3585705 -2.0978563 8.5346584 16711746
-0.2901545 -1.5017610 7.2957697 16711746
-0.5486567 -1.5185727 7.4314795 16711746
-1.5802730 -1.6354228 7.8734527 16711746
-0.2305237 -2.7492714 8.8399019 16711746
-1.9308571 -3.7804143 10.5178986 16711746
-0.8026997 -1.6324197 7.7395411 16711746
-0.3243980 -1.5251611 7.3931570 16711746
-0.2570666 -1.6365249 7.7387552 16711746
-0.3694001 -1.4672348 7.2427492 16711746
-0.5800161 -1.6287466 7.8931446 16711746
0.5801924 -1.8282135 7.5970163 16711746
-1.7529522 -3.1894622 9.7798777 16711746
-0.3685275 -1.5033048 7.3493366 16711746
-0.6391850 -1.4706010 7.2048035 16711746
0.2375264 -1.5361987 7.5057178 16711746
0.0613815 -1.5421392 7.4211245 16711746
-0.2416890 -1.5169677 7.3393807 16711746
-0.2167849 -1.5268637 7.3748088 16711746
-0.5450799 -1.5654093 7.5760012 16711746
-0.4515046 -1.4748282 7.3134623 16711746
-0.8633822 -1.5382862 7.3355575 16711746
-0.7174409 -1.4580357 7.1881251 16711746
-0.8785921 -1.4615463 7.1794066 16711746
0.6250194 -1.6484407 7.8135681 16711746
-0.1538246 -1.5454385 7.4214530 16711746
-0.3365561 -1.5425280 7.4764261 16711746
-1.3646129 -1.5720332 7.6077299 16711746
-0.2972178 -1.6372727 7.7145247 16711746
-0.6063387 -1.4713292 7.2843051 16711746
-1.0820843 -1.5729371 7.4365540 16711746
0.0253122 -1.4561750 7.1886082 16711746
-0.7988272 -1.4601177 7.0830503 16711746
0.6123918 -1.6471844 7.8002548 16711746
-0.2875355 -1.4812961 7.2472939 16711746
-0.2444894 -1.5924169 7.5992751 16711746
-0.9011011 -1.5120292 7.1431532 16711746
-0.6363040 -1.4740099 7.1961865 16711746
-1.3096393 -1.5763844 7.5520973 16711746
-0.0204624 -1.4817408 7.2635970 16711746
-0.4746796 -1.4688575 7.2855363 16711746
-1.1617762 -1.5693399 7.5527835 16711746
-0.5737240 -1.4829438 7.2876811 16711746
-0.3515784 -1.4898255 7.2679176 16711746
0.4637640 -1.9032935 8.8865805 16711746
-0.3060364 -1.5486817 7.4364309 16711746
0.1355339 -1.5932366 7.6438251 16711746
-0.7105830 -1.5687168 7.4656382 16711746
-0.6356857 -1.5194820 7.3600597 16711746
1.1753600 -1.8059602 8.2454586 16711746
-0.7638724 -1.5655787 7.4225812 16711746
-0.7425482 -1.5710168 7.3726974 16711746
-0.3988262 -1.5490978 7.5595679 16711746
-0.9430993 -1.5388383 7.3708973 16711746
-0.7291731 -1.4903316 7.2154050 16711746
-0.6808665 -1.4948205 7.2332773 16711746
-0.4571749 -1.4695221 7.2779860 16711746
-0.6803449 -1.5291083 7.3229065 16711746
-0.6187533 -1.5289541 7.3855915 16711746
-0.6789823 -1.5351974 7.3328767 16711746
-0.7418452 -1.4600710 7.1721759 16711746
-0.3483161 -1.5611465 7.4676070 16711746
-0.2280643 -1.5660603 7.4928031 16711746
-0.8793046 -1.4899522 7.1619344 16711746
1.2085536 -1.6363955 8.0970354 16711746
-0.7037076 -1.5850520 7.2903786 16711746
-0.7574645 -1.5991397 7.3700047 16711746
-0.5519540 -1.5293843 7.4782023 16711746
-0.5356220 -1.4529839 7.3034482 16711746
-0.2306170 -1.5390779 7.4014535 16711746
-0.9991748 -1.5122710 7.2497535 16711746
-0.4838902 -1.5253209 7.4209127 16711746
-0.5312461 -1.5110549 7.4998741 16711746
-0.7927931 -1.5629884 7.3110805 16711746
-0.7253069 -1.4925863 7.2110724 16711746
-0.7406521 -1.5031172 7.2419748 16711746
-0.7585057 -1.5769297 7.2969594 16711746
-0.8192872 -1.5094738 7.2266574 16711746
-0.8444824 -1.5113021 7.2572036 16711746
-0.6380404 -1.5321198 7.3234844 16711746
-0.0311249 -1.4862672 7.2507563 16711746
-0.0602592 -1.4822509 7.2883782 16711746
0.0018426 -1.4588225 7.1568646 16711746
-0.5298285 -1.5040280 7.3599648 16711746
-0.5744992 -1.4970771 7.2906961 16711746
-0.7941502 -1.4856613 7.1846528 16711746
-0.7768843 -1.5881690 7.4223208 16711746
-0.8899361 -1.5073118 7.2900538 16711746
-0.6806818 -1.4781659 7.1883383 16711746
-0.1765237 -1.5044737 7.4715700 16711746
0.4975875 -1.5082316 7.5624304 16711746
0.1345383 -2.0884647 7.4512210 16711746
-0.3200220 -1.4929961 7.2891717 16711746
-0.0910417 -1.4678050 7.2230024 16711746
0.1563328 -1.4901977 7.3466477 16711746
-0.7550086 -1.5568202 7.3046975 16711746
-0.7525693 -1.4742836 7.2644687 16711746
-0.9828698 -1.7858773 7.4259934 16711746
-0.8486115 -1.4963270 7.2598815 16711746
-0.7254429 -1.6610168 7.4552250 16711746
-1.0976249 -1.5689230 7.5954380 16711746
-0.6267043 -1.5334306 7.2258439 16711746
-0.6056121 -1.5041758 7.4020700 16711746
-0.5634655 -1.4739521 7.3005877 16711746
-0.8953561 -1.4778713 7.3270993 16711746
0.0462515 -1.8441442 8.1543522 16711746
0.1195656 -1.6071639 7.6860800 16711746
-0.2903454 -1.5018525 7.2947149 16711746
-0.4456925 -1.5924106 7.6901870 16711746
-0.9263389 -1.5108749 7.2956963 16711746
-0.6858552 -1.6245140 7.6693425 16711746
-0.7244397 -1.5601755 7.2964940 16711746
-0.7330249 -1.4421518 7.1585565 16711746
-0.6995734 -1.5004007 7.2364206 16711746
-0.6480411 -1.5198987 7.3244753 16711746
0.4041556 -1.4827404 7.3562508 16711746
-0.6897100 -1.6484859 7.7389832 16711746
-0.7054513 -1.5545170 7.3439994 16711746
-0.4663951 -1.5341542 7.4695983 16711746
-1.1301435 -1.5262053 7.3738093 16711746
-0.7886713 -1.5209463 7.2395091 16711746
-0.9688331 -1.5075493 7.2966070 16711746
0.2513541 -2.7864819 8.7505951 16711746
-0.4553253 -1.4971919 7.3772063 16711746
-0.3955257 -1.6574154 8.0831585 16711746
-0.3792132 -1.6830189 7.9787412 16711746
-0.7634530 -1.5047790 7.2272196 16711746
-0.5829611 -1.5382816 7.4565911 16711746
-0.5759099 -1.5559874 7.4756289 16711746
-0.6221271 -1.5662067 7.4918838 16711746
-0.4589866 -1.5653677 7.5830269 16711746
0.3009903 -2.1874542 7.6150188 16711746
-0.4133568 -1.6193101 7.7265306 16711746
-0.7300946 -1.5565896 7.2889276 16711746
-0.4636814 -1.5343852 7.4691582 16711746
0.0710923 -1.7658894 8.2737494 16711746
-0.4620528 -1.7038279 7.9931784 16711746
-0.6334937 -1.4927337 7.2429547 16711746
-0.7075881 -1.5575058 7.3379703 16711746
-0.2871341 -1.5007892 7.2998300 16711746
-0.6775834 -1.5278774 7.3023319 16711746
-0.0599839 -1.7644058 8.1124735 16711746
-0.4126851 -1.5691085 7.5388632 16711746
-0.7970280 -1.6366433 7.7190800 16711746
-0.3623510 -1.6659791 7.8704858 16711746
-0.1188720 -1.9267306 8.6508474 16711746
-0.3383496 -1.5608404 7.4832258 16711746
0.0446169 -1.4736011 7.2441683 16711746
-0.6423101 -1.6032040 7.6258421 16711746
-0.6772618 -1.5460988 7.3659363 16711746
-0.5793199 -1.5013950 7.3164201 16711746
-0.3006223 -1.4948936 7.3056931 16711746
-0.5587374 -1.4724418 7.2770100 16711746
-0.4261581 -1.7368542 8.2006712 16711746
-0.5584116 -1.4664940 7.2597885 16711746
-0.8495806 -1.4910059 7.1822758 16711746
-0.4312159 -2.5515604 8.4117680 16711746
0.6594622 -2.1526024 8.7800188 16711746
-0.6684744 -3.2777882 9.5000820 16711746
-0.3703623 -1.5577737 7.4986186 16711746
1.3061182 -3.6116345 10.1013374 16711746
1.0141850 -3.3200364 9.4541922 16711746
-0.4451838 -3.3867199 9.6591330 16711746
-0.6624169 -1.8701996 8.6503611 16711746
-1.2459117 -3.7260063 10.6775942 16711746
-2.2776153 -3.6809192 10.5040359 16711746
0.9552111 -3.8926249 10.5347795 16711746
-0.8185926 -3.3900285 9.7003708 16711746
1.8819979 -3.9522445 11.2272749 16711746
5.7118778 -5.4154119 12.5953999 16711746
-2.6103864 -4.1329608 11.6110735 16711746
-4.4609008 -5.6100435 14.6530714 16711746
-0.7141737 -1.5212492 7.2677441 16711746
-0.6912172 -1.4800149 7.2067332 16711746
-0.5985389 -1.4827557 7.2490187 16711746
-0.3239970 -1.4854378 7.2774639 16711746
-0.6839363 -1.4889560 7.1887126 16711746
-0.7652526 -1.5277309 7.2791138 16711746
-0.0767394 -1.5784949 7.5294523 16711746
-0.2178340 -1.5266258 7.3747621 16711746
-0.1531215 -1.5446477 7.4226770 16711746
-0.0942000 -1.5620335 7.4911146 16711746
-0.9656215 -1.5198994 7.2204113 16711746
-0.7818564 -1.4892540 7.1857209 16711746
-0.6593621 -1.4867030 7.2152390 16711746
0.0856127 -1.8141924 7.3382540 16711746
-0.4648283 -1.4929552 7.3177447 16711746
-1.0149904 -1.5220522 7.2750874 16711746
-0.7367864 -1.5021055 7.1971383 16711746
-0.8683159 -1.4832704 7.1957412 16711746
-0.7030200 -1.5063595 7.2141728 16711746
0.1192928 -1.5172666 7.3667679 16711746
-0.8401121 -1.5433123 7.3260851 16711746
-1.0498400 -1.5108939 7.3012242 16711746
-1.0234255 -1.5199759 7.2849121 16711746
-0.1748780 -1.5354934 7.4043298 16711746
-0.3519647 -1.5315776 7.4096570 16711746
-0.2069246 -1.7394481 8.0229778 16711746
-0.2360514 -1.5250573 7.3818603 16711746
-0.5006974 -1.6035404 7.7552147 16711746
-0.5237427 -1.5952294 7.7136040 16711746
-0.7880827 -1.4865872 7.1940536 16711746
-0.5555000 -1.5020204 7.3985186 16711746
-0.6811813 -1.5058028 7.2438445 16711746
-0.1124376 -1.6805311 7.9065723 16711746
-0.1944733 -1.7027265 7.8477511 16711746
-0.4771120 -1.5611358 7.5991979 16711746
-0.5653245 -1.4993645 7.3812418 16711746
-0.3765337 -1.4931965 7.3294439 16711746
-0.6407549 -1.5146255 7.2836609 16711746
-0.8484992 -1.5062457 7.2610559 16711746
-0.4147592 -1.6329293 7.7947707 16711746
-0.3385742 -1.6094446 7.6536927 16711746
0.3041301 -1.6280158 7.9923563 16711746
-0.5068671 -1.4820719 7.3164120 16711746
-0.8127159 -1.4643888 7.1632013 16711746
-0.3002796 -1.6794178 7.8304591 16711746
-0.3537334 -1.5060254 7.3432279 16711746
-1.7529596 -1.6224661 8.1829519 16711746
-0.5588118 -1.5104842 7.3513532 16711746
-0.7542766 -1.5174087 7.2408309 16711746
-0.6611739 -1.5943192 7.2963138 16711746
-0.1784845 -1.7499591 7.9494028 16711746
0.1123425 -1.6641930 7.4479351 16711746
0.0701361 -1.4795753 7.2299294 16711746
-0.6192842 -1.6511365 7.9328246 16711746
-0.5600087 -1.6784974 8.0180817 16711746
-0.5438429 -1.5957509 7.7299991 16711746
-0.7771584 -1.4962337 7.2155352 16711746
-0.7849326 -1.5180656 7.2392879 16711746
-0.2280971 -1.7726293 8.3355455 16711746
-0.4031638 -1.4943618 7.3292837 16711746
