# .PCD v.7 - Point Cloud Data file format
VERSION .7
FIELDS x y z rgb
SIZE 4 4 4 4
TYPE F F F F
COUNT 1 1 1 1
WIDTH 240
HEIGHT 1
VIEWPOINT 0 0 0 1 0 0 0
POINTS 240
DATA ascii

 0.0499452 -0.0838477 0.1335596 16777215
 0.0486941 -0.0834913 0.1329267 16777215
 0.0489602 -0.0835211 0.1327906 16777215
 0.0482021 -0.0823891 0.1328977 16777215
 0.0464438 -0.0828159 0.1333339 16777215
 0.0447790 -0.0819812 0.1320495 16777215
 0.0452088 -0.0826178 0.1325299 16777215
 0.0415850 -0.0803963 0.1308912 16777215
 0.0393520 -0.0797343 0.1303481 16777215
 0.0366745 -0.0748066 0.1278360 16777215
 0.0371539 -0.0751198 0.1283683 16777215
 0.0389839 -0.0745688 0.1264439 16777215
 0.0419937 -0.0765449 0.1269916 16777215
 0.0452520 -0.0759614 0.1261309 16777215
 0.0453356 -0.0750927 0.1255092 16777215
 0.0473864 -0.0786149 0.1282393 16777215
 0.0481989 -0.0808117 0.1307086 16777215
 0.0520393 -0.0834019 0.1346861 16777215
 0.0562195 -0.0873931 0.1406688 16777215
 0.0586798 -0.0909597 0.1505506 16777215
 0.0446933 -0.0919298 0.2673823 16777215
 0.0225446 -0.0654540 0.3945816 16777215
 0.0372976 -0.0876508 0.4568135 16777215
 0.0425972 -0.0997539 0.4948662 16777215
 0.0472844 -0.0102354 0.5828328 16777215
 -0.1570660 -0.0482759 0.7565679 16777215
 0.0275356 -0.1411632 0.5184976 16777215
 0.0477777 -0.2087938 0.5627470 16777215
 0.0227645 -0.1616040 0.8746293 16777215
 -0.1149481 -0.4864896 0.8448831 16777215
 -0.0910378 -0.2005165 0.9855461 16777215
 -0.4580942 -0.4498913 1.3529133 16777215
 -0.0674265 -0.2317106 1.1935536 16777215
 -0.1618498 -0.4517611 1.2848873 16777215
 -0.1909116 -0.3929623 1.3289011 16777215
 -0.0639460 -0.2753975 1.4179212 16777215
 0.1973983 -0.3744379 1.4164685 16777215
 0.1297706 -0.3081000 1.3930197 16777215
 0.1787837 -0.3337294 1.4272484 16777215
 0.1797925 -0.3395131 1.4301224 16777215
 0.1742249 -0.2961357 1.5313601 16777215
 0.0955476 -0.2474689 1.6544198 16777215
 0.0848130 -0.3124329 1.6851927 16777215
 0.1114956 -0.3469399 1.6902984 16777215
 0.1655858 -0.3623794 1.7509874 16777215
 0.1579516 -0.3687778 1.7553051 16777215
 0.1404236 -0.3660727 1.7830863 16777215
 0.1434402 -0.3807316 1.8537986 16777215
 0.0731059 -0.2569344 1.9683478 16777215
 0.0134089 -0.2844580 1.9755747 16777215
 0.0070636 -0.2611994 1.9958670 16777215
 0.0419544 -0.2939109 1.9898292 16777215
 0.0974108 -0.2950082 2.0022292 16777215
 0.0996680 -0.2862878 2.1264820 16777215
 0.1039705 -0.2902263 2.1301379 16777215
 0.0774610 -0.3314015 2.2406726 16777215
 0.0837236 -0.3431205 2.2527070 16777215
 0.1226867 -0.3681200 2.2770145 16777215
 0.1391471 -0.3717516 2.3106816 16777215
 0.1599573 -0.3873947 2.3303635 16777215
 0.1698728 -0.4049259 2.3557982 16777215
 0.1949941 -0.4230332 2.3900583 16777215
 0.2099450 -0.4339823 2.4328322 16777215
 0.1431139 -0.4345303 2.4844713 16777215
 0.1299441 -0.4107165 2.5726635 16777215
 0.1810037 -0.4710863 2.6154246 16777215
 0.1675197 -0.4446008 2.6796346 16777215
 0.2413966 -0.4841710 2.6704330 16777215
 0.2141081 -0.4913440 2.7182970 16777215
 0.2309551 -0.5293791 2.7305768 16777215
 0.0853042 -0.4290990 2.9001913 16777215
 0.0747699 -0.4576976 3.0069499 16777215
 0.0659038 -0.5054304 3.0168912 16777215
 0.1269514 -0.5624424 3.0064621 16777215
 0.0546517 -0.5648255 3.1578622 16777215
 0.1165689 -0.5442703 3.2309692 16777215
 0.1332455 -0.5856065 3.2512338 16777215
 0.0506236 -0.6092188 3.3210509 16777215
 -0.0902803 -0.6930369 3.5005157 16777215
 0.0692426 -0.5675489 3.5577376 16777215
 0.1365820 -0.6219004 3.5339513 16777215
 0.0851926 -0.6125139 3.6164384 16777215
 0.0774449 -0.5757940 3.5972817 16777215
 0.0769852 -0.6607780 3.6657741 16777215
 0.1860361 -0.7899984 3.7099724 16777215
 0.1800967 -0.7427025 3.7151742 16777215
 0.1969977 -0.7621139 3.7232623 16777215
 0.0628589 -0.6274053 3.7671981 16777215
 -0.0717675 -0.6157874 3.9050686 16777215
 0.2052649 -0.7838470 4.2176256 16777215
 0.1201356 -0.4719819 3.9017129 16777215
 0.0294985 -0.6268070 3.9360883 16777215
 0.1922183 -0.8238934 3.9508200 16777215
 0.4583235 -0.8159587 3.9172587 16777215
 0.1387591 -1.1031692 4.0949750 16777215
 0.3590153 -0.9958330 4.0491977 16777215
 0.1917679 -0.7323719 4.1342611 16777215
 0.1852463 -0.7406546 4.1346717 16777215
 0.1536108 -0.7489328 4.1496658 16777215
 0.2004105 -0.7590214 4.1555972 16777215
 0.1276243 -0.7161330 4.1953554 16777215
 0.1951910 -0.7605175 4.2117395 16777215
 0.2031516 -0.7455240 4.2529917 16777215
 0.2397166 -0.7710633 4.2538185 16777215
 0.1221057 -0.7453917 4.3114042 16777215
 0.1431516 -0.7726645 4.3290887 16777215
 0.1666802 -0.8424063 4.3892584 16777215
 -0.0246848 -0.7862833 4.4707518 16777215
 0.0444145 -0.7423732 4.5874314 16777215
 0.0740399 -0.6969608 4.5658274 16777215
 0.0960706 -0.8007436 4.6036429 16777215
 0.0098720 -0.6109676 4.7145176 16777215
 0.0380566 -0.6487139 4.7504725 16777215
 0.0462812 -0.6384882 4.7917185 16777215
 0.0448914 -0.6570975 4.7836890 16777215
 0.0674080 -0.6279023 4.7905107 16777215
 0.0819937 -0.6249850 4.8116918 16777215
 0.0839435 -0.6965649 4.9281120 16777215
 0.0810716 -0.7547877 5.0041952 16777215
 0.0928886 -0.7787049 5.0195856 16777215
 -0.0001427 -0.7680106 5.1146836 16777215
 -0.0058056 -0.7022411 5.1506414 16777215
 0.0716212 -0.8266761 5.2154498 16777215
 0.0324363 -0.7566248 5.2703824 16777215
 0.0818819 -0.8435369 5.3050842 16777215
 0.0003281 -0.7708975 5.3709612 16777215
 0.0037274 -0.8054188 5.5149317 16777215
 0.0140985 -0.9143500 5.6089392 16777215
 0.0626839 -0.8512758 5.6003413 16777215
 0.1545707 -0.8003961 5.5734034 16777215
 -0.0051475 -0.8387351 5.6369615 16777215
 0.0260955 -0.8170106 5.6408243 16777215
 0.0950986 -0.8102782 5.6233301 16777215
 0.0908454 -0.8587852 5.6261916 16777215
 0.1038623 -0.8554428 5.6419849 16777215
 0.0836098 -0.8847451 5.7112942 16777215
 0.1131190 -0.8874098 5.7281771 16777215
 0.1283162 -0.9115133 5.7281833 16777215
 0.1353738 -0.9550142 5.8258166 16777215
 0.1770786 -0.9571648 5.7918310 16777215
 0.1001687 -0.9578460 5.9130960 16777215
 0.1608899 -0.9244933 5.8727708 16777215
 0.1533645 -1.0332421 6.0219951 16777215
 0.0598508 -0.9410200 6.1258335 16777215
 0.1141179 -0.8788340 6.1517158 16777215
 0.0785066 -0.9054998 6.2539988 16777215
 0.0748520 -0.9427193 6.2611818 16777215
 0.1499873 -0.9251955 6.2665415 16777215
 0.0346400 -0.9518563 6.4617605 16777215
 -0.0451764 -0.7972102 6.4845037 16777215
 0.0008199 -0.7624710 6.4682417 16777215
 0.0326475 -0.8052557 6.4647570 16777215
 0.0217298 -0.8586979 6.5110397 16777215
 -0.0087342 -0.8614312 6.5394330 16777215
 0.0300156 -0.9171569 6.5852799 16777215
 0.0661337 -0.9471080 6.5957727 16777215
 0.0767260 -0.9652538 6.6206250 16777215
 0.0912285 -0.9858449 6.6460099 16777215
 0.1042615 -0.9988301 6.6524906 16777215
 0.1076048 -0.9757411 6.6978440 16777215
 0.1337339 -1.0100174 6.7184353 16777215
 0.1242262 -1.0113719 6.7415495 16777215
 0.1555999 -0.9564464 6.7710648 16777215
 -0.0196350 -1.0112263 6.8867188 16777215
 -0.0208784 -1.0380218 6.9260397 16777215
 0.0716006 -1.0300524 6.9085865 16777215
 -0.0205272 -1.0660269 7.0556202 16777215
 -0.0171715 -1.1051984 7.0782042 16777215
 0.0218589 -1.0843079 7.1116619 16777215
 0.0070184 -1.1343148 7.1263032 16777215
 -0.0745717 -1.0888547 7.2302713 16777215
 -0.1104822 -0.9208300 7.3346105 16777215
 -0.0890908 -0.9412255 7.3415070 16777215
 -0.0982205 -1.0020893 7.3978348 16777215
 -0.0793033 -1.0180295 7.4130683 16777215
 -0.1582651 -0.8787119 7.4995117 16777215
 -0.1225260 -0.7867131 7.5098405 16777215
 -0.0817639 -0.9515593 7.5078483 16777215
 -0.0788007 -0.9381876 7.5155082 16777215
 -0.0774122 -0.9495792 7.5185080 16777215
 -0.0526530 -0.9641938 7.5358953 16777215
 -0.0433202 -0.9687603 7.5564184 16777215
 -0.1358848 -0.9877548 7.6756434 16777215
 -0.0189674 -0.9892068 7.6019459 16777215
 -0.0239421 -0.9962993 7.6660600 16777215
 0.0311115 -1.0198019 7.6814528 16777215
 0.0562820 -1.0043483 7.7090025 16777215
 -0.1939336 -1.0552864 7.9108386 16777215
 -0.1433409 -1.0871947 7.9241009 16777215
 -0.1162606 -1.0214922 7.9714584 16777215
 -0.0963821 -1.0119843 7.9760098 16777215
 -0.0579660 -0.9824681 7.9685907 16777215
 -0.1658624 -1.0407727 8.0740967 16777215
 -0.1567771 -1.0215919 8.1318693 16777215
 -0.2228626 -0.9856920 8.2163782 16777215
 -0.1367322 -1.0777102 8.2507219 16777215
 -0.1204313 -1.0907938 8.2717314 16777215
 -0.1077198 -1.0891678 8.2870417 16777215
 -0.0734348 -1.0929086 8.3004541 16777215
 -0.1352810 -1.0298474 8.3646202 16777215
 -0.1038122 -1.0998256 8.3828135 16777215
 -0.1223573 -1.0458751 8.4279776 16777215
 -0.1022689 -1.0873141 8.4456129 16777215
 -0.0943769 -1.0754919 8.4557590 16777215
 -0.0988211 -1.1010194 8.4928684 16777215
 -0.1431377 -1.0540833 8.5100126 16777215
 -0.1146426 -1.1212635 8.5553875 16777215
 -0.0508316 -1.1297150 8.5586157 16777215
 -0.0557995 -1.1305296 8.5856142 16777215
 -0.0436132 -1.1402087 8.6033850 16777215
 -0.0419626 -1.1392252 8.6115303 16777215
 -0.1906632 -1.0863194 8.7094173 16777215
 -0.2067683 -1.0403435 8.7571039 16777215
 -0.1936992 -1.0287483 8.7852535 16777215
 -0.1547430 -1.1415186 8.7887554 16777215
 -0.1416738 -1.2005730 8.8688707 16777215
 -0.1363407 -1.2174630 8.8899002 16777215
 -0.1568588 -1.2408764 8.9210529 16777215
 -0.1371862 -1.2711046 8.9459238 16777215
 -0.2610949 -1.1243989 9.0339079 16777215
 -0.1500266 -1.2620564 9.0281239 16777215
 -0.2523723 -1.1356342 9.1076555 16777215
 -0.1971914 -1.2443614 9.1563120 16777215
 -0.2210141 -1.2290528 9.1702023 16777215
 -0.2277552 -1.1581223 9.1873837 16777215
 -0.2280207 -1.0573826 9.1831102 16777215
 -0.2220284 -1.0722070 9.1843176 16777215
 -0.2123420 -1.1227655 9.2567921 16777215
 -0.2021956 -1.1703272 9.2850876 16777215
 -0.1767555 -1.1718376 9.3010397 16777215
 -0.1597309 -1.1819053 9.3089161 16777215
 -0.2400784 -1.1582484 9.3466749 16777215
 -0.2435130 -1.2031956 9.3979082 16777215
 -0.2228817 -1.2262950 9.4050827 16777215
 -0.2206436 -1.2188587 9.4273891 16777215
 -0.2284168 -1.1846242 9.4373341 16777215
 -0.2850573 -1.1126990 9.4809628 16777215
 -0.2775954 -1.1291919 9.4777021 16777215
 -0.2879446 -1.1343868 9.4930182 16777215
 -0.2964886 -1.1177671 9.4927397 16777215
