# .PCD v.7 - Point Cloud Data file format
VERSION .7
FIELDS x y z rgb
SIZE 4 4 4 4
TYPE F F F F
COUNT 1 1 1 1
WIDTH 52
HEIGHT 1
VIEWPOINT 0 0 0 1 0 0 0
POINTS 52
DATA ascii

0.5207432 -0.2163014 1.2324088 16711746
0.3857184 0.1418599 1.1956444 16711746
0.2898865 0.1225489 0.8947496 16711746
0.7556223 0.1371886 0.6934964 16711746
0.1004129 -0.0605881 0.9836307 16711746
0.4521521 0.1684937 1.1760144 16711746
0.2731448 0.0261212 0.9135709 16711746
1.0028348 -0.3798641 0.9695359 16711746
0.8916965 0.0042602 0.9674478 16711746
0.8288528 -0.0209922 0.9644921 16711746
-0.3283772 -0.1404412 1.2576934 16711746
0.2549505 -0.3027638 1.2388566 16711746
-0.4836178 -0.0486975 1.2738224 16711746
0.0762933 -0.1560706 1.5769483 16711746
-0.0579756 0.2114610 1.0588766 16711746
0.2330141 -0.2842006 1.4532360 16711746
0.0007006 -0.4719308 1.3568151 16711746
0.4676288 0.0379637 1.3231894 16711746
0.2365153 0.0932365 0.9146159 16711746
0.4686583 -0.0460979 0.8273280 16711746
0.3388543 -0.2627880 1.1125537 16711746
0.2312391 -0.2693195 1.2584670 16711746
0.2340618 0.1891274 0.7532611 16711746
0.3364123 0.2272219 1.1884238 16711746
0.4039862 0.2044813 1.1814780 16711746
0.3620467 0.1994511 0.8613011 16711746
0.3368022 0.3100555 1.1602271 16711746
0.3416876 0.2903375 1.1673474 16711746
0.4356923 0.2972400 0.9394444 16711746
0.3899049 0.2769484 0.9547977 16711746
0.3245360 0.2199704 0.7228506 16711746
0.1831218 0.2245104 1.0149438 16711746
0.0582684 0.3252615 1.1585760 16711746
-0.0069196 0.2563387 1.0074065 16711746
0.2164199 0.3180585 1.1628562 16711746
0.2295090 0.2796435 1.1819229 16711746
0.3106897 0.1091179 0.8922999 16711746
0.3524358 0.1312805 1.4688675 16711746
0.2571724 0.1472793 1.2256680 16711746
0.2442503 0.4107207 0.8941596 16711746
0.2203774 0.3680668 0.6178037 16711746
0.0119756 0.3906416 0.8500029 16711746
0.2851125 0.2932391 0.6931367 16711746
0.2268713 0.3392709 1.1505066 16711746
0.0194033 0.3803809 0.8694834 16711746
-0.0001335 0.4024561 1.0796605 16711746
-0.0397120 0.4142530 0.7667603 16711746
-0.3123930 0.5214744 1.0419382 16711746
0.2743976 -0.4308216 1.4715021 16711746
0.5217012 -0.0799554 1.1356548 16711746
0.3162959 -0.1847166 1.2231421 16711746
0.8277594 -0.0123406 0.9777061 16711746
