# .PCD v0.7 - Point Cloud Data file format
VERSION 0.7
FIELDS x y z rgb
SIZE 4 4 4 4
TYPE F F F F
COUNT 1 1 1 1
WIDTH 1204
HEIGHT 1
VIEWPOINT 0 0 0 1 0 0 0
POINTS 1204
DATA ascii
10.294726 -15.404995 24.146883 16711746
6.1520777 -11.970705 25.471645 16711746
7.7937603 -12.094174 24.976805 16711746
10.222694 -13.240713 26.493261 16711746
5.2374649 -12.591583 27.465273 16711746
9.8660669 -14.971284 27.215683 16711746
5.2736998 -13.851213 25.782188 16711746
16.861418 -16.224405 26.697933 16711746
11.955651 -15.492327 25.714098 16711746
7.24228 -18.027174 30.225227 16711746
3.6040578 -16.401052 29.494143 16711746
9.9350128 -15.515048 24.693352 16711746
8.6450853 -16.166836 25.810154 16711746
8.0733833 -16.128681 27.990862 16711746
9.9259548 -16.040838 30.264883 16711746
13.983315 -17.341181 30.053087 16711746
15.274771 -21.658064 35.309589 16711746
-0.024098642 -15.213506 29.478569 16711746
3.0557117 -18.11944 31.015413 16711746
11.94424 -13.905298 24.92083 16711746
6.5279078 -14.703701 27.389994 16711746
20.424139 -22.245731 36.419476 16711746
15.324046 -20.485392 34.458344 16711746
16.733564 -22.967682 40.397606 16711746
1.1593132 -14.529016 24.329334 16711746
15.096498 -17.180523 28.229637 16711746
13.360401 -12.837009 25.868422 16711746
13.633191 -17.229542 34.736107 16711746
8.376338 -11.944797 26.213907 16711746
12.302009 -13.926712 29.41124 16711746
9.0017576 -14.502288 27.617359 16711746
6.634347 -11.57531 25.871418 16711746
7.5532017 -12.893511 24.864832 16711746
4.9914179 -12.655276 24.198633 16711746
9.1614542 -13.520353 25.973925 16711746
1.4222853 -12.78448 24.545004 16711746
13.012753 -12.224973 24.748035 16711746
5.3092518 -11.750867 26.790173 16711746
5.387229 -12.717352 27.818604 16711746
3.5406206 -13.384876 25.757393 16711746
9.9207449 -14.329803 27.296829 16711746
5.8767724 -10.765424 26.515617 16711746
4.2656708 -12.421961 24.38545 16711746
10.730322 -10.153119 25.665157 16711746
9.7296419 -12.839945 25.945292 16711746
12.544222 -18.108549 33.148693 16711746
11.039609 -17.387772 32.859913 16711746
12.438322 -17.805552 32.926674 16711746
9.7509346 -16.763861 28.834246 16711746
11.256203 -20.085274 34.083275 16711746
14.97308 -16.497137 30.039881 16711746
10.251135 -13.425611 25.759792 16711746
10.108079 -12.687605 26.312767 16711746
13.413705 -13.638538 24.217459 16711746
9.480567 -12.573224 26.550583 16711746
8.9473715 -14.922959 26.541136 16711746
6.3984275 -13.352557 27.017466 16711746
5.0698805 -15.044161 25.105274 16711746
9.9869919 -11.865316 26.134979 16711746
4.1983833 -12.810707 25.451488 16711746
4.9491525 -17.271124 28.952829 16711746
10.19144 -13.108667 25.635714 16711746
11.381459 -19.701984 32.354599 16711746
3.7542732 -19.623646 31.90958 16711746
9.8383102 -13.561536 26.094313 16711746
19.642929 -20.086843 31.93219 16711746
8.712574 -16.380972 28.983957 16711746
13.197547 -19.537775 33.598312 16711746
12.8773 -14.687778 24.924059 16711746
12.507561 -14.337959 25.057364 16711746
15.29784 -13.414619 24.384024 16711746
12.2026 -14.835441 28.645887 16711746
12.695486 -14.903592 24.944071 16711746
12.764815 -13.446023 27.179773 16711746
9.9074144 -13.862438 26.102922 16711746
17.157423 -25.980036 38.445465 16711746
13.454418 -20.568518 32.52177 16711746
14.822324 -18.834156 24.845762 16711746
9.8115873 -12.439628 25.432566 16711746
18.752172 -27.060402 44.432568 16711746
20.429886 -25.601999 31.956762 16711746
17.487009 -26.84767 43.277054 16711746
7.4089413 -12.627537 24.829872 16711746
5.1370163 -11.419272 24.77684 16711746
12.428309 -12.522759 25.279932 16711746
6.4175582 -12.438775 27.379009 16711746
5.814465 -11.596397 24.859518 16711746
15.266327 -13.140086 25.028633 16711746
9.7652941 -11.954173 26.69911 16711746
6.3761249 -13.186789 26.659592 16711746
12.496083 -14.215878 25.083012 16711746
9.4286032 -13.501131 26.447844 16711746
16.768646 -15.157732 24.980301 16711746
8.8764439 -17.153692 24.570126 16711746
12.797683 -13.175568 24.291853 16711746
12.654933 -17.101068 26.762835 16711746
3.2846699 -17.763475 25.803888 16711746
9.7723083 -13.958436 29.284515 16711746
10.964924 -15.899734 30.214201 16711746
12.620842 -20.751276 32.518871 16711746
11.248555 -13.074242 25.431448 16711746
11.035069 -18.259184 32.781929 16711746
1.9925455 -15.211034 31.505989 16711746
14.050203 -21.089828 33.377129 16711746
10.225985 -16.05093 30.237125 16711746
1.8306273 -13.524049 24.367233 16711746
13.049674 -18.615725 29.578733 16711746
17.323723 -23.835316 37.16098 16711746
7.9736309 -14.614012 27.588703 16711746
12.38375 -14.332891 24.808969 16711746
14.57633 -18.339249 37.535328 16711746
10.263407 -13.43122 26.51026 16711746
10.243103 -13.72635 26.488338 16711746
13.515345 -17.041473 33.843643 16711746
12.402519 -15.880775 28.403971 16711746
2.2787325 -14.796302 25.695154 16711746
7.7029414 -12.861395 26.329704 16711746
13.054078 -15.569628 29.977007 16711746
9.4492044 -13.990013 26.578438 16711746
12.3433 -14.86622 28.621454 16711746
13.204762 -14.390697 26.298792 16711746
11.215564 -19.979853 32.280392 16711746
12.765505 -16.912582 27.237213 16711746
0.54963911 -13.789725 27.585503 16711746
11.798647 -13.697587 26.662209 16711746
9.9088249 -11.508298 29.214062 16711746
11.936044 -10.988564 25.931051 16711746
12.892351 -16.26145 26.755226 16711746
15.648633 -21.769421 35.694225 16711746
9.5529404 -13.072165 26.200493 16711746
18.166693 -19.272911 33.055325 16711746
11.712328 -13.667584 25.285095 16711746
14.552776 -15.311095 28.217991 16711746
12.220178 -18.459665 31.918221 16711746
11.421725 -18.134727 32.309998 16711746
12.458226 -19.08474 33.577915 16711746
18.003433 -16.71121 30.313766 16711746
12.4486 -18.658413 31.934198 16711746
10.092702 -12.43954 25.900972 16711746
13.410113 -15.410063 25.406237 16711746
12.039891 -12.167799 28.678251 16711746
10.130249 -11.998212 26.281193 16711746
10.71822 -13.293957 25.141119 16711746
11.861034 -15.589454 28.690786 16711746
9.6936502 -13.945578 27.364157 16711746
13.151627 -13.076799 26.227009 16711746
6.3143554 -11.715692 27.490351 16711746
12.348448 -13.841617 25.442461 16711746
13.454186 -13.294801 26.654499 16711746
9.1648655 -11.965055 25.043789 16711746
8.6564875 -13.310883 27.876492 16711746
11.74964 -15.037521 27.472572 16711746
12.679894 -15.423067 26.591139 16711746
12.653189 -16.364223 27.176851 16711746
8.8849344 -11.410001 27.619375 16711746
7.0345283 -10.473571 25.147543 16711746
8.3619576 -13.069255 25.32482 16711746
10.259046 -18.029144 30.789402 16711746
9.866497 -14.113054 27.224377 16711746
9.8037958 -14.713868 27.079899 16711746
9.4580622 -12.361819 28.257559 16711746
3.819299 -12.753999 28.691626 16711746
8.6433964 -12.439706 28.245628 16711746
8.5904722 -13.938211 27.499939 16711746
8.3752308 -12.988728 25.327826 16711746
12.297561 -11.181938 26.963678 16711746
10.306058 -12.770089 27.392012 16711746
16.533634 -13.197679 24.811779 16711746
10.054948 -11.898933 25.868965 16711746
12.077363 -14.104684 26.172461 16711746
11.745324 -15.423316 27.285587 16711746
11.969247 -13.756505 27.209713 16711746
6.2840657 -10.04005 27.086485 16711746
3.2936771 -12.776622 28.132153 16711746
8.9271011 -10.716316 27.257563 16711746
6.7868776 -9.7176771 25.100733 16711746
6.5496511 -10.055161 24.933764 16711746
13.628872 -13.575739 27.733761 16711746
8.6248436 -8.6928797 25.828165 16711746
6.0157423 -10.978168 27.12105 16711746
4.6722136 -10.877869 25.517132 16711746
12.868162 -12.207257 27.263397 16711746
13.708786 -11.040808 25.387331 16711746
10.054667 -12.34606 25.937943 16711746
9.76015 -11.9851 28.698753 16711746
7.7098746 -14.665146 27.316261 16711746
23.004532 -18.959562 32.726273 16711746
15.448318 -21.005171 33.286549 16711746
21.528732 -23.202089 33.773972 16711746
10.424724 -13.027171 27.467543 16711746
10.169387 -15.46077 29.688137 16711746
13.133197 -15.588061 29.924034 16711746
10.078986 -14.666212 29.604193 16711746
10.097855 -13.330311 25.300333 16711746
10.716186 -15.378668 30.946373 16711746
10.18329 -14.269869 29.909298 16711746
12.994644 -12.792081 26.188683 16711746
10.922209 -16.686159 31.692251 16711746
10.978106 -16.541861 31.121897 16711746
11.411758 -13.443658 25.689003 16711746
9.7379065 -15.220947 30.338961 16711746
9.3988647 -13.094262 26.415388 16711746
5.6234031 -14.113034 32.23053 16711746
6.9536853 -15.262611 30.76358 16711746
13.696449 -16.553097 26.833183 16711746
4.0933127 -17.758263 35.203876 16711746
10.180742 -12.353292 25.533024 16711746
8.313343 -11.639488 27.004429 16711746
3.9454763 -14.244299 30.075779 16711746
7.7906656 -12.079548 27.992708 16711746
8.5802441 -11.723304 26.838629 16711746
9.1015739 -13.462296 26.630919 16711746
10.721654 -13.379436 25.149563 16711746
11.207051 -12.875093 25.592854 16711746
7.2527852 -10.673111 25.885353 16711746
12.293887 -10.984565 26.209057 16711746
7.8282351 -9.5928764 25.469507 16711746
11.85701 -14.298116 26.509325 16711746
12.551109 -14.911005 28.983061 16711746
13.044291 -16.388527 29.582695 16711746
10.113795 -12.195061 25.89987 16711746
10.132943 -12.642027 25.90505 16711746
13.051439 -15.405634 28.871916 16711746
19.517342 -15.368442 30.514225 16711746
9.1324787 -16.835526 28.735044 16711746
6.544003 -14.395019 28.611456 16711746
12.829404 -15.081408 26.238625 16711746
12.148626 -18.528563 31.381567 16711746
11.652463 -10.11691 26.614239 16711746
22.425119 -19.976442 25.938032 16711746
7.3886862 -14.842752 29.648054 16711746
12.356601 -15.19015 26.983364 16711746
11.185784 -17.472883 32.470905 16711746
11.618376 -13.77673 26.046635 16711746
10.78745 -15.097762 30.397541 16711746
9.5579557 -18.626764 31.532532 16711746
8.0312853 -13.045323 27.422565 16711746
12.715936 -14.139066 27.604658 16711746
12.08325 -16.686529 27.893669 16711746
12.082372 -15.860578 27.23163 16711746
12.9068 -12.084717 26.323313 16711746
10.599797 -12.484984 25.213593 16711746
6.7278061 -15.826032 30.175915 16711746
13.077022 -14.71137 26.903296 16711746
12.793755 -14.270536 26.619783 16711746
12.334689 -15.026407 29.414389 16711746
9.6008425 -15.382613 29.605038 16711746
8.7971201 -11.862311 27.36305 16711746
9.6868629 -12.747685 28.895033 16711746
12.789343 -14.459401 25.953688 16711746
12.104428 -13.518632 26.956917 16711746
7.3630548 -12.790723 27.597612 16711746
12.668918 -11.503799 26.388073 16711746
6.3650465 -15.348109 28.999739 16711746
12.168336 -13.661802 26.53126 16711746
9.3849812 -11.545747 26.710527 16711746
10.145527 -16.358627 28.239367 16711746
5.6373725 -17.333403 30.924353 16711746
10.211723 -13.199457 26.381371 16711746
12.81035 -11.891992 26.455051 16711746
8.0168533 -13.570999 28.738159 16711746
7.7592497 -11.945771 27.123823 16711746
8.5199251 -12.375359 27.450033 16711746
8.8980732 -11.179033 25.875292 16711746
12.201409 -10.729985 26.21525 16711746
14.827697 -13.626344 25.780315 16711746
7.7803206 -11.989924 27.147263 16711746
5.8812251 -16.081331 27.366646 16711746
13.190299 -12.289844 25.229345 16711746
13.451055 -12.786006 26.730423 16711746
14.161776 -12.745848 25.755194 16711746
10.810718 -7.8545356 25.857668 16711746
12.458322 -11.596618 26.275824 16711746
10.672021 -9.664691 26.760216 16711746
7.5941753 -12.422683 27.349869 16711746
7.2847652 -12.795974 27.639666 16711746
8.7407732 -10.611199 25.885939 16711746
3.6061401 -13.178218 24.781748 16711746
8.5941086 -13.549663 27.403873 16711746
8.6473179 -12.027579 28.093184 16711746
14.99153 -21.888771 34.505123 16711746
9.6134071 -14.568187 26.232641 16711746
10.503649 -15.9346 30.429508 16711746
2.740526 -12.955036 26.004255 16711746
2.60396 -16.130062 29.633615 16711746
20.801037 -33.25359 47.729507 16711746
22.094454 -36.173294 48.905045 16711746
10.766252 -14.079694 29.608082 16711746
12.376124 -18.427069 33.214081 16711746
6.0292068 -12.120776 27.857698 16711746
16.635401 -14.953945 24.551466 16711746
10.574434 -14.010542 29.458824 16711746
12.721047 -12.385086 26.975729 16711746
12.542791 -12.575343 26.461363 16711746
11.959362 -12.041081 26.111553 16711746
13.053011 -15.747483 31.344019 16711746
9.8683052 -12.832496 27.560375 16711746
13.852285 -17.692516 34.775497 16711746
13.648335 -13.648397 26.362833 16711746
6.1126876 -11.704612 26.295013 16711746
13.267542 -13.095582 26.323254 16711746
9.8187017 -8.5601234 27.412796 16711746
10.085369 -10.017726 28.53311 16711746
14.758076 -16.639515 29.816141 16711746
6.7311249 -13.406441 28.344042 16711746
12.355807 -14.746201 26.130346 16711746
11.64308 -13.950697 26.011969 16711746
12.167216 -15.768055 25.920446 16711746
12.372923 -10.94095 26.307552 16711746
12.292673 -10.260325 25.691349 16711746
12.049089 -15.216949 25.845358 16711746
8.3448067 -13.152046 25.848057 16711746
7.922183 -14.248624 28.980539 16711746
13.179157 -12.113498 27.325014 16711746
13.256751 -11.768708 25.606306 16711746
0.14551993 -14.206893 29.373671 16711746
1.9273281 -15.064688 30.667093 16711746
-4.4554706 -17.932652 31.614273 16711746
8.0145655 -12.514897 26.148951 16711746
11.417949 -17.702459 32.350716 16711746
9.519906 -13.025971 28.807215 16711746
4.7464576 -15.036615 30.140882 16711746
12.291497 -12.891394 26.187248 16711746
11.486992 -11.81552 26.072987 16711746
6.3968043 -12.396736 26.389311 16711746
12.963171 -11.996557 27.373713 16711746
9.5368118 -11.684085 26.997648 16711746
14.741888 -14.949643 26.141403 16711746
11.597832 -12.744301 27.213821 16711746
14.790363 -20.59856 33.623905 16711746
12.372852 -11.858488 26.583746 16711746
11.774408 -14.687342 27.154959 16711746
6.5741925 -10.665831 28.006243 16711746
6.9569221 -11.476516 26.493172 16711746
8.7755995 -10.699247 26.461248 16711746
14.963008 -21.075539 33.861202 16711746
11.438841 -22.400509 38.22826 16711746
9.7595482 -16.541004 27.736864 16711746
8.3894434 -16.848612 29.319717 16711746
5.4831071 -16.433601 31.198502 16711746
16.399855 -14.082461 29.593676 16711746
12.54484 -15.813352 27.137037 16711746
12.183034 -15.030892 26.38442 16711746
17.758375 -15.904112 28.651821 16711746
16.168394 -14.074197 29.330273 16711746
10.284589 -14.618108 30.872507 16711746
13.237551 -15.822271 28.715595 16711746
14.497606 -17.045307 26.629103 16711746
4.8390999 -13.668726 30.420551 16711746
20.295063 -22.013884 40.052074 16711746
16.143368 -15.383868 32.223068 16711746
16.916527 -29.946966 35.673969 16711746
6.8432503 -15.408724 28.238106 16711746
14.813769 -20.558781 34.180393 16711746
17.605537 -23.649025 36.394897 16711746
12.189549 -26.449116 41.136604 16711746
17.999716 -24.224518 37.782646 16711746
11.895352 -15.59739 28.348515 16711746
20.332357 -20.856291 31.992056 16711746
12.08944 -17.221977 31.71125 16711746
11.223106 -20.904182 35.663109 16711746
15.849149 -20.673437 38.806274 16711746
16.105175 -18.328632 32.863167 16711746
18.375893 -27.171261 41.991859 16711746
13.860067 -20.388906 36.88258 16711746
10.611242 -14.0262 29.695612 16711746
15.604352 -22.889578 41.870552 16711746
12.529193 -14.799873 26.986851 16711746
12.434345 -16.329119 28.715319 16711746
14.387027 -20.440266 34.316929 16711746
15.842425 -23.118502 38.207249 16711746
10.452819 -15.022912 29.392294 16711746
10.186445 -15.330828 29.650936 16711746
23.230606 -18.53541 32.379055 16711746
7.2992711 -15.304335 27.606979 16711746
21.305929 -22.064493 35.01696 16711746
11.175694 -20.744133 35.593254 16711746
12.164376 -19.43998 34.864845 16711746
16.426725 -23.505701 37.046761 16711746
20.187626 -20.356476 30.112265 16711746
12.314772 -18.703787 34.645061 16711746
17.962503 -24.438576 36.713867 16711746
14.795887 -14.868617 27.92775 16711746
10.918195 -16.786226 33.552166 16711746
10.290597 -16.304352 31.053404 16711746
11.234941 -20.871572 34.702141 16711746
16.575939 -17.635881 29.194517 16711746
9.719058 -16.187225 29.38608 16711746
12.963386 -23.253313 39.682194 16711746
20.550335 -20.730556 30.183983 16711746
16.8134 -16.207663 27.483261 16711746
14.605655 -21.110987 34.6217 16711746
11.986724 -14.735226 26.508667 16711746
13.566869 -16.28034 26.746925 16711746
11.089844 -19.364527 33.600754 16711746
16.894358 -16.401588 27.520292 16711746
22.631435 -20.560778 30.920311 16711746
12.060294 -15.280486 28.078468 16711746
7.802948 -17.220903 32.668678 16711746
12.385903 -16.306278 26.839329 16711746
13.783147 -13.595967 27.701229 16711746
20.050541 -17.492844 29.914202 16711746
16.697994 -15.433509 27.710882 16711746
11.745261 -18.198315 35.898159 16711746
15.536726 -21.603193 41.689869 16711746
22.32078 -21.586435 36.317883 16711746
9.0163393 -7.9522605 26.837315 16711746
17.919125 -19.80732 29.539412 16711746
9.1104746 -14.689924 29.72307 16711746
17.823189 -15.328477 26.97724 16711746
3.0594468 -13.314013 30.859661 16711746
13.371366 -16.142576 36.31768 16711746
13.920579 -21.977451 36.806808 16711746
12.18608 -46.442577 53.350338 16711746
15.339577 -18.730455 35.501255 16711746
13.725213 -18.134569 32.154469 16711746
20.029528 -29.844179 43.885777 16711746
18.708351 -27.797255 41.128212 16711746
14.470107 -20.731791 34.416676 16711746
16.017038 -23.148918 40.604298 16711746
13.271519 -14.860969 27.90625 16711746
15.791965 -25.272266 34.437382 16711746
12.958594 -15.186825 27.893427 16711746
15.332081 -23.165062 25.518627 16711746
6.3818951 -8.9990702 26.200405 16711746
14.644314 -18.501867 34.097759 16711746
12.287409 -17.742075 30.432762 16711746
5.7909312 -12.676228 26.745077 16711746
11.026942 -10.072937 27.870529 16711746
11.616436 -15.045962 27.22662 16711746
12.21981 -23.116701 36.107437 16711746
13.382759 -19.839102 34.793819 16711746
13.971958 -21.696054 41.501572 16711746
12.04678 -27.311029 40.949783 16711746
15.993997 -22.64933 36.396633 16711746
8.93894 -17.876593 31.800831 16711746
18.236561 -18.804232 37.064346 16711746
6.7261477 -20.760979 38.426762 16711746
6.1395936 -11.935016 26.54562 16711746
21.242167 -20.850922 30.998878 16711746
13.180284 -20.788643 40.020779 16711746
19.578354 -22.12299 37.832035 16711746
13.21382 -15.282988 30.355431 16711746
16.992666 -18.970972 26.31461 16711746
17.246519 -31.11278 45.539078 16711746
15.536428 -18.837919 33.622009 16711746
13.164503 -15.136318 31.750109 16711746
10.222787 -15.419584 32.594067 16711746
12.327135 -18.257832 33.187939 16711746
13.251245 -12.568948 26.347805 16711746
12.8205 -18.021078 32.203896 16711746
10.40678 -13.646405 29.070015 16711746
12.757956 -13.254414 27.652004 16711746
12.000457 -14.087791 28.083197 16711746
13.216527 -12.76079 26.465729 16711746
12.642072 -12.072031 26.957476 16711746
13.310948 -12.227477 26.775345 16711746
12.82203 -12.54081 27.002558 16711746
11.905642 -14.309259 26.342321 16711746
15.615143 -12.296179 28.388327 16711746
12.597673 -13.912944 26.322468 16711746
15.211358 -12.95457 29.578747 16711746
3.3587191 -17.735743 26.516119 16711746
13.371718 -12.285002 26.479019 16711746
17.243919 -17.102869 31.058985 16711746
14.381534 -14.658993 28.573065 16711746
14.895308 -11.712692 26.780632 16711746
15.198891 -10.570759 28.720335 16711746
12.797552 -15.853618 29.161695 16711746
10.006796 -17.392063 32.825157 16711746
12.509436 -13.008566 26.708609 16711746
21.530518 -34.371002 41.109699 16711746
14.705081 -19.26676 33.581547 16711746
11.881821 -15.877114 27.305735 16711746
11.980214 -35.726662 47.571289 16711746
16.816219 -25.532322 42.404301 16711746
26.476 -20.721464 33.008053 16711746
23.673145 -26.409927 35.907082 16711746
12.585379 -13.287524 29.362757 16711746
12.059834 -13.42986 26.674856 16711746
10.458797 -13.94833 29.473967 16711746
8.4501095 -9.7591915 27.188047 16711746
11.781185 -13.345188 28.74789 16711746
9.7307777 -12.357519 28.2978 16711746
9.8055239 -12.000225 27.600821 16711746
15.021678 -12.59846 27.524075 16711746
12.751908 -17.395462 26.893805 16711746
14.0797 -16.607491 33.317627 16711746
7.7976422 -10.322734 27.04118 16711746
18.72407 -27.234636 41.913216 16711746
15.695879 -22.607159 36.100975 16711746
14.070524 -19.594284 33.969864 16711746
15.739343 -22.181581 35.04879 16711746
14.282744 -18.082161 32.016586 16711746
14.546534 -18.671133 32.277073 16711746
11.763146 -14.432434 27.633667 16711746
15.670162 -19.105585 34.572979 16711746
12.790302 -20.244886 39.378593 16711746
14.657503 -21.486044 35.001534 16711746
12.948528 -13.296176 27.344381 16711746
13.792428 -19.431328 36.586548 16711746
11.909597 -12.811569 26.694672 16711746
13.246657 -13.390587 27.239895 16711746
9.4673204 -12.117972 28.649492 16711746
11.999894 -13.658269 29.179379 16711746
14.795562 -13.620385 27.382671 16711746
10.116547 -13.596821 29.375338 16711746
11.51053 -10.326704 28.765724 16711746
13.626598 -15.613702 27.946066 16711746
12.857377 -14.601155 28.736662 16711746
15.555796 -13.070431 27.71034 16711746
16.042616 -20.68206 33.751274 16711746
12.018539 -15.071733 28.036451 16711746
12.058188 -14.905598 30.654253 16711746
9.9024467 -17.196104 30.024837 16711746
14.057153 -13.167429 27.190027 16711746
15.412234 -12.362691 27.359951 16711746
13.3031 -13.627098 27.692188 16711746
8.477788 -20.46303 27.107986 16711746
11.558842 -13.934204 33.927441 16711746
14.900517 -15.566317 28.735489 16711746
15.25078 -12.987986 29.78841 16711746
9.6522846 -13.757211 29.309721 16711746
16.893305 -14.073731 27.887066 16711746
15.311849 -20.980104 35.41922 16711746
0.82423878 -57.481678 68.139359 16711746
14.242695 -18.101376 33.501034 16711746
-39.18364 -57.385036 57.451672 16711746
11.964211 -17.019283 31.399986 16711746
6.0666766 -14.451211 30.378635 16711746
11.865169 -15.49325 28.664009 16711746
11.323462 -13.305651 28.299707 16711746
9.6747093 -13.275026 28.364964 16711746
10.09815 -13.89187 29.733271 16711746
7.9541287 -11.023354 29.038515 16711746
12.575872 -16.573286 29.439362 16711746
8.8840809 -10.04348 27.699831 16711746
6.4979377 -14.890249 30.511566 16711746
13.059332 -12.625207 27.157335 16711746
12.761374 -14.85803 28.339378 16711746
13.230908 -15.238864 28.236111 16711746
2.5812848 -11.727259 29.09605 16711746
19.897528 -17.11935 28.519361 16711746
7.1436834 -14.53672 30.597458 16711746
12.168334 -15.060712 29.210062 16711746
10.155151 -11.198792 28.872303 16711746
10.280418 -12.626935 31.689917 16711746
8.0334511 -16.062187 30.337498 16711746
15.477207 -14.473729 27.69313 16711746
14.041327 -19.234364 31.128418 16711746
2.7991128 -18.206005 37.081665 16711746
9.9671841 -13.177601 30.970888 16711746
16.341675 -22.412632 34.655098 16711746
13.331764 -16.266827 29.396267 16711746
15.322511 -21.976273 35.639488 16711746
11.780049 -15.734232 28.267977 16711746
10.706733 -15.98269 31.888393 16711746
7.8896847 -11.828746 27.924927 16711746
12.83473 -15.152083 28.375814 16711746
18.389309 -29.922876 50.152924 16711746
12.043293 -17.505503 32.790619 16711746
16.09001 -22.579187 39.314461 16711746
15.738317 -22.0037 38.703415 16711746
15.354395 -21.674044 40.829285 16711746
16.255219 -22.857767 37.542519 16711746
14.844914 -20.269083 39.61853 16711746
12.667233 -14.801003 28.87656 16711746
17.987019 -25.249077 39.672874 16711746
13.204314 -18.796394 32.696033 16711746
10.135994 -25.937189 37.697475 16711746
21.483461 -26.228769 38.977367 16711746
8.1361303 -21.622589 38.537197 16711746
20.972126 -21.261234 28.222862 16711746
10.822816 -21.645237 38.057934 16711746
12.032755 -16.049229 34.042309 16711746
9.8919554 -24.878202 41.271347 16711746
10.912822 -23.823961 32.139061 16711746
18.988024 -25.832232 44.361599 16711746
6.1995192 -15.369845 30.630751 16711746
15.35918 -17.748253 28.207611 16711746
5.868299 -21.795303 36.643982 16711746
16.529787 -22.521418 43.061131 16711746
14.702766 -36.937798 58.079868 16711746
18.48625 -17.055086 27.603447 16711746
0.62710339 -12.197953 29.986423 16711746
8.0150023 -7.7282667 27.963629 16711746
19.237999 -28.527569 37.519089 16711746
13.809197 -14.613068 35.037216 16711746
11.048356 -17.441757 31.18969 16711746
17.113321 -23.644346 38.719967 16711746
10.785892 -13.829371 30.103756 16711746
10.582683 -14.170422 29.714258 16711746
13.009293 -20.315577 32.1278 16711746
11.947379 -14.938469 33.88184 16711746
18.581367 -19.520634 36.737461 16711746
19.748159 -19.396381 32.054176 16711746
17.040459 -20.222845 41.555687 16711746
15.813268 -21.546627 38.679844 16711746
10.858155 -20.627615 37.533924 16711746
12.831704 -17.015684 28.771114 16711746
20.77243 -21.700277 37.568043 16711746
17.41065 -18.942974 36.923237 16711746
13.613484 -18.25555 36.514565 16711746
10.70623 -14.173088 29.930065 16711746
17.505493 -17.300133 31.583023 16711746
10.54425 -26.366678 39.760506 16711746
12.872818 -15.225327 34.851299 16711746
11.232168 -17.311779 33.097473 16711746
7.6511173 -17.0445 35.238884 16711746
8.4327688 -18.01951 34.906456 16711746
10.621704 -13.905107 29.876364 16711746
13.250585 -16.257595 30.243069 16711746
12.439251 -21.711605 35.494675 16711746
13.266045 -16.394218 29.778276 16711746
13.518033 -15.94496 28.998087 16711746
15.426166 -22.011032 37.845585 16711746
11.591642 -17.574165 32.495167 16711746
19.790894 -18.814445 32.103149 16711746
16.66239 -17.794804 30.541647 16711746
11.170339 -16.594992 32.757248 16711746
15.616894 -19.649418 33.994335 16711746
1.7428224 -14.118726 32.196674 16711746
11.918319 -15.043709 33.904186 16711746
4.5444283 -15.546449 32.436932 16711746
18.042536 -26.008209 40.666725 16711746
14.216978 -17.999517 35.359585 16711746
9.3004198 -18.233162 30.55805 16711746
0.35774067 -14.572178 29.121895 16711746
5.4552951 -15.897191 31.306494 16711746
16.473873 -18.352571 31.596954 16711746
15.798867 -18.633404 38.344116 16711746
10.579965 -15.92547 33.020054 16711746
7.8174086 -20.843695 36.756287 16711746
5.6686711 -23.542141 38.539631 16711746
9.5646744 -16.814623 30.298826 16711746
9.567441 -14.088433 30.327101 16711746
9.8558159 -17.506096 33.839401 16711746
8.7288103 -16.270332 30.211121 16711746
9.3009787 -14.186761 28.719725 16711746
10.037257 -16.402712 29.689795 16711746
10.813566 -14.050015 30.639481 16711746
9.487649 -17.559605 32.266205 16711746
20.595459 -17.044844 28.263552 16711746
1.388887 -14.466836 32.359566 16711746
9.4319477 -14.602028 34.912418 16711746
8.0215578 -18.592388 37.310459 16711746
13.612728 -15.833502 35.374577 16711746
5.5669689 -16.663195 28.057449 16711746
9.40275 -17.393021 32.27541 16711746
19.830877 -20.147896 33.062168 16711746
13.711718 -19.392414 36.78846 16711746
-4.9442263 -21.646669 30.866571 16711746
0.74408925 -14.944915 32.691017 16711746
5.5975246 -10.339274 29.554886 16711746
22.00919 -16.878269 33.850723 16711746
8.8481588 -19.315647 33.876572 16711746
1.8743382 -14.131972 31.64551 16711746
7.1286769 -19.957621 36.43726 16711746
5.6665182 -12.931981 28.91227 16711746
18.529884 -19.402126 32.723904 16711746
10.549224 -11.243834 29.745811 16711746
9.27771 -12.832159 27.685041 16711746
2.035826 -13.68403 31.951704 16711746
10.99376 -16.171032 35.4025 16711746
9.4853764 -22.845713 36.924442 16711746
11.030989 -16.381641 32.933937 16711746
8.1139965 -19.47567 37.059269 16711746
10.886632 -20.171982 36.161499 16711746
10.436564 -15.332813 31.931383 16711746
33.157612 -39.868847 45.679131 16711746
15.493977 -21.463781 41.321766 16711746
-14.096049 -35.071594 37.060116 16711746
9.7022123 -14.085143 29.690046 16711746
5.2631907 -15.109607 30.478012 16711746
6.2684951 -14.079546 28.227222 16711746
8.5227251 -11.249928 27.92058 16711746
2.4334309 -13.703856 30.649454 16711746
0.76601255 -15.497884 30.754646 16711746
7.8938203 -11.172342 28.02125 16711746
5.7884521 -14.21189 28.836987 16711746
6.0802255 -14.303193 28.286821 16711746
10.405856 -11.297704 30.301052 16711746
7.5697026 -11.642715 27.489489 16711746
3.31267 -14.498772 29.759945 16711746
7.3898482 -16.340494 28.660557 16711746
5.6480398 -12.483797 28.121315 16711746
12.824579 -16.161058 29.465605 16711746
10.538302 -13.68942 29.603071 16711746
8.6782408 -16.12261 35.201027 16711746
14.166806 -21.630892 29.193081 16711746
13.130572 -14.118774 33.696198 16711746
10.000065 -13.968736 29.36108 16711746
15.486259 -21.333418 39.793083 16711746
12.618732 -16.183538 33.077587 16711746
14.515177 -18.25671 31.304089 16711746
3.6129248 -18.454111 36.779423 16711746
22.38929 -19.48094 29.737448 16711746
5.5165091 -20.664454 37.512772 16711746
11.963771 -16.801447 32.19788 16711746
4.9194775 -10.462296 27.856339 16711746
17.056261 -23.933168 43.61272 16711746
18.160776 -27.126328 46.442783 16711746
15.750023 -20.816698 34.117508 16711746
20.816628 -17.067482 30.376062 16711746
11.388831 -15.169327 32.59026 16711746
12.802431 -15.169124 29.707598 16711746
11.488608 -15.974719 31.23737 16711746
18.435503 -16.629276 27.667112 16711746
5.7588882 -13.015569 28.463343 16711746
13.563236 -15.651925 28.595667 16711746
19.966269 -19.338356 30.845108 16711746
5.7518458 -13.00423 28.462 16711746
7.7655826 -17.8715 36.693825 16711746
10.67134 -17.088078 32.931553 16711746
18.393583 -15.796329 28.579254 16711746
6.2944059 -12.106062 28.834641 16711746
11.16994 -14.522136 33.431179 16711746
6.2865262 -13.935489 27.996042 16711746
8.003314 -16.031559 35.638199 16711746
8.306304 -14.982483 32.760059 16711746
7.1723614 -13.108631 28.103201 16711746
13.420353 -15.867634 32.663433 16711746
15.242033 -15.967844 30.833555 16711746
19.054308 -16.300795 28.194313 16711746
8.1036215 -15.78435 33.180817 16711746
17.869549 -16.711727 33.62883 16711746
4.7732019 -12.624094 29.688049 16711746
8.2491865 -13.882404 29.479303 16711746
8.4775381 -13.340011 30.491982 16711746
13.288714 -14.517135 30.49402 16711746
3.2331238 -14.737154 31.572824 16711746
10.462964 -13.686667 32.875725 16711746
12.524754 -16.389679 31.62484 16711746
19.255678 -15.441688 28.20392 16711746
14.579369 -13.956557 28.839844 16711746
9.7325935 -14.215827 29.267689 16711746
6.461175 -12.333151 28.180759 16711746
10.406158 -14.043118 30.056784 16711746
10.698868 -15.272424 33.153259 16711746
6.4067907 -12.523576 28.181456 16711746
9.350646 -14.616444 29.939846 16711746
2.6923373 -13.424252 27.596264 16711746
7.0189047 -13.130657 32.0578 16711746
2.189009 -15.438421 30.778681 16711746
5.5575619 -12.37683 28.554747 16711746
5.7851086 -12.952671 28.495335 16711746
10.893286 -13.344011 31.296143 16711746
10.978669 -15.025352 32.121437 16711746
15.112439 -15.47539 29.08124 16711746
17.287535 -17.073118 28.845522 16711746
13.628524 -17.203941 32.812641 16711746
13.738846 -18.265789 31.999203 16711746
14.596966 -13.932113 28.428448 16711746
8.8721304 -12.504955 29.927588 16711746
5.5295072 -15.035175 28.762362 16711746
8.5500536 -12.092885 28.780972 16711746
-0.32370523 -13.271232 27.969063 16711746
13.334742 -16.431509 29.750546 16711746
5.8633685 -15.856338 30.924301 16711746
15.537484 -19.449583 39.213116 16711746
15.45645 -19.633932 33.403019 16711746
10.534214 -23.746456 38.154369 16711746
5.4528456 -19.986938 38.676914 16711746
12.366192 -16.755495 27.572334 16711746
12.393805 -16.809059 27.573921 16711746
8.1686316 -21.341616 37.677811 16711746
12.881732 -14.758185 28.75186 16711746
2.6236372 -18.666428 37.638542 16711746
12.618136 -14.804713 31.482744 16711746
17.26387 -25.157251 47.228523 16711746
16.190525 -38.624958 61.88126 16711746
13.4128 -18.698523 32.208652 16711746
4.716877 -11.929667 30.049841 16711746
5.7913842 -20.531797 37.662029 16711746
16.628094 -20.34787 35.609573 16711746
16.643385 -20.377831 37.185173 16711746
16.926474 -20.915195 36.727222 16711746
5.1565981 -20.324217 38.788704 16711746
17.315519 -23.964251 38.372829 16711746
14.185473 -17.832829 30.985231 16711746
10.575398 -15.551445 32.837875 16711746
15.10943 -17.721466 36.467079 16711746
20.346325 -18.972153 31.098465 16711746
5.5094943 -19.473745 38.108025 16711746
6.1368513 -17.948723 35.790901 16711746
20.023226 -17.442734 31.381668 16711746
8.643569 -17.374893 35.760342 16711746
19.42384 -20.384216 37.444466 16711746
10.313553 -17.032934 31.144012 16711746
6.5920668 -18.430637 36.549629 16711746
2.9655662 -15.169173 32.685406 16711746
17.630289 -22.443623 38.552284 16711746
13.20457 -18.746708 35.942261 16711746
8.4504833 -16.532087 33.859531 16711746
8.5910845 -21.220274 32.511131 16711746
7.0919232 -17.265108 36.563843 16711746
20.456768 -17.449106 31.943512 16711746
18.524401 -16.142523 30.2749 16711746
13.405005 -15.483037 28.563992 16711746
5.6055627 -22.432083 41.570576 16711746
12.281823 -19.845837 42.008747 16711746
13.235404 -16.528942 32.620369 16711746
13.719301 -17.300337 33.71999 16711746
14.204224 -18.348133 32.302963 16711746
11.660177 -15.882627 31.417881 16711746
6.8108883 -18.635647 38.334705 16711746
13.835352 -17.052593 31.853386 16711746
14.418929 -18.858013 34.847507 16711746
7.8106632 -17.933472 34.61219 16711746
12.801225 -19.177786 31.842207 16711746
15.624073 -18.089495 34.454807 16711746
3.1716995 -17.981277 37.8395 16711746
13.540604 -14.448984 27.988411 16711746
4.8761678 -17.135622 34.663757 16711746
5.2283211 -20.138594 36.62616 16711746
8.024621 -18.254044 36.799679 16711746
11.619117 -16.055567 31.411247 16711746
7.0249166 -18.157791 37.904675 16711746
14.456721 -17.901791 36.721714 16711746
12.154047 -17.456736 31.491346 16711746
5.9454551 -18.034557 37.069626 16711746
7.6351562 -19.241789 28.943645 16711746
9.6152239 -14.737638 30.996946 16711746
13.589718 -14.37501 28.358662 16711746
7.006145 -15.163364 30.315176 16711746
9.3758249 -18.865746 34.668655 16711746
9.0386524 -19.553852 32.910164 16711746
13.53394 -14.380158 28.841782 16711746
8.2897997 -15.348242 33.239075 16711746
8.6400986 -15.441869 27.849463 16711746
15.261294 -15.691688 32.389374 16711746
1.6714545 -17.689253 36.007198 16711746
8.0543633 -21.355467 38.454315 16711746
10.95197 -17.357641 34.450584 16711746
14.367171 -13.421213 28.420406 16711746
13.634297 -14.463728 28.360542 16711746
10.857874 -16.461262 32.29158 16711746
7.8951082 -15.726224 34.881878 16711746
7.4163222 -13.366204 30.256084 16711746
12.338784 -14.954797 34.290298 16711746
11.531325 -14.701161 34.111908 16711746
9.0869169 -14.111066 30.227251 16711746
15.206971 -16.871206 30.84803 16711746
17.711491 -17.683523 33.042488 16711746
11.607365 -16.054243 28.588209 16711746
2.8173916 -18.703354 38.344681 16711746
3.956177 -17.980173 36.388248 16711746
13.865835 -17.474512 37.708958 16711746
10.036486 -12.463789 31.166754 16711746
8.6471701 -21.462727 34.794106 16711746
9.2884159 -12.972928 30.081987 16711746
8.856431 -14.405662 27.941574 16711746
5.6425886 -12.259789 28.554108 16711746
9.3615351 -15.837045 28.271511 16711746
1.9555604 -20.062908 39.474701 16711746
13.543883 -15.135728 31.328552 16711746
6.7113791 -23.510851 41.226185 16711746
16.441708 -15.638493 31.768213 16711746
1.0204598 -21.443892 40.416447 16711746
3.2815635 -19.371059 37.324093 16711746
15.977918 -14.352327 35.854748 16711746
10.770782 -12.851007 34.463982 16711746
11.791395 -17.200579 38.768795 16711746
3.4363465 -21.200808 41.788479 16711746
21.634863 -21.717051 32.124783 16711746
14.82643 -19.28668 36.874355 16711746
6.8784337 -18.681652 35.058762 16711746
14.675679 -18.197163 37.658024 16711746
19.653645 -29.133883 43.936794 16711746
18.952421 -27.819757 48.621105 16711746
19.598143 -18.31354 33.54052 16711746
-4.4938016 -20.190002 30.372828 16711746
12.674254 -17.672371 36.335209 16711746
6.6547842 -14.941731 32.702065 16711746
12.794921 -20.255013 35.597553 16711746
10.970007 -15.998413 32.162121 16711746
11.132239 -13.815606 32.325661 16711746
15.038829 -16.676334 33.165703 16711746
16.830166 -16.57107 34.970119 16711746
15.865753 -14.286245 31.722147 16711746
14.761166 -18.418037 32.17424 16711746
11.593027 -15.673499 31.553095 16711746
10.660607 -12.014137 31.078758 16711746
13.546885 -15.808168 28.597313 16711746
14.324176 -15.415629 30.609837 16711746
10.945354 -14.014408 30.745621 16711746
14.649099 -17.185198 31.857244 16711746
12.23046 -16.112612 28.691559 16711746
10.48867 -17.828936 32.655891 16711746
11.798085 -17.427349 31.747566 16711746
11.131454 -14.17361 33.183128 16711746
10.678403 -11.641268 31.830235 16711746
14.033986 -17.574316 35.016041 16711746
13.286886 -13.925096 34.050751 16711746
8.9703741 -18.427193 31.815855 16711746
8.3121538 -13.431797 29.640348 16711746
8.782361 -18.655396 32.353985 16711746
6.367135 -18.542276 37.204651 16711746
15.378877 -16.761845 30.563442 16711746
14.831743 -15.196974 30.261278 16711746
14.396383 -15.833875 30.379078 16711746
14.995272 -17.12031 34.134895 16711746
13.207249 -12.867442 29.754065 16711746
13.362036 -14.086175 33.738995 16711746
15.394203 -16.029718 30.861038 16711746
18.199036 -14.115139 29.731812 16711746
10.050824 -14.371474 29.814903 16711746
12.713401 -14.576853 29.798872 16711746
7.1973391 -17.344629 33.515438 16711746
12.668037 -13.361045 34.886944 16711746
17.089602 -16.8251 34.861916 16711746
13.357329 -18.803465 35.929581 16711746
8.8531799 -12.324525 29.427725 16711746
4.5844164 -19.138647 39.96846 16711746
10.654581 -17.404411 35.139599 16711746
6.6938949 -20.851282 37.128273 16711746
7.3363705 -18.681715 35.839153 16711746
5.6064434 -21.616875 41.01104 16711746
19.677052 -15.048004 29.36301 16711746
7.4009423 -15.556602 35.790905 16711746
2.7763765 -13.275232 27.55821 16711746
16.574209 -17.070534 28.308336 16711746
2.902849 -21.005003 36.779049 16711746
11.387944 -14.779517 32.441837 16711746
-0.43347687 -16.491537 30.729279 16711746
16.078987 -14.705958 32.313675 16711746
10.480291 -8.0630093 29.981264 16711746
19.790882 -17.948679 29.195704 16711746
4.7364335 -11.779263 30.14164 16711746
2.1267991 -13.746417 31.535633 16711746
19.099932 -16.190763 29.202118 16711746
9.9875555 -14.729253 32.652996 16711746
8.6182003 -14.211358 30.201073 16711746
-1.0801758 -24.694407 30.886532 16711746
16.245779 -35.845345 31.067516 16711746
13.30507 -13.956266 30.86591 16711746
8.351182 -24.16783 34.162586 16711746
18.870943 -14.517984 29.494104 16711746
13.0818 -14.740051 31.244022 16711746
16.325922 -15.090582 32.030922 16711746
10.437753 -15.122905 32.36108 16711746
9.4566174 -11.998786 28.821077 16711746
16.280504 -20.857691 36.271732 16711746
8.5710592 -13.847502 30.075169 16711746
13.587728 -20.310108 32.140812 16711746
14.499901 -15.968568 30.377365 16711746
13.21513 -13.123014 35.443802 16711746
8.4209785 -27.743813 39.735252 16711746
6.7408352 -20.884832 28.590693 16711746
3.6126833 -12.730592 30.719727 16711746
8.5850286 -13.41072 29.190319 16711746
14.126659 -10.840334 31.300398 16711746
9.641367 -13.18217 29.510426 16711746
8.9822502 -11.508111 29.089125 16711746
12.653595 -11.332631 31.208094 16711746
9.318078 -11.239345 29.522324 16711746
14.018931 -14.859826 33.601719 16711746
15.398749 -21.182556 35.38253 16711746
12.374027 -14.74425 29.566162 16711746
12.327847 -17.225481 29.127617 16711746
13.166511 -15.630342 33.052368 16711746
6.7675147 -12.259519 28.960329 16711746
9.0959082 -12.376857 29.684433 16711746
10.378127 -13.952707 32.130642 16711746
9.398488 -15.794754 29.587835 16711746
9.0071135 -12.442282 29.790665 16711746
19.508417 -16.036955 29.64883 16711746
6.3994913 -11.261813 29.392298 16711746
12.954062 -12.608807 33.289707 16711746
12.722898 -10.925889 32.940533 16711746
9.9494925 -14.022044 29.90333 16711746
1.8516531 -14.482928 31.569572 16711746
19.312651 -15.5706 29.823011 16711746
12.30811 -15.764987 29.452835 16711746
11.817101 -14.62938 31.20693 16711746
13.07439 -15.686193 29.640589 16711746
11.078255 -13.620782 31.408514 16711746
10.720486 -14.063092 31.733549 16711746
15.016133 -13.506937 31.138308 16711746
8.5172291 -13.281468 30.487801 16711746
13.285494 -13.414395 30.80794 16711746
9.5382853 -12.554965 29.742218 16711746
13.828483 -14.271382 34.284416 16711746
9.3168192 -10.924249 29.637344 16711746
10.048804 -12.801295 29.325705 16711746
6.0320048 -15.017597 30.375736 16711746
12.382496 -16.456816 31.264824 16711746
10.812247 -10.376903 31.49122 16711746
10.655491 -13.972269 29.71015 16711746
7.0637212 -18.246042 32.569031 16711746
8.3346663 -14.10056 29.848021 16711746
13.709352 -14.184481 31.499287 16711746
16.739729 -16.048817 30.755474 16711746
4.9063368 -14.450782 32.916058 16711746
14.398423 -16.498564 33.858356 16711746
14.037453 -19.679653 32.129745 16711746
14.368645 -17.211647 38.832478 16711746
10.090058 -14.862051 30.118176 16711746
19.702324 -16.949322 29.188332 16711746
13.009505 -13.653358 34.380867 16711746
11.036621 -33.967979 42.510033 16711746
13.889845 -16.560303 32.510387 16711746
15.947441 -19.597122 36.125275 16711746
10.489183 -33.423519 45.467075 16711746
22.401346 -28.231565 39.028549 16711746
13.012806 -14.083262 32.630539 16711746
12.515684 -15.229198 32.615864 16711746
12.716934 -13.651312 31.069063 16711746
13.610996 -17.059296 32.280914 16711746
13.950345 -19.311346 31.880692 16711746
8.5352411 -13.717042 29.670595 16711746
13.495223 -13.93274 34.418648 16711746
6.6328673 -24.578133 34.935337 16711746
15.916927 -13.624164 29.534845 16711746
11.624428 -12.769778 31.539764 16711746
3.4387925 -18.945312 35.01054 16711746
14.076078 -15.212757 31.988586 16711746
-2.9288876 -18.510218 31.699461 16711746
8.5555754 -13.728637 29.663353 16711746
3.9015362 -19.215473 36.96653 16711746
-0.31628525 -20.742485 37.237194 16711746
15.180108 -19.368525 31.252787 16711746
14.743586 -15.951592 35.292843 16711746
18.389656 -16.221956 33.959057 16711746
13.187114 -15.79217 31.675608 16711746
15.746418 -13.104258 32.18404 16711746
13.167345 -18.790922 29.375683 16711746
14.775997 -17.966698 32.260269 16711746
13.392924 -15.519071 30.420959 16711746
14.434769 -15.958447 34.105873 16711746
12.001355 -13.951402 31.435354 16711746
15.10831 -18.161833 32.659351 16711746
18.994528 -16.160385 29.177307 16711746
8.0940952 -13.045485 34.617767 16711746
16.080498 -15.349 34.088097 16711746
5.4678445 -19.918032 38.254974 16711746
5.6115756 -23.232578 37.759842 16711746
13.883191 -16.645477 30.505407 16711746
2.5849566 -21.855244 36.146809 16711746
5.8461952 -21.201946 34.915443 16711746
16.078751 -15.359901 31.366058 16711746
9.5866823 -20.266027 36.246418 16711746
12.763 -18.479176 31.614727 16711746
4.8544664 -20.612221 37.499321 16711746
17.476706 -24.129642 34.139748 16711746
10.430991 -19.183611 30.065845 16711746
15.455914 -15.379779 30.016615 16711746
14.963977 -16.477694 32.597569 16711746
10.01789 -25.908136 37.495602 16711746
3.6822188 -14.281005 28.900229 16711746
9.4924421 -20.446104 36.286381 16711746
9.8959942 -15.52795 33.838085 16711746
4.7046514 -14.900856 32.548908 16711746
-5.3610563 -20.969381 32.011841 16711746
8.2342157 -14.327524 29.836641 16711746
14.910404 -16.202204 29.963591 16711746
16.168146 -13.865198 30.987785 16711746
22.488035 -20.492342 40.466415 16711746
7.3596506 -14.214503 31.180784 16711746
15.27088 -14.901799 30.980803 16711746
2.9284768 -19.65888 30.39278 16711746
5.6375895 -14.914206 32.197899 16711746
5.8012767 -24.140409 37.012531 16711746
2.3758798 -15.883742 28.822149 16711746
17.584286 -16.011427 31.001087 16711746
22.692266 -20.424255 40.405914 16711746
10.610576 -14.115179 29.693335 16711746
12.854609 -10.076194 31.07234 16711746
14.552534 -15.966151 29.908264 16711746
13.499709 -13.109347 31.1096 16711746
11.691015 -11.805175 31.124769 16711746
12.056094 -14.940989 29.536695 16711746
6.5504742 -11.435903 32.269707 16711746
5.9680467 -12.898504 29.651918 16711746
14.172606 -13.030943 31.955574 16711746
17.813854 -13.658935 30.043011 16711746
14.237194 -15.815749 31.329762 16711746
14.368065 -15.721299 30.998011 16711746
9.8330164 -20.493164 36.452606 16711746
17.164461 -14.691205 31.432858 16711746
20.498652 -19.58075 37.187969 16711746
17.338207 -16.156477 36.930035 16711746
13.408487 -15.282842 30.355515 16711746
17.672541 -13.833072 29.611166 16711746
12.478299 -20.925575 33.468067 16711746
12.255733 -14.910186 31.376915 16711746
4.3216238 -24.396912 34.467171 16711746
16.638136 -14.515858 32.720348 16711746
12.183044 -24.611435 41.652485 16711746
14.469214 -18.37985 33.876278 16711746
13.526074 -16.075994 33.318253 16711746
13.941521 -17.625271 33.704483 16711746
4.3594952 -16.689493 36.015488 16711746
11.98355 -17.739239 31.246632 16711746
-12.049703 -44.832394 45.962719 16711746
15.177401 -14.881425 31.474615 16711746
13.515547 -15.793266 33.212009 16711746
12.834542 -15.380708 32.806198 16711746
13.803751 -14.250018 30.324047 16711746
15.003893 -16.629845 30.027552 16711746
11.823521 -15.592 31.271687 16711746
14.646102 -17.517141 32.844646 16711746
13.410131 -16.556768 32.200775 16711746
16.454781 -15.021888 31.824131 16711746
18.951721 -15.63192 31.553925 16711746
14.289585 -16.253712 30.622114 16711746
5.8894448 -12.310175 32.533123 16711746
10.094937 -14.167835 33.182678 16711746
10.320456 -13.099827 33.276089 16711746
13.708028 -16.274355 32.589928 16711746
17.720695 -15.661911 31.365921 16711746
10.459922 -10.388965 32.22081 16711746
4.6755724 -17.112118 34.704456 16711746
10.313595 -11.824045 32.117054 16711746
14.95516 -18.342833 33.020954 16711746
15.031048 -17.693279 32.534607 16711746
17.733225 -13.595479 31.702803 16711746
14.986117 -16.762623 33.47327 16711746
13.336423 -15.856237 32.711739 16711746
16.29936 -15.659059 32.794174 16711746
14.07121 -14.92837 30.331713 16711746
4.6212983 -15.685702 35.703072 16711746
14.04602 -15.625114 30.578314 16711746
14.484138 -15.200657 36.40501 16711746
8.8768406 -13.425168 30.481907 16711746
13.333035 -15.470518 33.497356 16711746
14.690375 -16.606539 33.20155 16711746
15.757938 -19.140858 33.667007 16711746
11.035148 -14.571919 32.345776 16711746
18.024508 -14.843542 30.829857 16711746
14.492126 -16.495607 30.848114 16711746
8.5689945 -19.151896 41.300617 16711746
6.5126762 -12.683023 30.491957 16711746
7.2204337 -14.140958 30.981585 16711746
17.279774 -13.889561 31.601963 16711746
11.762129 -16.480207 31.330816 16711746
0.067987017 -20.693213 39.147732 16711746
0.36347827 -14.661791 32.705853 16711746
16.69836 -17.898603 37.408115 16711746
10.482595 -10.98463 32.587254 16711746
10.997765 -11.57648 34.942898 16711746
4.653832 -18.260551 33.22517 16711746
20.517828 -28.587454 50.18306 16711746
12.196206 -13.116254 31.576221 16711746
13.117737 -16.333424 31.202709 16711746
16.263094 -23.471043 46.603966 16711746
13.968951 -16.202856 31.415455 16711746
1.099656 -14.587089 32.215393 16711746
14.623191 -16.497196 33.121296 16711746
14.973674 -14.154964 32.298687 16711746
15.359936 -17.244904 32.782269 16711746
15.120563 -17.751389 34.023941 16711746
14.503869 -16.504622 32.840511 16711746
16.235378 -13.655019 32.593521 16711746
14.483246 -16.414978 30.822943 16711746
14.365488 -15.005568 33.128796 16711746
15.253085 -17.112301 31.606222 16711746
15.484294 -14.253921 31.307024 16711746
10.30568 -18.426067 36.081982 16711746
5.6790128 -17.251997 30.948597 16711746
6.1541462 -15.304332 30.733122 16711746
-0.38611695 -20.728676 36.843605 16711746
15.372511 -14.067491 30.517536 16711746
14.082571 -16.744783 30.175266 16711746
7.3670502 -14.07998 30.948616 16711746
14.394874 -15.471576 32.612194 16711746
12.428743 -11.419261 34.455212 16711746
6.0090976 -15.301465 30.873802 16711746
10.299185 -14.410309 34.335655 16711746
12.01847 -10.099571 32.212715 16711746
7.3626904 -15.88201 30.895493 16711746
15.961779 -13.755548 34.140339 16711746
13.58171 -16.325758 31.98517 16711746
13.455935 -15.307085 32.937813 16711746
11.516652 -15.455642 31.409681 16711746
4.435781 -16.554773 32.574566 16711746
12.586969 -15.834596 32.951736 16711746
10.252885 -16.044411 35.024582 16711746
9.9243355 -12.914754 33.579712 16711746
15.094374 -16.688236 32.676723 16711746
17.219055 -14.988767 33.928158 16711746
10.479515 -18.909914 35.361782 16711746
7.3975563 -15.729642 30.949978 16711746
1.3131485 -16.207443 32.04071 16711746
-1.9989454 -17.254107 30.065222 16711746
15.133899 -18.072886 31.157436 16711746
14.66947 -17.321062 32.749443 16711746
13.059258 -15.336332 32.994381 16711746
12.961513 -15.080502 32.907269 16711746
18.46446 -18.854347 38.586945 16711746
10.259576 -13.31651 33.272736 16711746
14.525095 -19.692959 32.319866 16711746
13.487747 -16.196827 32.301128 16711746
19.393993 -16.036463 31.616938 16711746
14.115548 -14.508607 31.361078 16711746
23.058889 -21.086166 34.207336 16711746
11.997998 -15.10339 32.081821 16711746
13.606168 -17.034887 32.437374 16711746
8.1961393 -13.750271 35.398487 16711746
12.697653 -11.496152 34.519913 16711746
11.787913 -13.53407 31.702084 16711746
2.300734 -13.312889 30.343483 16711746
11.414732 -11.708043 31.395937 16711746
-9.3961916 -24.834936 32.485806 16711746
