# .PCD v.7 - Point Cloud Data file format
VERSION .7
FIELDS x y z rgb
SIZE 4 4 4 4
TYPE F F F F
COUNT 1 1 1 1
WIDTH 1225
HEIGHT 1
VIEWPOINT 0 0 0 1 0 0 0
POINTS 1225
DATA ascii
0.1924114 0.1018018 0.5587165 16711746
0.1939167 0.1014957 0.5584189 16711746
0.1905359 0.1025282 0.5628734 16711746
0.1415748 0.0921412 0.5906918 16711746
0.1923453 0.1043102 0.5727162 16711746
0.1884351 0.0989589 0.5804203 16711746
0.2023666 0.0979617 0.5833986 16711746
0.1932899 0.1022176 0.5594590 16711746
0.1916027 0.1018497 0.5588785 16711746
0.1942882 0.1019838 0.5576010 16711746
0.1896110 0.1017600 0.5569605 16711746
0.1922284 0.1013785 0.5580498 16711746
0.1913122 0.1019006 0.5589756 16711746
0.1925079 0.1011776 0.5570745 16711746
0.1889965 0.1013351 0.5588441 16711746
0.1870624 0.1016725 0.5600803 16711746
0.1954144 0.1025473 0.5582057 16711746
0.1938551 0.1024265 0.5581642 16711746
0.1943180 0.1025957 0.5586868 16711746
0.1895421 0.1018047 0.5570194 16711746
0.1915663 0.1021504 0.5589614 16711746
0.1937659 0.1024524 0.5583906 16711746
0.1917713 0.1021309 0.5586524 16711746
0.1928408 0.1025807 0.5620447 16711746
0.1888855 0.1016176 0.5584485 16711746
0.1921050 0.1021316 0.5580983 16711746
0.1899656 0.1020544 0.5578089 16711746
0.1866080 0.1015899 0.5592011 16711746
0.1922542 0.1014943 0.5576795 16711746
0.1904804 0.1016195 0.5585333 16711746
0.1947621 0.1020959 0.5574535 16711746
0.1877338 0.1016215 0.5598844 16711746
0.1897194 0.1014637 0.5577509 16711746
0.1913742 0.1017267 0.5581449 16711746
0.1913234 0.1019781 0.5579314 16711746
0.1910782 0.1020814 0.5585294 16711746
0.1922291 0.1013417 0.5579163 16711746
0.1913812 0.1018865 0.5577289 16711746
0.1901404 0.1019231 0.5575587 16711746
0.1911054 0.1020428 0.5584553 16711746
0.1894807 0.1017900 0.5574166 16711746
0.1942727 0.1016896 0.5565264 16711746
0.1899346 0.1023266 0.5614873 16711746
0.1946325 0.1023298 0.5584961 16711746
0.1959009 0.1021873 0.5591538 16711746
0.2004579 0.0967930 0.5633312 16711746
0.1936840 0.1000361 0.5594242 16711746
0.1935153 0.1023568 0.5598863 16711746
0.1940920 0.1002214 0.5581674 16711746
0.1935411 0.1027952 0.5618557 16711746
0.1948238 0.1023102 0.5595222 16711746
0.1963595 0.0998476 0.5641348 16711746
0.1946084 0.1022271 0.5594294 16711746
0.1905205 0.1023595 0.5628058 16711746
0.1924149 0.1017778 0.5585281 16711746
0.1919768 0.1036320 0.5659918 16711746
0.1939922 0.1019197 0.5579631 16711746
0.1958785 0.1036922 0.5660431 16711746
0.1945863 0.1022920 0.5591657 16711746
0.1928590 0.0997389 0.5585526 16711746
0.1945019 0.1023454 0.5587097 16711746
0.1909387 0.1024673 0.5605143 16711746
0.1958876 0.1026647 0.5596865 16711746
0.1864818 0.0983066 0.5595015 16711746
0.1940215 0.1023945 0.5582809 16711746
0.1953660 0.1027426 0.5599245 16711746
0.1952778 0.1023249 0.5592929 16711746
0.1944652 0.1024448 0.5578727 16711746
0.1880567 0.0981931 0.5691505 16711746
0.1936373 0.1003752 0.5591083 16711746
0.1961554 0.1023870 0.5599785 16711746
0.1938588 0.1023316 0.5585271 16711746
0.1937854 0.1006527 0.5590428 16711746
0.1926746 0.1014743 0.5588066 16711746
0.1959388 0.1023894 0.5605762 16711746
0.1950869 0.1024015 0.5584305 16711746
0.1931882 0.1007590 0.5595082 16711746
0.1888677 0.1017444 0.5583125 16711746
0.1901489 0.1018869 0.5623775 16711746
0.1948860 0.1015052 0.5580276 16711746
0.1938108 0.1024492 0.5583096 16711746
0.1938323 0.1006631 0.5591839 16711746
0.1921046 0.1018026 0.5586759 16711746
0.1902136 0.1018356 0.5593882 16711746
0.1947642 0.1021489 0.5584397 16711746
0.1942138 0.1009265 0.5599543 16711746
0.1945840 0.1018697 0.5587502 16711746
0.1939701 0.1014248 0.5588375 16711746
0.1911608 0.1013348 0.5591837 16711746
0.1923451 0.1018024 0.5587891 16711746
0.1930541 0.1020048 0.5599121 16711746
0.1915883 0.1018736 0.5610883 16711746
0.1942198 0.1024538 0.5588174 16711746
0.1929213 0.1006353 0.5562976 16711746
0.1939622 0.1017098 0.5584420 16711746
0.1949275 0.1021796 0.5602745 16711746
0.1945079 0.1024981 0.5607231 16711746
0.1940759 0.1001402 0.5595273 16711746
0.1935880 0.0999336 0.5585151 16711746
0.1924219 0.1000260 0.5581877 16711746
0.1905803 0.1015039 0.5583017 16711746
0.1917951 0.1021967 0.5617587 16711746
0.1947463 0.1022133 0.5586372 16711746
0.1950113 0.1023376 0.5583514 16711746
0.1937813 0.1025367 0.5587153 16711746
0.1955590 0.1026341 0.5616874 16711746
0.1972210 0.0985213 0.5673813 16711746
0.1971399 0.1030154 0.5627255 16711746
0.1932520 0.1022606 0.5598501 16711746
0.1945425 0.1024094 0.5603321 16711746
0.1959412 0.1029228 0.5633671 16711746
0.1907270 0.1021980 0.5588990 16711746
0.1950760 0.1024448 0.5593822 16711746
0.1945773 0.1024226 0.5588384 16711746
0.1936421 0.1023898 0.5591182 16711746
0.1916608 0.1019555 0.5580397 16711746
0.1940404 0.1022979 0.5583627 16711746
0.1911879 0.1019075 0.5584152 16711746
0.1907784 0.1020381 0.5585128 16711746
0.1896610 0.1023360 0.5616298 16711746
0.1936047 0.1003287 0.5593358 16711746
0.1877408 0.1018876 0.5613734 16711746
0.1926553 0.1022192 0.5604467 16711746
0.1929507 0.1008417 0.5616709 16711746
0.1925627 0.1019562 0.5588551 16711746
0.1902822 0.1016621 0.5587711 16711746
0.1951350 0.1022006 0.5586884 16711746
0.1923142 0.1014717 0.5581511 16711746
0.1936237 0.1005072 0.5585613 16711746
0.1935638 0.1002245 0.5604369 16711746
0.1973888 0.0984294 0.5616295 16711746
0.1935343 0.1002190 0.5603170 16711746
0.1776325 0.0974035 0.5663338 16711746
0.1965501 0.0988589 0.5595464 16711746
0.1907549 0.1016336 0.5579504 16711746
0.1905084 0.1018143 0.5578088 16711746
0.1934743 0.1022251 0.5581679 16711746
0.1950986 0.1023205 0.5596808 16711746
0.1952054 0.1022846 0.5597333 16711746
0.1963786 0.1024870 0.5602981 16711746
0.1967277 0.1025327 0.5605710 16711746
0.1912505 0.1017356 0.5602862 16711746
0.1947333 0.1024450 0.5593733 16711746
0.1914433 0.1016595 0.5602010 16711746
0.1918263 0.1019749 0.5600370 16711746
0.1939423 0.1006707 0.5592247 16711746
0.1916680 0.1019002 0.5598245 16711746
0.1941238 0.1007576 0.5597795 16711746
0.1929195 0.1021935 0.5610786 16711746
0.1914110 0.1018895 0.5599319 16711746
0.1944926 0.1020779 0.5593112 16711746
0.1947396 0.1022465 0.5592729 16711746
0.1930635 0.1020067 0.5593446 16711746
0.1900432 0.1019188 0.5596836 16711746
0.1919037 0.1018950 0.5591828 16711746
0.1904134 0.1014898 0.5587663 16711746
0.1893122 0.1020563 0.5607321 16711746
0.1912667 0.1020678 0.5594443 16711746
0.1956399 0.0999479 0.5609913 16711746
0.1908123 0.1018939 0.5583647 16711746
0.1937700 0.1000587 0.5612406 16711746
0.1929749 0.1015815 0.5587771 16711746
0.1935053 0.1007327 0.5580280 16711746
0.1934986 0.1001959 0.5586567 16711746
0.1983390 0.0980998 0.5627019 16711746
0.1925746 0.1025344 0.5603382 16711746
0.1924478 0.1022791 0.5604262 16711746
0.1891336 0.1016068 0.5603527 16711746
0.1904361 0.1028502 0.5657967 16711746
0.1923372 0.1017959 0.5589032 16711746
0.1947572 0.1022476 0.5593651 16711746
0.1862409 0.0952762 0.5698149 16711746
0.1958491 0.1023385 0.5595700 16711746
0.1940183 0.1007179 0.5588946 16711746
0.1926324 0.1018439 0.5592267 16711746
0.1971132 0.0979363 0.5634609 16711746
0.1927513 0.1002228 0.5586244 16711746
0.1936754 0.1013203 0.5576400 16711746
0.1960467 0.1022332 0.5589148 16711746
0.1949675 0.0998645 0.5597054 16711746
0.1880636 0.1026877 0.5643464 16711746
0.1951601 0.1022184 0.5599437 16711746
0.1932581 0.1011630 0.5581334 16711746
0.1952134 0.1021715 0.5596370 16711746
0.1947160 0.1019901 0.5594473 16711746
0.1913867 0.1015287 0.5604360 16711746
0.1950108 0.1025186 0.5611021 16711746
0.1917175 0.1017632 0.5587827 16711746
0.1940415 0.1023586 0.5599058 16711746
0.1955317 0.1023681 0.5598697 16711746
0.1930785 0.1021078 0.5595781 16711746
0.1912164 0.1021461 0.5595228 16711746
0.1945328 0.1023379 0.5589845 16711746
0.1991861 0.0986411 0.5648760 16711746
0.1908705 0.1018982 0.5586212 16711746
0.1901162 0.1015766 0.5588700 16711746
0.1942670 0.1019252 0.5586353 16711746
0.1931081 0.1020754 0.5601557 16711746
0.1943938 0.1018121 0.5585151 16711746
0.1914005 0.1020067 0.5598834 16711746
0.1949570 0.1020777 0.5585136 16711746
0.1920565 0.1012221 0.5574432 16711746
0.1946665 0.1024734 0.5584006 16711746
0.1933242 0.1006418 0.5572299 16711746
0.1924757 0.1019189 0.5586203 16711746
0.1941311 0.1028284 0.5611144 16711746
0.1876457 0.1024500 0.5642008 16711746
0.1960444 0.1022746 0.5595127 16711746
0.1952494 0.1025379 0.5589334 16711746
0.1893378 0.1016632 0.5583757 16711746
0.1961369 0.0988068 0.5642436 16711746
0.1772421 0.1028888 0.5726166 16711746
0.1942587 0.1024163 0.5604867 16711746
0.1948630 0.1025404 0.5614544 16711746
0.1923328 0.0993637 0.5589756 16711746
0.2046147 0.0974387 0.5684363 16711746
0.1856395 0.1026246 0.5647336 16711746
0.1898077 0.1022004 0.5593780 16711746
0.1907158 0.1015309 0.5577231 16711746
0.1957866 0.0995712 0.5589514 16711746
0.1902355 0.1019515 0.5582049 16711746
0.1945458 0.1023686 0.5582052 16711746
0.1906465 0.1015732 0.5578196 16711746
0.1892242 0.1015594 0.5589094 16711746
0.1945767 0.1021802 0.5577317 16711746
0.1889886 0.1018024 0.5587418 16711746
0.1886826 0.1028229 0.5649385 16711746
0.1888756 0.1027120 0.5643625 16711746
0.1929698 0.1020222 0.5585869 16711746
0.1961694 0.0991950 0.5604023 16711746
0.1949308 0.0999293 0.5597215 16711746
0.1964436 0.1020900 0.5593119 16711746
0.1916266 0.1024059 0.5614352 16711746
0.1906298 0.1015808 0.5578424 16711746
0.1929221 0.1004290 0.5582961 16711746
0.1906889 0.1014469 0.5581276 16711746
0.1912703 0.1020863 0.5587557 16711746
0.1837754 0.0955840 0.5698452 16711746
0.1953529 0.1019817 0.5589193 16711746
0.1867401 0.0959751 0.5660375 16711746
0.1959390 0.1025119 0.5588424 16711746
0.1961449 0.0996731 0.5621088 16711746
0.1948418 0.1022583 0.5586797 16711746
0.1944370 0.1023965 0.5590762 16711746
0.1893330 0.1015137 0.5582881 16711746
0.1930675 0.1012350 0.5573442 16711746
0.1871244 0.1021508 0.5626389 16711746
0.1952542 0.1020508 0.5587247 16711746
0.1961031 0.1019797 0.5623254 16711746
0.1946961 0.1027169 0.5603803 16711746
0.1952461 0.1031612 0.5627072 16711746
0.1965574 0.1028213 0.5633945 16711746
0.1956649 0.1019699 0.5622796 16711746
0.1993687 0.1036675 0.5628445 16711746
0.1985053 0.1033955 0.5645385 16711746
0.1996347 0.1038209 0.5690729 16711746
0.1853717 0.1027066 0.5651848 16711746
0.1949106 0.1024600 0.5596280 16711746
0.1923459 0.0995312 0.5586295 16711746
0.1873268 0.1017092 0.5618461 16711746
0.1902861 0.0988090 0.5606020 16711746
0.1929638 0.0998387 0.5581954 16711746
0.1879850 0.1027315 0.5645205 16711746
0.1960846 0.1022271 0.5589835 16711746
0.1903073 0.1024842 0.5617849 16711746
0.1996783 0.0983153 0.5632970 16711746
0.1803665 0.0948717 0.5664365 16711746
0.1989154 0.0992391 0.5623599 16711746
0.1937184 0.1021394 0.5591196 16711746
0.1923646 0.1016429 0.5587821 16711746
0.1937980 0.1002711 0.5592092 16711746
0.1932166 0.1004754 0.5588474 16711746
0.1953722 0.1019635 0.5590359 16711746
0.1952751 0.1010314 0.5594298 16711746
0.1933108 0.1021159 0.5598744 16711746
0.1949867 0.1023624 0.5591678 16711746
0.1919563 0.1012948 0.5592072 16711746
0.1916322 0.1024250 0.5615036 16711746
0.1929140 0.0995430 0.5592334 16711746
0.1907236 0.1014389 0.5580938 16711746
0.1946221 0.1024288 0.5591345 16711746
0.1941243 0.1024198 0.5593496 16711746
0.1940350 0.1023125 0.5591236 16711746
0.1933423 0.1023287 0.5601196 16711746
0.1906174 0.1014718 0.5582054 16711746
0.1966354 0.1027261 0.5636019 16711746
0.1942110 0.1002539 0.5598678 16711746
0.1951661 0.0995709 0.5623590 16711746
0.1939377 0.1007838 0.5589856 16711746
0.1955501 0.1025597 0.5619153 16711746
0.1845651 0.0965465 0.5754709 16711746
0.1238736 0.0885823 0.6028598 16711746
0.1268701 0.0891028 0.6006517 16711746
0.1933165 0.1008790 0.5575072 16711746
0.1924166 0.1052989 0.5772256 16711746
0.2027341 0.0978780 0.5658538 16711746
0.1862431 0.1020369 0.5599912 16711746
0.2023662 0.0979239 0.5658442 16711746
0.1876794 0.0962125 0.5652854 16711746
0.1947674 0.1024445 0.5606837 16711746
0.1893717 0.1023730 0.5631703 16711746
0.1906738 0.1015062 0.5581506 16711746
0.1897563 0.1014643 0.5577350 16711746
0.1935240 0.1003902 0.5582749 16711746
0.1934202 0.0989746 0.5612769 16711746
0.1931671 0.1007393 0.5593854 16711746
0.1932728 0.1008643 0.5597479 16711746
0.1906017 0.1017028 0.5577507 16711746
0.1932016 0.1006451 0.5571312 16711746
0.1932258 0.1006494 0.5572048 16711746
0.1939152 0.1005426 0.5591866 16711746
0.1932502 0.1025399 0.5608203 16711746
0.1914575 0.1019699 0.5591274 16711746
0.1931611 0.1022787 0.5611290 16711746
0.1933145 0.1012322 0.5585883 16711746
0.1916016 0.1017945 0.5588219 16711746
0.1957307 0.1000931 0.5597565 16711746
0.1946993 0.1019927 0.5587308 16711746
0.1935693 0.1005701 0.5594306 16711746
0.1938902 0.1023107 0.5599452 16711746
0.1932887 0.0998642 0.5616277 16711746
0.1942443 0.1019136 0.5588123 16711746
0.1933001 0.1020323 0.5596532 16711746
0.1931568 0.1020645 0.5595869 16711746
0.1914989 0.1020449 0.5612451 16711746
0.1935379 0.0999091 0.5602018 16711746
0.1930413 0.1021052 0.5593947 16711746
0.1961295 0.1026348 0.5597736 16711746
0.1943436 0.1019838 0.5588455 16711746
0.1958899 0.1024965 0.5595431 16711746
0.1704937 0.1012924 0.5782754 16711746
0.1976780 0.1032688 0.5657064 16711746
0.1914284 0.1018445 0.5592102 16711746
0.1968565 0.0996263 0.5619464 16711746
0.1963204 0.0997390 0.5615427 16711746
0.1952393 0.0990288 0.5606875 16711746
0.1950357 0.1015237 0.5589309 16711746
0.1940394 0.1021641 0.5595508 16711746
0.1962226 0.1010610 0.5606648 16711746
0.1956066 0.1021952 0.5602240 16711746
0.1952626 0.1021640 0.5583819 16711746
0.1937592 0.1001605 0.5583000 16711746
0.1925359 0.1019373 0.5590884 16711746
0.1950258 0.1020603 0.5595916 16711746
0.1946882 0.1014409 0.5579058 16711746
0.1943734 0.1003916 0.5589086 16711746
0.1911636 0.1025114 0.5635544 16711746
0.1930323 0.1022244 0.5606112 16711746
0.1911197 0.1025145 0.5616559 16711746
0.1934617 0.1005294 0.5593445 16711746
0.1920457 0.1019004 0.5590331 16711746
0.1932134 0.1022229 0.5605265 16711746
0.1911723 0.1021334 0.5613967 16711746
0.1946223 0.1023712 0.5609389 16711746
0.2013390 0.0967469 0.5661044 16711746
0.1951148 0.1016205 0.5584403 16711746
0.1935881 0.1023710 0.5624584 16711746
0.1934486 0.1020294 0.5614214 16711746
0.1954850 0.1024271 0.5591580 16711746
0.1945506 0.1022694 0.5591177 16711746
0.1934964 0.1021860 0.5616209 16711746
0.1918544 0.1025063 0.5620912 16711746
0.1914603 0.1026687 0.5635424 16711746
0.1945667 0.1024497 0.5597265 16711746
0.1934542 0.1025442 0.5610278 16711746
0.1932512 0.1023645 0.5608892 16711746
0.1930359 0.1021337 0.5594662 16711746
0.1930413 0.1021616 0.5595530 16711746
0.1936918 0.1014215 0.5596344 16711746
0.1933876 0.1020282 0.5613459 16711746
0.1918259 0.1026286 0.5628487 16711746
0.1902061 0.1018375 0.5594542 16711746
0.1918270 0.1025757 0.5623251 16711746
0.1934605 0.1021230 0.5613421 16711746
0.1934840 0.1026095 0.5611982 16711746
0.1951883 0.1019057 0.5593873 16711746
0.1953725 0.1020456 0.5592604 16711746
0.1944283 0.1002946 0.5603099 16711746
0.1918701 0.1027681 0.5643017 16711746
0.1940233 0.1026146 0.5604855 16711746
0.1930045 0.1020037 0.5595301 16711746
0.1905906 0.1017680 0.5599046 16711746
0.1925328 0.1003495 0.5595368 16711746
0.1949108 0.1020602 0.5592049 16711746
0.1894868 0.1020559 0.5625279 16711746
0.1899068 0.1017610 0.5595908 16711746
0.1931285 0.1023048 0.5605103 16711746
0.1950067 0.1027457 0.5623965 16711746
0.1949182 0.1019654 0.5589262 16711746
0.1908769 0.1017047 0.5594001 16711746
0.1971018 0.0990430 0.5631555 16711746
0.1832443 0.0981154 0.5660600 16711746
0.1954326 0.1022448 0.5637873 16711746
0.1959914 0.1022433 0.5596703 16711746
0.1937482 0.1006889 0.5599574 16711746
0.1902511 0.1023484 0.5620655 16711746
0.1935372 0.1023991 0.5600647 16711746
0.1943562 0.1025238 0.5603629 16711746
0.1945300 0.1025053 0.5596699 16711746
0.1953236 0.1023210 0.5589395 16711746
0.1945155 0.1021319 0.5590444 16711746
0.1879428 0.1061116 0.5841339 16711746
0.1910942 0.1022451 0.5608986 16711746
0.1820538 0.1024143 0.5661005 16711746
0.1977040 0.1033631 0.5647249 16711746
0.1953574 0.1019523 0.5589833 16711746
0.1951519 0.0994152 0.5606070 16711746
0.1940441 0.1017866 0.5593565 16711746
0.1928233 0.1004110 0.5587837 16711746
0.1931222 0.1011826 0.5584908 16711746
0.1931393 0.1013725 0.5589116 16711746
0.1877185 0.1034486 0.5705566 16711746
0.1991854 0.0985336 0.5654118 16711746
0.1948598 0.1022901 0.5590276 16711746
0.1797473 0.1036448 0.5793397 16711746
0.1957526 0.1021005 0.5588795 16711746
0.1943018 0.1024337 0.5603451 16711746
0.1898239 0.1013840 0.5598264 16711746
0.1943108 0.1008346 0.5603102 16711746
0.1937942 0.1022269 0.5596178 16711746
0.1946244 0.1018066 0.5589583 16711746
0.1913570 0.1017106 0.5603780 16711746
0.1884668 0.1019322 0.5613401 16711746
0.1947569 0.1020988 0.5595793 16711746
0.1942245 0.1021091 0.5594484 16711746
0.1943638 0.1022151 0.5592871 16711746
0.1932963 0.1014299 0.5587866 16711746
0.1914470 0.1019681 0.5597807 16711746
0.1947933 0.1025736 0.5608633 16711746
0.1929833 0.1010563 0.5591235 16711746
0.1932426 0.1020202 0.5600212 16711746
0.1954715 0.1022461 0.5591263 16711746
0.1933094 0.1018809 0.5593411 16711746
0.1937930 0.1022432 0.5603507 16711746
0.1947440 0.1022909 0.5608550 16711746
0.1932082 0.1022201 0.5604606 16711746
0.1986820 0.0998272 0.5635480 16711746
0.1965702 0.0979592 0.5668813 16711746
0.1810937 0.0944431 0.5757094 16711746
0.1953190 0.1027693 0.5622389 16711746
0.2037892 0.1008023 0.5690971 16711746
0.1938852 0.1020569 0.5596859 16711746
0.1943506 0.1025762 0.5605212 16711746
0.1917777 0.1018836 0.5590857 16711746
0.1916900 0.1020702 0.5603431 16711746
0.1943098 0.1024066 0.5605072 16711746
0.1946631 0.1025051 0.5603464 16711746
0.1949848 0.1001841 0.5664211 16711746
0.1940448 0.1005990 0.5614393 16711746
0.2041946 0.1002281 0.5672081 16711746
0.1962088 0.1008951 0.5660871 16711746
0.2015343 0.1014644 0.5671788 16711746
0.1932762 0.1023702 0.5609455 16711746
0.1910919 0.1015159 0.5590600 16711746
0.1929641 0.1015094 0.5586603 16711746
0.1945636 0.1018860 0.5592266 16711746
0.1922119 0.1018094 0.5596029 16711746
0.1940883 0.1003089 0.5615648 16711746
0.1940466 0.1022542 0.5598501 16711746
0.1938478 0.1007858 0.5600340 16711746
0.1946144 0.1020627 0.5592598 16711746
0.1935005 0.1004421 0.5607227 16711746
0.1934844 0.1020463 0.5596664 16711746
0.1945005 0.1018576 0.5585060 16711746
0.1889598 0.1016003 0.5600943 16711746
0.1964765 0.1026391 0.5643389 16711746
0.1929173 0.1001886 0.5588040 16711746
0.1919424 0.1018702 0.5590031 16711746
0.1881140 0.1017349 0.5607952 16711746
0.1887904 0.1020259 0.5622718 16711746
0.1956304 0.1017979 0.5601415 16711746
0.2016511 0.0997968 0.5650786 16711746
0.2027089 0.0991029 0.5660453 16711746
0.2051978 0.1049798 0.5704428 16711746
0.1902534 0.1018653 0.5605856 16711746
0.1955255 0.1024759 0.5597047 16711746
0.1932985 0.1017782 0.5592851 16711746
0.1944801 0.1021360 0.5590036 16711746
0.2005297 0.0986570 0.5643893 16711746
0.1912044 0.1017898 0.5604309 16711746
0.1918692 0.1024233 0.5622000 16711746
0.1942516 0.1001248 0.5625822 16711746
0.1938866 0.0998142 0.5628743 16711746
0.1933393 0.1019093 0.5596671 16711746
0.1949353 0.1020755 0.5592358 16711746
0.1902703 0.1016057 0.5603995 16711746
0.1936260 0.1005980 0.5609098 16711746
0.1934108 0.1015182 0.5592042 16711746
0.1937017 0.1001559 0.5606243 16711746
0.1947825 0.1020959 0.5586203 16711746
0.1933976 0.1021002 0.5602828 16711746
0.1932511 0.1018998 0.5597598 16711746
0.1985390 0.0996511 0.5673214 16711746
0.1947984 0.1021115 0.5593228 16711746
0.1931001 0.1020208 0.5599126 16711746
0.1931243 0.1018090 0.5600356 16711746
0.1915160 0.1019471 0.5613235 16711746
0.1909967 0.1017305 0.5589644 16711746
0.1930507 0.1007690 0.5581303 16711746
0.1909903 0.1018921 0.5603563 16711746
0.1903640 0.1019363 0.5610989 16711746
0.1944966 0.1021289 0.5592178 16711746
0.1941856 0.1023678 0.5597616 16711746
0.1954896 0.1023046 0.5596159 16711746
0.1915794 0.1020466 0.5602365 16711746
0.1910584 0.1017185 0.5589298 16711746
0.1913716 0.1020219 0.5618271 16711746
0.1911674 0.1016251 0.5592312 16711746
0.1958882 0.1018472 0.5598447 16711746
0.1914164 0.1015197 0.5588795 16711746
0.1884599 0.1028149 0.5628687 16711746
0.1916318 0.1019911 0.5600114 16711746
0.1953483 0.1024100 0.5599875 16711746
0.1945665 0.1024103 0.5601403 16711746
0.1941845 0.1015016 0.5573961 16711746
0.1907533 0.1017694 0.5595337 16711746
0.1931410 0.1021533 0.5599677 16711746
0.1917616 0.1020460 0.5595320 16711746
0.1901319 0.1019729 0.5614446 16711746
0.1902616 0.1018148 0.5593260 16711746
0.1954996 0.1024609 0.5602110 16711746
0.1938230 0.1023340 0.5618029 16711746
0.1955964 0.1018318 0.5594117 16711746
0.1978683 0.0996563 0.5642841 16711746
0.1891309 0.1016179 0.5600622 16711746
0.1908157 0.1019453 0.5606407 16711746
0.1908158 0.1018128 0.5591820 16711746
0.1903383 0.1016370 0.5589162 16711746
0.1862771 0.1021355 0.5643700 16711746
0.1917640 0.1019023 0.5591407 16711746
0.1934338 0.1021975 0.5604428 16711746
0.1955509 0.1007252 0.5638987 16711746
0.1940442 0.1016663 0.5591434 16711746
0.1678522 0.1016477 0.5821828 16711746
0.1975054 0.1001262 0.5689152 16711746
0.1962869 0.1031922 0.5643522 16711746
0.1990645 0.0997130 0.5682487 16711746
0.1993376 0.1032920 0.5630680 16711746
0.1987920 0.1002093 0.5678821 16711746
0.1867744 0.0973462 0.5662539 16711746
0.2176352 0.1101680 0.5893942 16711746
0.1998056 0.0996329 0.5720240 16711746
0.1875072 0.1019045 0.5630161 16711746
0.1926201 0.1025848 0.5629198 16711746
0.1988731 0.1002367 0.5648729 16711746
0.1979739 0.1033763 0.5627971 16711746
0.2001614 0.1044098 0.5687463 16711746
0.1909669 0.1021568 0.5607014 16711746
0.1951172 0.1008721 0.5628299 16711746
0.1942034 0.1023161 0.5600003 16711746
0.1937505 0.1006442 0.5587197 16711746
0.1908770 0.1016514 0.5595924 16711746
0.1931324 0.1021115 0.5600615 16711746
0.1940763 0.1024235 0.5604072 16711746
0.1947221 0.1018535 0.5591551 16711746
0.1915964 0.1018793 0.5604782 16711746
0.1955187 0.1021097 0.5602512 16711746
0.1908701 0.1016913 0.5593718 16711746
0.1947866 0.1022959 0.5601191 16711746
0.1944472 0.1015104 0.5588885 16711746
0.1951542 0.1027766 0.5615642 16711746
0.1958584 0.1024125 0.5595426 16711746
0.1944089 0.1023628 0.5612451 16711746
0.1933228 0.1021666 0.5600348 16711746
0.1886350 0.0987460 0.5660650 16711746
0.1939740 0.1008932 0.5613132 16711746
0.1950839 0.1024547 0.5603304 16711746
0.1930833 0.1023691 0.5614424 16711746
0.1778773 0.1009276 0.5705622 16711746
0.1951966 0.0995398 0.5661015 16711746
0.2048532 0.0988760 0.5682504 16711746
0.1953837 0.1028598 0.5645596 16711746
0.2023964 0.0991394 0.5656420 16711746
0.2002641 0.0991798 0.5683126 16711746
0.1954122 0.1021957 0.5611073 16711746
0.2006721 0.1040093 0.5666367 16711746
0.1978166 0.0999307 0.5670550 16711746
0.2043559 0.0982318 0.5887450 16711746
0.1990098 0.1040325 0.5670179 16711746
0.1949719 0.1021386 0.5595450 16711746
0.2000401 0.0996689 0.5650119 16711746
0.1933971 0.1018460 0.5601943 16711746
0.1944450 0.1021931 0.5600231 16711746
0.1952079 0.1021694 0.5598408 16711746
0.1930446 0.1020452 0.5600131 16711746
0.1943225 0.1023098 0.5604599 16711746
0.1954018 0.1000943 0.5630776 16711746
0.1946196 0.1020295 0.5596156 16711746
0.1946264 0.1008054 0.5600702 16711746
0.1954152 0.1020907 0.5601896 16711746
0.1929213 0.1007203 0.5580820 16711746
0.1931063 0.1025324 0.5617451 16711746
0.1953442 0.1022862 0.5604201 16711746
0.1946831 0.1026738 0.5622451 16711746
0.1947498 0.1022623 0.5608367 16711746
0.1939716 0.1023076 0.5602349 16711746
0.1970582 0.1009507 0.5616664 16711746
0.1967308 0.1028278 0.5620381 16711746
0.1962407 0.1001240 0.5656653 16711746
0.1993653 0.0992567 0.5682896 16711746
0.1931562 0.1020492 0.5595711 16711746
0.1944088 0.1019910 0.5591406 16711746
0.1901081 0.1017753 0.5597667 16711746
0.1928730 0.1022403 0.5612221 16711746
0.1945736 0.1004954 0.5613906 16711746
0.1926604 0.1019041 0.5600697 16711746
0.1933954 0.1015770 0.5593671 16711746
0.1931180 0.1021335 0.5598987 16711746
0.1943809 0.1018717 0.5588426 16711746
0.1977131 0.0990063 0.5642979 16711746
0.1944955 0.1019936 0.5592318 16711746
0.1936511 0.1020641 0.5596408 16711746
0.1958512 0.1023445 0.5607939 16711746
0.1940282 0.1023320 0.5602022 16711746
0.1962710 0.1036652 0.5677266 16711746
0.1960578 0.1036380 0.5666590 16711746
0.1940306 0.1022353 0.5598154 16711746
0.1949464 0.1019088 0.5589277 16711746
0.1926495 0.1017289 0.5592711 16711746
0.1962484 0.1025413 0.5596995 16711746
0.1939003 0.1011620 0.5589485 16711746
0.1936241 0.1016617 0.5602119 16711746
0.1938625 0.1016712 0.5604523 16711746
0.1949169 0.1003268 0.5626562 16711746
0.1941825 0.1022382 0.5600961 16711746
0.1940842 0.1006002 0.5616897 16711746
0.1943770 0.1022592 0.5597838 16711746
0.1944388 0.1023701 0.5599589 16711746
0.1969680 0.0998013 0.5633689 16711746
0.1953432 0.1022782 0.5604244 16711746
0.1934426 0.1018037 0.5603652 16711746
0.1948434 0.1000354 0.5607281 16711746
0.1918574 0.1017966 0.5586708 16711746
0.1929959 0.1015463 0.5588605 16711746
0.1935859 0.1007603 0.5586175 16711746
0.1939758 0.1022628 0.5599532 16711746
0.1944534 0.1023814 0.5599633 16711746
0.1945495 0.1025009 0.5606408 16711746
0.1946993 0.1026191 0.5620615 16711746
0.1965873 0.1026036 0.5616905 16711746
0.1920692 0.1020542 0.5601645 16711746
0.1973350 0.1004533 0.5658503 16711746
0.1925147 0.1031091 0.5631084 16711746
0.1953420 0.1014455 0.5620336 16711746
0.1928521 0.1019516 0.5597439 16711746
0.1960816 0.1024088 0.5610402 16711746
0.1970630 0.0998996 0.5628895 16711746
0.1938744 0.1021851 0.5599852 16711746
0.1949436 0.1015850 0.5588331 16711746
0.1938899 0.1023109 0.5599604 16711746
0.1957181 0.0992123 0.5687017 16711746
0.1916532 0.1019874 0.5600569 16711746
0.1946296 0.1025184 0.5609749 16711746
0.1948479 0.1023324 0.5605062 16711746
0.1940248 0.1017799 0.5592678 16711746
0.1957429 0.1021367 0.5595621 16711746
0.1974865 0.1034996 0.5642728 16711746
0.1916085 0.1019974 0.5600330 16711746
0.1983410 0.0990145 0.5622069 16711746
0.1966729 0.1033425 0.5640734 16711746
0.1945641 0.1027111 0.5620177 16711746
0.1915489 0.1020315 0.5601447 16711746
0.1953313 0.0998351 0.5675084 16711746
0.1954510 0.1028704 0.5625377 16711746
0.1950851 0.1020871 0.5594409 16711746
0.1947562 0.1019401 0.5590085 16711746
0.1944379 0.1022041 0.5598201 16711746
0.1933030 0.1021579 0.5599822 16711746
0.1927808 0.1021893 0.5612563 16711746
0.1939423 0.1022894 0.5602112 16711746
0.1988738 0.0992363 0.5638989 16711746
0.1944247 0.1022827 0.5604112 16711746
0.1933420 0.1018526 0.5593628 16711746
0.1947850 0.1017186 0.5586568 16711746
0.1954937 0.1004123 0.5589817 16711746
0.1944255 0.1001470 0.5633609 16711746
0.1950389 0.1023251 0.5600634 16711746
0.1987672 0.1035618 0.5638491 16711746
0.1919088 0.1028477 0.5646530 16711746
0.2105215 0.1072368 0.5759587 16711746
0.1982295 0.1035104 0.5632740 16711746
0.2030611 0.0959860 0.5866243 16711746
0.1972174 0.1006165 0.5692462 16711746
0.1998623 0.1009661 0.5782825 16711746
0.1965002 0.1012533 0.5745957 16711746
0.1991073 0.0991608 0.5673810 16711746
0.1924300 0.1029061 0.5632359 16711746
0.1951459 0.0998374 0.5626727 16711746
0.1928632 0.1021129 0.5606521 16711746
0.1972321 0.0995013 0.5640550 16711746
0.1959812 0.1029101 0.5620199 16711746
0.1938109 0.1021935 0.5603123 16711746
0.1937535 0.1019930 0.5594416 16711746
0.1929285 0.1019306 0.5601306 16711746
0.1930609 0.1019310 0.5598205 16711746
0.1944627 0.1017916 0.5585284 16711746
0.1939337 0.1013812 0.5587837 16711746
0.1940974 0.1021525 0.5600591 16711746
0.1965992 0.1000900 0.5627968 16711746
0.1958989 0.1004504 0.5643302 16711746
0.1949450 0.1004625 0.5663723 16711746
0.1944357 0.1024818 0.5608567 16711746
0.1943368 0.1022194 0.5596955 16711746
0.1950562 0.1002894 0.5631890 16711746
0.1939215 0.1013715 0.5587671 16711746
0.1947048 0.1027105 0.5623464 16711746
0.1949278 0.1002748 0.5660260 16711746
0.1921831 0.1022105 0.5626423 16711746
0.1938897 0.1021091 0.5598218 16711746
0.1922524 0.1020000 0.5604972 16711746
0.1933120 0.1019250 0.5594143 16711746
0.1946562 0.1021560 0.5602158 16711746
0.1954634 0.1023658 0.5605966 16711746
0.1922839 0.1022041 0.5612083 16711746
0.1955919 0.0992596 0.5641358 16711746
0.1952374 0.0997483 0.5626221 16711746
0.1969203 0.1002317 0.5673622 16711746
0.1947878 0.1024331 0.5606976 16711746
0.1980647 0.0997228 0.5664283 16711746
0.1928453 0.1007575 0.5582104 16711746
0.1953158 0.1003622 0.5682606 16711746
0.1974227 0.1005820 0.5669466 16711746
0.1959246 0.1021889 0.5608270 16711746
0.1961937 0.1027038 0.5620652 16711746
0.1867440 0.1025214 0.5726889 16711746
0.1934896 0.1006441 0.5589169 16711746
0.1921105 0.1021446 0.5611991 16711746
0.1947337 0.1022561 0.5604326 16711746
0.1938393 0.1023836 0.5619134 16711746
0.1947698 0.1025375 0.5607755 16711746
0.1963755 0.0994243 0.5670094 16711746
0.1926174 0.1088097 0.5880471 16711746
0.1961127 0.0984214 0.5647715 16711746
0.1954059 0.0995019 0.5641638 16711746
0.2008044 0.0989565 0.5695465 16711746
0.1959698 0.0992332 0.5646245 16711746
0.1960225 0.1006635 0.5648650 16711746
0.1794733 0.0976007 0.5628106 16711746
0.1932336 0.1009803 0.5589048 16711746
0.1957628 0.1001718 0.5592010 16711746
0.1928608 0.1017515 0.5596551 16711746
0.1929191 0.1016534 0.5593663 16711746
0.1927890 0.1016939 0.5594463 16711746
0.1940293 0.1005943 0.5592906 16711746
0.1946152 0.1004238 0.5592191 16711746
0.1923757 0.1015610 0.5589265 16711746
0.1917299 0.1018493 0.5598760 16711746
0.1918603 0.1015705 0.5607044 16711746
0.1919653 0.1019234 0.5606941 16711746
0.1935102 0.1020568 0.5598075 16711746
0.1940884 0.1021907 0.5597082 16711746
0.1961195 0.1024948 0.5603101 16711746
0.1971439 0.0999184 0.5601753 16711746
0.1937182 0.1021803 0.5611256 16711746
0.1930226 0.1020321 0.5602120 16711746
0.1934960 0.1009629 0.5577809 16711746
0.1936660 0.1021686 0.5598961 16711746
0.1960881 0.1000557 0.5610307 16711746
0.1937114 0.1018682 0.5591916 16711746
0.1936738 0.1019352 0.5592536 16711746
0.1937141 0.1018756 0.5592045 16711746
0.1947974 0.1021360 0.5590183 16711746
0.1944199 0.1019496 0.5588819 16711746
0.1936180 0.1018412 0.5591894 16711746
0.1944456 0.1014585 0.5583522 16711746
0.1933059 0.1011001 0.5579632 16711746
0.1953686 0.1002790 0.5588894 16711746
0.1936067 0.1018447 0.5593782 16711746
0.1915439 0.1018933 0.5605843 16711746
0.1908853 0.1022118 0.5616470 16711746
0.1956417 0.0999520 0.5602772 16711746
0.1958989 0.1025349 0.5613459 16711746
0.1947652 0.1007041 0.5612394 16711746
0.1947432 0.1023989 0.5602014 16711746
0.1963246 0.0999414 0.5620154 16711746
0.1931844 0.1020115 0.5597253 16711746
0.1939909 0.1006341 0.5612061 16711746
0.1952735 0.1000417 0.5627317 16711746
0.1951405 0.1021372 0.5600663 16711746
0.1951192 0.1018773 0.5595270 16711746
0.1945422 0.1024918 0.5607764 16711746
0.1921398 0.1021386 0.5613005 16711746
0.1933575 0.1007013 0.5605199 16711746
0.1948660 0.1005300 0.5627350 16711746
0.1929220 0.1019183 0.5599530 16711746
0.1943732 0.1017954 0.5586798 16711746
0.1946627 0.1015601 0.5585392 16711746
0.1947053 0.1019776 0.5589083 16711746
0.1936078 0.1019056 0.5593613 16711746
0.1934830 0.1004734 0.5596445 16711746
0.1930616 0.1019410 0.5598426 16711746
0.1952740 0.1003507 0.5588225 16711746
0.1932040 0.1018522 0.5599760 16711746
0.1964986 0.1001258 0.5628722 16711746
0.1972280 0.0999409 0.5637147 16711746
0.1957932 0.1007252 0.5593728 16711746
0.1973781 0.1006489 0.5637714 16711746
0.1942529 0.1004134 0.5592872 16711746
0.1922489 0.1002076 0.5591718 16711746
0.1958969 0.1012961 0.5638549 16711746
0.1985909 0.1037324 0.5644621 16711746
0.1952024 0.1015557 0.5590106 16711746
0.1988318 0.1006538 0.5666499 16711746
0.2084774 0.1057799 0.5699146 16711746
0.1902935 0.0984539 0.5657950 16711746
0.1894137 0.1023322 0.5625947 16711746
0.1966921 0.0990871 0.5650122 16711746
0.1774190 0.1008592 0.5718097 16711746
0.1955220 0.0996409 0.5636592 16711746
0.1926063 0.1025327 0.5621555 16711746
0.1980365 0.1032782 0.5622900 16711746
0.1783933 0.1007899 0.5692565 16711746
0.2037456 0.0996190 0.5870083 16711746
0.1968151 0.1004992 0.5680931 16711746
0.1990356 0.0989975 0.5627643 16711746
0.0622266 0.1200478 0.6157954 16711746
0.1292309 0.1288339 0.6174242 16711746
0.1257338 0.1228090 0.5357785 16711746
0.2097858 0.1405290 0.6121089 16711746
0.1438691 0.1277821 0.5531130 16711746
0.1619203 0.0996483 0.5446913 16711746
0.2204780 0.1420647 0.6046500 16711746
0.1097278 0.1214739 0.5276204 16711746
0.2316799 0.1423142 0.5848455 16711746
0.1682305 0.1337826 0.5998130 16711746
0.0603350 0.1348546 0.5547737 16711746
0.2249998 0.1267935 0.5940677 16711746
0.2539681 0.1433598 0.5775287 16711746
0.2492946 0.1464624 0.6051388 16711746
0.2182001 0.1187801 0.6047086 16711746
0.1273744 0.1207641 0.5273753 16711746
0.2580845 0.1507333 0.6317279 16711746
0.2315198 0.1382784 0.6876771 16711746
0.0183422 0.1081448 0.6768295 16711746
0.2280138 0.1371793 0.5571943 16711746
0.0423550 0.0912801 0.6822872 16711746
0.2149773 0.1350615 0.6257846 16711746
0.2128845 0.1464995 0.6772597 16711746
0.2468561 0.1395799 0.6272593 16711746
0.1763000 0.1294048 0.5552021 16711746
0.2387549 0.1255254 0.6435166 16711746
0.2219689 0.1473297 0.7531556 16711746
0.2260938 0.1358980 0.7212834 16711746
0.2164840 0.1394225 0.7209500 16711746
0.2194706 0.1283207 0.7335370 16711746
0.2549143 0.1311903 0.7698606 16711746
-0.2457379 -0.0267114 0.8279092 16711746
0.2575852 0.0995215 0.8774188 16711746
0.1101794 0.2530484 1.2883137 16711746
0.0013299 0.1434387 0.6510822 16711746
0.1142508 0.1294981 0.5452198 16711746
0.1627052 0.1303245 0.5733729 16711746
0.1213508 0.1206770 0.5351540 16711746
0.1244265 0.1164225 0.5162370 16711746
0.1768787 0.1312163 0.5773504 16711746
0.1406603 0.1277883 0.6069013 16711746
0.1784314 0.1182119 0.5956638 16711746
0.1496736 0.1172872 0.5330048 16711746
0.1113040 0.1224583 0.5270984 16711746
0.0578923 0.1099805 0.5485570 16711746
0.1009446 0.1241096 0.5462304 16711746
0.2379771 0.1115727 0.5411086 16711746
0.1008916 0.1056456 0.5453383 16711746
0.1093419 0.1268348 0.5305756 16711746
0.1578089 0.0964437 0.4934849 16711746
0.1584246 0.0943690 0.4922759 16711746
0.2004267 0.1188171 0.5253133 16711746
0.0936819 0.0427004 0.5993629 16711746
0.1908674 0.1376935 0.5884178 16711746
0.1397197 0.1274126 0.6054208 16711746
0.1739923 0.1334849 0.5740714 16711746
0.0429793 0.1368119 0.6410313 16711746
0.2292015 0.1443645 0.5993363 16711746
0.2010968 0.1337128 0.5571433 16711746
0.2252772 0.1320914 0.5598797 16711746
0.2158310 0.1322659 0.5703530 16711746
0.1021450 0.1214093 0.5356107 16711746
0.1865421 0.0744492 0.6066018 16711746
0.1758077 0.0611461 0.5718293 16711746
0.2602496 -0.0183600 0.7016777 16711746
0.1120266 0.1195676 0.5196837 16711746
0.1989909 0.1427283 0.6188363 16711746
0.1126567 -0.0175532 1.1068769 16711746
0.2083699 0.1385125 0.5631036 16711746
0.1768252 0.1439964 0.5901355 16711746
0.1214894 0.1177140 0.5188606 16711746
0.1413916 0.0998828 0.5122592 16711746
0.2191783 0.1365342 0.5695972 16711746
0.1679250 0.1284347 0.5555626 16711746
0.1958556 0.1346131 0.5602278 16711746
0.2759808 0.1269748 0.5928503 16711746
0.0923532 -0.0136134 0.7659721 16711746
0.2415799 0.1390944 0.5706669 16711746
0.1660504 0.2141683 1.1309743 16711746
0.1490000 0.1480864 0.6561273 16711746
0.1323942 0.1367122 0.6088035 16711746
0.1420131 0.1452325 0.6417015 16711746
0.1399298 0.1471967 0.6622999 16711746
0.2304960 0.0241453 0.7355549 16711746
0.1207194 0.1335168 0.6246346 16711746
0.2376247 0.1209556 0.7098125 16711746
0.0763828 0.1202672 0.5599660 16711746
0.0948791 0.0696723 0.5632905 16711746
0.2385412 0.1188214 0.5513302 16711746
0.2409464 0.0622131 0.5761225 16711746
0.0397536 0.1299472 0.5849281 16711746
0.1216727 0.1187674 0.5304414 16711746
0.2274889 0.1187866 0.5265043 16711746
0.1450606 0.1174632 0.5269107 16711746
-0.0820452 0.1123699 0.6965088 16711746
0.2162717 0.1381018 0.5755082 16711746
0.2171598 0.1411444 0.6074655 16711746
0.1870462 0.1343163 0.5670578 16711746
0.2297805 0.1320964 0.5737115 16711746
-0.0556095 0.1460853 0.7716014 16711746
0.1241219 0.1167338 0.5166420 16711746
0.2063488 0.1205945 0.5345535 16711746
0.1517261 0.1118468 0.5233355 16711746
0.0763664 0.1206531 0.5606754 16711746
0.0863428 0.1133513 0.5285069 16711746
0.1076511 0.1156143 0.5540001 16711746
0.2090924 0.1141141 0.5362030 16711746
0.1018529 0.1182867 0.5289310 16711746
0.1807006 0.0873295 0.5151710 16711746
0.1715930 0.0873421 0.5697106 16711746
0.1105053 0.1135085 0.5126012 16711746
0.1703235 0.0867174 0.5575917 16711746
0.1774690 0.1189604 0.5781485 16711746
0.1225292 0.1470672 0.7092322 16711746
0.0895232 0.0209336 0.7207314 16711746
0.2425073 0.0280106 0.6259043 16711746
0.1906950 0.1133297 0.6002091 16711746
0.1982467 0.1405769 0.6724951 16711746
0.3928615 0.0681416 0.7557646 16711746
0.1105796 0.1189626 0.5185702 16711746
0.2018767 0.0434404 0.7271343 16711746
0.3020152 0.1294188 0.6170905 16711746
0.2365145 0.1289712 0.5760292 16711746
0.0961420 -0.0350883 1.2136985 16711746
0.1225109 0.1449235 0.6764939 16711746
-0.4211327 0.0343107 1.0419576 16711746
0.2532192 0.1622079 0.7592024 16711746
0.1978402 0.0945085 0.5678576 16711746
-1.0340559 0.0314095 1.5067170 16711746
0.1610605 0.1027097 0.5109856 16711746
0.2253680 0.1138030 0.5337709 16711746
0.2174771 0.1202127 0.5490068 16711746
0.1595025 0.0962228 0.4980032 16711746
0.1844566 0.0615180 0.5733795 16711746
0.1579464 0.1077170 0.5238878 16711746
0.2233466 0.1204364 0.5555475 16711746
0.1402482 0.1276909 0.5836354 16711746
0.2166613 0.1261530 0.5684957 16711746
0.1463792 0.1181647 0.5312969 16711746
0.1979414 0.1191049 0.5384585 16711746
0.1602246 0.1037993 0.5152346 16711746
0.1653850 0.1115003 0.5337650 16711746
0.1499934 0.1177552 0.5366473 16711746
0.0474052 0.1167756 0.5611547 16711746
0.2092868 0.1257187 0.5472582 16711746
0.1318813 0.1168127 0.5214220 16711746
0.1933561 0.1167657 0.5419107 16711746
0.1428559 0.1200597 0.5382017 16711746
0.1436169 0.1186046 0.5360018 16711746
0.2113062 0.1055556 0.5159324 16711746
0.1114275 0.1217669 0.5392442 16711746
0.2088723 0.1246868 0.5458456 16711746
0.0998478 0.1216496 0.5267944 16711746
0.1444299 0.1187853 0.5410635 16711746
0.0731318 0.1201510 0.5529773 16711746
0.0722539 0.1207819 0.5546033 16711746
0.1268612 0.1174394 0.5152324 16711746
0.1868835 0.1346852 0.5676578 16711746
0.1693159 0.0807394 0.5402427 16711746
0.1501916 0.0963853 0.5088015 16711746
0.1277197 0.1253833 0.5592602 16711746
0.2031114 0.0705932 0.5798107 16711746
0.2405508 0.1424177 0.6226693 16711746
0.1372860 0.1268602 0.5531393 16711746
0.1362754 0.1305459 0.5913677 16711746
0.0463392 0.1440813 0.7055008 16711746
0.2116929 0.1732039 0.8966067 16711746
0.2815323 0.1681065 0.7349823 16711746
0.0691822 0.1225884 0.6097488 16711746
0.0613240 0.1343409 0.7690597 16711746
0.1227952 0.1265633 0.5889524 16711746
0.1474395 0.0501204 0.8640796 16711746
0.1377476 -0.0291345 0.7992876 16711746
0.1171052 0.0556323 0.7269632 16711746
0.2312592 0.0346628 0.8089680 16711746
0.1373100 0.1288405 0.5495867 16711746
0.1481118 0.1078167 0.5238983 16711746
0.1592621 0.1159175 0.5353388 16711746
0.0817831 0.1186524 0.5554975 16711746
0.1549276 0.1004601 0.4989306 16711746
0.0333343 0.1187225 0.5656418 16711746
0.1606606 0.1220233 0.5435717 16711746
0.1307603 0.1252841 0.5648372 16711746
0.1448273 0.1227943 0.5438712 16711746
0.1771199 0.1208843 0.5327838 16711746
0.1333627 0.1271315 0.5480744 16711746
0.1607536 0.1211826 0.5420231 16711746
0.1302423 0.1279002 0.5821041 16711746
0.2064695 0.1037078 0.5125222 16711746
0.1075980 0.1202250 0.5328727 16711746
0.2161712 0.1183733 0.5323098 16711746
0.0110842 0.1304883 0.6182178 16711746
0.2264403 0.1088266 0.5402833 16711746
0.2248173 0.0721457 0.5492871 16711746
0.2209046 0.1135551 0.5339358 16711746
0.1603207 0.1058845 0.5570125 16711746
0.0346575 0.1412158 0.7178410 16711746
0.1703844 0.1190043 0.5566369 16711746
0.1865505 0.0881998 0.5329263 16711746
-0.0579653 0.1976163 0.6856085 16711746
0.0626889 0.1444341 0.6693689 16711746
0.2565032 0.1258873 0.5713555 16711746
0.2009512 0.1233501 0.5394145 16711746
0.1892941 0.1205054 0.5323061 16711746
0.1639645 0.1214106 0.5412667 16711746
0.3203177 0.0687212 0.6446730 16711746
0.1889368 0.0559917 0.5947921 16711746
0.1691217 0.1144368 0.5297656 16711746
0.2664752 0.1173960 0.5793006 16711746
0.1987332 0.1153506 0.5366313 16711746
-0.0709520 0.0278710 1.0083489 16711746
0.1344815 0.1223995 0.5391562 16711746
0.0275621 0.1263861 0.5843319 16711746
0.1709276 0.1842285 0.8314262 16711746
0.2596853 0.0704524 0.9184321 16711746
0.1148522 0.1400208 0.6539626 16711746
0.2013423 0.1937402 0.8516976 16711746
0.0976596 0.1220127 0.5906321 16711746
0.1060986 0.1199771 0.5334631 16711746
0.0666324 0.1425794 0.7066858 16711746
0.2079203 0.1296212 0.5594562 16711746
0.1224352 0.1384525 0.5930787 16711746
0.1290849 0.1232773 0.5490404 16711746
0.0476094 0.1237626 0.5736558 16711746
0.1515576 0.1016864 0.4999148 16711746
0.1719873 0.0318889 0.8681176 16711746
0.2256695 0.0399457 0.8647999 16711746
0.1183110 0.1196597 0.5209752 16711746
0.1519466 0.1059333 0.5278239 16711746
0.1537043 0.0984828 0.5012116 16711746
0.1540605 0.0985786 0.5005884 16711746
0.1576376 0.1292304 0.5791036 16711746
0.1602598 0.1120289 0.5304607 16711746
0.1423277 0.1209102 0.5941262 16711746
0.1637759 0.1279010 0.5673168 16711746
0.0314433 0.1283375 0.5860288 16711746
0.1752567 0.1272890 0.5662112 16711746
0.1359757 0.1234829 0.5573031 16711746
0.1475482 0.1158786 0.5206722 16711746
0.1285458 0.1163027 0.5139726 16711746
0.1408789 0.1182005 0.5256384 16711746
0.1286267 0.1131934 0.5128517 16711746
0.1592883 0.1158445 0.5286266 16711746
0.1405688 0.1185152 0.5263848 16711746
0.1551787 0.1001984 0.4985714 16711746
0.1311304 0.1121845 0.5110338 16711746
0.1553271 0.1088682 0.5263425 16711746
0.1223112 0.1320529 0.5960522 16711746
0.1392411 0.1217134 0.5394816 16711746
0.1744361 0.1211929 0.5421852 16711746
0.1661179 0.1232185 0.5502385 16711746
0.1682742 0.1173522 0.5643069 16711746
0.1689231 0.1215558 0.5368287 16711746
0.1700046 0.1184178 0.5555407 16711746
0.1741731 0.0675271 0.6097950 16711746
-0.0009265 0.1168956 0.5820252 16711746
0.1590189 0.1302050 0.5816366 16711746
0.2989204 0.1471217 0.6002953 16711746
0.1325064 0.1159403 0.5121929 16711746
0.1906291 0.0761963 0.6004309 16711746
0.1709456 0.1236173 0.5683116 16711746
0.3053785 0.0571579 0.6455091 16711746
0.0916289 0.1358961 0.6231334 16711746
0.1430035 0.1210812 0.5449949 16711746
0.2187038 0.1270209 0.5488895 16711746
0.0685698 0.1413190 0.7021699 16711746
0.1307266 0.1170842 0.5138849 16711746
0.3040135 0.0289561 0.6436763 16711746
0.1916379 0.1064062 0.5322857 16711746
0.1428073 0.1405194 0.6427877 16711746
0.2215547 0.1703644 0.8254188 16711746
-0.1212204 -0.0653613 1.1884447 16711746
0.1298872 0.1517050 0.6641743 16711746
0.2761323 0.1142738 0.6205203 16711746
-0.1680427 -0.0200676 0.7861273 16711746
0.1288716 0.1228807 0.5499762 16711746
0.1358177 0.1262657 0.5678532 16711746
0.1264137 0.1330425 0.5976304 16711746
0.2124635 0.1220133 0.5400033 16711746
0.1391083 0.1213427 0.5400053 16711746
0.1935624 0.0982263 0.4996356 16711746
0.1372494 0.1260894 0.5539488 16711746
0.1509835 0.1062478 0.5528957 16711746
0.1338656 0.1207172 0.5358344 16711746
0.1283018 0.1232423 0.5509520 16711746
0.0914640 0.1540145 0.7830577 16711746
0.0991740 0.0123414 0.9242029 16711746
0.1460466 0.1187433 0.5327341 16711746
0.1608783 0.1015595 0.5370259 16711746
0.1605652 0.1173843 0.5411901 16711746
0.1649762 0.1220350 0.5451505 16711746
0.1895748 0.1268724 0.5558315 16711746
0.1674462 0.1249367 0.5685263 16711746
0.1416136 0.1203235 0.5332470 16711746
0.1766255 0.1235635 0.5490271 16711746
0.0308599 0.1172542 0.5729700 16711746
0.0210915 0.1196222 0.5797998 16711746
0.1331610 0.1153314 0.5120012 16711746
0.2055363 0.1144519 0.5385864 16711746
0.1193245 0.1157951 0.5197957 16711746
0.1521671 0.1066997 0.5230499 16711746
0.1062707 0.1338647 0.5800563 16711746
0.1376026 0.1192469 0.5398945 16711746
0.1722943 0.1224716 0.5854893 16711746
0.2081076 0.1263524 0.5501944 16711746
0.2088865 0.1253152 0.5580202 16711746
0.1150317 0.1359245 0.6617686 16711746
0.2234953 0.1295592 0.5676811 16711746
0.1660478 0.1236299 0.5828828 16711746
0.3033254 0.0452856 0.6735411 16711746
0.2097409 0.1227429 0.5415022 16711746
0.1992242 0.0794024 0.5731480 16711746
0.3429249 0.0431613 0.6888711 16711746
0.1362844 0.1264389 0.5997089 16711746
0.1099846 0.1388054 0.6229413 16711746
0.5077141 0.0543345 0.8329065 16711746
-0.0253573 -0.0159126 0.9398547 16711746
0.2346808 0.1376559 0.6434326 16711746
0.2347681 0.1403025 0.6992151 16711746
-0.0785793 0.1523478 0.8889925 16711746
-0.0195640 0.1314296 0.6252829 16711746
0.1134216 0.1403876 0.6473808 16711746
0.1623947 0.0973466 0.5284808 16711746
0.2713287 0.1246041 0.5775643 16711746
0.1437922 0.1259089 0.5903987 16711746
0.1570458 0.1452273 0.6606491 16711746
0.2800445 0.1083159 0.6290555 16711746
0.0576448 0.1361682 0.6634044 16711746
0.1319612 0.0338533 0.7168335 16711746
0.2463501 0.1303245 0.5757191 16711746
0.2161053 0.1254978 0.5459382 16711746
0.1059217 0.1218346 0.5751556 16711746
0.2117351 0.1433815 0.6280548 16711746
0.1074038 0.1172917 0.5203304 16711746
0.2597754 0.1331677 0.5915124 16711746
0.1578592 0.1193899 0.5348264 16711746
0.1331452 0.1246424 0.5558330 16711746
0.1595445 0.1193661 0.5411420 16711746
0.1374735 0.1225804 0.5377516 16711746
0.1398296 0.1189120 0.5359539 16711746
0.1391064 0.0735909 0.5571498 16711746
0.2010393 0.1090004 0.5261427 16711746
0.1998887 0.1132086 0.5175590 16711746
0.2023786 0.1174209 0.5275948 16711746
0.1192096 0.1099161 0.5161021 16711746
0.1323606 0.1204857 0.5451303 16711746
0.1297206 0.1208766 0.5485455 16711746
0.1376539 0.0816245 0.5562233 16711746
0.2036376 0.1172210 0.5440063 16711746
0.1871821 0.1210089 0.5353037 16711746
0.1274786 0.1269535 0.5831253 16711746
0.2117222 0.1246549 0.5499811 16711746
0.2177590 0.1196328 0.5574511 16711746
0.1330096 0.1247561 0.5383029 16711746
0.1965538 0.1162726 0.5286748 16711746
0.2078445 0.1142000 0.5209351 16711746
0.1686291 0.0870057 0.4896213 16711746
0.2026391 0.1160457 0.5239377 16711746
0.1947817 0.1151086 0.5246195 16711746
0.1982588 0.1149783 0.5291876 16711746
0.2048617 0.1143744 0.5288228 16711746
0.1928333 0.1121344 0.5260756 16711746
0.1977311 0.1126948 0.5283428 16711746
0.2219930 0.1164990 0.5443310 16711746
0.1742587 0.1157556 0.5348489 16711746
0.1445810 0.1209807 0.5365692 16711746
0.2105615 0.1186876 0.5356541 16711746
0.1609672 0.1204417 0.5356635 16711746
0.1310478 0.1233643 0.5369757 16711746
0.1885303 0.1215014 0.5375670 16711746
0.1450680 0.1175923 0.5339523 16711746
0.1281028 0.1212304 0.5418316 16711746
0.2220864 0.1167957 0.5452493 16711746
0.1411195 0.1214740 0.5390780 16711746
0.1965248 0.1169183 0.5305326 16711746
0.2433342 0.1235829 0.5632204 16711746
0.2044121 0.0656900 0.5607936 16711746
0.2260146 0.1113521 0.5467132 16711746
0.1888729 0.1235516 0.5431269 16711746
0.2045443 0.1251493 0.5503241 16711746
0.2262287 0.0995827 0.5627733 16711746
0.2643698 0.0627252 0.5772265 16711746
0.2190900 0.1263607 0.5694115 16711746
0.2232867 0.1204805 0.5327578 16711746
0.1745004 0.1219284 0.5546100 16711746
0.1818269 0.0463933 0.6513681 16711746
-0.0477062 -0.0107944 1.0013230 16711746
0.1497103 0.1511208 0.7576559 16711746
0.1558467 0.0786936 0.5524491 16711746
0.2498993 0.1106538 0.6313207 16711746
0.2633315 0.0527281 0.6420996 16711746
0.2212276 0.1216594 0.5716549 16711746
0.2353913 0.1178998 0.5408729 16711746
0.1866120 0.1274789 0.5649878 16711746
0.2408994 0.1241379 0.6093365 16711746
0.2457620 0.1157725 0.6184742 16711746
0.1283225 0.1261725 0.6289816 16711746
0.1779350 0.0608835 0.6723417 16711746
0.3173108 0.0684514 0.7086163 16711746
0.2252534 0.1225014 0.5587201 16711746
0.1735699 0.1246346 0.5447288 16711746
0.2422563 0.1005327 0.5605042 16711746
0.0968512 0.1281383 0.5950462 16711746
0.2548023 0.1284766 0.5509805 16711746
0.1260757 0.1196614 0.5497190 16711746
0.1834089 0.1226549 0.5461467 16711746
0.2626116 0.1318431 0.5568393 16711746
0.2663863 0.1337807 0.5598989 16711746
0.1651521 0.1216169 0.5431966 16711746
0.2696887 0.1403648 0.5527821 16711746
