# .PCD v.7 - Point Cloud Data file format
VERSION .7
FIELDS x y z rgb
SIZE 4 4 4 4
TYPE F F F F
COUNT 1 1 1 1
WIDTH 64
HEIGHT 1
VIEWPOINT 0 0 0 1 0 0 0
POINTS 64
DATA ascii

 20.3604488 7.0122237 2.3644292 16777215
 0.1618150 0.0521581 0.0196073 16777215
-0.1522689 -0.0482447 1.2379997 16711746
-0.6708896 0.3837474 1.0869113 16711746
-0.2246860 0.1286354 1.1874578 16711746
0.0594279 0.2642727 1.1098305 16711746
0.6919802 0.1478322 0.9824604 16711746
0.6056690 0.1616885 1.0576385 16711746
0.1459057 0.1554213 0.7718026 16711746
-0.2941274 -0.0191229 0.8486435 16711746
-0.1382104 0.1417079 1.1635321 16711746
0.5082139 0.2722694 1.1113210 16711746
0.0347199 0.1254890 1.0407839 16711746
0.2304899 0.4735199 0.8442127 16711746
0.1822770 0.3789431 0.7325035 16711746
0.2173353 0.3843693 0.8330430 16711746
0.0483862 0.3979918 0.6976393 16711746
0.2630563 0.3182217 1.0622040 16711746
0.4245695 0.3649172 0.8249104 16711746
0.0596681 0.3635020 1.1118478 16711746
0.0839338 0.3341090 1.0988714 16711746
-0.0282926 0.4194385 1.0222646 16711746
-0.1097139 0.1062757 1.2923199 16711746
-0.8751900 0.4464606 0.8761889 16711746
-0.2644086 0.4997347 0.9264948 16711746
-0.4675577 0.5146751 1.0666853 16711746
-0.5572094 0.5491219 0.8243480 16711746
-0.3595733 0.5638327 0.9602640 16711746
-0.5103988 0.6092212 1.0150589 16711746
-0.3153585 0.3524443 1.0267063 16711746
-0.2430883 0.3246031 1.0070565 16711746
-0.0725502 0.3404298 1.0472585 16711746
-0.2903822 0.4043811 0.9342365 16711746
-0.3842878 0.4082117 0.9632802 16711746
0.0201017 -0.1394349 0.9906172 16711746
230.7880249 -26.3341255 986.0187988 16711746
-60.9536667 -24.6054173 575.4431763 16711746
1.0563545 -26.3108177 98.6488724 16711746
286.1721497 -146.8689728 842.1348267 16711746
8.2061996 5.2791739 34.1561584 16711746
-50.3160210 -470.7327881 981.8402100 16711746
-6.6030145 1.4334633 30.8119030 16711746
-270.4702759 4.7245798 280.9977112 16711746
124.7679214 -30.6857376 199.8022461 16711746
257.0960693 -5.9415827 914.2250366 16711746
513.5223999 -235.2089844 742.1495361 16711746
20.5032597 13.8419151 68.9593506 16711746
445.5246887 -128.9868469 808.9855957 16711746
18.7539291 13.6990318 69.2392807 16711746
18.8910675 11.6051836 67.0271225 16711746
-42.3806839 -272.4047546 666.9923706 16711746
120.7133560 -188.9818115 621.7870483 16711746
-469.3393555 -147.3489075 854.2991333 16711746
-402.4656677 -191.8355713 224.0886383 16711746
253.6686707 -39.3092232 332.7556763 16711746
-269.4713135 -113.7039337 150.0632629 16711746
-87.5406952 -20.6651154 1049.7467041 16711746
196.7075500 53.2150688 561.2904663 16711746
475.4667358 40.5608635 585.7776489 16711746
-446.4702759 -184.4065399 240.7857819 16711746
482.6030884 -305.7295532 761.5023193 16711746
366.5532227 68.3312454 809.8972168 16711746
-282.4105225 -75.1476364 973.5248413 16711746
-155.6798706 -244.2152405 657.2946777 16711746
