# .PCD v.7 - Point Cloud Data file format
VERSION .7
FIELDS x y z rgb
SIZE 4 4 4 4
TYPE F F F F
COUNT 1 1 1 1
WIDTH 238
HEIGHT 1
VIEWPOINT 0 0 0 1 0 0 0
POINTS 238
DATA ascii

 0.0115767 0.0032306 -0.0790812 16777215
 0.0001007 0.0000267 -0.0006253 16777215
-0.5437063 -0.8474054 0.6281046 16711746
-0.8605070 -2.2908909 1.4806541 16711746
-0.1713797 -1.1328809 0.9551197 16711746
0.0637754 -0.9565210 0.6825704 16711746
0.0864612 -0.7439111 0.7144481 16711746
0.0520782 -0.7156833 0.6850455 16711746
-0.7823194 -2.0515902 1.6593328 16711746
-0.0776037 -1.0349665 0.8613063 16711746
-0.0883247 -1.1392478 0.9639101 16711746
-0.1056176 -1.1143913 0.8813598 16711746
0.0966457 -0.8291614 0.6554843 16711746
-0.7210423 -2.2434852 1.4121590 16711746
-0.0137172 -0.7208732 0.6777771 16711746
-0.0195386 -0.8447902 0.7825932 16711746
-0.0906900 -1.0923747 0.7576136 16711746
-0.1096542 -0.9854839 0.8867922 16711746
-0.5153272 -1.7541929 1.2886287 16711746
0.0824315 -0.6966412 0.6666858 16711746
-0.0727228 -1.1024680 0.8256492 16711746
-0.5211374 -1.8577684 1.2597083 16711746
0.1502680 -0.6180003 0.5878409 16711746
0.0683189 -0.6550924 0.6592605 16711746
0.0804335 -0.8151475 0.6819240 16711746
-0.5298223 -1.8733805 1.2673719 16711746
-0.6326036 -2.0688894 1.3501556 16711746
-0.0863986 -1.3067180 0.7832660 16711746
-0.7265850 -2.2543025 1.4159278 16711746
0.0071053 -0.8290719 0.7409522 16711746
-0.6586570 -1.8155032 1.3588637 16711746
-0.6957737 -2.1707554 1.3664341 16711746
0.0738881 -0.6863897 0.6968927 16711746
-0.7698432 -2.2656112 1.4935968 16711746
-0.2618233 -1.4024407 0.9378205 16711746
-0.0176162 -0.8040111 0.7585253 16711746
-0.0222505 -0.9029409 0.8361192 16711746
-0.2239900 -1.3267549 0.9810541 16711746
-0.4763776 -1.5909348 1.2704145 16711746
-0.5173627 -1.7628219 1.2890737 16711746
0.0346697 -0.9750742 0.7838421 16711746
-0.5215036 -1.8600459 1.2593164 16711746
-0.6413717 -2.0798771 1.3601570 16711746
-0.1703311 -1.4158553 0.8776428 16711746
-0.7357361 -2.3901105 1.3227825 16711746
-0.7205808 -2.2438831 1.4109634 16711746
-0.9408102 -2.2851598 1.5348568 16711746
0.0364356 -1.2176663 0.3737288 16711746
-0.0154986 -0.8033686 0.7566407 16711746
-0.1520776 -1.0414826 0.9122233 16711746
-0.0211050 -0.7345439 0.7693480 16711746
-0.4679403 -1.5661849 1.2508379 16711746
-0.1584411 -1.3100597 1.0066569 16711746
-0.1191586 -1.3699523 0.9377937 16711746
-0.0760213 -0.9983311 0.8332419 16711746
-0.1063277 -1.1161187 0.8635026 16711746
-0.1330632 -0.9154682 0.9104558 16711746
0.0767341 -0.7535137 0.6836771 16711746
0.1403479 -0.7295493 0.6100305 16711746
0.0502331 -0.7138073 0.6861495 16711746
0.1290761 -0.5968103 0.5999342 16711746
0.1491851 -0.6149833 0.5881523 16711746
0.0008496 -1.0694678 0.7408853 16711746
0.0973766 -0.8228617 0.6547720 16711746
-0.3213566 -1.5504267 1.1245937 16711746
-0.0691345 -1.1067749 0.8208950 16711746
-0.1583730 -1.3029937 1.0010679 16711746
-0.1050602 -1.2372503 0.8423319 16711746
-0.2463974 -1.1834664 1.0176831 16711746
-0.0837551 -1.0945331 0.9170910 16711746
-0.9279783 -2.1738508 1.6631889 16711746
-0.5150155 -1.4253193 1.2743087 16711746
0.0900650 -0.4130489 -0.0135426 16711746
0.1468002 -0.9210819 0.6712095 16711746
0.1514199 -0.8644568 0.6053743 16711746
-0.5764883 -1.6594726 1.3948547 16711746
0.0774786 -0.3538336 -0.0234592 16711746
0.2324559 -1.4379025 0.1063997 16711746
-0.3060592 -1.4773207 1.0598006 16711746
0.0590781 -0.7955835 0.6904562 16711746
-0.1229110 -0.9514419 0.9815224 16711746
-0.0077904 -0.7049999 0.6865388 16711746
0.0513839 -0.7184342 0.6861315 16711746
-0.5567271 -2.1627140 1.1124599 16711746
0.1512714 -0.6533820 0.5927160 16711746
-0.0594314 -0.9802355 0.8444123 16711746
-0.1585714 -1.0971760 0.9598794 16711746
0.2374278 -0.7980329 0.5505543 16711746
-0.0853526 -1.1250626 0.9428853 16711746
-0.1413808 -1.1813136 0.8986490 16711746
-0.7111861 -2.3559163 1.2970116 16711746
-0.0718978 -1.1953628 0.8876218 16711746
-0.1295879 -1.2181221 0.9080169 16711746
-0.1053803 -1.2406894 0.8418819 16711746
0.0676052 -0.9880063 0.6726484 16711746
-0.2697862 -1.2704237 1.0432796 16711746
-0.4612741 -1.6494917 1.1032826 16711746
-0.0729824 -0.6368328 0.5995337 16711746
-0.1055966 -0.9549063 0.9004002 16711746
0.0595844 -0.1350812 0.0176982 16711746
-0.0745709 -1.3085865 0.9721452 16711746
-0.2702824 -1.2590549 1.0442653 16711746
0.1498666 -0.8504075 0.5955713 16711746
-1.5134971 -3.1787047 1.8592153 16711746
-0.4941601 -2.0476420 1.0777794 16711746
0.1454554 -0.6178892 0.5917017 16711746
0.1494737 -0.6582007 0.5949219 16711746
0.0762882 -0.8299683 0.6760086 16711746
0.0896039 -0.9406615 0.6330549 16711746
0.0500429 -0.7162479 0.6867828 16711746
-0.1001584 -1.3450999 0.7957987 16711746
-0.1663465 -1.4598000 0.8492550 16711746
-0.4475586 -2.0368264 0.9669827 16711746
-0.1423044 -1.0325199 0.9018094 16711746
0.0879144 -1.6156356 0.6949533 16711746
-0.8152182 -2.1587470 1.6258157 16711746
-0.8827300 -2.1885231 1.6130321 16711746
0.0975720 -1.0360808 0.6168810 16711746
0.0384168 -1.1211127 0.6744567 16711746
0.0587285 -1.1008140 0.6517046 16711746
0.0117916 -1.2792516 0.6718549 16711746
0.0478148 -1.2677201 0.6088110 16711746
-0.1069438 -1.4176317 0.7662745 16711746
-0.1853531 -1.4971565 0.8618385 16711746
0.1081649 -0.4846039 -0.0122330 16711746
-0.8355308 -2.3390629 1.5753230 16711746
-0.7710238 -2.3343360 1.4502598 16711746
0.1338160 -0.8450353 0.6147029 16711746
-0.7194837 -2.3704238 1.3026972 16711746
-0.6927620 -2.3820212 1.2193611 16711746
-0.9202664 -2.8003390 1.3111714 16711746
-0.5248076 -1.8662558 1.2621089 16711746
-0.8239682 -2.4596145 1.5402541 16711746
-0.8345651 -2.4562392 1.4920167 16711746
-0.1270676 -1.0647020 0.8877091 16711746
-0.0835334 -1.0446818 0.8414241 16711746
0.7111301 -0.7980842 0.3179356 16711746
-0.7484832 -2.4168682 1.3268971 16711746
-0.1609851 -1.4869657 0.5398101 16711746
-0.0826363 -1.0226493 0.3232203 16711746
0.0986096 -1.0361193 0.6169012 16711746
0.0646673 -1.0940276 0.6453889 16711746
0.1779658 -0.6485942 0.5686901 16711746
-0.2113828 -1.6439199 0.7242193 16711746
0.3731761 -2.6101480 0.5668911 16711746
-0.6282005 -2.3436871 1.0759221 16711746
-1.2496462 -2.9298341 0.8608301 16711746
0.0754929 -1.1433059 0.6033087 16711746
-0.1121847 -1.4300932 0.6901826 16711746
-0.0609058 -1.1000893 0.8118924 16711746
-0.0377996 -1.1588745 0.7711122 16711746
-0.1888832 -1.4541180 0.8905328 16711746
-0.1321918 -1.6426644 0.6680602 16711746
-1.2881881 -2.9925504 0.6968457 16711746
-0.0847107 -0.8183799 0.6337298 16711746
-0.2863713 -2.4226363 1.9457568 16711746
0.8864637 -3.7247157 0.6473293 16711746
-0.8181554 -2.0091887 1.6754377 16711746
-0.4969303 -1.6348015 1.2908925 16711746
0.2901545 -1.1193199 -0.0796903 16711746
0.3078297 -0.8256696 0.4240580 16711746
-0.8386168 -2.1944890 1.6509353 16711746
-0.5685563 -1.9336739 1.3057001 16711746
0.3210992 -1.3427110 0.3580560 16711746
0.6414827 -2.7237053 0.7264780 16711746
0.1403543 -0.6839192 0.5305988 16711746
-0.2621977 -1.7185242 0.8485938 16711746
-0.1004748 -1.4046339 0.7626150 16711746
0.0104666 -1.2490946 0.6560502 16711746
-0.9448922 -2.7165880 1.5069681 16711746
0.0281267 -1.1251431 0.6883011 16711746
0.0760531 -1.1064315 0.6220000 16711746
0.1805192 -0.7475703 0.5700701 16711746
0.1531405 -0.8528885 0.5913380 16711746
-0.0618253 -0.9352895 0.8155723 16711746
-0.1372274 -1.0297068 0.8965451 16711746
-0.0409270 -1.0552666 0.8497292 16711746
-0.0149067 -1.1998827 0.5241585 16711746
-0.0948527 -1.3430867 0.7879515 16711746
-0.2371707 -2.0214930 0.7935157 16711746
-0.7106685 -2.4096813 1.2348845 16711746
-0.0463291 -1.2048280 0.5785496 16711746
0.2178351 -1.4992120 0.3248478 16711746
-0.0577804 -1.0561075 0.8125572 16711746
-0.2235246 -1.3188874 0.9817989 16711746
-0.1321408 -1.0882396 1.0249941 16711746
-0.2671225 -1.2581981 1.0406536 16711746
-0.5123296 -2.0694993 1.0999078 16711746
0.0727351 -0.7470642 0.6729254 16711746
0.0751907 -0.8623232 0.6771662 16711746
0.3081981 -1.3254446 0.5504361 16711746
0.3993056 -1.6865889 0.3600191 16711746
-0.7963424 -2.3694577 1.4773022 16711746
-0.4912206 -2.0466156 1.0716381 16711746
-0.6118634 -2.0100181 0.7738802 16711746
0.6610229 -2.8213637 0.7519678 16711746
-0.1842413 -1.4450078 0.8871272 16711746
-0.1600431 -1.5934901 0.7275139 16711746
-0.2169145 -1.7006856 0.7491316 16711746
-0.0611316 -0.9260069 0.8140731 16711746
-0.1649394 -1.2535565 1.1147537 16711746
-0.0709916 -1.0553591 0.8273822 16711746
-0.1253870 -1.1017919 0.8856949 16711746
0.4281953 -1.0501348 0.4935074 16711746
0.1009925 -0.9181682 0.6438156 16711746
0.0632436 -0.9798182 0.6795899 16711746
-0.8310992 -2.0260868 1.6909317 16711746
0.1334854 -0.8387783 0.6156465 16711746
0.1564735 -0.8465323 0.5883029 16711746
0.2220050 -0.7596540 0.5227894 16711746
-0.8368734 -2.7543228 1.0099839 16711746
-0.1319863 -1.1625926 0.8893989 16711746
0.1844422 -0.6902449 0.5658006 16711746
0.1801664 -0.7439754 0.5705508 16711746
0.1853074 -0.8796757 0.6877273 16711746
-1.4099303 -2.0779560 0.6974280 16711746
-0.0950813 -1.3456436 0.7870535 16711746
0.1289261 -1.0734551 0.5497811 16711746
-0.6050430 -2.2620363 1.1241091 16711746
-0.9807150 -2.8989301 1.3522288 16711746
-0.1173430 -1.5684365 0.6372086 16711746
-0.1957097 -1.7064126 0.6690707 16711746
-0.6825371 -2.2574277 1.3208790 16711746
-0.9263195 -2.6793890 1.4996703 16711746
-0.0650599 -1.4174831 0.6797234 16711746
-0.1081493 -1.4836576 0.7160274 16711746
-0.1495675 -1.3022478 1.0994793 16711746
-0.0351303 -0.9811031 0.7907326 16711746
-1.3829467 -3.1846001 0.7413837 16711746
-0.8408489 -2.2018712 1.6517628 16711746
-0.5700012 -2.2740026 0.9913506 16711746
0.0876488 -1.0146896 0.8033238 16711746
0.1405030 -1.0159893 0.5608100 16711746
0.0330483 -1.1245291 0.6812069 16711746
-0.2752724 -1.6202198 0.9527199 16711746
0.0481755 -0.8378615 0.7037174 16711746
-0.2974164 -1.6891949 0.9502459 16711746
-0.6943647 -2.3297942 1.2821028 16711746
