# .PCD v.7 - Point Cloud Data file format
VERSION .7
FIELDS x y z rgb
SIZE 4 4 4 4
TYPE F F F F
COUNT 1 1 1 1
WIDTH 113
HEIGHT 1
VIEWPOINT 0 0 0 1 0 0 0
POINTS 113
DATA ascii

 0.0553525 0.0015362 -0.0959166 16777215
 0.0535305 0.0018427 -0.0931811 16777215
 0.0548989 -0.0013647 -0.0923800 16777215
 0.0516919 -0.0013665 -0.0923755 16777215
 0.0504468 -0.0013691 -0.0871620 16777215
 0.0511383 -0.0018393 -0.0836663 16777215
 0.0453896 -0.0037925 -0.0821923 16777215
 0.0438283 -0.0040289 -0.0811371 16777215
 0.0429808 -0.0064295 -0.0779776 16777215
 0.0409616 -0.0043662 -0.0754701 16777215
 0.0434066 -0.0024949 -0.0705643 16777215
 0.0440503 -0.0047288 -0.0673476 16777215
 0.0504232 -0.0051129 -0.0600354 16777215
 0.0562551 -0.0098063 -0.0510835 16777215
 0.0619597 -0.0114536 -0.0437852 16777215
 0.0636651 -0.0142113 -0.0332873 16777215
 0.0648758 -0.0166728 -0.0177310 16777215
 0.0716946 -0.0203621 -0.0098837 16777215
 0.0874200 -0.0218884 0.0053603 16777215
 0.0909245 -0.0258847 0.0159346 16777215
 0.0975661 -0.0303039 0.0242748 16777215
 0.1015822 -0.0311469 0.0339029 16777215
 0.1045439 -0.0289080 0.0411508 16777215
 0.1158090 -0.0252114 0.0537914 16777215
 0.1260896 -0.0250965 0.0703084 16777215
 0.1354483 -0.0313278 0.0827552 16777215
 0.1423568 -0.0270449 0.0935166 16777215
 0.1487786 -0.0334686 0.1049170 16777215
 0.1522907 -0.0344987 0.1093578 16777215
 0.1525028 -0.0347881 0.1130462 16777215
 0.1505354 -0.0266140 0.1273395 16777215
 0.1608377 -0.0417922 0.1306065 16777215
 0.1627059 -0.0426686 0.1374833 16777215
 0.1660290 -0.0422005 0.1433668 16777215
 0.1688309 -0.0396711 0.1490166 16777215
 0.1720749 -0.0373012 0.1581024 16777215
 0.1765625 -0.0351601 0.1626373 16777215
 0.1787636 -0.0356336 0.1697056 16777215
 0.1703111 -0.0202333 0.1722456 16777215
 0.1715469 -0.0169697 0.1770106 16777215
 0.1775656 -0.0187560 0.1835792 16777215
 0.1764590 -0.0151859 0.1874454 16777215
 0.1627943 -0.0031762 0.1801534 16777215
 0.1655857 -0.0032245 0.1835287 16777215
 0.1664864 -0.0031099 0.1862142 16777215
 0.1662609 -0.0022517 0.1898512 16777215
 0.1682716 -0.0016164 0.1923141 16777215
 0.1678239 -0.0017497 0.1940267 16777215
 0.1577190 0.0078181 0.1893968 16777215
 0.1587173 0.0066102 0.1905352 16777215
 0.1617056 0.0070903 0.1932908 16777215
 0.1630854 0.0071089 0.1969988 16777215
 0.1636187 0.0066430 0.1984522 16777215
 0.1648680 0.0068046 0.2009697 16777215
 0.1638467 0.0082376 0.2023939 16777215
 0.1590860 0.0118248 0.2003786 16777215
 0.1643351 0.0096473 0.2059712 16777215
 0.1646987 0.0098891 0.2066907 16777215
 0.1638658 0.0107709 0.2083890 16777215
 0.1630072 0.0130254 0.2078020 16777215
 0.1650053 0.0129629 0.2105867 16777215
 0.1640771 0.0141809 0.2113347 16777215
 0.1652157 0.0138894 0.2127390 16777215
 0.1653973 0.0133145 0.2153976 16777215
 0.1667142 0.0147921 0.2169689 16777215
 0.1678996 0.0152321 0.2192210 16777215
 0.1724131 0.0133743 0.2254842 16777215
 0.1703164 0.0142837 0.2252773 16777215
 0.1691298 0.0166227 0.2236121 16777215
 0.1693416 0.0179988 0.2235371 16777215
 0.1701349 0.0174485 0.2248028 16777215
 0.1704314 0.0178372 0.2262788 16777215
 0.1699203 0.0176493 0.2265344 16777215
 0.1708450 0.0173033 0.2275091 16777215
 0.1711000 0.0180508 0.2294036 16777215
 0.1715271 0.0180372 0.2296731 16777215
 0.1719549 0.0180725 0.2304457 16777215
 0.1725249 0.0179499 0.2312640 16777215
 0.1726798 0.0179774 0.2322160 16777215
 0.1729075 0.0175848 0.2327711 16777215
 0.1740889 0.0181038 0.2346731 16777215
 0.1747020 0.0181079 0.2361383 16777215
 0.1749420 0.0180662 0.2372661 16777215
 0.1754804 0.0179741 0.2383794 16777215
 0.1759456 0.0181211 0.2398151 16777215
 0.1761462 0.0180915 0.2411681 16777215
 0.1705797 0.0211246 0.2367311 16777215
 0.1736575 0.0212120 0.2394440 16777215
 0.1746106 0.0204014 0.2407370 16777215
 0.1741342 0.0210848 0.2416622 16777215
 0.1756110 0.0201417 0.2431554 16777215
 0.1780458 0.0202003 0.2453549 16777215
 0.1792880 0.0199741 0.2471083 16777215
 0.1790205 0.0195411 0.2475531 16777215
 0.1795505 0.0197005 0.2481132 16777215
 0.1784698 0.0196485 0.2474523 16777215
 0.1720323 0.0212596 0.2427609 16777215
 0.1721419 0.0200774 0.2440628 16777215
 0.1767227 0.0222142 0.2474113 16777215
 0.1776068 0.0206893 0.2481044 16777215
 0.1739012 0.0210751 0.2450986 16777215
 0.1758097 0.0219354 0.2463462 16777215
 0.1767355 0.0215071 0.2477718 16777215
 0.1763462 0.0221517 0.2478834 16777215
 0.1749843 0.0209344 0.2476662 16777215
 0.1807635 0.0220426 0.2508872 16777215
 0.1803779 0.0223641 0.2513425 16777215
 0.1763480 0.0215592 0.2486693 16777215
 0.1772183 0.0225557 0.2504519 16777215
 0.1774136 0.0211489 0.2503535 16777215
 0.1750459 0.0227757 0.2485421 16777215
 0.1759636 0.0231797 0.2493490 16777215
 0.1789491 0.0223753 0.2534948 16777215
