# .PCD v.7 - Point Cloud Data file format
VERSION .7
FIELDS x y z rgb
SIZE 4 4 4 4
TYPE F F F F
COUNT 1 1 1 1
WIDTH 57
HEIGHT 1
VIEWPOINT 0 0 0 1 0 0 0
POINTS 57
DATA ascii

 0.0567523 0.0028778 -0.0968605 16777215
 -0.0004147 -0.0019693 -0.0073975 16777215
0.1957606 -0.6684172 0.3891318 16711746
-0.6963977 -1.2691303 0.6017780 16711746
-0.6507350 -0.9804710 0.4664977 16711746
0.0521969 -0.9111896 0.5565672 16711746
0.5663614 -0.6915148 0.3330162 16711746
-0.3466234 -1.9113804 0.6566188 16711746
0.6254212 -0.6860518 0.2415287 16711746
0.5468926 -0.6683730 0.3639505 16711746
-0.8878276 -1.4465238 0.6718317 16711746
0.1975032 -0.5969659 0.4202317 16711746
0.0524539 -0.7335438 0.2926283 16711746
0.5058278 -0.7886854 0.2489614 16711746
-1.0080169 -1.2249236 0.5330114 16711746
-0.2265568 -1.0674657 0.5108253 16711746
-0.6177498 -1.1467037 0.7175313 16711746
0.0010927 -1.1351821 0.4709090 16711746
0.3014614 -0.8778591 0.3214843 16711746
-0.0908892 -0.7191706 0.2755766 16711746
0.7142195 -0.8942211 0.2810204 16711746
-0.1181775 -0.5811401 0.4808807 16711746
0.4388834 -1.2594479 0.5129020 16711746
-0.2330047 -1.0703479 0.5269905 16711746
0.0699481 -0.9319392 0.4867102 16711746
0.0577734 -1.6043261 0.8336781 16711746
0.2921629 -0.7107244 0.5162033 16711746
0.1695848 -0.6955291 0.4298223 16711746
0.4501081 -1.1770531 0.4623586 16711746
0.4633973 -1.1207417 0.3989916 16711746
0.1366662 -0.8511844 0.3425934 16711746
0.2037828 -1.2266357 0.4549515 16711746
0.1112097 -0.8882253 0.4136754 16711746
0.1496886 -0.8423913 0.3521307 16711746
0.3956691 -0.7651618 0.2531442 16711746
0.4134923 -0.6892000 0.6770040 16711746
-1.0894290 -1.2734959 0.4854540 16711746
-0.3043673 -1.1430502 0.6120327 16711746
-0.5011613 -1.0829196 0.5358782 16711746
-0.7361336 -1.4772140 0.4973781 16711746
-1.4162105 -3.3121891 1.5901091 16711746
2.7762766 -2.8559461 2.8096073 16711746
0.0965241 -0.0728172 0.0771895 16711746
1.9330782 -1.9110104 1.2157258 16711746
0.2900977 -0.1951702 0.2384416 16711746
0.6618000 -1.1160342 1.2664888 16711746
2.9313827 -3.1990836 1.8670706 16711746
2.1974266 -1.7223518 2.9022081 16711746
0.0270258 -2.8581183 1.7612801 16711746
-1.5035042 -6.2754531 3.0151160 16711746
-0.3554625 -5.8093925 5.8228350 16711746
-0.0919832 -2.3498316 2.8520002 16711746
1.6405120 -1.2154568 3.6201181 16711746
-1.7310433 -1.3285139 1.4063162 16711746
1.6651123 -4.9115376 3.3502729 16711746
-1.2245928 -0.8865014 0.9619498 16711746
0.3496889 -4.5069242 2.7041934 16711746
