# .PCD v.7 - Point Cloud Data file format
VERSION .7
FIELDS x y z rgb
SIZE 4 4 4 4
TYPE F F F F
COUNT 1 1 1 1
WIDTH 97
HEIGHT 1
VIEWPOINT 0 0 0 1 0 0 0
POINTS 97
DATA ascii

1.0167398 0.2361612 2.1121626 16711746
0.5987523 0.3790818 1.8978337 16711746
-0.7632419 0.2797706 2.0231259 16711746
0.5066036 1.1959330 0.3805160 16711746
0.8168110 1.3841881 0.1896073 16711746
0.5420367 1.0932806 0.6389095 16711746
-0.0089895 -0.0640318 2.2921724 16711746
0.6279863 0.0851019 2.2248476 16711746
0.5342590 0.3670308 1.8756022 16711746
0.2090220 0.3609203 2.0615797 16711746
0.2130882 0.3585259 2.0240457 16711746
0.3823431 0.2711088 2.0858581 16711746
0.3257867 0.2152436 2.1174150 16711746
0.7801428 0.5270751 1.7439378 16711746
0.7669269 0.4528257 1.8805667 16711746
-0.3314021 -0.0170238 2.3350997 16711746
0.6135378 -0.8513680 2.1792831 16711746
0.6108230 -0.1309908 2.0590432 16711746
0.6620963 -0.0054826 1.9136335 16711746
0.4305161 0.3653875 1.8021555 16711746
0.3929959 -0.0004633 2.3449733 16711746
0.9296653 0.4804455 1.6997312 16711746
1.0029063 0.4159708 1.7899208 16711746
0.9762456 0.3846945 1.8204790 16711746
0.2322504 0.2896203 2.0006342 16711746
0.0819508 0.1042004 2.3323519 16711746
1.0530388 0.0821555 2.0842462 16711746
0.6405469 0.4536859 1.8131291 16711746
0.7472560 0.3309471 1.7868826 16711746
-0.3255492 -0.3388970 2.2331541 16711746
0.8388875 -0.4146225 2.2784352 16711746
0.6255745 0.3379746 1.9051777 16711746
0.6309515 0.0293853 2.3142343 16711746
1.1246903 0.3766144 1.8697163 16711746
0.0121370 0.1475927 2.1232920 16711746
0.6187394 0.1092276 1.7753201 16711746
0.8371856 0.5304759 1.7457476 16711746
0.4340327 0.2545798 1.8028219 16711746
0.6588353 0.5003436 1.6358835 16711746
0.8674883 -0.0533431 2.2446122 16711746
1.2456331 0.1514044 2.0550804 16711746
1.0737605 0.1259123 1.9664824 16711746
1.0980617 0.1287818 1.9936305 16711746
0.7053180 0.0735317 2.2280555 16711746
0.6489077 0.2062093 2.0017636 16711746
0.7175980 0.5023764 1.7683495 16711746
0.7103032 0.4764806 1.8152964 16711746
0.7256057 0.5397087 1.6854972 16711746
-0.1355206 -0.2628530 2.3271708 16711746
1.0306582 0.1518512 1.9648716 16711746
0.8947365 0.3558743 1.7003767 16711746
0.5846032 0.4432102 1.7338341 16711746
0.7496451 0.1951976 2.1021566 16711746
0.5732996 0.4263537 1.8336378 16711746
0.4185671 0.0027801 2.4155042 16711746
0.7140945 -0.1773539 2.3006036 16711746
0.6700010 -0.1324069 2.1795225 16711746
0.7942014 0.2032752 2.0222690 16711746
0.7080954 0.1913687 2.0055842 16711746
0.3803128 0.2354512 1.8062037 16711746
1.0957574 0.3374582 1.9884111 16711746
0.8268546 0.5373083 1.6514987 16711746
0.9123402 0.3401469 1.8994224 16711746
1.0827461 0.3613033 2.0369222 16711746
0.9470463 0.4960436 1.7151788 16711746
0.7352916 0.5664324 1.6227947 16711746
0.8421217 0.5433070 1.7229358 16711746
0.9669629 0.5161647 1.7888793 16711746
0.8332805 0.5446945 1.6876273 16711746
1.2113471 0.2274999 1.9152589 16711746
0.5972923 1.0646206 0.5248116 16711746
0.6023734 1.0694767 0.5579754 16711746
0.6242619 1.1150819 0.4677035 16711746
0.6308247 0.6019778 1.6043020 16711746
0.6342024 0.3843071 2.0593534 16711746
0.7635752 1.2324880 0.3521788 16711746
0.6095574 1.0967160 0.5523999 16711746
0.6057118 1.1388092 0.4769776 16711746
0.4319816 0.4652025 1.8618977 16711746
0.3697419 0.2523253 2.1701624 16711746
0.8482422 1.4478500 0.2485195 16711746
0.1176003 0.3088702 2.2270868 16711746
0.5075596 0.5911331 1.6637871 16711746
0.3916792 0.4389264 1.9708511 16711746
0.5604411 1.1345626 0.3154966 16711746
0.5597802 1.0996892 0.5998538 16711746
0.6433977 0.8995183 1.0449121 16711746
0.5656104 1.0555636 0.6094730 16711746
-0.2282725 0.1125873 2.1958838 16711746
-0.0183682 0.0589172 2.4490368 16711746
-0.0264040 -0.0742279 2.2468073 16711746
-0.9013340 0.3488366 1.9711851 16711746
-0.2465872 0.2664094 2.1275721 16711746
-0.5778269 0.3717663 1.9896461 16711746
0.3361229 2.3270857 0.1466144 16711746
0.7359756 -0.4748320 2.2205908 16711746
0.7498137 -0.2146696 2.0288017 16711746
