# .PCD v.7 - Point Cloud Data file format
VERSION .7
FIELDS x y z rgb
SIZE 4 4 4 4
TYPE F F F F
COUNT 1 1 1 1
WIDTH 1225
HEIGHT 1
VIEWPOINT 0 0 0 1 0 0 0
POINTS 1225
DATA ascii
0.7031733 -0.2709743 1.0347418 16711746
0.8589061 -0.1794603 2.4189770 16711746
0.6572909 0.0455925 2.5040147 16711746
0.4027575 -0.2326782 1.2121309 16711746
0.5120891 -0.2107231 1.2249507 16711746
0.4796543 -0.1695247 1.3630959 16711746
0.2664468 -0.0984862 1.0351509 16711746
1.0546829 -0.2788619 2.1010504 16711746
0.6324861 -0.2327973 1.5164089 16711746
0.2451618 -0.5411060 2.6317513 16711746
0.1120266 -0.5246652 3.9259667 16711746
0.3491738 -0.3309548 2.3359158 16711746
1.0675346 -0.1094388 1.5372779 16711746
1.1537888 -0.1297314 1.5855442 16711746
1.9673496 -0.3779559 1.8588486 16711746
1.2345328 -0.4034756 1.8337467 16711746
-0.9951700 -0.4834064 1.3379040 16711746
-1.5546926 -0.5520921 1.5919983 16711746
-0.8174069 -0.4834695 1.1535336 16711746
-0.3697266 -0.4406181 1.4888234 16711746
-0.1665943 -0.3583179 1.5072074 16711746
-0.2081858 -0.3834855 1.0434309 16711746
1.4918953 0.6123614 4.1435595 16711746
0.4471333 0.2818131 1.6742189 16711746
0.1873388 0.0685512 0.4746281 16711746
0.1985855 0.0967066 0.4611907 16711746
0.1527751 0.0954874 0.4701637 16711746
0.1791462 0.0736610 0.4742790 16711746
0.2200618 0.0694323 0.4771740 16711746
0.2031522 0.0929648 0.4760816 16711746
0.1504288 0.0948237 0.4651845 16711746
0.1897297 0.0979020 0.4655073 16711746
0.1128216 0.1091623 0.5640722 16711746
0.1222679 0.1051676 0.5241899 16711746
0.1447564 0.0982919 0.4821019 16711746
0.1956974 0.0962327 0.4725025 16711746
0.1742639 0.0817682 0.4446142 16711746
0.1489501 0.0952583 0.4727185 16711746
0.2120668 0.0849701 0.4709482 16711746
0.1399694 0.0946240 0.4741508 16711746
0.1654658 0.0897629 0.4659664 16711746
0.1680271 0.0874780 0.4634213 16711746
0.1342345 0.0986435 0.4913118 16711746
0.1949138 0.0649327 0.4806532 16711746
0.2079272 0.0721060 0.4959971 16711746
0.2092674 0.0856581 0.4819469 16711746
0.1503238 0.0578993 0.5121569 16711746
0.1736328 0.0562834 0.4899426 16711746
0.1378205 0.0951347 0.4638746 16711746
0.1381758 0.0948353 0.4633132 16711746
0.1958393 0.1023734 0.4725489 16711746
0.1854165 0.0990908 0.4734003 16711746
0.1059232 0.1027608 0.5295692 16711746
0.1684547 0.0984125 0.4949569 16711746
0.1365475 0.0963449 0.4683386 16711746
0.1969503 0.1022433 0.4865032 16711746
0.1933755 0.1038600 0.5033522 16711746
0.1852488 0.0843444 0.4914126 16711746
0.1270249 0.0972202 0.4773997 16711746
0.1903504 0.0888259 0.4685392 16711746
0.1131412 0.1190524 0.6155503 16711746
0.1799412 0.1004686 0.5026602 16711746
0.2005554 0.0919605 0.4691634 16711746
0.2506527 0.0618631 0.5607523 16711746
0.1434727 0.0987085 0.4806683 16711746
0.1295628 0.0925644 0.4907643 16711746
0.1403073 0.0948622 0.4708156 16711746
0.1335205 0.0966170 0.4804613 16711746
0.1337593 0.0926706 0.4779953 16711746
0.1758115 0.0995472 0.4715426 16711746
0.1967411 0.1000609 0.4793176 16711746
0.1349391 0.0965651 0.4818942 16711746
0.2056060 0.1057720 0.4832636 16711746
0.1880365 0.1008868 0.4761701 16711746
0.1413684 0.0981556 0.4771167 16711746
0.1387929 0.0933067 0.4646650 16711746
0.1429195 0.0986741 0.4765290 16711746
0.1416193 0.0940250 0.4620334 16711746
0.1407898 0.0920426 0.4620904 16711746
0.1378314 0.0930177 0.4663318 16711746
0.1388134 0.0938178 0.4690008 16711746
0.1381582 0.0944015 0.4768951 16711746
0.1333111 0.0967497 0.4748168 16711746
0.2103407 0.0690814 0.4886580 16711746
0.1652881 0.0796649 0.4420050 16711746
0.2053093 0.0989338 0.4882157 16711746
0.1910247 0.1009551 0.4743978 16711746
0.1393449 0.0954157 0.4683183 16711746
0.1318641 0.0960464 0.4883611 16711746
0.1356966 0.0919043 0.5151010 16711746
0.1723269 0.0626902 0.4905985 16711746
0.1906073 0.0997540 0.4796461 16711746
0.1720401 0.0968051 0.5190182 16711746
0.1993211 0.1014335 0.4979541 16711746
0.1326850 0.0922942 0.4644397 16711746
0.1208759 0.1127178 0.5864227 16711746
0.1884934 0.1003977 0.4765664 16711746
0.1423285 0.0992058 0.4867055 16711746
0.1337165 0.0950931 0.4670477 16711746
0.1795696 0.1121519 0.5310252 16711746
0.2030268 0.0962222 0.4613026 16711746
0.1747322 0.0783214 0.4677946 16711746
0.1420660 0.0937009 0.4588786 16711746
0.1454840 0.0947329 0.4652043 16711746
0.1456697 0.0933952 0.4595242 16711746
0.1424429 0.0959793 0.4666290 16711746
0.1457805 0.0959677 0.4713727 16711746
0.1432504 0.0928187 0.4574482 16711746
0.1390102 0.1007079 0.5035133 16711746
0.1646564 0.0894428 0.4712694 16711746
0.1343310 0.0969201 0.4836362 16711746
0.1646676 0.0866963 0.4713118 16711746
0.2044608 0.0868741 0.4734887 16711746
0.1342888 0.1026484 0.5092831 16711746
0.1829129 0.0981478 0.4715405 16711746
0.1918603 0.1022663 0.4739232 16711746
0.1896834 0.0841901 0.4697430 16711746
0.1889620 0.0839793 0.4690697 16711746
0.1462480 0.0939595 0.4619479 16711746
0.1380163 0.0946516 0.4633912 16711746
0.1304782 0.0935739 0.4663854 16711746
0.1941941 0.0882030 0.4732078 16711746
0.1878055 0.0872830 0.4656078 16711746
0.2018724 0.0958581 0.4742907 16711746
0.1722833 0.0778983 0.4607740 16711746
0.0344462 0.1012130 0.5445065 16711746
0.2031413 0.0977874 0.4867293 16711746
0.1630881 0.1258413 0.6323465 16711746
0.1453347 0.1155780 0.6071120 16711746
0.1721525 0.0837650 0.4609434 16711746
0.2018140 0.0967126 0.4978917 16711746
0.1178259 0.0373564 0.5672750 16711746
0.1871600 0.1007339 0.4843320 16711746
0.1798044 0.0988673 0.4850502 16711746
0.1141106 0.1025714 0.5625970 16711746
0.1780757 0.1026267 0.5109562 16711746
0.1733506 0.0961756 0.5168170 16711746
0.1771140 0.0987270 0.4703803 16711746
0.2038929 0.0867888 0.4717934 16711746
0.1427403 0.0946782 0.4679174 16711746
0.1412172 0.0921675 0.4594671 16711746
0.1590779 0.0846593 0.4593605 16711746
0.1598076 0.0854654 0.4531421 16711746
0.1356222 0.0985785 0.4918362 16711746
0.1293580 0.0954660 0.4716147 16711746
0.1245412 0.0944271 0.4816741 16711746
0.1428672 0.0946498 0.4689746 16711746
0.1471863 0.0973285 0.4776865 16711746
0.1660923 0.0895600 0.4726805 16711746
0.1284859 0.0981151 0.4941779 16711746
0.1311703 0.0973298 0.4822974 16711746
0.1678634 0.0779590 0.4492741 16711746
0.1390235 0.0946938 0.4651707 16711746
0.1604546 0.0903243 0.4621768 16711746
0.1513005 0.0949828 0.4662156 16711746
0.1338939 0.0969756 0.4835709 16711746
0.1673766 0.0877828 0.4691538 16711746
0.0698096 0.0885851 0.5450622 16711746
0.1548419 0.0941023 0.4636506 16711746
0.1346602 0.0969929 0.4842772 16711746
0.1261245 0.0970994 0.4831536 16711746
0.1299375 0.0975339 0.4918220 16711746
0.1402558 0.0947131 0.4678327 16711746
0.1927024 0.0907746 0.4800487 16711746
0.1353407 0.0954529 0.4693732 16711746
0.1947427 0.0938982 0.4905464 16711746
0.1870840 0.1011098 0.4868641 16711746
0.1966600 0.1036308 0.4956968 16711746
0.1282900 0.0045628 0.7097505 16711746
0.1891954 0.0839876 0.4691793 16711746
0.1916353 0.0806407 0.4724248 16711746
0.1436133 0.0953848 0.4758109 16711746
0.2077317 0.0981245 0.4759602 16711746
0.1641835 0.0840948 0.4636500 16711746
0.1872533 0.0572150 0.4892860 16711746
0.2004645 0.0855677 0.4737542 16711746
0.1389070 0.0964926 0.4757408 16711746
0.1628695 0.0940820 0.4692708 16711746
0.1284222 0.1014633 0.5054835 16711746
0.1371794 0.0956882 0.4745975 16711746
0.1859612 0.1004509 0.4733795 16711746
0.1426254 0.0967961 0.4777320 16711746
0.1934773 0.0953983 0.4740008 16711746
0.1883648 0.0838380 0.4681052 16711746
0.1413630 0.0938659 0.4609697 16711746
0.1511411 0.0924695 0.4903267 16711746
0.1305263 0.0964740 0.4902743 16711746
0.1848624 0.0926405 0.4607203 16711746
0.1266882 0.0644040 0.4954742 16711746
0.1820679 0.0746387 0.4716418 16711746
0.1312252 0.0943403 0.4693912 16711746
0.1628028 0.1289055 0.6829639 16711746
0.1951858 0.1002065 0.4932025 16711746
0.1773208 0.0748338 0.4947219 16711746
0.1953167 0.0769385 0.4972823 16711746
0.2012622 0.0640739 0.5192598 16711746
0.1887718 0.1022724 0.4879971 16711746
0.1369939 0.0982957 0.4733785 16711746
0.1505970 0.0949460 0.4674564 16711746
0.1436560 0.0966085 0.4705842 16711746
0.1433373 0.0954713 0.4709191 16711746
0.1837634 0.0953676 0.4703344 16711746
0.1818284 0.0934142 0.4693048 16711746
0.1291551 0.0925493 0.4762304 16711746
0.1852023 0.0965377 0.4724553 16711746
0.1813221 0.0918546 0.4569835 16711746
0.1877020 0.0967001 0.4712957 16711746
0.1915299 0.0961941 0.4691878 16711746
0.1373322 0.0973157 0.4884460 16711746
0.1829892 0.0913671 0.4588310 16711746
0.1845128 0.0877345 0.4558357 16711746
0.1322428 0.0866224 0.5050533 16711746
0.1917591 0.0999700 0.4866994 16711746
0.2194076 0.0571993 0.5130419 16711746
0.0624777 0.1045140 0.5425687 16711746
0.2114134 0.0907389 0.4780223 16711746
0.1988532 0.0654332 0.4923592 16711746
0.2011108 0.0831736 0.4695774 16711746
0.1433803 0.0953294 0.4757302 16711746
0.1588273 0.0799934 0.4607824 16711746
0.1787981 0.1035947 0.4970568 16711746
0.1763004 0.1002603 0.4892470 16711746
0.1701316 0.0505809 0.5753906 16711746
0.1161659 0.1199745 0.7290780 16711746
0.1323465 0.0915867 0.4638498 16711746
0.1800285 0.0987419 0.4785194 16711746
0.1906838 0.1016096 0.4915439 16711746
0.1741567 0.0800676 0.4638441 16711746
0.1687144 0.0790547 0.4943687 16711746
0.1980358 0.1012140 0.5076985 16711746
0.0686341 0.0171706 0.5473026 16711746
0.1957499 0.1006541 0.4880268 16711746
0.1828894 0.0930253 0.4615388 16711746
0.1583343 0.0962441 0.4740386 16711746
0.1186945 0.0556554 0.4818237 16711746
0.2089705 0.0541007 0.4856942 16711746
0.1347660 0.0936109 0.4830754 16711746
0.2049381 0.0979404 0.4726017 16711746
0.1679716 0.0766762 0.4716991 16711746
0.1261982 0.0833914 0.5079002 16711746
0.1288575 0.0591264 0.4939863 16711746
0.1051483 0.0568265 0.5063770 16711746
0.1673502 0.0769820 0.4675391 16711746
0.1819279 0.0949445 0.4641396 16711746
0.1771246 0.0944275 0.4666642 16711746
0.1645846 0.0839562 0.4630736 16711746
0.1312532 0.0558991 0.5256758 16711746
0.1178988 0.0981148 0.5128093 16711746
0.1323143 0.0403073 0.5262278 16711746
0.1597039 0.0977834 0.4855724 16711746
0.1708956 0.0501392 0.5086093 16711746
0.1970941 0.0856805 0.4793585 16711746
0.1822481 0.0920998 0.4656067 16711746
0.1807104 0.0980543 0.4779446 16711746
0.1582777 0.1008093 0.4978993 16711746
0.1752968 0.0759249 0.4845004 16711746
0.1675302 0.0983668 0.4852075 16711746
0.1670552 0.1006330 0.4920109 16711746
0.1733232 0.0676676 0.4962195 16711746
0.1666197 0.0817926 0.4499834 16711746
0.1512759 0.0686869 0.4595646 16711746
0.1950612 0.0984891 0.4733071 16711746
0.2192698 0.0485795 0.4964908 16711746
0.1768051 0.0906576 0.4693766 16711746
0.2108806 0.0626056 0.5111760 16711746
0.2219276 0.0590008 0.5219373 16711746
0.1881916 0.0862398 0.4654441 16711746
0.1752660 0.0620942 0.4919995 16711746
0.1871477 0.1032058 0.4986345 16711746
0.1709320 0.0735761 0.4546207 16711746
0.1963933 0.0870337 0.4993502 16711746
0.1498303 0.1068610 0.5319662 16711746
0.1808345 0.1083389 0.5280125 16711746
0.1517586 0.1121319 0.5706074 16711746
0.1628616 0.0760480 0.4518966 16711746
0.1645995 0.0836091 0.4522669 16711746
0.1630651 0.0763423 0.4506723 16711746
0.1642976 0.0940353 0.4720910 16711746
0.1051573 0.0509255 0.4944086 16711746
0.1212811 0.0572182 0.5172642 16711746
0.2160438 0.0472158 0.4979238 16711746
0.1236120 0.0915283 0.4784277 16711746
0.2160087 0.0572359 0.4904545 16711746
0.1622094 0.0966265 0.4816687 16711746
0.1379943 0.0612161 0.4954653 16711746
0.1929602 0.0638190 0.4788640 16711746
0.2043773 0.0641207 0.4710013 16711746
0.1268840 0.0985344 0.5043984 16711746
0.1149265 0.0942256 0.4895872 16711746
0.1690023 0.0942387 0.4691621 16711746
0.1688245 0.0564936 0.4933065 16711746
0.1278209 0.0511110 0.5088969 16711746
0.1933601 0.0668326 0.4704591 16711746
0.1204807 0.0621114 0.5032436 16711746
0.1813016 0.0949208 0.4658918 16711746
0.1902857 0.0751781 0.4900536 16711746
0.1249168 0.0912145 0.4774293 16711746
0.0985740 0.0969901 0.5121757 16711746
0.1604485 0.1023283 0.5064337 16711746
0.1931064 0.0983875 0.4816158 16711746
0.2010777 0.0539201 0.5045651 16711746
0.2020454 0.0833766 0.4926150 16711746
0.1679550 0.0818184 0.4497578 16711746
0.1355530 0.1101835 0.5474174 16711746
0.1495887 0.1088205 0.5557649 16711746
0.1774094 0.0991029 0.4826241 16711746
0.1682508 0.0979172 0.4863735 16711746
0.1092423 0.0982683 0.5054947 16711746
0.2037510 0.0611437 0.4783415 16711746
0.1863330 0.1000841 0.4863835 16711746
0.2058261 0.0777253 0.4993262 16711746
0.2210226 0.0938282 0.5176976 16711746
0.1956318 0.0715762 0.5221769 16711746
0.1149065 0.1052774 0.5735762 16711746
0.1491973 0.1077045 0.5756778 16711746
0.1806207 0.1044582 0.5052134 16711746
0.2065218 0.0726192 0.4741638 16711746
0.2013213 0.0688167 0.4742754 16711746
0.1817716 0.0738908 0.4655688 16711746
0.1579207 0.0972937 0.5062423 16711746
0.1612675 0.0909591 0.4665050 16711746
0.1298287 0.0598014 0.4798614 16711746
0.1454904 0.0911684 0.4610548 16711746
0.2196303 0.0630974 0.4956771 16711746
0.1347991 0.0562950 0.4960314 16711746
0.2096400 0.0631412 0.4967329 16711746
0.1450983 0.0916525 0.4669885 16711746
0.1907206 0.0910355 0.4760754 16711746
0.1630070 0.1006329 0.4993200 16711746
0.2050096 0.0757164 0.4807021 16711746
0.1464217 0.0881254 0.4644049 16711746
0.1485429 0.0904766 0.4629634 16711746
0.1490510 0.0891413 0.4621491 16711746
0.1452323 0.0909358 0.4748136 16711746
0.1361883 0.0682468 0.4810321 16711746
0.1329225 0.0612623 0.4776353 16711746
0.1473249 0.0904027 0.4768341 16711746
0.1652965 0.0728192 0.4656891 16711746
0.1645336 0.0895089 0.4678308 16711746
0.1995930 0.0954880 0.4683471 16711746
0.1425483 0.0908783 0.4645851 16711746
0.1663572 0.0694521 0.4827297 16711746
0.1376703 0.0915818 0.4695181 16711746
0.1911184 0.0828567 0.4637758 16711746
0.1905550 0.0678561 0.4660274 16711746
0.1819887 0.0761102 0.4815124 16711746
0.1984850 0.0617871 0.5093641 16711746
0.1569778 0.0986466 0.5020594 16711746
0.2020732 0.0579976 0.5152123 16711746
0.1742586 0.0688350 0.4948845 16711746
0.2145617 0.0487809 0.5133176 16711746
0.2003511 0.0582794 0.5034625 16711746
0.2500149 0.0526533 0.5083730 16711746
0.1573483 0.1033474 0.4990054 16711746
0.2056693 0.0979380 0.4842408 16711746
0.1168733 0.0436279 0.6400000 16711746
0.1947165 0.0662977 0.5044839 16711746
0.1991633 0.0656118 0.4978270 16711746
0.1538265 0.0958485 0.4768947 16711746
0.1977021 0.1016056 0.4816387 16711746
0.1673329 0.0552633 0.5047813 16711746
0.1928120 0.0558358 0.5611479 16711746
0.1518349 0.1025448 0.5170332 16711746
0.1527457 0.0971926 0.4799507 16711746
0.1322066 0.0961199 0.4811325 16711746
0.1705015 0.0793231 0.5081283 16711746
0.1531649 0.1066735 0.5277933 16711746
0.1440950 0.1015568 0.5181655 16711746
0.1904211 0.0836760 0.4629870 16711746
0.1967871 0.0855751 0.4666346 16711746
0.1865837 0.0873244 0.4597930 16711746
0.1593691 0.0941530 0.4803265 16711746
0.1846599 0.0949123 0.4655708 16711746
0.1805207 0.0952756 0.4684532 16711746
0.2009816 0.0649086 0.4779219 16711746
0.1597399 0.1009211 0.5027978 16711746
0.2074116 0.0871536 0.4808670 16711746
0.1748691 0.0734325 0.4927096 16711746
0.2028118 0.0655741 0.4989176 16711746
0.1637875 0.0613984 0.4823187 16711746
0.1820939 0.0611220 0.4875765 16711746
0.1864353 0.0934705 0.4712021 16711746
0.2170223 0.0609234 0.5196198 16711746
0.1806153 0.0944509 0.4739187 16711746
0.1574535 0.0894804 0.4630326 16711746
0.1578864 0.0899352 0.4815073 16711746
0.1689819 0.0908443 0.4715078 16711746
0.1921747 0.0684665 0.4612480 16711746
0.1344621 0.0581290 0.4854966 16711746
0.1870086 0.0860477 0.4649311 16711746
0.1673691 0.0649856 0.4742321 16711746
0.1898640 0.0899136 0.4608224 16711746
0.1707094 0.0774061 0.4647219 16711746
0.1601093 0.0912589 0.4670877 16711746
0.1954481 0.0714741 0.4786783 16711746
0.1715858 0.0787187 0.4584671 16711746
0.1940269 0.0669363 0.4715688 16711746
0.1922694 0.0845245 0.4674836 16711746
0.1954421 0.0584900 0.4863300 16711746
0.1698889 0.0806703 0.4532521 16711746
0.1817275 0.0647995 0.4820957 16711746
0.1887032 0.0701417 0.5218407 16711746
0.1973746 0.0544937 0.5042195 16711746
0.1708035 0.0959463 0.4848162 16711746
0.2095376 0.0599576 0.5234221 16711746
0.2086197 0.0622426 0.5130605 16711746
0.1742172 0.0768344 0.4904013 16711746
0.2069728 0.0524963 0.5057676 16711746
0.1733684 0.0926531 0.4747978 16711746
0.1623756 0.0765104 0.4527748 16711746
0.1918221 0.0975914 0.4881777 16711746
0.1933561 0.0797979 0.5002129 16711746
0.1927496 0.0949642 0.4738141 16711746
0.1920177 0.0664943 0.5221904 16711746
0.1811065 0.0664994 0.5105559 16711746
0.2041843 0.0819813 0.4953495 16711746
0.1645259 0.0728335 0.4631587 16711746
0.1860206 0.0994603 0.4850700 16711746
0.0721665 0.0244669 0.6004162 16711746
0.2279253 0.0636833 0.4755688 16711746
0.2022373 0.0631916 0.4777225 16711746
0.2028956 0.0681087 0.4766598 16711746
0.1452767 0.0914766 0.4671969 16711746
0.1893752 0.0896337 0.4606554 16711746
0.1388697 0.0930378 0.4760638 16711746
0.1870161 0.0955513 0.4730259 16711746
0.1555388 0.0938718 0.4862396 16711746
0.2066373 0.0615059 0.4836544 16711746
0.1143938 0.0550842 0.5035368 16711746
0.2059193 0.0641137 0.4822966 16711746
0.1900202 0.0585661 0.4828101 16711746
0.1310994 0.0571090 0.4870260 16711746
0.1600440 0.0906913 0.4681517 16711746
0.1574178 0.0868124 0.4665640 16711746
0.1553289 0.0887895 0.4602745 16711746
0.1969818 0.0590255 0.4765003 16711746
0.1350189 0.0906321 0.4826390 16711746
0.1504453 0.0883641 0.4603999 16711746
0.1972810 0.0868573 0.4666412 16711746
0.1975421 0.0661115 0.4655125 16711746
0.1679977 0.0751533 0.4587480 16711746
0.1989262 0.0648948 0.4755851 16711746
0.1637338 0.0677744 0.4786079 16711746
0.1919158 0.0763193 0.4750835 16711746
0.1970949 0.0666776 0.4879039 16711746
0.1987131 0.0647397 0.4920958 16711746
0.1663263 0.0668573 0.4750955 16711746
0.1911465 0.0892129 0.4681454 16711746
0.1653931 0.1111423 0.5405706 16711746
0.2120244 0.0880319 0.4777898 16711746
0.1529207 0.0985791 0.4908114 16711746
0.1647347 0.1056527 0.5118679 16711746
0.1648678 0.1043839 0.5095202 16711746
0.2009627 0.0658530 0.5154052 16711746
0.1001790 0.0844998 0.5127923 16711746
0.2033331 0.0867811 0.4725311 16711746
0.2102961 0.0957615 0.5053772 16711746
0.1761272 0.0799030 0.4820902 16711746
0.2121037 0.0608383 0.5087550 16711746
0.1849505 0.0748448 0.4902017 16711746
0.2016707 0.1026203 0.4952978 16711746
0.1915135 0.0603326 0.4931282 16711746
0.1820744 0.0621338 0.4757556 16711746
0.1940062 0.0713301 0.4962735 16711746
0.1888542 0.0770122 0.5034354 16711746
0.2049038 0.0778069 0.5134622 16711746
0.1848549 0.0733525 0.5177755 16711746
0.1483357 0.0879298 0.4618813 16711746
0.1578458 0.0899362 0.4643584 16711746
0.1629352 0.0906142 0.4674484 16711746
0.1600156 0.0921312 0.4750671 16711746
0.1565558 0.0905019 0.4651676 16711746
0.1652150 0.0882585 0.4652379 16711746
0.1585943 0.0883782 0.4710985 16711746
0.1615767 0.0837777 0.4708745 16711746
0.1620652 0.0754811 0.4639577 16711746
0.1882575 0.0950477 0.4744915 16711746
0.1823523 0.0935664 0.4701389 16711746
0.1601687 0.0900622 0.4669279 16711746
0.2049626 0.0601506 0.4877093 16711746
0.1723385 0.0649552 0.4858526 16711746
0.2049187 0.0867907 0.4797241 16711746
0.1605049 0.0911604 0.4715061 16711746
0.1602505 0.0934425 0.4836208 16711746
0.1810752 0.0949748 0.4723150 16711746
0.2009791 0.0577429 0.4765162 16711746
0.1606483 0.0901834 0.4637696 16711746
0.1779736 0.0949337 0.4716950 16711746
0.2019039 0.0634640 0.4773379 16711746
0.1604508 0.0901686 0.4648734 16711746
0.1707660 0.0663100 0.4816876 16711746
0.2212679 0.0608515 0.4927194 16711746
0.1920255 0.0985362 0.4828154 16711746
0.1521944 0.0748552 0.5185652 16711746
0.1143819 0.1063673 0.5516404 16711746
0.1053232 0.0931218 0.5080863 16711746
0.1703079 0.0937249 0.4806425 16711746
0.1786782 0.0655162 0.4768813 16711746
0.1914097 0.0639436 0.4937897 16711746
0.1738443 0.0920845 0.4701195 16711746
0.2362380 0.0585597 0.5079228 16711746
0.2171603 0.0565641 0.4968254 16711746
0.1829149 0.0987472 0.4877444 16711746
0.1976946 0.0550430 0.5061885 16711746
0.1852606 0.0698676 0.5136917 16711746
0.2060705 0.0614295 0.5026914 16711746
0.1793795 0.0632863 0.4834770 16711746
0.1814424 0.0957664 0.4741292 16711746
0.1712752 0.0901473 0.4738046 16711746
0.1684800 0.0902268 0.4765096 16711746
0.1655984 0.0837802 0.4632301 16711746
0.1708748 0.0829277 0.4560542 16711746
0.1576494 0.0921108 0.4831840 16711746
0.1665850 0.0733190 0.4628459 16711746
0.1880994 0.0625572 0.4872106 16711746
0.1875390 0.0953381 0.4758296 16711746
0.1784669 0.0639896 0.4710403 16711746
0.1810251 0.0681542 0.4837142 16711746
0.1602199 0.0683913 0.4985251 16711746
0.1604580 0.0902084 0.4648161 16711746
0.1754995 0.0768491 0.4687839 16711746
0.2069371 0.0636234 0.4820326 16711746
0.1560265 0.0922275 0.4828671 16711746
0.1717715 0.0786886 0.4658515 16711746
0.1708759 0.0872906 0.4682266 16711746
0.1543309 0.0906264 0.4801858 16711746
0.2060459 0.0615211 0.4852669 16711746
0.1912531 0.0602466 0.4921728 16711746
0.1675729 0.0618158 0.4955322 16711746
0.2024758 0.0843205 0.4738943 16711746
0.1733305 0.0711160 0.4806529 16711746
0.2104312 0.0658935 0.4837365 16711746
0.1544843 0.0900133 0.4621680 16711746
0.1886533 0.0653087 0.4888842 16711746
0.1954363 0.0601129 0.4750728 16711746
0.2257877 0.0629699 0.4969027 16711746
0.1747931 0.0770502 0.4812300 16711746
0.1701818 0.0878752 0.4697958 16711746
0.1738957 0.0761307 0.4655242 16711746
0.1779083 0.0983508 0.4836801 16711746
0.1876836 0.0795231 0.4887667 16711746
0.2001531 0.1092970 0.5420578 16711746
0.1755791 0.0944734 0.4729049 16711746
0.2054423 0.0598087 0.5064822 16711746
0.1877380 0.0706273 0.5132281 16711746
0.1981801 0.0680030 0.5017627 16711746
0.1753214 0.0829239 0.4854705 16711746
0.1789118 0.0750218 0.4731942 16711746
0.1613622 0.0904350 0.4670839 16711746
0.1507555 0.0876623 0.4746574 16711746
0.1744637 0.0916385 0.4694698 16711746
0.1529611 0.0891246 0.4841154 16711746
0.1614953 0.0879635 0.4678704 16711746
0.1522223 0.0911839 0.4812604 16711746
0.1895498 0.0668245 0.4741698 16711746
0.1882059 0.0676532 0.4721025 16711746
0.1508760 0.0782040 0.5022298 16711746
0.1752114 0.0937839 0.4819857 16711746
0.2121467 0.0661404 0.4854951 16711746
0.1677253 0.0865933 0.4656307 16711746
0.1684201 0.0897301 0.4652455 16711746
0.1669227 0.0796481 0.4493147 16711746
0.1736557 0.0872201 0.4755405 16711746
0.1727539 0.0821193 0.4741335 16711746
0.2090463 0.0600282 0.4842987 16711746
0.1929792 0.0985373 0.4757347 16711746
0.1548586 0.0693059 0.5200858 16711746
0.1775099 0.0895686 0.4765954 16711746
0.1649994 0.0868463 0.4654822 16711746
0.1764921 0.0768875 0.4620971 16711746
0.1550978 0.0865483 0.4623075 16711746
0.1521585 0.0890201 0.4694498 16711746
0.1641557 0.0859144 0.4616439 16711746
0.1684087 0.0872889 0.4641158 16711746
0.1700807 0.0774642 0.4524277 16711746
0.1832966 0.0643262 0.4912957 16711746
0.2008692 0.0946988 0.4815849 16711746
0.1523930 0.0881542 0.4698977 16711746
0.1757530 0.0734141 0.4947612 16711746
0.1546216 0.0896726 0.4616648 16711746
0.2045625 0.0618117 0.4883691 16711746
0.2081867 0.0637917 0.4758192 16711746
0.1756791 0.1118472 0.5873544 16711746
0.1755444 0.1109635 0.5837007 16711746
0.1071824 0.0455321 0.7925063 16711746
0.1400102 0.0915703 0.4903383 16711746
0.1335340 0.0940830 0.5110445 16711746
0.1516870 0.0907098 0.4646420 16711746
0.1965068 0.0679394 0.5127876 16711746
0.1298417 0.0931547 0.4935651 16711746
0.1644688 0.0864130 0.4642503 16711746
0.1598023 0.0916966 0.4806424 16711746
0.1510833 0.0691688 0.4863667 16711746
0.1726847 0.0935514 0.4790381 16711746
0.1762058 0.0938900 0.4739720 16711746
0.1558796 0.0914383 0.4831277 16711746
0.1842697 0.0941813 0.4740879 16711746
0.1834867 0.0950683 0.4813595 16711746
0.1773368 0.0902972 0.4891369 16711746
0.1738993 0.0937336 0.4770859 16711746
0.2051373 0.0999544 0.4795352 16711746
0.1925310 0.1004772 0.4946075 16711746
0.1886041 0.0984684 0.4945244 16711746
0.1600063 0.0664670 0.5903524 16711746
0.1929593 0.0806575 0.4939752 16711746
0.1931002 0.1061094 0.5558004 16711746
0.1568185 0.0901786 0.4643321 16711746
0.1533612 0.0909677 0.4812569 16711746
0.1743378 0.0890663 0.4824890 16711746
0.1543213 0.0686626 0.4948982 16711746
0.1634360 0.0563970 0.5019653 16711746
0.1663155 0.0917449 0.4755540 16711746
0.1511966 0.0904792 0.4754713 16711746
0.1833321 0.0929466 0.4672067 16711746
0.1611170 0.0683337 0.4919899 16711746
0.1352381 0.0928074 0.5142392 16711746
0.1858774 0.0876652 0.4608043 16711746
0.1977370 0.0626591 0.4954529 16711746
0.1853233 0.0957120 0.4787683 16711746
0.1789024 0.0951302 0.4750649 16711746
0.1601935 0.0891749 0.4620435 16711746
0.1517253 0.0884561 0.4712358 16711746
0.1780401 0.0877844 0.4626241 16711746
0.1737624 0.0878195 0.4594283 16711746
0.1796430 0.0884951 0.4603063 16711746
0.1810226 0.0853879 0.4599923 16711746
0.1792388 0.0890892 0.4609375 16711746
0.1807361 0.0875891 0.4554340 16711746
0.1544941 0.0876999 0.4658463 16711746
0.1776838 0.0874824 0.4622988 16711746
0.1725736 0.0854790 0.4585918 16711746
0.1932928 0.0830286 0.4663634 16711746
0.1573240 0.0681307 0.4758064 16711746
0.1856292 0.0840055 0.4603633 16711746
0.1553350 0.0840342 0.4598982 16711746
0.1559942 0.0883535 0.4595460 16711746
0.1661622 0.0815368 0.4510612 16711746
0.1768773 0.0844387 0.4541713 16711746
0.1531249 0.0876082 0.4685024 16711746
0.1670586 0.0916048 0.4710479 16711746
0.2056678 0.0672158 0.4780424 16711746
0.2025412 0.0662310 0.4749787 16711746
0.1972205 0.0680138 0.4772801 16711746
0.1985546 0.0652041 0.4774373 16711746
0.1600782 0.0896911 0.4658164 16711746
0.1847895 0.0881883 0.4589320 16711746
0.1766006 0.0794801 0.4586464 16711746
0.1562655 0.0891135 0.4692967 16711746
0.1863304 0.0874192 0.4656513 16711746
0.1831550 0.0894425 0.4601770 16711746
0.1886446 0.0696888 0.4713664 16711746
0.1781109 0.0641418 0.5022233 16711746
0.1569437 0.0901611 0.4655949 16711746
0.1496013 0.0893766 0.4671154 16711746
0.1951499 0.0691931 0.4867824 16711746
0.2138949 0.0634859 0.4867091 16711746
0.1770935 0.0911404 0.4772449 16711746
0.1701737 0.0773540 0.4576160 16711746
0.1494833 0.0573277 0.5301117 16711746
0.2097859 0.0679587 0.4864036 16711746
0.1501579 0.0888297 0.4674729 16711746
0.1807911 0.0649609 0.4949410 16711746
0.1714920 0.0901702 0.4743530 16711746
0.2077608 0.0568352 0.4859887 16711746
0.1797413 0.0594592 0.4987646 16711746
0.2043942 0.0655187 0.4762590 16711746
0.1911130 0.0633526 0.4887449 16711746
0.1842718 0.0699061 0.5116944 16711746
0.1960994 0.0589710 0.5098493 16711746
0.2248697 0.0612156 0.4968389 16711746
0.1648596 0.0820333 0.4582208 16711746
0.1417346 0.0916410 0.4804658 16711746
0.1753472 0.0624075 0.4825340 16711746
0.1491090 0.0908255 0.4745033 16711746
0.1919627 0.0979110 0.4819872 16711746
0.1747024 0.0711202 0.4751976 16711746
0.2012866 0.0630869 0.5021210 16711746
0.1534939 0.0894236 0.4620701 16711746
0.1410472 0.0907446 0.4787733 16711746
0.1602277 0.0891970 0.4636473 16711746
0.1784758 0.0891542 0.4607157 16711746
0.1764866 0.0885102 0.4597273 16711746
0.1849902 0.0896278 0.4642426 16711746
0.1528556 0.0886499 0.4683545 16711746
0.1482145 0.0891175 0.4671909 16711746
0.1495381 0.0870649 0.4635423 16711746
0.2079536 0.0628430 0.4862256 16711746
0.1825921 0.0904556 0.4603634 16711746
0.2091395 0.0643514 0.4878528 16711746
0.1799620 0.0899711 0.4626540 16711746
0.1655317 0.0838254 0.4560651 16711746
0.1588661 0.0846808 0.4596125 16711746
0.1700066 0.0701129 0.4733616 16711746
0.1920290 0.0914751 0.4644677 16711746
0.1743695 0.0871276 0.4602504 16711746
0.2139490 0.0633850 0.4792243 16711746
0.1459306 0.0726203 0.4800098 16711746
0.1508431 0.0703792 0.4789188 16711746
0.1747916 0.0877463 0.4600931 16711746
0.1420027 0.0890704 0.4784409 16711746
0.1856113 0.0894383 0.4661100 16711746
0.1474200 0.0683795 0.4858135 16711746
0.1551965 0.0731600 0.4692298 16711746
0.1577704 0.0701445 0.4768722 16711746
0.1535311 0.0886486 0.4714613 16711746
0.1370294 0.0611439 0.4983810 16711746
0.1944866 0.0995542 0.4941763 16711746
0.2082338 0.0870852 0.4815743 16711746
0.2117210 0.0596838 0.4912867 16711746
0.1497212 0.0609601 0.5422826 16711746
0.2049386 0.0817029 0.5149387 16711746
0.1592121 0.0658961 0.5832105 16711746
0.2254911 0.0742601 0.5557193 16711746
0.1703865 0.0617218 0.5651883 16711746
0.1308024 0.0934420 0.5078307 16711746
0.1831479 0.0756462 0.4897570 16711746
0.1660327 0.0913940 0.4697523 16711746
0.1992838 0.0838372 0.4710579 16711746
0.2047691 0.0675727 0.4811088 16711746
0.2161309 0.0666321 0.4922284 16711746
0.1779868 0.0618232 0.4928193 16711746
0.1659006 0.0819718 0.4576274 16711746
0.1394643 0.0609587 0.4979842 16711746
0.1877394 0.0928724 0.4753413 16711746
0.1441884 0.0889319 0.4706942 16711746
0.1827568 0.0729464 0.4788920 16711746
0.1750335 0.0624946 0.4823152 16711746
0.1555198 0.0897010 0.4707445 16711746
0.1656669 0.0797319 0.4577417 16711746
0.1771091 0.0805587 0.4721467 16711746
0.1588136 0.0891938 0.4645452 16711746
0.1873609 0.0635483 0.4886854 16711746
0.1880179 0.0906810 0.4685428 16711746
0.1805511 0.0700229 0.4816770 16711746
0.1977257 0.0650930 0.4822723 16711746
0.2053689 0.0676526 0.4848152 16711746
0.1493924 0.0893456 0.4691085 16711746
0.1587743 0.0882655 0.4663309 16711746
0.1829997 0.0883082 0.4683220 16711746
0.1513748 0.0896366 0.4717938 16711746
0.1504292 0.0903969 0.4829642 16711746
0.1829153 0.0906293 0.4606021 16711746
0.1726827 0.0915567 0.4715104 16711746
0.1502654 0.0890239 0.4683864 16711746
0.1802775 0.0824312 0.4593395 16711746
0.1786173 0.0863709 0.4580176 16711746
0.1509219 0.0886862 0.4674056 16711746
0.1516201 0.0885938 0.4657729 16711746
0.1751831 0.0845361 0.4545742 16711746
0.1767562 0.0829826 0.4548444 16711746
0.1829776 0.0850469 0.4583828 16711746
0.1825854 0.0748492 0.4643987 16711746
0.1775084 0.0837928 0.4562576 16711746
0.1826804 0.0735863 0.4638530 16711746
0.1742761 0.0728453 0.4643952 16711746
0.1774134 0.0886223 0.4628299 16711746
0.1522527 0.0880466 0.4659498 16711746
0.2085987 0.0634040 0.4894161 16711746
0.1706932 0.0918438 0.4741476 16711746
0.1707177 0.0842961 0.4657535 16711746
0.1717700 0.0883834 0.4675204 16711746
0.1774552 0.0645827 0.4834096 16711746
0.2021971 0.0634015 0.4873521 16711746
0.1732956 0.0869393 0.4608811 16711746
0.1942924 0.0789474 0.4763564 16711746
0.1852131 0.0698462 0.5034978 16711746
0.2089681 0.0642467 0.4875934 16711746
0.1927021 0.0582480 0.4974256 16711746
0.1776373 0.0741547 0.4637169 16711746
0.1848647 0.0740139 0.4915126 16711746
0.1870579 0.0676986 0.4873824 16711746
0.1656883 0.0644018 0.5064204 16711746
0.1393888 0.0918174 0.4916093 16711746
0.1860626 0.0937728 0.4749641 16711746
0.1385364 0.0616994 0.4961028 16711746
0.1787482 0.0803792 0.4916641 16711746
0.1675758 0.0867187 0.4661409 16711746
0.2014818 0.0655892 0.4771491 16711746
0.1744556 0.0667202 0.4832165 16711746
0.1446750 0.0902560 0.4764955 16711746
0.1657766 0.0910919 0.4718131 16711746
0.1559605 0.0596640 0.4890247 16711746
0.1563769 0.0874754 0.4586000 16711746
0.1422539 0.0889866 0.4786026 16711746
0.1562993 0.0875920 0.4595728 16711746
0.1560597 0.0884050 0.4731625 16711746
0.1652720 0.0899898 0.4701401 16711746
0.1524742 0.0922044 0.4816242 16711746
0.1410724 0.0892123 0.4796174 16711746
0.1704864 0.0721899 0.4745215 16711746
0.1674156 0.0874933 0.4642787 16711746
0.1517332 0.0903803 0.4765514 16711746
0.1446593 0.0895172 0.4725872 16711746
0.1651152 0.0910250 0.4724244 16711746
0.1588950 0.0890800 0.4642095 16711746
0.1879077 0.0642545 0.4804687 16711746
0.1789280 0.0886734 0.4592218 16711746
0.1716503 0.0881228 0.4711874 16711746
0.1756315 0.0672692 0.4768871 16711746
0.1711899 0.0908761 0.4711665 16711746
0.1680509 0.0877058 0.4647733 16711746
0.1528161 0.0870287 0.4625438 16711746
0.1767081 0.0818404 0.4557943 16711746
0.1528673 0.0837336 0.4774399 16711746
0.1833567 0.0781520 0.4792721 16711746
0.1941143 0.0602307 0.4875982 16711746
0.1829362 0.0755492 0.4802367 16711746
0.2026452 0.0639613 0.4819900 16711746
0.1819166 0.0917699 0.4660958 16711746
0.1938355 0.0606882 0.4957905 16711746
0.1736108 0.0911367 0.4810103 16711746
0.1771395 0.0808202 0.4712384 16711746
0.1729092 0.0917677 0.4787075 16711746
0.1352415 0.0585486 0.4871464 16711746
0.1103690 0.0382467 0.6640492 16711746
0.1869377 0.0659312 0.4863371 16711746
0.1945856 0.0866173 0.4955085 16711746
0.1529475 0.0682046 0.4753722 16711746
0.1814423 0.0750257 0.4769454 16711746
0.1792912 0.0882493 0.4599576 16711746
0.1101820 0.0737911 0.4994755 16711746
0.1894095 0.0894891 0.4780189 16711746
0.1659439 0.0896106 0.4683566 16711746
0.1507420 0.0663188 0.4753787 16711746
0.1649817 0.0892046 0.4676161 16711746
0.1673464 0.0862713 0.4657937 16711746
0.1678877 0.0753625 0.4608860 16711746
0.1594725 0.0886514 0.4628110 16711746
0.1553618 0.0899085 0.4712451 16711746
0.1572990 0.0643267 0.4814901 16711746
0.1946383 0.0685088 0.4711714 16711746
0.1673104 0.0864434 0.4616239 16711746
0.1536459 0.0869923 0.4662986 16711746
0.1760387 0.0817581 0.4552567 16711746
0.1475853 0.0669159 0.4954792 16711746
0.1804622 0.0857082 0.4583293 16711746
0.1569265 0.0880077 0.4586743 16711746
0.1573284 0.0874440 0.4575251 16711746
0.1719213 0.0919163 0.4750042 16711746
0.1393630 0.0900105 0.4820120 16711746
0.1672527 0.0847711 0.4653648 16711746
0.1650102 0.0905195 0.4743062 16711746
0.1656323 0.0892091 0.4649079 16711746
0.1598546 0.0888521 0.4634952 16711746
0.1752319 0.0887746 0.4629328 16711746
0.1829874 0.0877846 0.4705462 16711746
0.1783994 0.0771249 0.4741968 16711746
0.1801299 0.0746025 0.4770550 16711746
0.1724197 0.0771686 0.4730603 16711746
0.1693548 0.0659279 0.4877191 16711746
0.1826211 0.0823281 0.4681489 16711746
0.1810012 0.0854709 0.4669386 16711746
0.1203868 0.0567348 0.5039665 16711746
0.1883138 0.0970502 0.4915980 16711746
0.1794820 0.0937125 0.4754360 16711746
0.0030397 0.0703682 0.5866629 16711746
0.1868625 0.0850846 0.4679530 16711746
0.1810284 0.0857791 0.4608580 16711746
0.1791901 0.0678213 0.5751671 16711746
0.1783540 0.0776982 0.4746605 16711746
0.1911001 0.0960171 0.4841693 16711746
0.1184655 0.0549886 0.5113915 16711746
0.2150760 0.0868831 0.5066557 16711746
0.2159803 0.0870500 0.5078658 16711746
0.1774322 0.0881729 0.4599297 16711746
0.1664722 0.0878140 0.4621645 16711746
0.1825341 0.0890223 0.4616764 16711746
0.1774746 0.0883181 0.4612732 16711746
0.1500789 0.0884757 0.4708345 16711746
0.1826826 0.0891018 0.4618190 16711746
0.1650167 0.0882785 0.4642397 16711746
0.1564767 0.0866145 0.4633033 16711746
0.1713890 0.0791083 0.4567819 16711746
0.1540531 0.0693835 0.4736441 16711746
0.1648500 0.0885734 0.4648803 16711746
0.1459800 0.0901894 0.4833741 16711746
0.1717819 0.0894613 0.4668714 16711746
0.1745168 0.0895758 0.4640850 16711746
0.1794894 0.0886967 0.4624054 16711746
0.1777134 0.0888300 0.4602576 16711746
0.1766133 0.0887398 0.4607818 16711746
0.1647913 0.0888235 0.4654163 16711746
0.1667784 0.0877981 0.4656969 16711746
0.1946258 0.0683771 0.4706022 16711746
0.1389142 0.0867356 0.4858657 16711746
0.1693726 0.0670707 0.4843760 16711746
0.1669786 0.0881944 0.4634700 16711746
0.1481064 0.0687940 0.4750462 16711746
0.1313324 0.0878590 0.4847014 16711746
0.1353863 0.0670580 0.4951979 16711746
0.1761412 0.0770641 0.4613287 16711746
0.1660861 0.0784541 0.4543679 16711746
0.1682315 0.0859257 0.4618116 16711746
0.1655995 0.0865730 0.4639182 16711746
0.1679958 0.0844932 0.4581162 16711746
0.1621805 0.0860707 0.4643925 16711746
0.1656478 0.0822219 0.4551737 16711746
0.1756779 0.0883058 0.4615410 16711746
0.1940651 0.0691586 0.4770404 16711746
0.1192775 0.0733888 0.5073373 16711746
0.1787307 0.0885982 0.4640146 16711746
0.1937327 0.0637873 0.4847433 16711746
0.1760452 0.0706395 0.4715287 16711746
0.1749282 0.0923693 0.4701275 16711746
0.1527089 0.0873831 0.4675538 16711746
0.1405777 0.0696172 0.5859647 16711746
0.1655591 0.1007140 0.5546234 16711746
0.2272184 0.0623479 0.4977267 16711746
0.2042545 0.0987013 0.5092346 16711746
0.1707668 0.0823757 0.4550987 16711746
0.1715186 0.0797128 0.4641641 16711746
0.2002589 0.0669440 0.4912213 16711746
0.1796352 0.0890851 0.4667641 16711746
0.1673056 0.0862109 0.4619899 16711746
0.2040283 0.0664525 0.4794974 16711746
0.1872865 0.0908175 0.4676230 16711746
0.1846104 0.0779029 0.4820569 16711746
0.1881361 0.0839686 0.4778358 16711746
0.1761422 0.0863153 0.4646642 16711746
0.1836296 0.0940190 0.4825232 16711746
0.1670260 0.0800659 0.4527377 16711746
0.1680206 0.0849508 0.4610475 16711746
0.1639562 0.0892782 0.4697789 16711746
0.1680229 0.0849807 0.4611496 16711746
0.1503880 0.0649703 0.4761099 16711746
0.1632868 0.0891841 0.4701858 16711746
0.1563627 0.0706575 0.4717945 16711746
0.1641818 0.0895773 0.4688927 16711746
0.1645852 0.0873932 0.4646608 16711746
0.1627109 0.0875681 0.4682503 16711746
0.1534788 0.0686796 0.4772619 16711746
0.1884742 0.0909485 0.4690449 16711746
0.1635744 0.0895244 0.4712101 16711746
0.1775870 0.0885853 0.4627307 16711746
0.1703236 0.0806385 0.4543419 16711746
0.1770347 0.0867065 0.4608907 16711746
0.1759723 0.0863442 0.4611301 16711746
0.1770977 0.0848650 0.4560186 16711746
0.1405284 0.0888282 0.4768783 16711746
0.1540875 0.0884933 0.4679126 16711746
0.1710851 0.0896782 0.4694847 16711746
0.1531166 0.0701595 0.4728353 16711746
0.1702204 0.0880784 0.4771737 16711746
0.1589780 0.0904006 0.4775820 16711746
0.1805747 0.0934090 0.4820140 16711746
0.1515073 0.0601769 0.5189366 16711746
0.1874211 0.0890712 0.4695260 16711746
0.1764749 0.0894430 0.4669899 16711746
0.1691431 0.0721386 0.4819555 16711746
0.1831995 0.0952557 0.4896072 16711746
0.1823685 0.0799938 0.4790876 16711746
0.1800022 0.0957145 0.5079592 16711746
0.1672733 0.0593394 0.4973598 16711746
0.1660776 0.0652704 0.5016977 16711746
0.1569122 0.0572426 0.5526490 16711746
0.1665892 0.0594139 0.5193955 16711746
0.1732143 0.0781928 0.4703773 16711746
0.1725926 0.0786028 0.4693384 16711746
0.1885628 0.0645067 0.4791240 16711746
0.1651361 0.0891702 0.4684916 16711746
0.1871390 0.0854918 0.4683336 16711746
0.1227208 0.0715810 0.5075791 16711746
0.1648612 0.0899459 0.4738357 16711746
0.1648924 0.0874527 0.4639567 16711746
0.1632599 0.0893633 0.4707784 16711746
0.1789436 0.0871453 0.4628128 16711746
0.1892983 0.0684768 0.4747391 16711746
0.1677639 0.0829093 0.4590980 16711746
0.1473467 0.0783779 0.4699903 16711746
0.1776807 0.0886138 0.4662183 16711746
0.1641134 0.0890014 0.4691690 16711746
0.1722623 0.0801120 0.4591644 16711746
0.1562246 0.0840979 0.4659624 16711746
0.1621298 0.0865843 0.4613020 16711746
0.1741804 0.0782532 0.4582097 16711746
0.1730802 0.0771961 0.4629827 16711746
0.1787973 0.0856951 0.4573524 16711746
0.1639898 0.0897573 0.4691974 16711746
0.1469302 0.0719834 0.4785931 16711746
0.1786159 0.0759586 0.4624381 16711746
0.1680052 0.0863012 0.4615380 16711746
0.1824515 0.0761994 0.4652724 16711746
0.1874438 0.0958808 0.4881037 16711746
0.1814269 0.0749955 0.5142069 16711746
0.1531841 0.0621503 0.5107458 16711746
0.1504393 0.0582507 0.5265641 16711746
0.1966934 0.0800777 0.4945353 16711746
0.1924081 0.0895351 0.4758317 16711746
0.1754334 0.0894260 0.4698239 16711746
0.1881008 0.0657795 0.4882978 16711746
0.1789443 0.0867084 0.4630516 16711746
0.2086914 0.0632350 0.4886761 16711746
0.1800926 0.0895003 0.4633956 16711746
0.1646828 0.0928361 0.4964429 16711746
0.1683075 0.0645249 0.5069503 16711746
0.1786508 0.0867051 0.4689021 16711746
0.1698556 0.0885161 0.4661109 16711746
0.1678926 0.0848692 0.4580368 16711746
0.1575526 0.0853170 0.4618727 16711746
0.1781014 0.0878873 0.4590469 16711746
0.1697263 0.0883997 0.4658995 16711746
0.1399135 0.0749932 0.4855041 16711746
0.1649630 0.0700180 0.4796508 16711746
0.1705862 0.0873682 0.4656461 16711746
0.1634155 0.0891466 0.4718683 16711746
0.1652207 0.0881486 0.4686978 16711746
0.1637974 0.0868457 0.4620169 16711746
0.1632735 0.0871025 0.4629998 16711746
0.1765394 0.0882141 0.4629754 16711746
0.1747229 0.0881681 0.4617982 16711746
0.1734377 0.0665196 0.4822407 16711746
0.1841700 0.0899933 0.4644631 16711746
0.1814144 0.0861907 0.4609166 16711746
0.1676264 0.0841093 0.4586215 16711746
0.1674251 0.0842023 0.4587011 16711746
0.1674284 0.0841813 0.4586626 16711746
0.1704151 0.0912364 0.4776940 16711746
0.1877958 0.0676680 0.4703910 16711746
0.1746733 0.0891652 0.4660360 16711746
0.1600010 0.0887978 0.4694306 16711746
0.1438710 0.0883164 0.4738472 16711746
0.1608247 0.0705061 0.5383127 16711746
0.1727023 0.0806036 0.5758837 16711746
0.1804902 0.0903216 0.4652685 16711746
0.1848396 0.0930295 0.4841183 16711746
0.1728133 0.0804862 0.5755383 16711746
0.1716601 0.0786435 0.5336158 16711746
0.1649064 0.0832049 0.5574697 16711746
0.1677410 0.0836653 0.4572275 16711746
0.0240875 0.0697090 0.5658463 16711746
0.1767512 0.0657591 0.4934686 16711746
0.1719234 0.0818339 0.4578678 16711746
0.1725038 0.0649937 0.4978114 16711746
0.2116374 0.1026929 0.4926253 16711746
0.1772138 0.0893067 0.4690070 16711746
0.1742913 0.0884012 0.4620823 16711746
0.1785148 0.0727794 0.4731115 16711746
0.1777611 0.0720945 0.4729259 16711746
0.1718385 0.0782566 0.4691429 16711746
0.1785274 0.0739568 0.4760770 16711746
0.1814393 0.0699809 0.4766955 16711746
0.1659814 0.0725266 0.4826446 16711746
0.1779951 0.0719613 0.4733271 16711746
0.1735555 0.0780980 0.4713475 16711746
0.1628996 0.0872946 0.4658429 16711746
0.1666601 0.0866799 0.4617224 16711746
0.1666415 0.0868124 0.4619900 16711746
0.1639918 0.0862678 0.4606228 16711746
0.1665801 0.0869914 0.4623590 16711746
0.1647844 0.0878548 0.4654991 16711746
0.1659092 0.0870309 0.4633430 16711746
0.1619867 0.0865199 0.4648316 16711746
0.1639402 0.0863089 0.4606784 16711746
0.1707410 0.0790773 0.4632997 16711746
0.1714062 0.0772727 0.4650287 16711746
0.1694469 0.0836869 0.4567814 16711746
0.1687064 0.0762976 0.4618045 16711746
0.1609658 0.0838881 0.4571007 16711746
0.1702371 0.0810225 0.4518716 16711746
0.1701299 0.0840836 0.4637922 16711746
0.1675090 0.0843663 0.4593201 16711746
0.1707533 0.0773847 0.4665005 16711746
0.1785529 0.0774271 0.4606955 16711746
0.1726516 0.0825641 0.4621347 16711746
0.1699686 0.0780818 0.4737896 16711746
0.1788133 0.0793290 0.4787979 16711746
0.1737799 0.0941124 0.4893464 16711746
0.0563466 0.0733965 0.5442297 16711746
0.0196054 0.0711676 0.5752440 16711746
0.1829357 0.0926084 0.5029213 16711746
0.1831246 0.0912171 0.5478349 16711746
0.1658019 0.0675798 0.5022386 16711746
0.1867072 0.0943188 0.4880276 16711746
0.1845235 0.0924708 0.5562266 16711746
0.1660523 0.0679544 0.5024016 16711746
0.1825399 0.0938803 0.4849568 16711746
0.1900792 0.0681692 0.4752264 16711746
0.1821677 0.0707056 0.4761139 16711746
0.1854559 0.0675796 0.4742287 16711746
0.1674989 0.0723433 0.4811563 16711746
0.1742738 0.0687605 0.4759931 16711746
0.1740592 0.0884926 0.4699714 16711746
0.1707654 0.0822196 0.4555986 16711746
0.1686090 0.0864301 0.4633978 16711746
0.1929477 0.0791358 0.4716637 16711746
0.1790265 0.0821787 0.4576581 16711746
0.1768083 0.0807889 0.4554718 16711746
0.1771406 0.0854449 0.4557905 16711746
0.1643300 0.0870410 0.4647174 16711746
0.1641700 0.0865502 0.4709558 16711746
0.1692758 0.0846434 0.4602906 16711746
0.1797549 0.0819004 0.4587618 16711746
0.1625143 0.0856185 0.4658074 16711746
0.1701511 0.0811489 0.4538377 16711746
0.1843116 0.0880822 0.4610806 16711746
0.1662646 0.0733576 0.4674503 16711746
0.1702823 0.0781049 0.4627985 16711746
0.1723005 0.0748596 0.4699944 16711746
0.1708578 0.0788825 0.4623815 16711746
0.1641299 0.0864949 0.4605037 16711746
0.1756796 0.0775954 0.4661096 16711746
0.1778366 0.0721099 0.4731012 16711746
0.1800967 0.0691101 0.4764389 16711746
0.1687717 0.0762406 0.4747974 16711746
0.1444242 0.0702494 0.4741423 16711746
0.1751888 0.0871035 0.4603228 16711746
0.1771881 0.0717456 0.4787911 16711746
0.1720000 0.0852916 0.4677476 16711746
0.1812977 0.0885477 0.4628738 16711746
0.1632859 0.0856435 0.4592954 16711746
0.1597069 0.0705235 0.4718640 16711746
0.1678535 0.0858611 0.4627998 16711746
0.1761923 0.0727965 0.4699810 16711746
0.1723080 0.0757547 0.4714479 16711746
0.1665428 0.0688190 0.4844022 16711746
0.1693205 0.0881650 0.4667114 16711746
0.1730258 0.0892874 0.4778078 16711746
0.1878458 0.0906428 0.4692886 16711746
0.1722262 0.0877110 0.4701444 16711746
0.1797503 0.0873627 0.4820217 16711746
0.0363231 0.0608014 0.6068792 16711746
0.1794908 0.1033467 0.5508925 16711746
0.2221864 0.0486919 0.5762111 16711746
0.1761713 0.0899592 0.4700208 16711746
0.1607114 0.0877585 0.4637322 16711746
0.1828017 0.0933292 0.4804727 16711746
0.1658794 0.0683997 0.4979284 16711746
0.1662357 0.0931304 0.4996872 16711746
0.1755744 0.0900897 0.4719564 16711746
0.1726665 0.0825419 0.4619919 16711746
0.1767916 0.0920310 0.4795827 16711746
0.1716890 0.0874672 0.4627922 16711746
0.1708127 0.0859910 0.4615630 16711746
0.1777130 0.0733308 0.4714857 16711746
0.1701443 0.0842188 0.4644267 16711746
0.1732542 0.0855907 0.4594736 16711746
0.1681380 0.0835331 0.4561011 16711746
0.1797746 0.0869429 0.4604461 16711746
0.1840974 0.0870320 0.4634638 16711746
0.1604298 0.0861601 0.4656074 16711746
0.1804009 0.0879941 0.4619331 16711746
0.1827484 0.0877748 0.4620639 16711746
0.1819955 0.0879300 0.4592421 16711746
0.1628747 0.0851020 0.4677177 16711746
0.1837802 0.0770234 0.4641708 16711746
0.1776614 0.0870611 0.4582121 16711746
0.1923297 0.0695239 0.4686864 16711746
0.1545000 0.0864931 0.4699748 16711746
0.1603040 0.0844602 0.4632468 16711746
0.1571610 0.0863343 0.4684634 16711746
0.1657980 0.0852705 0.4646612 16711746
0.1699595 0.0853011 0.4647532 16711746
0.1648538 0.0866319 0.4610130 16711746
0.1811923 0.0884818 0.4627270 16711746
0.1757985 0.0658472 0.4858835 16711746
0.1699280 0.0860892 0.4638769 16711746
0.1733083 0.0680931 0.4825372 16711746
0.1698346 0.0852110 0.4625549 16711746
0.1784869 0.0838763 0.4569503 16711746
0.1770358 0.0805344 0.4620620 16711746
0.1657549 0.0762415 0.5302073 16711746
0.1831300 0.0908145 0.4777610 16711746
0.1755572 0.0938538 0.4889944 16711746
0.1652257 0.0947861 0.4897964 16711746
0.1723606 0.0761149 0.4946127 16711746
0.1795552 0.0850503 0.4833134 16711746
0.1778132 0.0674238 0.4749392 16711746
0.1809334 0.0874682 0.4655688 16711746
0.1756512 0.0895486 0.4699713 16711746
0.1814365 0.0901062 0.4703975 16711746
0.1832504 0.0715835 0.4843723 16711746
0.1790129 0.0897637 0.4686675 16711746
0.1563967 0.0873286 0.4682311 16711746
0.2007444 0.0704717 0.4763779 16711746
0.1793756 0.0694429 0.4858825 16711746
0.1864914 0.0880312 0.4661191 16711746
0.1887548 0.0903450 0.4703341 16711746
0.1740198 0.0881902 0.4665014 16711746
0.1662644 0.0838172 0.5357199 16711746
0.1902824 0.0903219 0.4727423 16711746
0.1635023 0.0868558 0.4623323 16711746
0.1788971 0.0883593 0.5226418 16711746
0.1533564 0.0889095 0.4725408 16711746
0.1823321 0.0937793 0.4902283 16711746
0.1441213 0.0733192 0.5193291 16711746
0.1645329 0.0752201 0.4710927 16711746
0.1605275 0.0736077 0.4696123 16711746
0.1584106 0.0863525 0.4652540 16711746
0.1697151 0.0841000 0.4607815 16711746
0.1640896 0.0862118 0.4610977 16711746
0.1775071 0.0865266 0.4617237 16711746
0.1846020 0.0875480 0.4639738 16711746
0.1715396 0.0706794 0.4774508 16711746
0.1729924 0.0722955 0.4736091 16711746
0.1571298 0.0869206 0.4753955 16711746
0.1582679 0.0847665 0.4688134 16711746
0.1719828 0.0796239 0.4650648 16711746
0.1695667 0.0768064 0.4623344 16711746
0.1759825 0.0774257 0.4617852 16711746
0.1752623 0.0743413 0.4665941 16711746
0.1644966 0.0871166 0.4648680 16711746
0.1730555 0.0847955 0.4642237 16711746
0.1592048 0.0857820 0.4633500 16711746
0.1755651 0.0872717 0.4654503 16711746
0.1774438 0.0899664 0.4714849 16711746
0.1574419 0.0707122 0.4810417 16711746
0.1880752 0.0668107 0.4829685 16711746
0.1939027 0.0913195 0.4784362 16711746
0.1853723 0.0897537 0.4792802 16711746
0.1785378 0.0881528 0.5208077 16711746
0.2434061 0.0849490 0.5482090 16711746
0.1497393 0.0554605 0.5125453 16711746
0.1675803 0.0839342 0.4576017 16711746
0.1826447 0.0693942 0.4698263 16711746
0.1708561 0.0866813 0.4652092 16711746
0.1559207 0.0716094 0.4740336 16711746
0.1641147 0.0861484 0.4603859 16711746
0.1710215 0.0873139 0.4668292 16711746
0.1637384 0.0865218 0.4651594 16711746
0.1615456 0.0854766 0.4602679 16711746
0.1738199 0.0757143 0.4687506 16711746
0.1787207 0.0715906 0.4688856 16711746
0.1759723 0.0764447 0.4654810 16711746
0.1803842 0.0811015 0.4613944 16711746
0.1745769 0.0748647 0.4651003 16711746
