# .PCD v.7 - Point Cloud Data file format
VERSION .7
FIELDS x y z rgb
SIZE 4 4 4 4
TYPE F F F F
COUNT 1 1 1 1
WIDTH 120
HEIGHT 1
VIEWPOINT 0 0 0 1 0 0 0
POINTS 120
DATA ascii

0.0929876 -0.5843844 1.4975219 16711746
0.0691367 -0.3273330 1.0501299 16711746
-0.4863559 -0.6177750 1.4660896 16711746
-0.2922942 -0.3852501 0.8736377 16711746
-0.1865663 -0.5754061 1.4883660 16711746
-0.0277102 -0.4914548 1.3689780 16711746
0.0291730 -0.4895602 1.3306502 16711746
0.0148676 -0.5905654 1.5611103 16711746
0.4160842 -0.2607391 0.5092511 16711746
0.4541214 -0.2923988 0.5803972 16711746
0.4549631 -0.2928464 0.5519962 16711746
0.4709975 -0.3066702 0.5948427 16711746
0.5306138 -0.5708778 1.2425808 16711746
0.2049102 -0.2732360 0.9167559 16711746
0.5061877 -0.3797620 0.7571766 16711746
0.2482085 -0.3542084 1.0284836 16711746
-0.0395922 -0.4336399 0.9463345 16711746
0.2840108 -0.2748238 0.5596163 16711746
-0.1619625 -0.3770104 1.2057748 16711746
0.6860471 -0.2824942 0.9285370 16711746
0.0657971 -0.4103294 1.1861129 16711746
-0.1063798 -0.4735097 1.7581755 16711746
0.7605060 -0.3346617 0.9912624 16711746
0.7166899 -0.3533433 0.9977449 16711746
-0.2803948 -0.5418512 1.4635917 16711746
-0.3076888 -0.5753232 1.5115095 16711746
0.5989814 -0.2324265 0.7141849 16711746
0.6465644 -0.2612421 0.7513412 16711746
0.6857541 -0.2836959 0.8570268 16711746
-0.2551667 -0.3028030 1.0314878 16711746
-0.2965203 -0.3243980 1.1003512 16711746
0.3777910 -0.2876396 0.6800790 16711746
0.1815869 -0.4122178 0.8454334 16711746
0.6071976 -0.2714227 0.9886924 16711746
0.4078775 -0.2631243 1.2356303 16711746
0.4025615 -0.3916385 1.0409404 16711746
0.3624171 -0.3501546 0.8809159 16711746
0.3753347 -0.4119418 1.0298452 16711746
0.3465497 -0.3881712 0.9239830 16711746
0.1901128 -0.4309281 1.6783777 16711746
0.2204713 -0.4361030 1.6536634 16711746
-0.0915836 -0.4122499 0.9619438 16711746
0.3135566 -0.3883783 1.0947560 16711746
-0.4017549 -0.3607675 1.4463161 16711746
-0.1999860 -0.5525471 1.4620833 16711746
-0.1192409 -0.5053648 1.3716067 16711746
-0.2779376 -0.6565063 1.6144977 16711746
0.6753698 -0.2451206 0.7415725 16711746
-0.2301554 -0.3752233 0.8900316 16711746
-0.2790516 -0.3720455 0.8720635 16711746
-0.3830386 -0.6560799 1.5683354 16711746
0.3760147 -0.3028655 0.7819102 16711746
-0.3497729 -0.5104560 1.3740010 16711746
0.1407315 -0.1866755 0.5648478 16711746
-0.0578390 -0.2301983 1.5086644 16711746
-0.2782018 -0.4666725 1.3106810 16711746
0.5191886 -0.2045704 0.9451457 16711746
0.4298301 -0.3889391 1.3911904 16711746
-0.2781514 -0.3911994 1.6104062 16711746
0.4749831 -0.3489752 0.7246408 16711746
0.5152335 -0.3972256 0.8265328 16711746
0.5516162 -0.1434133 1.4435188 16711746
-0.0129363 -0.3652081 0.8784509 16711746
0.3373065 -0.3912018 1.0564829 16711746
0.4119135 -0.2569612 0.5439884 16711746
0.6996917 -0.3531140 1.1609652 16711746
0.6236953 -0.2501210 0.6852704 16711746
0.3954173 -0.3253330 0.8087391 16711746
0.4022661 -0.3549439 0.9127592 16711746
0.4124550 -0.3571250 0.8855140 16711746
0.0244751 -0.3170677 0.8250031 16711746
-0.4037843 -0.4875177 1.3351883 16711746
0.0158058 -0.4296076 1.2519782 16711746
-0.1334037 -0.4321555 1.2283224 16711746
0.7379456 -0.3203556 0.7727410 16711746
0.2443245 -0.2575053 0.5712932 16711746
0.4669296 -0.4427350 1.0282782 16711746
0.3793737 -0.3550059 1.5843095 16711746
0.5816519 -0.3193884 1.1584572 16711746
0.5922120 -0.3627297 1.3429295 16711746
0.2264393 -0.3917761 0.7976532 16711746
0.3104092 -0.4774882 1.1842599 16711746
-0.0253480 -0.4703670 1.0061088 16711746
0.2565301 -0.4424751 1.1935914 16711746
0.1294320 -0.4647065 1.2864053 16711746
0.2719253 -0.5011302 1.2809336 16711746
0.1639949 -0.5033375 1.3146589 16711746
0.3405799 -0.1970591 0.6176839 16711746
0.2698565 -0.2878987 0.5817641 16711746
0.2662254 -0.2940814 0.5409812 16711746
0.3985028 -0.2696594 0.5688988 16711746
0.1687503 -0.2844337 1.3942168 16711746
-0.1533808 -0.4790089 1.0246141 16711746
-0.3154339 -0.3098513 0.5790657 16711746
-0.4911665 -0.6898316 1.5623775 16711746
-0.2828857 -0.2944116 0.5936945 16711746
-0.3891946 -0.3567344 0.7777469 16711746
-0.4907282 -0.5326534 1.3424697 16711746
335.8981934 -74.0503464 275.0828857 16711746
320.0040894 -109.9633408 473.3639221 16711746
-81.0671539 -21.2629795 215.5610962 16711746
58.3910370 -39.5122147 210.4481964 16711746
4.2507982 2.0460229 22.9853668 16711746
-141.6828156 -28.6373043 160.3448334 16711746
-49.1863632 -70.6813660 191.2521362 16711746
304.2945251 -59.5428696 258.4665527 16711746
4.3065205 2.1827805 18.9934387 16711746
106.6511459 -66.2661133 378.8673096 16711746
210.9454803 39.4546738 245.5437775 16711746
-150.8884888 -20.7517700 125.3653412 16711746
17.0944328 -126.4651260 330.0452576 16711746
-83.9559784 -82.6665573 242.1076813 16711746
8.5904064 4.0290422 104.1968307 16711746
-6.8536191 -4.4902101 7.2541270 16711746
246.3826447 7.0372748 353.4729309 16711746
-78.4334641 -64.3619690 441.5773926 16711746
144.5460510 -114.3445206 415.7477112 16711746
122.8841400 63.4935265 40.1992188 16711746
-40.4982300 -76.3631210 326.7010498 16711746
-44.7100372 -64.7779312 175.6616211 16711746
