# .PCD v.7 - Point Cloud Data file format
VERSION .7
FIELDS x y z rgb
SIZE 4 4 4 4
TYPE F F F F
COUNT 1 1 1 1
WIDTH 307
HEIGHT 1
VIEWPOINT 0 0 0 1 0 0 0
POINTS 307
DATA ascii

 0.0000000 0.0000000 0.0000000 16777215
 0.0051647 0.0004569 0.0491596 16777215
 0.0046663 0.0002638 0.0554077 16777215
 0.0043138 -0.0002225 0.0629235 16777215
 0.0033332 -0.0001595 0.0694611 16777215
 -0.0000568 0.0000439 0.0897151 16777215
 -0.0008620 -0.0009807 0.0955693 16777215
 -0.0025675 -0.0032324 0.1105431 16777215
 -0.0028268 -0.0064974 0.1175283 16777215
 -0.0013335 -0.0084990 0.1237569 16777215
 0.0021127 -0.0091558 0.1271098 16777215
 0.0054638 -0.0089192 0.1301486 16777215
 0.0065451 -0.0088158 0.1305503 16777215
 0.0051905 -0.0101633 0.1291431 16777215
 0.0037119 -0.0096345 0.1223558 16777215
 -0.0006309 -0.0079101 0.1197035 16777215
 -0.0097629 -0.0094270 0.1172667 16777215
 -0.0163390 -0.0089134 0.1116257 16777215
 -0.0130852 -0.0073851 0.1055922 16777215
 -0.0068004 -0.0058404 0.1003509 16777215
 -0.0004440 -0.0038584 0.0946801 16777215
 0.0073610 -0.0010617 0.0903268 16777215
 0.0121964 0.0011373 0.0900592 16777215
 0.0129817 -0.0001991 0.0970682 16777215
 0.0109625 -0.0011688 0.1023684 16777215
 0.0063142 -0.0044502 0.1144874 16777215
 0.0022128 -0.0070040 0.1258098 16777215
 0.0032256 -0.0090773 0.1470912 16777215
 0.0055438 -0.0115072 0.1665204 16777215
 0.0112720 -0.0175910 0.1989717 16777215
 0.0121560 -0.0252611 0.2273833 16777215
 0.0134888 -0.0312456 0.2612591 16777215
 0.0113625 -0.0342142 0.3009437 16777215
 0.0131756 -0.0392168 0.3376645 16777215
 0.0127669 -0.0427718 0.3760355 16777215
 0.0129377 -0.0446440 0.4164808 16777215
 0.0180241 -0.0448787 0.4442544 16777215
 0.0221775 -0.0540899 0.4970376 16777215
 0.0291572 -0.0555238 0.5508193 16777215
 0.0250542 -0.0637323 0.6044860 16777215
 0.0222669 -0.0683469 0.6424710 16777215
 0.0202343 -0.0697642 0.6696267 16777215
 0.0263858 -0.0774263 0.7114145 16777215
 0.0289696 -0.0874409 0.7530296 16777215
 0.0343143 -0.0922348 0.7786607 16777215
 0.0366555 -0.0995055 0.8015588 16777215
 0.0351960 -0.1077067 0.8474489 16777215
 0.0342961 -0.1129470 0.8886705 16777215
 0.0312620 -0.1140181 0.9096218 16777215
 0.0263748 -0.1206672 0.9474511 16777215
 0.0295644 -0.1284738 0.9862021 16777215
 0.0310724 -0.1306624 1.0172607 16777215
 0.0371671 -0.1320276 1.0452628 16777215
 0.0403839 -0.1381625 1.0767955 16777215
 0.0463988 -0.1441236 1.1090877 16777215
 0.0476800 -0.1491149 1.1465029 16777215
 0.0441353 -0.1506038 1.1913030 16777215
 0.0378256 -0.1599203 1.2431047 16777215
 0.0407922 -0.1638013 1.2693985 16777215
 0.0443503 -0.1677426 1.3054738 16777215
 0.0566637 -0.1728150 1.3464489 16777215
 0.0666391 -0.1820773 1.3814660 16777215
 0.0673709 -0.1860336 1.4106715 16777215
 0.0699146 -0.1894991 1.4349982 16777215
 0.0685394 -0.1904530 1.4637656 16777215
 0.0660401 -0.1919882 1.5026907 16777215
 0.0616583 -0.1992983 1.5456980 16777215
 0.0621070 -0.2030571 1.5613225 16777215
 0.0607923 -0.2075252 1.5977124 16777215
 0.0652491 -0.2090025 1.6275001 16777215
 0.0855367 -0.2116663 1.6644385 16777215
 0.0830472 -0.2235005 1.6986814 16777215
 0.0865796 -0.2260630 1.7258492 16777215
 0.0832535 -0.2287576 1.7723017 16777215
 0.0775366 -0.2325718 1.8137367 16777215
 0.0686582 -0.2375197 1.8490801 16777215
 0.0700606 -0.2446445 1.8863266 16777215
 0.0714502 -0.2493379 1.9281979 16777215
 0.0776383 -0.2500747 1.9668092 16777215
 0.0838028 -0.2609561 2.0099421 16777215
 0.0861545 -0.2649067 2.0434990 16777215
 0.0797993 -0.2666840 2.0793340 16777215
 0.0748273 -0.2734172 2.1186063 16777215
 0.0701503 -0.2770052 2.1518502 16777215
 0.0716328 -0.2815396 2.1881711 16777215
 0.0772910 -0.2871103 2.2356877 16777215
 0.0892271 -0.2927682 2.2787969 16777215
 0.0945752 -0.2990403 2.3134406 16777215
 0.0946161 -0.3002215 2.3487647 16777215
 0.0876631 -0.3042207 2.3876410 16777215
 0.0885720 -0.3090077 2.4340467 16777215
 0.0815922 -0.3150026 2.4699161 16777215
 0.0849054 -0.3169659 2.5054193 16777215
 0.0904388 -0.3225940 2.5619295 16777215
 0.0992308 -0.3288272 2.5969958 16777215
 0.0976772 -0.3339343 2.6378031 16777215
 0.0896730 -0.3357289 2.6729295 16777215
 0.0853238 -0.3407852 2.7101886 16777215
 0.0809760 -0.3466955 2.7443755 16777215
 0.0764367 -0.3500502 2.7785633 16777215
 0.0734339 -0.3553818 2.8154564 16777215
 0.0770915 -0.3635187 2.8694959 16777215
 0.0749547 -0.3661622 2.9082499 16777215
 0.0721882 -0.3682252 2.9433713 16777215
 0.0643956 -0.3749657 2.9971669 16777215
 0.0537993 -0.3808286 3.0284784 16777215
 0.0515853 -0.3845116 3.0655634 16777215
 0.0566696 -0.3861709 3.1005337 16777215
 0.0601031 -0.3888840 3.1352563 16777215
 0.0646497 -0.3933373 3.1835604 16777215
 0.0651540 -0.3971118 3.2204404 16777215
 0.0598760 -0.4022468 3.2793939 16777215
 0.0562706 -0.4027997 3.3094597 16777215
 0.0582958 -0.4139800 3.3550389 16777215
 0.0628125 -0.4206902 3.3945851 16777215
 0.0699196 -0.4238812 3.4302526 16777215
 0.0743809 -0.4290731 3.4639339 16777215
 0.0710382 -0.4371573 3.5066705 16777215
 0.0652823 -0.4418049 3.5533941 16777215
 0.0645523 -0.4500423 3.5743282 16777215
 0.0534935 -0.4513703 3.6008744 16777215
 0.0505939 -0.4586640 3.6448362 16777215
 0.0528779 -0.4636815 3.6844554 16777215
 0.0618964 -0.4692027 3.7273791 16777215
 0.0624306 -0.4736001 3.7521048 16777215
 0.0602000 -0.4797441 3.7858927 16777215
 0.0572672 -0.4819076 3.8210633 16777215
 0.0519932 -0.4876035 3.8571372 16777215
 0.0427333 -0.4893466 3.8802266 16777215
 0.0375824 -0.5008755 3.9120631 16777215
 0.0404302 -0.5018023 3.9426844 16777215
 0.0427575 -0.5027830 3.9793532 16777215
 0.0419805 -0.5069627 4.0211844 16777215
 0.0492720 -0.5150931 4.0615416 16777215
 0.0340657 -0.5077993 4.0876827 16777215
 0.0313610 -0.5218830 4.1273308 16777215
 0.0280773 -0.5265565 4.1552405 16777215
 0.0327224 -0.5288837 4.1961117 16777215
 0.0316685 -0.5352599 4.2357979 16777215
 0.0367781 -0.5363932 4.2714920 16777215
 0.0340019 -0.5422152 4.3145084 16777215
 0.0314101 -0.5458076 4.3590055 16777215
 0.0254952 -0.5510151 4.4026952 16777215
 0.0198140 -0.5560706 4.4485383 16777215
 0.0199676 -0.5608441 4.4832735 16777215
 0.0256752 -0.5622334 4.5302420 16777215
 0.0278178 -0.5669699 4.5699782 16777215
 0.0289306 -0.5720311 4.6103468 16777215
 0.0245447 -0.5728661 4.6434841 16777215
 0.0136574 -0.5778155 4.6843829 16777215
 0.0160020 -0.5848575 4.7255058 16777215
 0.0186296 -0.5867448 4.7690420 16777215
 0.0280673 -0.5875990 4.8106556 16777215
 0.0278582 -0.5919669 4.8514013 16777215
 0.0210971 -0.5962268 4.8913655 16777215
 0.0121050 -0.6018664 4.9236207 16777215
 0.0060137 -0.6116753 4.9618731 16777215
 0.0041247 -0.6135609 4.9904957 16777215
 0.0067200 -0.6187322 5.0318503 16777215
 0.0143991 -0.6183695 5.0638056 16777215
 0.0127331 -0.6236183 5.1062107 16777215
 0.0077331 -0.6280184 5.1432943 16777215
 0.0009493 -0.6339149 5.1859093 16777215
 -0.0051081 -0.6390621 5.2043648 16777215
 -0.0032452 -0.6424776 5.2284575 16777215
 -0.0015254 -0.6469659 5.2613649 16777215
 0.0050229 -0.6454729 5.2920132 16777215
 0.0080429 -0.6523522 5.3200569 16777215
 0.0014392 -0.6564760 5.3554797 16777215
 -0.0042616 -0.6611192 5.3920431 16777215
 -0.0179005 -0.6699632 5.4247432 16777215
 -0.0205488 -0.6744723 5.4523568 16777215
 -0.0202284 -0.6772941 5.4921775 16777215
 -0.0192874 -0.6792755 5.5052509 16777215
 -0.0187353 -0.6795598 5.5467491 16777215
 -0.0179353 -0.6834902 5.5787077 16777215
 -0.0265698 -0.6866702 5.6141315 16777215
 -0.0263068 -0.6944352 5.6519136 16777215
 -0.0268538 -0.6966050 5.6754355 16777215
 -0.0228061 -0.6992711 5.7077079 16777215
 -0.0086856 -0.6992450 5.7454214 16777215
 -0.0032980 -0.7016602 5.7664371 16777215
 -0.0037008 -0.7039183 5.7889495 16777215
 -0.0095753 -0.7071795 5.8207116 16777215
 -0.0179132 -0.7138989 5.8514438 16777215
 -0.0241165 -0.7195091 5.8808951 16777215
 -0.0272394 -0.7221041 5.9122272 16777215
 -0.0243673 -0.7217212 5.9507041 16777215
 -0.0259915 -0.7243632 5.9864745 16777215
 -0.0314743 -0.7290409 6.0160236 16777215
 -0.0367948 -0.7328002 6.0508080 16777215
 -0.0451421 -0.7362377 6.0832052 16777215
 -0.0463524 -0.7421267 6.1130195 16777215
 -0.0505806 -0.7460500 6.1441035 16777215
 -0.0452287 -0.7483988 6.1860542 16777215
 -0.0421950 -0.7516038 6.2128186 16777215
 -0.0402914 -0.7534431 6.2479577 16777215
 -0.0465078 -0.7532228 6.2877474 16777215
 -0.0536171 -0.7591689 6.3291554 16777215
 -0.0510307 -0.7617869 6.3559489 16777215
 -0.0492587 -0.7639841 6.3938084 16777215
 -0.0445858 -0.7636961 6.4292822 16777215
 -0.0426093 -0.7724299 6.4623318 16777215
 -0.0444564 -0.7743319 6.5002599 16777215
 -0.0544678 -0.7762517 6.5293064 16777215
 -0.0619395 -0.7817773 6.5547543 16777215
 -0.0646765 -0.7844762 6.5725474 16777215
 -0.0668297 -0.7877434 6.5987911 16777215
 -0.0673064 -0.7916824 6.6408901 16777215
 -0.0678521 -0.7970251 6.6642537 16777215
 -0.0695566 -0.8013768 6.6857119 16777215
 -0.0750625 -0.8041922 6.7165699 16777215
 -0.0831479 -0.8063325 6.7374239 16777215
 -0.0948871 -0.8086140 6.7726455 16777215
 -0.0989775 -0.8150159 6.8039751 16777215
 -0.1027175 -0.8196875 6.8453922 16777215
 -0.1032620 -0.8216587 6.8800206 16777215
 -0.1037300 -0.8265530 6.9163990 16777215
 -0.1061994 -0.8300576 6.9525123 16777215
 -0.1124439 -0.8335389 6.9859800 16777215
 -0.1151203 -0.8369223 7.0135484 16777215
 -0.1127190 -0.8389564 7.0537238 16777215
 -0.1075750 -0.8447910 7.0878854 16777215
 -0.1045481 -0.8450467 7.1232610 16777215
 -0.1099065 -0.8479757 7.1574502 16777215
 -0.1162419 -0.8507211 7.1980128 16777215
 -0.1175834 -0.8528497 7.2303619 16777215
 -0.1144857 -0.8544724 7.2636533 16777215
 -0.1079394 -0.8566505 7.2984591 16777215
 -0.1053119 -0.8591425 7.3277597 16777215
 -0.1100195 -0.8609419 7.3657193 16777215
 -0.1173031 -0.8641147 7.3994102 16777215
 -0.1170837 -0.8681935 7.4359155 16777215
 -0.1186685 -0.8716691 7.4698753 16777215
 -0.1130987 -0.8719090 7.4958515 16777215
 -0.1086550 -0.8760930 7.5309319 16777215
 -0.1086465 -0.8793020 7.5618277 16777215
 -0.1137957 -0.8799949 7.5808215 16777215
 -0.1213817 -0.8852741 7.6189728 16777215
 -0.1257057 -0.8886894 7.6477933 16777215
 -0.1279895 -0.8929100 7.6672792 16777215
 -0.1252183 -0.8946067 7.7012963 16777215
 -0.1249121 -0.8996199 7.7381248 16777215
 -0.1237404 -0.9019765 7.7621741 16777215
 -0.1317023 -0.9028270 7.7927299 16777215
 -0.1396952 -0.9069691 7.8308105 16777215
 -0.1438609 -0.9103788 7.8599782 16777215
 -0.1420542 -0.9109350 7.8916655 16777215
 -0.1381888 -0.9127343 7.9323897 16777215
 -0.1319014 -0.9159372 7.9635091 16777215
 -0.1297631 -0.9158256 8.0027647 16777215
 -0.1371485 -0.9200271 8.0354967 16777215
 -0.1428338 -0.9249337 8.0700369 16777215
 -0.1457168 -0.9315739 8.1025887 16777215
 -0.1478325 -0.9337425 8.1436815 16777215
 -0.1460462 -0.9352815 8.1718073 16777215
 -0.1433413 -0.9402565 8.2093401 16777215
 -0.1497068 -0.9397298 8.2395678 16777215
 -0.1618086 -0.9435197 8.2713299 16777215
 -0.1704907 -0.9437922 8.3009109 16777215
 -0.1785496 -0.9474488 8.3345556 16777215
 -0.1796681 -0.9492105 8.3742981 16777215
 -0.1813268 -0.9513196 8.4023342 16777215
 -0.1849999 -0.9520348 8.4380493 16777215
 -0.1914632 -0.9517662 8.4648294 16777215
 -0.1944640 -0.9542212 8.4905319 16777215
 -0.1981330 -0.9545909 8.5196533 16777215
 -0.2007260 -0.9579114 8.5591068 16777215
 -0.1989859 -0.9600808 8.5864658 16777215
 -0.1982103 -0.9644209 8.6147137 16777215
 -0.2032086 -0.9674188 8.6431789 16777215
 -0.2094830 -0.9677447 8.6683912 16777215
 -0.2161874 -0.9706807 8.6990929 16777215
 -0.2213403 -0.9748054 8.7254457 16777215
 -0.2261361 -0.9755473 8.7561302 16777215
 -0.2267259 -0.9805827 8.7952709 16777215
 -0.2326306 -0.9840533 8.8196926 16777215
 -0.2340419 -0.9860061 8.8470840 16777215
 -0.2448307 -0.9899336 8.8749361 16777215
 -0.2518131 -0.9911299 8.9040384 16777215
 -0.2578770 -0.9941928 8.9307718 16777215
 -0.2565801 -0.9943318 8.9599905 16777215
 -0.2547888 -0.9959899 8.9899101 16777215
 -0.2531383 -1.0011295 9.0096140 16777215
 -0.2586711 -1.0020930 9.0413895 16777215
 -0.2653426 -1.0024749 9.0672293 16777215
 -0.2712974 -1.0074821 9.0871582 16777215
 -0.2727703 -1.0097507 9.1121855 16777215
 -0.2714079 -1.0081967 9.1434898 16777215
 -0.2700677 -1.0090346 9.1634293 16777215
 -0.2709551 -1.0104192 9.1889353 16777215
 -0.2786954 -1.0088167 9.2203131 16777215
 -0.2856451 -1.0109786 9.2461710 16777215
 -0.2892044 -1.0092475 9.2735195 16777215
 -0.2914510 -1.0087435 9.3043604 16777215
 -0.2901093 -1.0057237 9.3270416 16777215
 -0.2942698 -1.0071628 9.3479614 16777215
 -0.3015288 -1.0081315 9.3756151 16777215
 -0.3077379 -1.0072386 9.3912964 16777215
 -0.3116738 -1.0114152 9.4125557 16777215
 -0.3112879 -1.0121040 9.4291859 16777215
 -0.3065023 -1.0099690 9.4468527 16777215
 -0.2978790 -1.0085901 9.4639864 16777215
 -0.2988610 -1.0081973 9.4770899 16777215
 -0.3012733 -1.0079229 9.4880352 16777215
 -0.3062711 -1.0075144 9.4942455 16777215
 -0.3089536 -1.0056975 9.4995060 16777215
