# .PCD v0.7 - Point Cloud Data file format
VERSION 0.7
FIELDS x y z rgb
SIZE 4 4 4 4
TYPE F F F F
COUNT 1 1 1 1
WIDTH 1168
HEIGHT 1
VIEWPOINT 0 0 0 1 0 0 0
POINTS 1168
DATA ascii
-3.5774834 -4.2724729 48.383038 16711746
-2.3532765 -3.8447897 46.404922 16711746
-0.68906122 -3.7136004 44.853344 16711746
-5.8807569 -3.8655405 46.12537 16711746
-1.8729863 -4.7445016 45.538754 16711746
-1.3064213 -3.9968085 45.32579 16711746
0.95839632 -3.7922819 44.425312 16711746
1.1665376 -4.3127265 46.942314 16711746
-1.4525937 -3.9833858 47.552208 16711746
-0.38030496 -3.9312418 47.95052 16711746
-1.5723214 -4.1393542 47.654064 16711746
1.3679415 -4.2892594 47.470016 16711746
-1.7089733 -4.0919871 47.269905 16711746
0.13751177 -3.8241389 45.403942 16711746
-0.66106778 -3.9090333 47.441517 16711746
-0.53850895 -3.8215396 45.781582 16711746
2.8052647 -4.0349946 48.406052 16711746
-0.52689713 -3.81884 45.871357 16711746
-5.7633586 -3.9478853 45.860241 16711746
-1.3605604 -3.6773593 44.389908 16711746
-0.19284296 -3.9064393 46.781818 16711746
-10.211418 -4.3495445 48.706745 16711746
-0.56106454 -3.6673472 44.359997 16711746
2.2095187 -3.947139 46.140236 16711746
-1.8474511 -3.9135611 46.559177 16711746
-10.452125 -4.379704 48.882797 16711746
-14.15352 -5.4878936 52.378086 16711746
7.3156962 -14.311069 72.424301 16711746
-0.60697824 -3.6579533 44.515621 16711746
-0.46516207 -3.7079628 44.72234 16711746
-1.3777564 -3.640965 44.454643 16711746
0.3109087 -3.7220967 44.471535 16711746
0.68041885 -3.6225736 44.230873 16711746
-2.5665305 -3.5689344 43.813286 16711746
0.26394692 -3.6922641 44.394432 16711746
-1.9503388 -3.6838391 44.5312 16711746
1.7572459 -3.841006 45.825806 16711746
0.8949424 -3.8492947 44.867336 16711746
0.43881717 -3.7696643 44.419662 16711746
0.41380492 -3.8087671 44.891487 16711746
0.50289112 -4.4976177 45.797916 16711746
1.035095 -3.7407322 44.506222 16711746
-1.8302318 -4.7683139 45.420399 16711746
-8.5656118 -5.3619447 47.466587 16711746
-1.6691464 -5.6456413 44.95834 16711746
-1.2877125 -3.9028058 46.667351 16711746
0.18167426 -3.7994313 45.37484 16711746
-1.1831475 -3.6878459 44.493904 16711746
-0.51245534 -3.7210279 45.135601 16711746
0.23610081 -4.1070209 47.948162 16711746
-1.1146933 -3.6875639 44.318321 16711746
0.057080738 -3.8813 45.897335 16711746
-0.59690005 -3.7377152 44.867844 16711746
2.179508 -4.0678682 47.805901 16711746
-1.150016 -3.7609496 45.112289 16711746
-0.66862071 -3.9092364 47.436024 16711746
-1.4524331 -4.1577234 49.042004 16711746
-1.1924009 -4.0361528 48.77227 16711746
0.13913688 -3.7150817 44.721413 16711746
0.98917341 -4.122242 48.614788 16711746
-0.46508396 -3.6492999 44.572014 16711746
-1.0609008 -3.8195739 46.055626 16711746
0.39043847 -3.9072595 45.909199 16711746
-0.53403652 -3.8026586 45.744301 16711746
-1.7200465 -3.6983054 44.917301 16711746
1.1762404 -3.872632 45.813515 16711746
0.21967787 -3.9650187 47.190788 16711746
-0.036896382 -3.6551623 44.574768 16711746
0.55197245 -3.7112372 44.323296 16711746
-0.57438242 -3.7542167 45.411739 16711746
-1.4152348 -3.8250015 45.501339 16711746
-2.2746933 -3.703537 45.540947 16711746
-2.0986037 -3.7791269 46.190582 16711746
-1.8637004 -8.2954998 53.240704 16711746
-2.2069232 -4.3599238 52.860767 16711746
0.59173846 -4.0005784 46.954052 16711746
1.9448973 -4.8399525 54.579887 16711746
-1.8621963 -8.7837982 52.652512 16711746
0.23474245 -3.8616548 46.227242 16711746
-1.266662 -3.8669462 46.759499 16711746
-1.4284109 -3.8943293 45.21386 16711746
-2.2037115 -3.8688693 46.126316 16711746
-1.4103578 -3.8063152 46.113564 16711746
2.1570532 -3.9169552 45.938374 16711746
-1.9975268 -3.6484025 44.577763 16711746
-0.49204499 -3.7209191 44.884304 16711746
1.1137542 -3.7514114 44.755875 16711746
-0.38052875 -3.6855774 44.624058 16711746
-1.6219815 -3.7264049 44.685215 16711746
-0.89717412 -3.7944274 45.221169 16711746
-0.24464433 -3.6602709 44.568241 16711746
-3.9539168 -3.8990791 46.895741 16711746
0.006472521 -3.8787999 45.931019 16711746
-0.64491153 -3.7993178 45.790199 16711746
-2.0561733 -3.786159 45.337723 16711746
-1.7939236 -3.685569 44.70343 16711746
-0.74788761 -3.7021008 44.834366 16711746
0.28395662 -3.648957 44.288422 16711746
2.5483768 -4.2678299 45.728817 16711746
1.555653 -3.7695465 45.142559 16711746
0.95741916 -4.3584108 47.045288 16711746
-2.6690645 -3.8658369 46.228226 16711746
0.29752335 -3.8673315 45.635517 16711746
-1.010273 -3.8732011 45.134991 16711746
-2.0326195 -3.8529642 45.917561 16711746
-0.095114477 -3.9705803 46.157089 16711746
-0.5479666 -3.9148531 45.556812 16711746
0.92831904 -3.9148185 46.059204 16711746
0.30165419 -4.5612869 45.223934 16711746
-2.0463324 -4.2096634 45.845837 16711746
1.3273094 -3.957335 44.803295 16711746
-2.0479898 -3.6675856 45.202709 16711746
-2.2304254 -3.7447453 45.420452 16711746
-0.14991382 -3.82796 45.704987 16711746
-1.0013611 -3.7057514 44.76992 16711746
3.6175673 -4.0096574 48.571239 16711746
-1.1267304 -3.7385807 44.765926 16711746
-1.9063249 -3.7432768 45.094536 16711746
0.25887069 -3.8424726 45.455296 16711746
0.71262807 -3.9536583 45.77227 16711746
1.6204658 -3.8314898 45.108223 16711746
-3.2243366 -3.8358734 47.101604 16711746
-1.8206196 -3.9492502 46.446949 16711746
0.080494657 -3.8802757 45.891293 16711746
-0.56216282 -3.7261307 44.934658 16711746
-0.15016495 -3.6788747 44.705154 16711746
-1.9635099 -3.7295773 45.044769 16711746
-0.5687353 -3.7451549 45.449959 16711746
-4.0544343 -4.0147758 48.338943 16711746
0.22430538 -5.0742421 47.211769 16711746
1.4017467 -5.7207475 46.046745 16711746
-4.0901194 -3.9931431 48.406349 16711746
0.86461288 -5.5729008 45.597679 16711746
-0.24716459 -3.793184 46.873211 16711746
0.27683505 -3.9954469 47.026821 16711746
-2.4081624 -9.4084845 58.499958 16711746
-1.6993984 -5.1128798 60.287235 16711746
0.506109 -3.881618 45.464306 16711746
-1.625657 -3.6840854 44.49218 16711746
1.7545573 -3.7898068 44.982861 16711746
-0.93331158 -3.693907 44.694878 16711746
-0.72949857 -3.7789066 45.224697 16711746
-1.7165269 -3.7468505 44.780983 16711746
0.99166411 -3.7662377 45.559788 16711746
1.7957098 -3.7682998 45.033199 16711746
0.28916734 -3.8066332 45.538731 16711746
0.92772752 -3.7958798 45.332726 16711746
1.0363986 -3.7342122 44.486065 16711746
1.6461979 -3.8441696 45.571884 16711746
0.069981694 -3.7145376 44.876141 16711746
-1.7435157 -3.8940339 45.397198 16711746
-2.4729714 -3.7282531 44.941147 16711746
-1.9007207 -3.7912734 45.114006 16711746
1.2825938 -3.7454309 44.74987 16711746
1.8106321 -3.7642469 45.044762 16711746
-0.72344124 -3.7264757 44.960541 16711746
-0.87617445 -3.8691301 46.003475 16711746
-1.0646259 -3.7896254 44.90604 16711746
-0.85749185 -3.8319263 45.476925 16711746
-2.2863753 -3.4175572 45.700924 16711746
-0.93514198 -3.8197229 44.967304 16711746
-0.65700662 -3.9195769 47.406223 16711746
-3.6024573 -3.8314829 45.14225 16711746
-0.45777377 -3.7011738 45.19342 16711746
-3.2045457 -3.8188622 45.245296 16711746
-0.31280392 -4.1785517 49.425331 16711746
-12.054845 -7.7338815 54.704353 16711746
-6.1470561 -9.6829519 54.113319 16711746
-0.11389416 -4.562778 54.974373 16711746
-0.11635302 -3.7304118 44.84417 16711746
-0.58097655 -3.758764 45.392094 16711746
-0.053059272 -3.8862097 46.418648 16711746
-1.319671 -3.9233663 46.90834 16711746
-0.50540411 -3.6871743 45.199368 16711746
-0.24822436 -3.7073205 44.939091 16711746
-2.0284417 -3.6979263 44.771454 16711746
-0.033474285 -3.668937 44.552483 16711746
-2.206696 -3.7018635 45.064316 16711746
-2.8552604 -3.7777417 46.182438 16711746
-0.46300513 -3.6643777 44.795742 16711746
-0.38172305 -3.9703488 47.771133 16711746
-3.1020823 -3.8916755 46.910084 16711746
0.90817261 -3.8372462 45.140732 16711746
-1.950532 -4.3328242 47.348583 16711746
-1.1532389 -3.7065217 44.828911 16711746
0.12520517 -3.7794349 46.023636 16711746
0.34397113 -3.9236224 45.968494 16711746
-2.1856289 -3.6301591 44.751137 16711746
-1.0820992 -3.796602 45.125862 16711746
-0.21075261 -3.8492637 45.844997 16711746
-1.4012785 -3.7840376 45.06448 16711746
-1.730256 -3.7196839 44.825665 16711746
-0.76603776 -3.7133672 45.10614 16711746
1.5584154 -4.4773731 50.648849 16711746
0.054660939 -3.8347781 45.715031 16711746
-1.4902061 -3.9051793 46.973255 16711746
-0.84515786 -3.7401502 45.040257 16711746
0.36849952 -3.7266769 44.473804 16711746
-2.110697 -3.8860507 46.001492 16711746
-0.46396333 -3.7068958 44.724323 16711746
-2.5585694 -3.6755157 44.996613 16711746
-0.40003118 -3.698205 44.954742 16711746
-0.56245303 -3.711369 44.964905 16711746
-0.5179038 -3.8008242 45.907425 16711746
-1.1416873 -3.7781932 45.073986 16711746
-0.36782536 -3.7558219 45.120129 16711746
0.22170255 -3.726218 44.793072 16711746
0.68816829 -3.8213043 44.982418 16711746
0.26921904 -4.4492373 52.977425 16711746
-2.8449187 -3.6903386 45.363819 16711746
-2.3239458 -3.703265 45.287296 16711746
-1.6929444 -3.7299771 44.86084 16711746
0.048360862 -3.8607533 45.635735 16711746
-0.04469879 -3.6702874 44.874943 16711746
-1.1461257 -3.7523432 45.100048 16711746
-3.4338672 -3.7681787 45.149879 16711746
0.96221071 -3.8008296 44.942745 16711746
0.99321389 -3.7535191 45.423885 16711746
-0.90130663 -3.7289329 44.897957 16711746
-0.054748554 -3.686506 44.848557 16711746
-0.052560914 -3.6708426 44.526329 16711746
-1.2386428 -3.7587833 45.288731 16711746
0.44858623 -4.4838147 45.415794 16711746
1.3987024 -3.892854 46.263012 16711746
1.3629167 -3.6871355 44.843269 16711746
-0.18302982 -3.7828026 45.139061 16711746
0.084549613 -3.8013561 45.630901 16711746
0.45644835 -4.4771047 45.44355 16711746
1.5495069 -3.7742946 45.30011 16711746
-2.4575737 -3.7488105 44.584774 16711746
-3.2491872 -3.8010716 45.270393 16711746
-2.1927214 -4.1155195 45.514011 16711746
-2.4876592 -3.7189348 44.948681 16711746
0.93531561 -3.8424592 44.937962 16711746
1.1016786 -3.7759318 45.486282 16711746
0.13498092 -5.3326945 44.39922 16711746
-2.0788608 -3.6846569 44.692593 16711746
-0.28982753 -3.8296506 45.855946 16711746
-0.99394268 -3.7151272 44.744465 16711746
-3.3206005 -3.9108095 46.873974 16711746
2.2396269 -3.9365506 46.148632 16711746
-0.89049959 -3.8816442 45.340805 16711746
-0.044176992 -3.7089238 45.073002 16711746
-0.79324603 -3.9124579 47.08733 16711746
-0.036766354 -3.8606975 46.492004 16711746
6.5017753 -4.4833283 48.869774 16711746
4.2257533 -6.9201937 52.068066 16711746
-0.34756902 -3.8680985 46.575722 16711746
-0.22050214 -3.8840523 45.551769 16711746
0.14371978 -3.8291218 45.536266 16711746
0.30719194 -4.0868626 48.118782 16711746
-0.67657602 -3.7267509 44.974564 16711746
2.8864224 -3.9557178 47.085617 16711746
-1.0776335 -3.79089 45.160191 16711746
1.4793288 -4.3265972 52.393463 16711746
-1.3094499 -3.8649266 45.74791 16711746
-2.0607045 -3.9825583 47.848503 16711746
0.53001678 -4.6178961 47.926224 16711746
0.18987679 -3.9001594 45.509346 16711746
0.39450625 -3.8693309 45.538982 16711746
-0.82211733 -4.0309649 48.738365 16711746
-11.891406 -4.2519112 49.987778 16711746
-3.5449817 -3.9221189 47.529293 16711746
0.68688196 -3.8332193 45.559994 16711746
-0.31414831 -3.7167368 44.8451 16711746
0.27936703 -3.8494596 45.428856 16711746
-1.1404451 -3.886178 46.570873 16711746
-1.6831697 -3.8245285 45.445045 16711746
-3.1092739 -3.9600937 47.355061 16711746
-1.3296337 -3.9118404 45.501495 16711746
3.6138029 -4.009356 48.548908 16711746
0.56479692 -3.9600139 46.634651 16711746
0.22330421 -3.7143705 44.691067 16711746
0.028768061 -3.7473397 45.537018 16711746
-1.1258391 -3.7086754 44.818714 16711746
-1.3128045 -3.754796 45.072342 16711746
-5.8344812 -3.8667498 46.095684 16711746
0.60744256 -3.9993174 46.960831 16711746
-1.4371119 -4.0050492 47.487301 16711746
16.145174 -8.1876678 64.780945 16711746
-1.7949365 -4.034749 47.433987 16711746
-0.38036859 -3.7895651 45.582699 16711746
-12.170007 -6.9825683 59.351681 16711746
-0.069044128 -4.5313897 55.437416 16711746
-19.915655 -11.11183 58.764069 16711746
-0.88923275 -3.7686794 45.394089 16711746
-0.69249111 -3.7593539 45.639874 16711746
-1.391596 -3.8323207 45.427132 16711746
-3.5417867 -3.8811939 47.531071 16711746
-1.8666755 -3.8939934 46.576672 16711746
0.037083898 -3.8385882 45.859165 16711746
-0.36490834 -3.688894 45.157028 16711746
-0.88829798 -3.8644595 45.379486 16711746
-3.3927476 -3.7867479 45.118713 16711746
-1.6101265 -3.749418 44.998177 16711746
-1.9072659 -3.7584145 45.156391 16711746
-2.6633267 -3.653636 44.847267 16711746
-0.12221166 -3.7880216 45.788586 16711746
-3.9712343 -3.8970871 46.901333 16711746
-0.89004648 -3.836946 45.81385 16711746
0.85630596 -3.8558462 44.307941 16711746
-1.1092037 -3.81919 45.334694 16711746
-1.9233974 -3.8113573 45.460106 16711746
-3.7917917 -3.8440289 46.334377 16711746
-3.0203867 -3.7776229 45.866707 16711746
-3.9534619 -3.7954111 46.459179 16711746
-4.1579885 -3.866478 46.465836 16711746
-5.8140221 -6.4196739 48.94968 16711746
-1.0972983 -3.8479617 45.286587 16711746
-0.3799696 -3.7724285 45.357422 16711746
-1.3601325 -3.8947484 46.413853 16711746
-1.6392158 -3.9292514 46.97031 16711746
-2.0211968 -4.0307956 47.169258 16711746
-1.2279357 -3.7741802 45.151814 16711746
-3.0483332 -3.9168425 46.826019 16711746
-0.47102296 -3.807375 45.797619 16711746
1.5385084 -4.2588425 50.13818 16711746
-4.1004367 -3.9948964 48.410278 16711746
-2.5410941 -3.7524543 45.509865 16711746
-2.570626 -3.7212067 45.571552 16711746
-1.0224028 -3.9648178 46.689713 16711746
2.8320243 -3.9616337 47.011108 16711746
-3.2186377 -3.9233725 47.5527 16711746
-2.5865285 -3.749891 45.527473 16711746
12.048232 -5.8280258 58.725391 16711746
14.905605 -5.9417453 62.454853 16711746
-1.7270213 -4.2132745 47.382507 16711746
-0.9551059 -3.8353002 45.768257 16711746
-0.71305716 -3.8460052 46.183407 16711746
0.35433066 -3.8313894 45.705296 16711746
-3.2405822 -3.7171397 44.976261 16711746
-0.70908147 -3.8406157 46.190125 16711746
3.1289713 -3.8771186 47.363342 16711746
-1.6313822 -3.9257057 46.952381 16711746
-1.3323963 -3.9003942 45.531467 16711746
-0.83290207 -3.899102 46.429974 16711746
-3.6654406 -3.8171842 45.199486 16711746
-2.5606356 -7.5721807 53.262161 16711746
-2.5109649 -5.1407394 59.759499 16711746
23.771486 -12.22147 71.585365 16711746
-18.559319 -11.053032 69.409821 16711746
-2.2774534 -5.439888 56.791222 16711746
-9.172327 -7.1006718 59.579395 16711746
-2.418447 -10.209324 57.332657 16711746
-1.3440604 -3.8776259 46.248009 16711746
-1.300384 -3.8717942 46.769516 16711746
-0.59481674 -3.6817946 45.294609 16711746
0.10223771 -3.8931468 46.389637 16711746
-0.25296965 -3.8532703 46.383484 16711746
0.57872081 -3.8087966 45.624409 16711746
-2.5512209 -3.8734756 46.773411 16711746
0.077627838 -3.7380629 45.417965 16711746
-0.12556289 -3.9400387 46.318592 16711746
-0.180456 -3.9021344 46.812687 16711746
-0.11224896 -3.842387 45.921761 16711746
-2.4455576 -3.7357619 45.766823 16711746
-0.36145273 -3.7977057 45.771317 16711746
-1.0195677 -3.8944075 46.480923 16711746
-2.7342422 -3.7824709 44.437744 16711746
-1.663967 -3.8540533 45.391659 16711746
-2.2095819 -3.7015259 45.160473 16711746
1.2899196 -3.5814488 45.457146 16711746
0.31751683 -4.0347943 46.836876 16711746
-1.8568635 -4.1005492 45.479118 16711746
-0.84491074 -3.8631546 45.424747 16711746
-1.3994156 -3.8274305 45.444431 16711746
-5.2923756 -3.8327582 47.090981 16711746
-1.754622 -4.0571547 47.535179 16711746
-2.7252166 -3.6963022 45.061279 16711746
-1.711253 -3.8762045 45.166889 16711746
0.24446128 -3.8847756 46.504677 16711746
-1.0132197 -3.874594 45.738804 16711746
1.4507834 -3.8189976 45.199539 16711746
0.77304715 -4.0572248 47.609398 16711746
-1.3421278 -3.7926404 46.103432 16711746
-0.054207783 -3.9463661 46.898476 16711746
-0.51842117 -3.7930894 45.756287 16711746
-1.9128157 -3.7480125 45.165211 16711746
-2.6850498 -3.640018 44.866455 16711746
-0.82679731 -3.9915564 48.891888 16711746
-0.83260345 -3.8955243 46.445999 16711746
-11.00751 -4.6400833 53.171566 16711746
-3.2424271 -3.7178488 44.971653 16711746
2.0893381 -3.944411 46.849583 16711746
-2.8478594 -3.6876733 44.9991 16711746
-1.950599 -4.1427736 49.314976 16711746
0.80054784 -4.2471991 48.735638 16711746
-1.9199849 -3.7445648 45.178425 16711746
0.22115117 -3.9802265 47.103699 16711746
0.3365432 -4.9115868 53.896408 16711746
-1.8069657 -4.7499933 45.380817 16711746
-2.2822707 -4.321547 53.445457 16711746
-5.8769422 -3.9296134 45.907219 16711746
-0.54618412 -4.2984285 50.998901 16711746
-5.2122684 -3.9126244 48.062061 16711746
0.19076358 -3.7838387 45.448513 16711746
0.56443757 -3.8184292 45.61272 16711746
-1.5982785 -3.7566879 44.97504 16711746
-3.6510732 -3.9877121 48.034832 16711746
-2.1774085 -4.0341191 47.799721 16711746
-5.4712825 -3.9299908 48.697128 16711746
-0.45928392 -3.8908446 47.09811 16711746
-3.2738702 -3.7780616 45.298252 16711746
-2.9696019 -3.7358763 44.980972 16711746
-0.047401533 -3.8783259 46.383556 16711746
-0.45966062 -3.7505906 45.693146 16711746
-1.646069 -3.9645033 47.115505 16711746
-8.0545158 -4.0199847 49.438065 16711746
-3.1709807 -3.7373419 44.937702 16711746
0.37012741 -3.8434041 45.655334 16711746
-0.79857117 -3.9004033 47.079304 16711746
-0.35566887 -3.8738179 46.551636 16711746
-7.4619045 -4.1254678 48.927898 16711746
-0.88686371 -3.8463953 46.05658 16711746
0.20423822 -3.99125 47.089226 16711746
-3.7384446 -3.9841297 47.149136 16711746
-6.9726038 -6.8400321 49.203869 16711746
-2.8721118 -3.6630957 45.121605 16711746
-2.4672048 -3.7366455 45.220798 16711746
0.2704027 -4.165977 47.451527 16711746
1.0539953 -3.7047591 45.110809 16711746
-3.8759987 -3.7789276 45.932838 16711746
-1.4058858 -3.8018236 45.482853 16711746
0.34255922 -3.833987 45.702297 16711746
0.050996635 -3.8375638 45.707653 16711746
-2.7576919 -3.8369951 46.036415 16711746
-0.61420083 -3.8389876 46.279163 16711746
-0.67679864 -3.9602463 46.017899 16711746
-1.6952703 -4.4826465 45.270275 16711746
0.13163361 -3.7610147 46.001266 16711746
-2.892077 -3.6925111 44.786488 16711746
-2.3199005 -3.9272826 51.133606 16711746
-5.4109616 -3.8846879 48.044163 16711746
-0.15307474 -4.3297997 50.88319 16711746
-0.65138966 -3.939436 46.047928 16711746
-0.16281924 -4.1414356 48.911938 16711746
-2.4957116 -4.9393568 53.299252 16711746
-0.57374281 -3.7249098 45.421597 16711746
0.19475938 -3.7706845 45.606216 16711746
-2.7088621 -3.7986441 46.377895 16711746
-0.24891748 -3.8178737 45.521702 16711746
-3.3283112 -3.9033773 46.884773 16711746
-0.091836914 -3.8125226 45.991039 16711746
0.042566955 -3.8268204 45.877941 16711746
-2.4303167 -3.7360566 45.760094 16711746
-2.3882358 -3.6431227 45.368118 16711746
-3.8576355 -3.7776167 45.917118 16711746
-1.430257 -3.8643961 46.405415 16711746
-0.094941474 -3.7840931 45.764305 16711746
-2.7894909 -3.801934 46.141029 16711746
-1.9271461 -3.8959935 46.591957 16711746
-1.0457597 -3.8473663 45.922859 16711746
-4.0571337 -3.8676777 46.507702 16711746
-1.8363827 -3.9817171 46.342644 16711746
-0.34185773 -3.8562486 46.13448 16711746
-1.6560457 -3.8459795 46.144619 16711746
-3.8513429 -3.7829189 45.915867 16711746
-5.4136858 -3.8833816 48.040798 16711746
-1.5684434 -3.9367449 47.327484 16711746
-0.89025235 -3.8452904 46.054104 16711746
0.10791162 -4.1310892 48.419296 16711746
0.31118274 -4.105988 48.074043 16711746
-2.0140774 -4.3712597 50.88781 16711746
0.23550701 -4.0178103 46.938324 16711746
-0.33017448 -3.8440804 47.231293 16711746
-1.7547904 -3.9015937 45.847721 16711746
-2.7495759 -3.8002527 46.077293 16711746
-2.830374 -3.7287982 44.746601 16711746
-0.53421015 -3.8498392 46.365852 16711746
-0.3953467 -3.7923152 45.892876 16711746
0.90484256 -3.961587 47.109787 16711746
-0.71082991 -3.8887506 46.907188 16711746
-0.35334283 -3.8551075 46.585384 16711746
-0.29195377 -3.8279729 45.857162 16711746
-0.87787938 -3.8707378 46.729397 16711746
-0.26524949 -3.7395966 45.569572 16711746
1.7644362 -4.2270846 47.165932 16711746
0.46846756 -3.8789904 46.594086 16711746
0.23732354 -3.9780769 47.090897 16711746
0.54995614 -4.3837185 48.00679 16711746
-0.19088468 -3.9348335 46.664944 16711746
-0.078223303 -3.9421549 46.270042 16711746
0.34411791 -4.0497522 47.264847 16711746
-1.9716032 -3.8590848 46.275295 16711746
-1.0622609 -3.8703544 46.01717 16711746
-2.1736414 -4.0229263 45.924026 16711746
-0.57167298 -3.9076736 47.751225 16711746
1.2987082 -4.359026 46.436489 16711746
-1.1113824 -3.9290502 46.462753 16711746
-3.6704607 -3.8860927 46.246941 16711746
-3.0707469 -3.7622581 45.5112 16711746
-1.2538218 -3.8714702 45.973526 16711746
-1.0639294 -3.8527343 46.058582 16711746
-3.7098958 -3.9758654 47.14632 16711746
-1.6942999 -3.9812562 47.335567 16711746
-0.057561237 -3.9553359 46.881966 16711746
-0.39524901 -3.8682818 46.720551 16711746
0.37167886 -3.9230268 46.42448 16711746
-1.016885 -3.7774172 45.572979 16711746
-1.0282725 -3.8583477 46.245338 16711746
-1.0260174 -3.9245751 47.406841 16711746
-3.0602217 -3.8477082 46.136189 16711746
0.12762998 -4.1456156 48.284451 16711746
-0.28615654 -3.853687 45.957226 16711746
-0.044120625 -3.8572536 46.30582 16711746
-2.6493683 -3.8861444 46.217491 16711746
-1.1321778 -3.8978546 46.550953 16711746
-0.86007237 -4.0095949 48.005413 16711746
1.5301412 -4.1404762 48.597538 16711746
-1.8005307 -3.8873136 46.531437 16711746
-3.1452851 -3.8555186 46.427483 16711746
-0.70463198 -3.786252 45.748596 16711746
-10.238948 -4.6636639 52.406582 16711746
1.0021788 -4.150135 49.261337 16711746
-0.35035604 -3.8428807 46.142208 16711746
-0.94806808 -3.9041328 47.061436 16711746
0.4705804 -4.0807705 47.671127 16711746
-0.47480559 -3.8016586 45.804607 16711746
-0.32755098 -3.8483741 46.155056 16711746
0.33859134 -3.839107 45.724072 16711746
0.77175415 -3.871999 46.440796 16711746
-0.040822979 -3.7597005 45.547939 16711746
-0.63355535 -3.9007747 47.050644 16711746
0.43443573 -3.9020886 46.540852 16711746
0.87293655 -3.9804564 47.061516 16711746
-1.2757709 -3.8514102 46.013645 16711746
1.4898138 -4.1508336 48.484097 16711746
-0.68071973 -3.8251908 46.449718 16711746
-0.34391811 -3.8382061 46.171604 16711746
0.14006943 -4.0204201 48.895081 16711746
0.98629606 -4.1555848 49.488926 16711746
-0.88292819 -3.8633435 47.343365 16711746
-3.5098779 -3.8658111 46.151447 16711746
0.42359856 -3.8828306 45.947983 16711746
-9.0172129 -7.0747232 50.164223 16711746
0.25460315 -4.1736102 47.433186 16711746
-3.4940298 -3.8673246 45.401974 16711746
-0.84024298 -3.8755047 46.494064 16711746
-1.1346891 -3.8435519 46.660831 16711746
-0.71118873 -3.9867506 46.603893 16711746
0.32363218 -4.1167302 47.670242 16711746
0.19924739 -3.9645007 46.282944 16711746
-1.0529807 -3.8970709 45.825718 16711746
0.34249112 -4.0692573 48.260674 16711746
-1.5765082 -4.3048472 45.379025 16711746
-13.935686 -4.6409354 56.205414 16711746
-0.078465506 -4.9380374 53.507957 16711746
-1.3553977 -3.894345 46.4133 16711746
-1.6621437 -3.9967752 45.578838 16711746
-3.1080408 -3.7385025 45.536613 16711746
0.51137996 -4.0570455 47.024563 16711746
-0.16452692 -4.563961 54.371979 16711746
-1.4485165 -3.8846142 47.215786 16711746
15.788273 -13.089296 79.666779 16711746
-16.76877 -16.85181 79.581329 16711746
-1.1313897 -4.0729084 48.678402 16711746
-0.81495166 -3.8255603 46.267483 16711746
0.41844752 -3.8834424 46.120937 16711746
0.32843661 -3.7838607 45.565453 16711746
-3.7532489 -3.7583895 45.973061 16711746
-2.9730067 -3.6044269 45.460613 16711746
0.50470036 -3.9125614 45.802128 16711746
0.95714909 -3.9920595 45.318581 16711746
0.39189169 -3.9108822 46.070595 16711746
0.31335193 -4.1110072 48.055721 16711746
-0.13621147 -3.8747966 46.216625 16711746
-1.348688 -3.8822758 45.547272 16711746
-2.9253719 -3.7679334 45.863235 16711746
-1.5674378 -3.8160019 45.751965 16711746
-1.0328531 -3.8754961 46.215015 16711746
2.4440765 -4.064734 46.655796 16711746
2.2978303 -4.2817941 49.954216 16711746
-1.5552434 -3.8410115 45.711319 16711746
1.4414552 -4.0626082 48.043995 16711746
-0.70120376 -3.9036071 46.071274 16711746
-2.0654457 -4.0178294 47.309841 16711746
-10.585948 -4.6470599 52.734417 16711746
1.6624769 -4.0568275 48.913158 16711746
-0.82757026 -3.9571967 49.036602 16711746
-0.46805739 -3.8118579 45.966206 16711746
-1.2546952 -4.0836973 49.177845 16711746
-1.3692356 -3.8538239 46.299335 16711746
-0.82468611 -3.8540397 46.230389 16711746
-0.17158376 -4.180006 49.636604 16711746
-0.32410321 -3.8296664 45.883736 16711746
0.18465157 -3.9357836 46.688671 16711746
0.10054395 -3.9021926 46.357674 16711746
-0.080294311 -3.8660848 46.491207 16711746
-0.55436152 -3.8672583 47.064407 16711746
-1.9742975 -3.9531488 46.707203 16711746
-0.66922617 -3.7837858 46.931519 16711746
-1.3670135 -3.8785956 45.942112 16711746
-4.0896196 -3.8050959 46.161331 16711746
-4.7852583 -3.7659152 47.065472 16711746
-0.90725958 -3.8066533 45.853699 16711746
0.37392175 -3.8149123 45.984688 16711746
1.3644491 -4.1124015 48.141224 16711746
-3.724072 -3.9982667 45.509209 16711746
-3.2155874 -3.958899 46.732327 16711746
0.37047398 -3.8169408 45.986935 16711746
-1.7136679 -3.9558463 45.814713 16711746
-0.88111615 -3.9758885 47.044735 16711746
-1.437537 -3.7984102 45.959797 16711746
-2.9602001 -3.8075566 45.806683 16711746
-2.9473064 -3.8229997 45.778572 16711746
-1.2779289 -3.9160333 46.636597 16711746
-1.0278049 -3.8588989 46.539951 16711746
-0.71208054 -4.0736365 46.415833 16711746
-0.060939249 -3.9169211 46.844631 16711746
-1.7038647 -3.9926128 47.302765 16711746
-1.5208991 -3.6139064 46.594063 16711746
-0.11186167 -3.7916808 47.00301 16711746
-0.077916361 -3.9575849 47.057774 16711746
-2.4938872 -3.7263763 45.888767 16711746
0.83472252 -4.0261059 47.732761 16711746
-3.1111915 -4.0944762 49.667938 16711746
-0.81229419 -3.8636615 46.203888 16711746
0.7970984 -4.0429397 47.670845 16711746
0.22708014 -3.9873147 47.085297 16711746
-2.1812949 -4.2927361 50.503174 16711746
-1.7316265 -4.7787261 45.179718 16711746
-2.1739385 -4.2980447 51.598705 16711746
-1.681711 -3.9765449 45.640717 16711746
-2.4263935 -4.4936595 54.47348 16711746
-2.2289131 -4.4664097 52.853188 16711746
-0.17774823 -4.9329491 53.682491 16711746
-5.29634 -3.8363757 46.970692 16711746
0.056279905 -4.1212707 48.672272 16711746
-2.140738 -4.1085687 48.978436 16711746
-0.050754432 -3.8149476 45.793232 16711746
1.6670381 -4.2208171 50.437195 16711746
-1.0406823 -3.8653975 46.383423 16711746
1.7155206 -4.0721731 48.170731 16711746
2.2970266 -4.1704035 48.908566 16711746
-2.4542696 -4.021647 47.666958 16711746
-1.1577028 -3.9917002 47.930531 16711746
-5.7479506 -3.970536 46.865078 16711746
3.5665746 -4.295651 50.588799 16711746
0.68021744 -3.9880519 46.920261 16711746
-4.1094208 -6.6772075 50.234787 16711746
0.48399535 -4.080369 47.679684 16711746
-2.4428182 -3.7476487 45.748055 16711746
-0.36697039 -3.8600326 46.625374 16711746
-5.7747302 -3.9332213 46.818947 16711746
1.1183772 -4.0290265 48.04081 16711746
-6.485055 -3.7363458 47.274071 16711746
-3.4016345 -4.732152 49.810669 16711746
-0.62824583 -3.8226793 46.281727 16711746
-1.9699172 -3.9636941 46.680931 16711746
0.41914904 -3.8886714 45.956268 16711746
-3.1267221 -3.8199553 46.190296 16711746
-2.7020018 -7.1659031 52.440723 16711746
0.31710833 -4.1059113 47.663021 16711746
-0.90636611 -4.3378596 51.958107 16711746
-3.1516106 -4.9132404 57.687031 16711746
-2.4614549 -4.463161 54.870316 16711746
-4.6243372 -5.5548835 56.662025 16711746
-1.8919806 -3.9672818 46.984531 16711746
-2.0443451 -4.0137749 47.337723 16711746
-2.6092641 -3.9970992 47.670475 16711746
-1.0665362 -3.8814685 46.822315 16711746
-1.14657 -3.8969808 46.541889 16711746
-0.048456293 -3.945308 46.87698 16711746
-1.6072004 -3.9188652 46.945812 16711746
-1.6379066 -3.8237405 46.580563 16711746
-6.1579752 -3.8706436 47.135086 16711746
-5.8318472 -3.9240255 46.851089 16711746
-0.057362564 -3.9499133 46.902824 16711746
0.45941281 -4.0920253 47.637665 16711746
-5.5830221 -3.983932 46.715019 16711746
0.4213897 -4.0044742 47.441154 16711746
-1.4016887 -3.9797964 47.315948 16711746
-2.2490437 -4.0850792 47.260677 16711746
1.2253624 -4.1368761 48.607796 16711746
-0.35684583 -3.9575024 47.379452 16711746
0.4764173 -4.0359278 47.243885 16711746
-0.93923879 -3.9007196 47.077011 16711746
-1.6972722 -3.8689053 46.077763 16711746
-3.8565137 -3.894937 46.033398 16711746
-2.9134052 -4.0069542 48.536201 16711746
0.10366023 -3.8898902 46.690434 16711746
-0.41973168 -3.8512862 46.376545 16711746
-1.2793559 -3.9944875 47.563473 16711746
-0.26150426 -3.8805382 46.814827 16711746
-0.64442658 -3.9012666 47.454437 16711746
-2.9856148 -3.9749238 48.669308 16711746
1.1393808 -4.0045662 47.458817 16711746
-0.38744554 -3.9973936 47.706596 16711746
0.75611138 -3.9381468 47.046013 16711746
-1.7780197 -3.8929346 46.402725 16711746
-0.83351767 -3.9932635 48.10561 16711746
-2.4851918 -4.002234 47.713284 16711746
-0.3576104 -3.9436946 47.406185 16711746
-1.6484185 -3.9027658 47.009663 16711746
-1.9052892 -4.1002212 46.993378 16711746
-0.96399099 -3.8759308 46.451832 16711746
-1.6108881 -3.9117861 46.966217 16711746
-2.4769521 -4.0037365 47.732212 16711746
3.6439295 -4.2838378 50.676826 16711746
-0.68440127 -3.7996595 46.498081 16711746
-1.3379836 -3.8863196 46.239254 16711746
-1.0640589 -3.896662 46.783905 16711746
-3.59689 -3.8875988 45.757961 16711746
-3.5838246 -4.0859733 49.586933 16711746
0.28100383 -3.8528795 46.50563 16711746
-3.1849139 -4.0911069 49.671349 16711746
-1.3661562 -3.8558714 46.504524 16711746
-0.33695617 -3.743247 46.839836 16711746
-1.3086832 -3.9282851 46.876923 16711746
-0.11268036 -3.878211 46.399025 16711746
-1.8124633 -3.9167769 46.610065 16711746
-3.5758977 -4.1043348 49.495888 16711746
0.2213342 -4.2441339 49.24025 16711746
-4.014966 -4.2788534 51.003803 16711746
-5.5836511 -3.8391006 46.473858 16711746
-3.3252106 -3.8036451 45.85413 16711746
-0.18051849 -4.5501728 54.388565 16711746
-0.75943077 -4.3644552 52.088379 16711746
-2.5643909 -3.8885291 47.081257 16711746
-1.7195549 -4.2138114 47.370373 16711746
1.2051212 -3.9675684 47.547722 16711746
-0.68626529 -3.8798373 46.843056 16711746
-2.2360189 -3.9519629 47.047722 16711746
-2.452136 -3.9822786 47.33667 16711746
-1.349831 -3.9074132 46.275532 16711746
-0.82086557 -3.8180234 46.545425 16711746
-0.87764442 -3.8756936 46.715523 16711746
-1.7875441 -3.9371307 46.573277 16711746
0.81839108 -3.8263347 46.516228 16711746
2.1058311 -4.0855298 47.730659 16711746
-1.8009976 -3.9224718 46.599236 16711746
-1.9034156 -3.9053111 46.263203 16711746
-2.5942326 -4.0147257 47.649963 16711746
0.99989402 -3.9269137 46.763058 16711746
1.2709078 -3.9412844 46.904819 16711746
1.1176293 -4.0161252 47.411366 16711746
-0.53454328 -3.8439162 47.090279 16711746
-0.13149185 -3.9916024 47.436848 16711746
-0.69992685 -3.8858304 46.679234 16711746
2.0000532 -4.1441364 47.593826 16711746
-2.2134013 -4.0876255 47.575684 16711746
-0.87947208 -3.9196284 46.658745 16711746
-0.38908738 -4.023984 47.632515 16711746
-0.19854981 -3.9323959 46.727501 16711746
-1.4526635 -3.982425 47.545715 16711746
-0.038123585 -3.9328885 46.883865 16711746
-1.0126131 -3.8013797 46.852497 16711746
-1.1734138 -3.9464934 47.186775 16711746
3.2509289 -4.857523 51.256996 16711746
0.56637293 -3.8450971 46.614071 16711746
0.46190074 -4.0810962 47.672523 16711746
-0.4484283 -3.8412454 47.18298 16711746
0.39372498 -4.7809534 49.518723 16711746
-4.7803898 -4.2105155 51.992191 16711746
-10.333656 -7.4407897 60.81192 16711746
-0.62891775 -4.0627828 49.05442 16711746
-2.511615 -4.0149064 48.311928 16711746
-0.2487551 -4.3226585 50.288319 16711746
-17.887104 -4.1050658 55.549675 16711746
-2.0196822 -8.5864353 55.560307 16711746
-3.897835 -4.307848 50.911152 16711746
3.9920428 -10.41548 60.111839 16711746
-1.6864232 -4.0240111 47.941364 16711746
-0.19512716 -4.4913597 51.809395 16711746
-0.73769718 -3.9429815 47.705029 16711746
-3.7433088 -4.0436106 49.75898 16711746
-1.2807707 -3.9564281 47.146984 16711746
-2.1728964 -4.3288059 50.369736 16711746
1.1136491 -4.0867047 48.433098 16711746
0.22974269 -4.1016073 47.926907 16711746
-1.272097 -4.0045233 47.512688 16711746
-1.1886809 -3.9631126 47.316334 16711746
-1.9227724 -3.9101555 46.578079 16711746
-4.3854833 -4.3127747 52.531788 16711746
-1.9069555 -4.3838487 51.274372 16711746
-1.7470499 -4.2033567 49.742607 16711746
-1.1295499 -3.9387407 47.918282 16711746
-0.64796758 -3.9485695 47.895584 16711746
-2.4933269 -3.9584248 47.39492 16711746
-0.87948161 -3.8993754 47.393032 16711746
-2.4098423 -3.7972083 46.443993 16711746
-1.335412 -3.9319808 46.941624 16711746
1.2076532 -4.0460176 48.565178 16711746
-1.1559349 -4.0009017 47.897331 16711746
-0.76732749 -3.8891621 47.016586 16711746
0.43194672 -3.887284 46.730976 16711746
-2.3436079 -3.8543696 46.36335 16711746
-0.933532 -3.9490604 47.714241 16711746
-1.8998268 -3.9151351 46.516747 16711746
-2.4307849 -3.9410632 47.988873 16711746
2.5125134 -4.0983672 49.221024 16711746
-1.1251712 -3.9355524 47.316566 16711746
-1.4492229 -3.9458981 47.046349 16711746
-3.5973833 -4.0040054 47.961391 16711746
-3.0728884 -3.9864063 47.276619 16711746
-2.2943273 -4.0382204 47.703106 16711746
0.72116154 -3.9370501 47.020374 16711746
-1.4441072 -4.6249065 46.786945 16711746
-3.4764647 -4.0820851 48.34613 16711746
-2.0469146 -4.2995725 48.186111 16711746
-0.93877506 -3.9784591 47.657356 16711746
-1.0026169 -3.9651177 47.280502 16711746
-0.19009501 -3.9665482 47.094986 16711746
-2.1278365 -3.999711 47.258759 16711746
-0.25173798 -4.0231242 48.167671 16711746
-8.3505793 -4.4787598 54.234112 16711746
0.23235112 -4.242373 49.242107 16711746
-2.0315564 -4.4422255 48.168858 16711746
-0.95032716 -4.3381371 51.739628 16711746
-1.2399442 -4.4303269 53.26041 16711746
15.478895 -10.134084 72.726059 16711746
-4.9754953 -5.6106586 57.762463 16711746
-1.1354219 -4.0694871 48.690868 16711746
-1.1856456 -4.0395718 48.422649 16711746
-0.63975221 -3.8987966 47.457653 16711746
0.22899598 -3.9403424 46.98806 16711746
0.083543405 -3.9203227 46.628017 16711746
-1.2778347 -3.9541183 47.150936 16711746
1.6333869 -3.9587212 46.951714 16711746
0.22950606 -4.242178 49.253254 16711746
-0.58523804 -4.2162552 48.013496 16711746
-3.225234 -3.7792168 46.806721 16711746
-2.8106689 -3.9887753 47.534378 16711746
-2.8619225 -3.9119895 46.970322 16711746
-1.2802885 -3.9201696 46.877991 16711746
-2.777926 -3.7204061 46.470493 16711746
-3.5376194 -3.8439751 46.922623 16711746
-2.8368523 -3.8362679 46.870354 16711746
-1.4480144 -3.9876204 47.513885 16711746
-2.1235857 -3.9698203 47.131775 16711746
-1.1667447 -4.0128627 47.338005 16711746
-2.9487991 -3.7705588 46.599411 16711746
-1.4607964 -4.0807114 48.14254 16711746
-0.082676165 -3.9733355 47.02993 16711746
-1.1692303 -3.9383495 47.177799 16711746
-1.44919 -4.0952449 48.109558 16711746
-0.8941946 -3.9024479 47.2551 16711746
3.7499254 -4.7747254 49.493332 16711746
-3.5204399 -4.0819488 48.265583 16711746
-0.44235146 -4.0339732 48.294792 16711746
-2.5618706 -3.9266796 47.142227 16711746
-3.7674279 -3.9781489 48.759201 16711746
1.4744245 -4.0614343 48.060581 16711746
1.7561555 -4.0951967 48.343914 16711746
1.9116896 -4.1491551 48.981937 16711746
-1.2501543 -4.3353209 47.353741 16711746
-0.85263437 -3.9650671 48.19104 16711746
0.44114715 -4.0395837 47.17181 16711746
-2.0469413 -4.0328231 47.292549 16711746
-3.1604314 -3.8617415 46.912952 16711746
-2.1293886 -3.9751174 47.218914 16711746
2.9341958 -4.6913295 50.17223 16711746
-2.9365735 -3.9598219 47.345684 16711746
-0.46333441 -4.1278605 49.418488 16711746
-1.269286 -4.0087876 47.514324 16711746
0.51306593 -4.0341988 47.440109 16711746
-0.38589856 -3.959569 47.765648 16711746
-1.5317523 -3.9657633 47.302025 16711746
1.8703012 -4.1625609 48.925453 16711746
-0.76270723 -4.1495957 49.466999 16711746
-3.8972802 -4.4963536 48.949169 16711746
0.39856341 -4.0133319 47.403271 16711746
0.36646536 -4.7725205 49.716976 16711746
-2.0769801 -3.8857472 46.341461 16711746
-1.2183241 -4.0183811 47.73481 16711746
0.18130483 -4.2871089 49.395439 16711746
4.4771776 -4.7934608 53.482079 16711746
0.21528918 -4.0885386 48.143894 16711746
-1.8086851 -4.3413959 47.542255 16711746
-0.53762388 -4.4165258 52.640923 16711746
-0.95454562 -4.7994542 57.277634 16711746
-2.8537142 -10.512568 61.575779 16711746
0.24482906 -4.2387142 49.265366 16711746
-1.6409738 -3.9930434 47.37252 16711746
-1.6750849 -4.0817823 47.84116 16711746
-3.7962184 -4.5187335 48.826035 16711746
-1.1162415 -3.9473748 47.303761 16711746
2.7024605 -4.2098346 49.855545 16711746
1.4654238 -4.0173306 47.520267 16711746
-0.37342617 -4.0250635 47.920715 16711746
-1.1517348 -4.0059309 47.894081 16711746
-1.007894 -4.0921025 49.070362 16711746
0.75895691 -3.9307477 47.257973 16711746
-0.87790948 -3.9143484 47.233776 16711746
-0.37414831 -3.9851005 47.978519 16711746
0.25713676 -4.2396035 48.015087 16711746
0.29586697 -4.2097425 48.128052 16711746
-3.2110412 -3.8352351 46.968658 16711746
-2.3533731 -3.965301 47.351177 16711746
-0.72384644 -3.9216738 47.756809 16711746
-3.329726 -4.1446872 48.158447 16711746
-1.5500226 -3.9705334 47.233467 16711746
-1.4264448 -4.1698265 48.96616 16711746
-1.5399655 -3.9545231 47.318314 16711746
-3.2117975 -3.8732848 47.000504 16711746
-0.61558765 -3.8670261 47.101429 16711746
-1.4738948 -3.937187 47.176823 16711746
0.92843342 -3.9415774 47.136948 16711746
-1.7029177 -3.9970782 47.289108 16711746
-1.5393343 -3.9555168 47.311352 16711746
0.39372551 -3.9912081 47.267265 16711746
-1.3705757 -4.0991321 47.737579 16711746
-2.2288327 -3.880116 46.902054 16711746
-0.72823232 -3.9582238 48.100616 16711746
-0.64263183 -3.860568 47.245434 16711746
-0.58106029 -4.0636115 48.396152 16711746
0.26393187 -4.1103673 47.799583 16711746
0.22665544 -3.9360812 46.992817 16711746
-0.27169466 -3.9773443 47.600021 16711746
1.9634358 -4.3048978 49.797596 16711746
1.308773 -4.0991712 47.350388 16711746
-2.5805843 -3.8689163 46.804802 16711746
-1.4237313 -4.0204973 47.45866 16711746
-1.9472589 -4.081553 47.050793 16711746
0.36920547 -4.1457438 48.30278 16711746
-2.4460886 -4.0586267 48.242153 16711746
-0.44093505 -4.0398049 48.29599 16711746
0.47084492 -4.0292163 47.19677 16711746
-0.57247263 -3.9084854 47.742264 16711746
-1.9132293 -3.9707158 47.176708 16711746
-2.9081905 -3.9674306 47.1782 16711746
-3.6375792 -4.0107484 47.976738 16711746
-2.8156457 -4.0620008 49.045559 16711746
-1.2755654 -3.9611914 47.026459 16711746
1.2514913 -4.3752213 51.684368 16711746
-0.32135245 -4.1866679 49.44257 16711746
0.26109517 -3.9714484 47.112236 16711746
-1.1921024 -3.940973 47.477882 16711746
-0.74396211 -3.9224603 47.77916 16711746
-2.9388294 -4.0034571 47.301075 16711746
-0.72312033 -3.9635334 48.082676 16711746
-0.57806402 -4.0448165 48.450108 16711746
0.27933913 -3.9381485 47.165379 16711746
-0.37886906 -4.0004044 47.948929 16711746
-1.2235849 -4.239388 50.33395 16711746
-0.37380177 -4.0070152 47.954708 16711746
1.0773365 -4.0362287 47.397888 16711746
-3.6774707 -3.9611363 47.43314 16711746
-1.8474684 -4.3363843 47.58102 16711746
-0.044930387 -4.0069475 47.319839 16711746
-0.93783528 -3.9352517 47.746346 16711746
-10.983993 -5.2561631 55.11927 16711746
-0.0083325757 -3.913465 47.938915 16711746
-0.12845872 -4.1470613 48.949554 16711746
-2.550169 -4.0598369 47.557571 16711746
0.29194206 -4.0723791 47.858311 16711746
0.51532829 -4.1509738 48.69952 16711746
0.63523459 -3.9191442 47.111088 16711746
-0.47780743 -3.9499135 47.766979 16711746
-1.0158716 -3.9653406 47.607796 16711746
-1.0745502 -4.0187187 48.140453 16711746
0.050582547 -4.1075959 48.216694 16711746
-3.0484862 -3.9867349 47.590794 16711746
0.41768688 -4.1143904 48.37101 16711746
-1.9308343 -4.1410513 49.260326 16711746
0.47652221 -4.2781868 49.353081 16711746
-3.6155727 -4.0122514 47.966396 16711746
-0.25505573 -3.9420261 47.675644 16711746
-0.022517655 -4.0466752 47.559242 16711746
-0.21710849 -4.2034745 49.207584 16711746
0.23685923 -4.2416143 48.740284 16711746
-0.72618753 -3.9262023 47.734344 16711746
-1.4414564 -4.0561156 48.215069 16711746
-3.6636343 -3.8002014 47.488117 16711746
1.3049603 -4.3482094 51.792061 16711746
-1.5147139 -4.2219701 49.233952 16711746
-0.36981601 -4.0331259 47.946037 16711746
-2.1377971 -3.9918697 47.269417 16711746
0.2791293 -3.9860992 47.219677 16711746
-0.91312438 -3.941576 47.411152 16711746
-2.7434537 -3.7311993 46.738262 16711746
-2.6766336 -3.7727458 46.89695 16711746
0.19892929 -3.9757502 47.327095 16711746
-0.95756811 -4.0626054 48.650894 16711746
3.1421623 -4.3870139 50.012043 16711746
-0.57366693 -4.0461988 48.449257 16711746
-1.9395927 -3.8979535 46.972542 16711746
-2.2287009 -3.8821647 46.909866 16711746
-1.9074706 -4.0119829 47.36932 16711746
-2.6395714 -3.7998788 46.866108 16711746
-2.8192461 -3.7342026 46.780815 16711746
-2.9138525 -4.0108538 48.521523 16711746
-1.8381436 -4.2269793 48.230206 16711746
-6.1540613 -4.0899329 50.016891 16711746
-1.9889681 -4.0103245 47.172005 16711746
-0.076041244 -4.2586417 49.465092 16711746
-1.7884115 -4.0314751 47.410473 16711746
-3.0477328 -4.9690409 57.11729 16711746
0.044735625 -4.5130734 51.628456 16711746
24.730389 -10.221807 70.955734 16711746
27.368244 -10.673082 73.949402 16711746
-3.5764246 -3.8951519 47.290131 16711746
-2.1175709 -3.9732215 47.113136 16711746
-0.013501439 -4.1451912 48.826359 16711746
-1.3575206 -4.0054994 47.643467 16711746
0.41014507 -4.0873199 47.687748 16711746
-1.1097466 -3.9465721 47.307285 16711746
-0.25411537 -4.182734 49.182579 16711746
-1.7024266 -4.0046062 47.282196 16711746
-2.0291438 -4.2000966 49.230289 16711746
-1.4069072 -4.0914125 48.498158 16711746
-4.2026949 -4.0198035 48.91383 16711746
-0.92273104 -3.9510376 47.712414 16711746
-0.744932 -3.8793905 47.826054 16711746
-3.1017623 -3.9545352 47.632374 16711746
-0.74605769 -3.9380703 47.753349 16711746
0.089853525 -3.9818232 47.626369 16711746
-2.6521091 -3.7967603 46.875511 16711746
-1.831786 -4.2339621 48.210354 16711746
-4.1619577 -3.9559326 48.186646 16711746
1.4687638 -4.0553408 48.066044 16711746
-2.2046959 -4.0384669 47.537663 16711746
-0.045375176 -4.1645694 48.77261 16711746
-2.1597002 -4.0773892 47.470856 16711746
-3.8816681 -4.1422548 48.541771 16711746
0.52796477 -4.025569 47.768406 16711746
-2.9143629 -3.9631193 47.560173 16711746
-4.7352185 -6.0786042 49.883049 16711746
0.38527852 -4.8088708 49.945415 16711746
-1.1522264 -4.0685935 48.695972 16711746
-3.2421839 -4.0881939 47.285561 16711746
-3.9182861 -3.9484799 47.200417 16711746
-13.163708 -7.0671039 55.406948 16711746
-1.298154 -4.041698 48.043812 16711746
-0.77346295 -4.0858583 48.932957 16711746
-0.64619118 -4.1378922 49.403614 16711746
-1.5162821 -4.1892743 49.400948 16711746
2.2575839 -4.1874337 48.51878 16711746
-0.8414529 -3.9852703 48.157276 16711746
-10.574821 -8.3188343 55.359573 16711746
-1.44335 -4.0499959 48.231487 16711746
-0.6452927 -3.953301 47.882751 16711746
-3.9605105 -4.2960143 49.104305 16711746
-0.66559041 -4.2774282 50.514709 16711746
-7.8152504 -4.097888 49.111858 16711746
-2.4352725 -4.5512123 54.898464 16711746
-2.6103122 -5.1666222 59.392063 16711746
-1.5111501 -4.1776104 49.425819 16711746
-8.9798632 -4.1923666 52.114704 16711746
-0.2884357 -4.067184 48.371613 16711746
-8.9903631 -4.1991901 52.130802 16711746
-0.5171448 -4.0562739 48.982338 16711746
-2.1187086 -3.9708595 47.123077 16711746
-0.94340199 -3.9506733 47.916595 16711746
-0.40254137 -4.2481289 50.027409 16711746
0.54868984 -4.1283698 48.782917 16711746
-2.6689773 -3.9440539 46.766598 16711746
-1.8275088 -4.18155 49.521996 16711746
-2.2958932 -3.9762831 47.17181 16711746
-0.03587902 -4.1777239 49.339054 16711746
-0.76455611 -4.1569381 49.444942 16711746
-2.8648801 -3.9948659 47.531013 16711746
-3.5346267 -3.8869405 47.55645 16711746
-14.641768 -4.5274091 56.773674 16711746
-0.55830431 -4.0109267 48.171886 16711746
-0.73635554 -3.9005961 47.795506 16711746
-1.3962665 -4.0516272 47.868053 16711746
-3.0435092 -3.9518046 47.001808 16711746
1.0018991 -3.9822316 48.369537 16711746
-1.1571018 -3.9489269 48.00174 16711746
0.13955654 -4.112709 48.461666 16711746
-0.4518716 -4.0819111 48.198689 16711746
-0.94474423 -3.9276688 48.410084 16711746
-3.2419131 -3.9533203 47.283615 16711746
1.5586041 -4.871839 53.229519 16711746
0.24105929 -4.0134411 48.324841 16711746
-0.6500302 -3.9555147 47.888378 16711746
-2.3225017 -4.2810822 53.441696 16711746
-11.733658 -5.2056041 55.720776 16711746
0.17498745 -4.5559535 52.526085 16711746
0.19028141 -4.0363226 48.441307 16711746
-0.55521762 -4.4257021 52.596451 16711746
1.0371386 -4.148828 49.265308 16711746
-0.94253367 -3.9482853 47.919262 16711746
-1.4036039 -4.030755 47.753403 16711746
-2.7112451 -3.9048483 46.937019 16711746
-1.7118288 -4.2064362 47.350544 16711746
-3.7885444 -3.9522219 48.198059 16711746
-1.168732 -3.9975512 48.179497 16711746
0.18045878 -4.0772448 48.084751 16711746
-1.1723801 -3.9598467 47.767384 16711746
-0.031204047 -4.0419927 48.273972 16711746
-0.053792018 -4.0900836 48.384609 16711746
-2.1113555 -3.9777966 47.112728 16711746
-4.1753621 -3.9292846 48.430386 16711746
-2.4105949 -4.0212727 47.308662 16711746
-2.2451265 -4.0994186 47.349613 16711746
-5.3851247 -3.9454353 49.412811 16711746
0.41889623 -4.1150322 48.332394 16711746
-0.22037488 -3.9733465 48.052647 16711746
-5.3095751 -3.9711692 49.332497 16711746
-1.6130234 -5.3841825 61.279415 16711746
0.058850944 -4.1140099 48.210987 16711746
-0.25829309 -4.1261244 48.732227 16711746
-1.197605 -4.1631293 49.422867 16711746
-1.4168248 -4.0803485 48.522007 16711746
-1.2181052 -4.0860276 48.887966 16711746
-1.385648 -4.057198 48.854084 16711746
-2.6198134 -3.9298439 47.256516 16711746
-1.8173944 -4.0496697 47.336071 16711746
-3.6892993 -4.0760312 48.800041 16711746
-0.71404779 -3.9283438 48.151554 16711746
-0.37945616 -4.0728397 48.571777 16711746
1.5600708 -4.2774792 50.142555 16711746
-1.143587 -4.1657085 49.587757 16711746
-0.060277373 -4.2484941 49.506355 16711746
0.055616915 -4.1053753 48.218922 16711746
-0.93596905 -4.0727882 48.807476 16711746
-2.4082968 -3.9713824 47.549446 16711746
0.67981952 -4.1921101 48.830341 16711746
-0.023086887 -4.1164889 48.701443 16711746
-3.0069129 -3.9624994 47.11124 16711746
-0.89104372 -4.1101947 49.093685 16711746
-3.6269903 -3.9877594 47.986828 16711746
-2.9135892 -4.1158051 50.333073 16711746
-0.99406213 -3.9927788 48.417164 16711746
-2.1571231 -4.0753679 49.046928 16711746
-1.530903 -4.1655087 49.47308 16711746
-0.052269597 -4.0832672 48.195393 16711746
-0.92931575 -4.0000048 48.287968 16711746
-0.7796151 -4.087924 48.926716 16711746
0.34128904 -4.0304155 47.953091 16711746
-3.3843746 -3.9430599 48.205032 16711746
-3.6458771 -4.0496945 48.40131 16711746
-1.779099 -4.0486989 47.411648 16711746
-2.7405145 -4.0884418 49.806835 16711746
-1.7261453 -4.0867476 48.083309 16711746
-0.36177644 -4.2229648 49.310253 16711746
-0.59170437 -4.0819407 48.892265 16711746
-2.8314762 -3.9354229 46.982765 16711746
-2.7010682 -4.0046129 48.089802 16711746
-2.2615602 -4.0976615 47.311222 16711746
-1.4940553 -4.2001505 49.724556 16711746
1.2049353 -4.3897839 51.467648 16711746
0.83804524 -4.1971669 49.377739 16711746
0.010924821 -4.1994686 49.180233 16711746
-0.072335079 -4.1264687 49.033134 16711746
-11.790597 -4.6651168 55.71188 16711746
0.76416099 -4.2084069 47.205132 16711746
-2.6342654 -3.9879856 47.704678 16711746
-3.0778308 -3.9660423 47.6105 16711746
-1.2144024 -4.2845345 50.170761 16711746
-0.022008691 -4.2263665 49.080704 16711746
0.067728199 -3.9535072 48.65736 16711746
-0.80022526 -4.0485978 48.687336 16711746
-0.51805449 -4.110321 48.563515 16711746
-2.2976656 -4.2075272 51.861259 16711746
-3.5725324 -4.0699549 47.026852 16711746
-1.2589316 -4.1423488 49.735352 16711746
-2.6392031 -3.923125 47.261742 16711746
-0.71877128 -3.9525452 48.110775 16711746
0.28699866 -4.2054977 49.14146 16711746
-1.4476871 -4.2922668 51.292259 16711746
-12.949668 -4.3706808 53.774147 16711746
-0.38860351 -4.2397408 50.067139 16711746
1.7655965 -4.4434242 51.519878 16711746
-13.88994 -4.4703217 55.947929 16711746
-1.4999563 -4.1237221 48.702961 16711746
0.37750345 -4.1408277 48.290394 16711746
-1.3020655 -4.0294523 48.076092 16711746
-0.7449404 -4.1715178 49.785793 16711746
-2.0600069 -4.2421999 51.064224 16711746
-1.4911901 -7.2016129 52.172405 16711746
-5.4763837 -7.7402725 60.492737 16711746
-3.1999669 -4.9111581 57.06905 16711746
-0.68911815 -4.0882874 48.416615 16711746
-2.8335512 -3.9438922 47.10107 16711746
-2.9274402 -3.8631742 47.36776 16711746
