# .PCD v0.7 - Point Cloud Data file format
VERSION 0.7
FIELDS x y z rgb
SIZE 4 4 4 4
TYPE F F F F
COUNT 1 1 1 1
WIDTH 1195
HEIGHT 1
VIEWPOINT 0 0 0 1 0 0 0
POINTS 1195
DATA ascii
1.8082554 -19.595972 36.511318 16711746
16.059507 -22.409016 32.921711 16711746
1.2623063 -18.274933 39.056774 16711746
5.8165512 -23.191101 35.417759 16711746
11.009729 -24.797592 33.684227 16711746
8.9784451 -17.579933 45.572384 16711746
2.7226934 -15.643057 35.546535 16711746
8.7648306 -20.706444 33.865364 16711746
2.116818 -14.199081 39.476761 16711746
7.081368 -15.327466 39.54493 16711746
0.33463404 -18.131828 37.056824 16711746
-3.8693817 -21.768312 39.610809 16711746
7.5189571 -12.45025 41.230938 16711746
7.0468712 -21.222345 34.480713 16711746
6.9313354 -21.931059 35.783028 16711746
0.056194521 -16.947031 37.585606 16711746
4.1159515 -10.369204 37.357433 16711746
4.3039021 -9.8681221 37.152702 16711746
26.635443 -32.023861 60.682327 16711746
27.38796 -36.045567 60.880863 16711746
20.24555 -33.650249 49.2173 16711746
27.389072 -59.221302 41.124416 16711746
4.048203 -12.678502 37.38126 16711746
-0.27015045 -13.67423 45.888416 16711746
17.591259 -40.985138 39.846191 16711746
12.633733 -23.107729 51.441376 16711746
90.600555 -100.41893 116.94022 16711746
81.941116 -212.68921 185.74608 16711746
7.7755227 -25.760572 49.582687 16711746
3.2015793 -9.022891 42.826218 16711746
2.9019659 -12.464613 43.915737 16711746
2.1323686 -9.2918711 42.856037 16711746
2.2121162 -11.994272 44.36393 16711746
4.1969929 -21.969715 43.118927 16711746
51.314129 -57.365974 84.605347 16711746
13.006553 -26.077246 50.56184 16711746
33.964855 -47.731518 67.99823 16711746
3.3423049 -10.929327 43.403744 16711746
6.6228585 -19.232832 45.817738 16711746
6.9981608 -16.456791 44.884655 16711746
5.2121525 -17.962194 42.69326 16711746
8.3126593 -11.294477 48.127819 16711746
3.4674246 -13.535513 42.717407 16711746
7.8936729 -16.416975 47.653 16711746
2.1147091 -9.7057295 43.164188 16711746
4.4464927 -9.7282343 42.323544 16711746
3.4168961 -10.178006 42.713093 16711746
16.124701 -48.35598 68.3564 16711746
6.073761 -13.37672 41.975735 16711746
5.7277055 -16.451385 44.315552 16711746
6.5965872 -11.770211 42.876499 16711746
15.103561 -38.299778 50.062206 16711746
4.7384844 -11.731458 41.985886 16711746
2.2714283 -9.3275299 42.61198 16711746
3.8830249 -9.2556114 42.278172 16711746
5.9609418 -24.32839 41.77758 16711746
0.90786117 -8.2831478 43.697647 16711746
4.35919 -9.9951754 42.132923 16711746
3.0978384 -14.512671 47.514378 16711746
8.8306084 -33.13868 57.419979 16711746
8.0806236 -16.996037 44.388882 16711746
8.1209679 -21.066948 45.540119 16711746
3.8677886 -9.2118301 42.286224 16711746
6.3549967 -10.93946 43.079601 16711746
0.74682504 -7.5767903 42.565434 16711746
4.9329853 -11.586157 41.327366 16711746
1.066991 -10.145408 43.129002 16711746
5.2877369 -12.248298 48.330727 16711746
29.255857 -38.432571 66.6101 16711746
2.8515317 -10.752494 43.364857 16711746
9.7777739 -25.9498 47.224487 16711746
6.6081562 -11.044629 42.070686 16711746
4.0228524 -9.3888407 42.233437 16711746
2.816998 -9.348979 41.967636 16711746
6.8355784 -14.76965 46.22044 16711746
3.092006 -12.003381 42.392406 16711746
4.6552591 -15.505815 44.841095 16711746
5.8931928 -14.473734 47.627735 16711746
3.9601927 -16.816406 49.576687 16711746
7.6487999 -25.187878 46.123203 16711746
1.5986937 -11.533638 42.826324 16711746
8.9443932 -24.908102 45.224422 16711746
2.3331234 -9.3355398 45.178955 16711746
2.7427115 -11.144095 42.124226 16711746
5.808435 -19.897999 44.328884 16711746
1.8742687 -10.021536 43.014259 16711746
1.9734477 -12.799088 43.017036 16711746
1.9294794 -10.224408 46.062675 16711746
2.3999593 -11.200121 42.4809 16711746
3.7050562 -12.265005 41.934399 16711746
1.8377585 -12.225712 42.903484 16711746
1.2941409 -11.160903 43.238224 16711746
3.6024463 -16.297421 43.828278 16711746
-2.3561149 -15.126647 47.391033 16711746
0.19221123 -9.6997013 43.140793 16711746
-4.689096 -18.627333 44.83511 16711746
-1.620535 -21.938301 49.486641 16711746
-6.535111 -18.100224 45.820282 16711746
-6.1512895 -23.977804 46.284962 16711746
-0.41007814 -7.3572359 42.847431 16711746
8.2381849 -27.898462 44.965492 16711746
3.6965771 -19.28731 44.915764 16711746
3.003454 -25.144068 48.183697 16711746
-4.8331065 -16.559246 44.816673 16711746
-5.6987295 -22.241302 45.45216 16711746
-7.039875 -20.574783 45.425423 16711746
1.7284889 -11.819128 43.801826 16711746
1.3328744 -8.8745098 43.627094 16711746
2.7928641 -9.2490883 41.797287 16711746
6.1157722 -12.597102 41.753117 16711746
2.0691853 -12.277705 43.350887 16711746
-1.5690728 -18.024725 47.816242 16711746
0.35602829 -7.2723441 42.621651 16711746
6.783968 -17.900751 46.354916 16711746
0.90653861 -7.2224941 42.917046 16711746
1.2411804 -9.9330778 42.830246 16711746
3.1585822 -10.657117 43.646 16711746
-6.2459416 -17.929504 45.317348 16711746
5.0455713 -16.114965 43.537334 16711746
-14.457487 -23.025486 47.365749 16711746
1.8164748 -11.799737 46.053776 16711746
0.74303967 -8.0615702 43.924778 16711746
0.37394461 -7.9693532 44.7453 16711746
0.42644638 -6.6711297 42.420498 16711746
1.5126312 -7.1542468 43.59314 16711746
1.2637885 -10.470522 42.877491 16711746
3.3850794 -13.772194 44.358715 16711746
33.401928 -43.371803 31.522358 16711746
84.339088 -62.185509 108.08703 16711746
7.7165928 -21.113174 44.724686 16711746
24.390759 -36.167969 54.589031 16711746
13.668057 -28.864109 47.976364 16711746
27.523067 -48.145573 59.688213 16711746
8.4528446 -31.080606 41.680115 16711746
11.420931 -26.261129 40.926842 16711746
15.835097 -33.702946 41.181007 16711746
13.059442 -28.414246 47.552261 16711746
17.563751 -32.729595 51.13443 16711746
7.1990881 -23.535061 45.688931 16711746
8.4312983 -36.637615 54.977833 16711746
22.272942 -35.255886 42.31929 16711746
26.545359 -36.04372 34.990482 16711746
15.783646 -30.927532 49.118465 16711746
11.78426 -31.175865 48.286289 16711746
12.458033 -25.945072 48.25901 16711746
16.080923 -29.622066 39.648113 16711746
4.6695199 -23.354134 44.62151 16711746
13.150817 -34.700638 44.584274 16711746
18.004988 -38.882847 39.79306 16711746
11.936244 -27.013409 45.445301 16711746
12.282351 -26.237186 46.433239 16711746
15.179107 -31.165598 47.092709 16711746
5.3202772 -28.024725 44.559696 16711746
28.330797 -35.936409 50.791096 16711746
1.8215744 -23.686792 49.543926 16711746
68.292152 -90.489532 94.031509 16711746
9.692975 -25.86603 47.172573 16711746
20.025906 -31.276566 51.639576 16711746
9.2400942 -26.230333 50.586761 16711746
3.4288278 -26.784525 46.072388 16711746
6.4317107 -27.883413 41.44096 16711746
12.581705 -30.742386 50.545353 16711746
15.706898 -30.044718 54.143326 16711746
8.5328379 -27.941824 47.396278 16711746
11.308775 -30.622343 45.916042 16711746
23.41573 -30.851837 58.136814 16711746
25.58993 -38.42886 63.185371 16711746
7.3356524 -23.148111 44.477993 16711746
4.1683745 -21.124245 44.439098 16711746
9.822094 -27.778042 46.79858 16711746
-8.4637699 -18.479496 45.16539 16711746
8.6568804 -26.425299 45.319012 16711746
7.9488053 -26.407187 47.126095 16711746
-8.659071 -18.735435 45.205856 16711746
16.292873 -30.955896 54.362679 16711746
14.550186 -27.132229 47.101418 16711746
2.4868755 -32.61129 50.232162 16711746
5.1162534 -26.225904 41.692265 16711746
15.692471 -39.489807 51.484997 16711746
14.521695 -33.396069 45.293606 16711746
18.855837 -33.871304 56.092464 16711746
7.3921814 -24.270117 47.073246 16711746
6.7639012 -33.09391 47.281429 16711746
8.8490791 -28.819086 49.899776 16711746
7.23878 -32.758129 52.41132 16711746
5.432291 -20.499794 47.024536 16711746
26.393833 -29.157339 49.477375 16711746
11.490203 -29.906227 53.29731 16711746
4.8442602 -18.477612 42.583195 16711746
8.7243528 -38.445377 44.183041 16711746
0.70596296 -11.822559 46.397785 16711746
2.5959246 -25.317007 55.106285 16711746
0.98874259 -13.773894 47.632004 16711746
4.8589473 -13.08514 45.860947 16711746
104.39626 -128.87611 131.25937 16711746
2.3553979 -14.414018 44.230343 16711746
3.9777553 -24.164692 45.109119 16711746
-0.65987569 -35.758507 54.954708 16711746
0.94054252 -21.641624 48.354435 16711746
-6.6151695 -26.566595 50.501957 16711746
7.8224587 -47.812721 64.264236 16711746
-6.25881 -21.242411 48.018707 16711746
8.680088 -25.592348 50.481861 16711746
22.773176 -33.767326 53.514263 16711746
-4.3343377 -25.992622 50.509827 16711746
-1.6932517 -24.162403 48.139767 16711746
6.9271784 -21.355997 46.32254 16711746
7.6668429 -17.271145 45.22155 16711746
3.4883964 -23.757936 42.997879 16711746
22.576595 -35.18256 57.994057 16711746
0.86214954 -19.168661 46.62513 16711746
11.967438 -24.251944 49.142056 16711746
4.5543184 -11.874367 43.861366 16711746
-1.468956 -18.349035 48.366226 16711746
-0.23435962 -19.232975 45.099468 16711746
1.1654356 -13.771951 44.795151 16711746
-5.3142428 -13.127971 51.568432 16711746
-5.2205782 -12.608396 49.710228 16711746
4.5230918 -17.395849 45.236069 16711746
-1.6320994 -20.886044 44.609356 16711746
7.4089956 -15.837972 44.997524 16711746
-0.49200928 -15.23305 45.420753 16711746
-0.74162662 -23.419592 50.630371 16711746
-4.9187574 -14.673558 47.159348 16711746
-2.7565842 -22.342543 47.07283 16711746
-0.85274041 -25.105587 54.597469 16711746
-3.1641982 -23.006296 60.918201 16711746
-6.1179366 -25.285006 47.432053 16711746
-1.8839753 -12.984576 45.5592 16711746
-0.016909027 -24.378828 50.521431 16711746
3.5604661 -30.785671 52.746925 16711746
0.28084704 -19.338526 46.938419 16711746
0.13647711 -25.213793 52.280708 16711746
0.32669711 -18.524897 46.682949 16711746
9.7076988 -27.829588 47.720669 16711746
-1.5108671 -17.514978 57.110161 16711746
-6.6324997 -65.908531 63.164875 16711746
20.600348 -29.04405 57.790371 16711746
14.05789 -27.934727 50.951153 16711746
28.102295 -33.800652 61.461685 16711746
9.3638611 -27.836901 47.682327 16711746
13.740644 -26.693525 46.619785 16711746
63.462624 -43.601662 94.771278 16711746
31.894356 -37.565762 63.998016 16711746
1.3595458 -24.363089 46.91547 16711746
14.993093 -35.756401 52.38826 16711746
-7.3674188 -28.675213 48.202892 16711746
21.484621 -25.243465 46.993572 16711746
63.847824 -65.090042 96.432266 16711746
32.973103 -47.260284 81.113136 16711746
9.5461941 -29.198751 44.805817 16711746
-6.4494319 -20.161947 45.804787 16711746
12.397827 -25.567513 45.410408 16711746
34.219044 -46.706177 61.71117 16711746
15.171022 -27.487209 48.436184 16711746
19.337437 -33.398224 54.619778 16711746
8.525795 -22.67724 52.585457 16711746
5.4699993 -24.042839 45.790146 16711746
13.711466 -24.596468 46.653614 16711746
13.227571 -28.640247 44.415367 16711746
12.0935 -32.093872 48.616047 16711746
42.399406 -60.575916 92.400902 16711746
23.781527 -40.672157 68.472145 16711746
11.49963 -27.364561 44.835312 16711746
58.796677 -41.679543 91.032204 16711746
23.886192 -38.781567 61.434158 16711746
56.18412 -57.700623 89.985542 16711746
12.575461 -24.121666 51.011391 16711746
19.115377 -44.366943 75.927162 16711746
34.886314 -34.162746 53.836433 16711746
18.069752 -29.443502 55.008213 16711746
12.572705 -32.556248 65.049377 16711746
13.262171 -31.404331 51.461121 16711746
14.467363 -29.172546 50.409164 16711746
18.19351 -33.875965 54.520588 16711746
-6.8729134 -20.540371 48.741077 16711746
19.453306 -24.850361 48.540081 16711746
3.4149699 -17.355324 45.971191 16711746
1.6505202 -12.442389 45.454998 16711746
-1.765771 -20.172468 49.271912 16711746
-5.9448695 -24.043301 48.120525 16711746
-0.41503328 -22.123207 53.630623 16711746
4.8594952 -23.012415 45.44326 16711746
2.0885444 -14.501785 46.329018 16711746
-1.5841465 -18.392307 47.639095 16711746
15.526093 -33.339397 50.80135 16711746
17.562143 -29.250532 56.372116 16711746
23.91362 -37.310738 47.162659 16711746
16.095978 -29.503649 62.270283 16711746
17.028166 -29.585688 50.056824 16711746
15.551993 -26.745037 54.061726 16711746
33.226509 -34.819691 71.188583 16711746
7.1978431 -19.056417 44.48167 16711746
-0.38329569 -25.826363 52.350639 16711746
-4.6598053 -26.414726 49.65699 16711746
-5.6742964 -21.552107 47.827763 16711746
-8.2266493 -25.362207 49.978409 16711746
-0.48948622 -29.14921 53.613396 16711746
-9.1124067 -27.67996 50.68045 16711746
-5.7993259 -17.171741 46.664268 16711746
2.9748299 -15.995499 49.273663 16711746
3.4645076 -17.195827 49.863468 16711746
11.806101 -22.680349 46.694374 16711746
-4.7910357 -14.620303 45.239895 16711746
6.8282351 -23.959509 55.171967 16711746
3.2900314 -16.887812 45.168484 16711746
-0.91052151 -21.257008 49.903427 16711746
1.910362 -17.087933 46.13295 16711746
-6.718318 -15.002335 47.66507 16711746
-4.7891092 -13.667674 47.024277 16711746
-4.635334 -32.724842 47.682945 16711746
-3.3138506 -15.201385 45.744991 16711746
5.2879257 -23.080568 49.29813 16711746
17.80052 -33.545532 51.107372 16711746
69.353859 -74.199493 98.271584 16711746
20.142971 -27.854624 54.455669 16711746
23.340055 -32.292885 59.148857 16711746
31.753822 -47.063118 63.676056 16711746
1.6504321 -20.490234 49.390427 16711746
10.890664 -31.309427 45.003777 16711746
0.89182949 -8.4391232 45.345013 16711746
15.181876 -44.117714 49.960674 16711746
33.685558 -38.48151 70.92878 16711746
28.928316 -46.948345 60.718876 16711746
20.75005 -42.500267 67.11908 16711746
6.8539076 -19.413227 48.160648 16711746
16.456871 -18.343292 50.028717 16711746
11.032911 -16.065403 47.36488 16711746
18.751637 -34.07222 49.415298 16711746
12.065706 -23.472387 51.465908 16711746
11.807956 -17.367817 43.629173 16711746
16.329014 -18.127405 49.909863 16711746
2.6721215 -13.372562 46.835026 16711746
20.326548 -20.222933 53.145218 16711746
-5.3161025 -16.110281 47.657028 16711746
34.178329 -44.408691 68.124321 16711746
17.302456 -30.661175 50.376198 16711746
11.672353 -53.248451 67.688484 16711746
-0.98311728 -30.251896 51.966526 16711746
10.08132 -27.683432 46.167118 16711746
-0.95771772 -27.090292 51.835106 16711746
5.6088147 -16.405697 47.56451 16711746
7.9354267 -26.678596 47.407017 16711746
4.5914774 -21.93891 46.295525 16711746
6.6361103 -15.950775 49.503605 16711746
1.2840241 -10.643746 47.14193 16711746
5.0591331 -18.142683 45.171185 16711746
-6.2457476 -19.872633 47.088165 16711746
3.685751 -17.448236 50.708538 16711746
5.6280766 -13.170187 45.927608 16711746
12.618996 -23.594131 51.43811 16711746
1.9870706 -10.263971 44.542133 16711746
2.330452 -12.417278 46.567924 16711746
8.2186069 -15.922637 43.979469 16711746
12.11283 -53.757904 67.768211 16711746
8.2005634 -38.722607 60.335438 16711746
11.281358 -33.263718 45.954369 16711746
15.701736 -44.591385 46.645733 16711746
11.215159 -44.180134 47.717243 16711746
7.8594871 -28.624901 45.166519 16711746
9.0990343 -41.733932 51.139572 16711746
0.6357742 -10.604356 47.128548 16711746
1.6825423 -18.36578 47.979458 16711746
11.488173 -27.24367 58.586113 16711746
17.552038 -29.960417 57.863811 16711746
6.0853953 -27.101574 45.449455 16711746
22.827978 -29.903824 68.731316 16711746
16.779564 -21.851307 43.172379 16711746
1.5115764 -10.535486 47.746979 16711746
26.858557 -59.905869 75.763947 16711746
-3.9381692 -15.664725 54.047123 16711746
-2.117245 -20.629124 49.896999 16711746
3.2215672 -19.792162 47.42017 16711746
5.2760758 -22.241003 47.746414 16711746
3.5038242 -19.109592 53.418442 16711746
-0.86437786 -7.8570104 46.365383 16711746
0.61639577 -8.7109699 46.665695 16711746
25.693583 -73.496605 52.088554 16711746
1.8657318 -13.133385 48.45871 16711746
-0.76057261 -17.431292 51.512413 16711746
1.5994644 -11.572275 48.78199 16711746
-0.44319135 -15.563459 47.982925 16711746
-8.041708 -23.306225 50.02692 16711746
-3.0812795 -18.023497 48.874043 16711746
-1.4681215 -15.308135 48.560852 16711746
-10.365274 -18.006962 51.955761 16711746
-1.2614233 -16.373716 51.964264 16711746
-1.7651627 -14.741131 49.00309 16711746
2.2947102 -10.573661 48.352348 16711746
-8.8216734 -17.318163 51.363022 16711746
-3.0379179 -17.888119 48.817894 16711746
4.5697618 -14.430004 46.659714 16711746
1.5045676 -10.086173 47.627918 16711746
-13.076433 -18.05529 54.979393 16711746
-5.2502379 -19.171122 50.433796 16711746
3.0260801 -11.73271 48.070908 16711746
1.5433625 -11.157098 48.872494 16711746
2.9688754 -11.355746 48.680279 16711746
-3.5763543 -16.036835 48.75732 16711746
1.323645 -8.8545389 47.571434 16711746
-1.8006729 -7.5453682 47.61158 16711746
-3.7254984 -13.331973 47.736526 16711746
-0.50024527 -12.95513 46.497982 16711746
0.94118088 -9.2901182 47.062645 16711746
1.2673295 -10.048295 47.283951 16711746
0.9725613 -10.970547 46.469513 16711746
1.6293141 -11.922688 48.789417 16711746
2.1775787 -15.148322 46.567574 16711746
2.3045428 -10.290797 46.661106 16711746
-0.50575459 -13.2012 46.776295 16711746
2.2856755 -11.199001 46.937729 16711746
0.025363265 -13.056175 47.57037 16711746
2.6760068 -12.161808 47.287971 16711746
1.9174924 -11.741621 46.247631 16711746
1.6755396 -16.249203 46.81694 16711746
1.4600657 -11.691734 48.013027 16711746
-2.4650638 -15.042842 47.599918 16711746
-1.6836642 -18.240879 47.374386 16711746
2.7024779 -14.718503 47.447662 16711746
-1.1117021 -8.8680153 47.098438 16711746
-0.035671417 -18.683153 48.103878 16711746
-4.6844516 -21.458069 48.567287 16711746
-1.5884196 -18.616053 47.773289 16711746
2.5819461 -17.035431 46.745117 16711746
-0.49514896 -14.91539 47.849197 16711746
-2.5096221 -17.692116 51.343693 16711746
-0.60556859 -13.663178 48.137981 16711746
4.1355996 -15.543451 48.751163 16711746
-0.63802552 -18.581886 49.404148 16711746
-4.4873681 -20.583191 48.38961 16711746
3.6118052 -14.692021 48.520996 16711746
4.2907991 -14.003041 49.620808 16711746
3.9831152 -13.268986 46.706818 16711746
-1.3433557 -11.129766 48.598602 16711746
3.2850289 -11.165893 45.942959 16711746
-1.5076152 -15.224761 46.943687 16711746
4.2485347 -13.599693 48.739243 16711746
2.8983681 -12.247252 48.628578 16711746
1.337521 -9.1945829 48.605377 16711746
4.9496017 -12.956581 50.211636 16711746
-1.9517225 -19.957043 47.304718 16711746
1.083457 -10.232282 49.421616 16711746
2.3614602 -15.332844 46.859695 16711746
4.6544251 -11.795197 50.661877 16711746
-1.4418001 -10.854851 47.210857 16711746
2.4976463 -10.932893 47.133678 16711746
2.9630852 -10.205252 49.587093 16711746
1.9621539 -9.6489468 48.19857 16711746
-0.098769844 -7.219254 47.069099 16711746
6.3003783 -22.868382 50.68346 16711746
0.17523521 -7.4720249 47.379539 16711746
2.2871377 -12.108188 48.223736 16711746
3.9192996 -14.330554 49.381672 16711746
2.485044 -8.8287611 47.098175 16711746
4.6532173 -15.058677 48.329918 16711746
6.0473361 -20.095455 49.006767 16711746
8.2198658 -22.473236 49.103146 16711746
-0.10161601 -15.317723 50.91468 16711746
2.13464 -10.333478 48.550472 16711746
0.15452294 -10.180476 48.317974 16711746
0.098290466 -11.058214 49.103268 16711746
3.0765252 -22.557037 48.557972 16711746
22.30014 -37.947617 67.328072 16711746
7.9607024 -11.322427 47.187492 16711746
18.997478 -27.909708 65.747536 16711746
3.0939074 -12.279684 52.425999 16711746
6.9795065 -14.193463 51.977615 16711746
14.154609 -18.68606 44.787575 16711746
5.6016951 -16.765276 48.622597 16711746
0.38139716 -12.487532 50.374012 16711746
0.34269705 -11.715103 47.789719 16711746
-0.50293076 -11.89318 49.019211 16711746
2.2331307 -17.399185 49.804325 16711746
4.5081029 -13.076618 46.319344 16711746
2.6677563 -13.597938 49.399448 16711746
3.948312 -13.824863 54.818295 16711746
8.1584806 -13.724533 49.107994 16711746
8.4180317 -22.953457 58.012405 16711746
3.5447209 -15.96568 50.134998 16711746
2.6785254 -12.496818 46.670586 16711746
4.4883432 -22.606077 48.883297 16711746
7.9066782 -10.633818 49.121647 16711746
-1.2502619 -18.365656 50.877872 16711746
7.3010397 -13.592191 48.968727 16711746
-0.10129344 -10.542967 47.804329 16711746
3.4299328 -24.329996 48.666424 16711746
-0.51870072 -11.610345 48.011028 16711746
3.9205468 -21.815609 48.58403 16711746
0.58725715 -7.9897199 47.864384 16711746
6.6290264 -21.250441 49.181217 16711746
-4.3911529 -22.064959 51.039143 16711746
2.5266204 -11.91305 47.468643 16711746
4.517591 -10.396358 46.246132 16711746
-0.23868467 -6.6367269 47.328594 16711746
4.5272202 -14.101628 51.807613 16711746
5.5389776 -14.412987 45.663994 16711746
5.4488792 -16.609985 48.00098 16711746
-1.2426046 -14.382222 50.277786 16711746
7.931221 -22.492311 52.136017 16711746
20.028679 -68.150452 46.797562 16711746
3.3506 -12.561602 50.627872 16711746
4.6779499 -20.744764 50.043983 16711746
3.74454 -18.549215 46.41972 16711746
0.44736907 -10.795897 49.913811 16711746
5.7974372 -27.535931 48.210896 16711746
5.9213872 -28.349789 46.515751 16711746
7.7044258 -20.264082 54.052906 16711746
4.7107606 -18.962633 46.553551 16711746
2.789824 -18.906799 47.777908 16711746
4.0672054 -13.036425 50.638493 16711746
2.9416833 -18.41423 50.443371 16711746
5.1940255 -15.517877 47.189526 16711746
5.7772827 -23.669085 50.609245 16711746
7.7217593 -13.878648 45.414951 16711746
1.2337196 -18.188345 49.455742 16711746
7.4186039 -18.017548 51.787216 16711746
13.501414 -26.523642 57.095043 16711746
5.8210707 -15.708999 51.957542 16711746
-2.1973455 -22.359554 51.017548 16711746
0.3396416 -19.273533 49.543823 16711746
2.2956638 -17.145559 50.357319 16711746
10.192554 -30.819864 52.332401 16711746
2.904299 -20.216648 47.552456 16711746
5.1032643 -16.184223 48.040215 16711746
21.730646 -33.350777 67.204422 16711746
4.8811135 -13.721396 51.663757 16711746
2.6000509 -17.738058 50.549324 16711746
1.4606328 -14.864095 48.139256 16711746
4.0002246 -20.34259 48.522877 16711746
0.55815977 -23.4743 51.922222 16711746
7.1969852 -16.127886 51.976849 16711746
4.9046969 -14.574989 50.854664 16711746
7.057436 -20.806442 56.33189 16711746
5.9184918 -21.715467 56.237217 16711746
10.578096 -15.747739 49.25536 16711746
2.5463912 -13.037148 49.266079 16711746
2.6058712 -16.144819 48.530159 16711746
10.292068 -18.073545 57.533077 16711746
9.0254955 -15.819329 51.21069 16711746
9.754941 -20.700928 54.885323 16711746
6.0779257 -19.03125 52.824566 16711746
10.987273 -23.357267 54.716328 16711746
6.0223885 -23.863539 50.721741 16711746
3.8288994 -14.768427 50.918854 16711746
11.472128 -32.612194 51.65604 16711746
4.2286391 -15.512856 51.030415 16711746
-0.71205932 -25.382591 50.078751 16711746
14.116989 -23.871408 60.286335 16711746
-0.84154385 -6.4322491 47.684776 16711746
0.23624535 -23.922956 49.66573 16711746
6.0492125 -20.940052 50.877777 16711746
11.06585 -47.946537 48.312763 16711746
-0.15678369 -25.889551 49.938522 16711746
13.91568 -28.004183 57.843445 16711746
1.591527 -18.455997 48.466606 16711746
13.460345 -21.071394 55.852654 16711746
7.5575538 -19.716566 53.067551 16711746
3.3986599 -17.45368 50.988331 16711746
-6.3400469 -22.319471 50.860966 16711746
-12.875154 -30.420074 52.727356 16711746
-7.1596174 -28.478119 53.640034 16711746
-7.8053498 -26.661261 51.693764 16711746
7.5997562 -19.36853 53.025352 16711746
3.4296894 -13.896862 50.464756 16711746
2.5193148 -15.667325 54.927959 16711746
9.3456373 -14.160679 51.999325 16711746
9.564023 -20.606497 56.349384 16711746
6.4720764 -26.151112 57.870956 16711746
2.4283495 -25.929422 55.46722 16711746
1.364448 -32.131187 56.717442 16711746
-1.9739784 -22.753511 52.557461 16711746
-0.96985358 -29.878067 59.240471 16711746
4.7972336 -24.131149 48.732986 16711746
9.2846804 -15.948774 51.332787 16711746
12.867575 -36.716408 64.522606 16711746
5.3448896 -29.818808 48.246849 16711746
-0.086969405 -16.925426 51.243988 16711746
7.907867 -22.472433 54.085831 16711746
6.5289392 -14.843082 55.415302 16711746
30.837057 -55.696507 72.670662 16711746
0.72536999 -19.358055 49.372261 16711746
-1.9618078 -52.47929 69.88485 16711746
6.8617411 -19.18919 48.954411 16711746
6.6240449 -21.244164 49.278389 16711746
8.2362547 -18.373848 55.070137 16711746
-0.32133183 -6.760479 47.738052 16711746
-5.1187205 -27.385067 68.168205 16711746
9.3248587 -24.252697 59.817421 16711746
6.5393081 -16.222902 47.036736 16711746
8.3702726 -14.214561 48.732731 16711746
4.5402975 -11.279139 48.557549 16711746
9.6222916 -18.98465 54.200851 16711746
-1.151756 -25.530676 53.986656 16711746
8.0904856 -19.971138 53.195656 16711746
8.0884466 -42.447834 50.184784 16711746
-3.4661107 -20.895693 64.616989 16711746
8.3235779 -20.511354 54.201012 16711746
9.9814987 -17.715057 57.196815 16711746
6.8218932 -17.528906 52.166729 16711746
0.56899476 -19.861809 49.021519 16711746
3.4823642 -14.055744 50.494778 16711746
10.926685 -25.270885 54.652515 16711746
11.179157 -25.875164 54.87347 16711746
5.0219936 -15.447067 50.840054 16711746
22.963726 -21.812664 68.157722 16711746
-13.799278 -19.934849 61.433975 16711746
3.24598 -12.051811 48.514145 16711746
9.198945 -13.064595 56.01054 16711746
7.6345301 -15.075383 55.006248 16711746
10.842691 -23.075239 54.598743 16711746
6.4154902 -20.672321 52.019787 16711746
5.385344 -17.518972 50.798439 16711746
15.580587 -17.646471 61.374603 16711746
-4.4866967 -21.989975 64.075706 16711746
12.820034 -17.735374 55.130444 16711746
0.090380907 -14.227161 57.391914 16711746
-4.35074 -22.969448 52.286457 16711746
8.3549414 -15.740452 55.645664 16711746
3.922677 -14.725846 51.071323 16711746
-6.0535769 -28.435293 52.509422 16711746
4.6259022 -21.179058 49.842117 16711746
-3.2403188 -19.594973 51.163521 16711746
7.9654717 -18.172905 46.859241 16711746
1.1939954 -14.882411 50.193977 16711746
-3.5149217 -18.886196 51.327488 16711746
1.1476347 -18.139841 49.926498 16711746
1.3797514 -28.464506 49.74041 16711746
1.4766591 -13.467722 48.956078 16711746
4.7013693 -20.712088 55.530346 16711746
8.3026209 -11.179111 48.912846 16711746
-2.9582937 -35.180962 51.41267 16711746
-3.8531938 -32.983646 56.736557 16711746
-4.9147463 -25.120754 52.791561 16711746
-3.8192332 -19.092464 51.235462 16711746
-8.1422167 -16.132618 52.298218 16711746
-1.9671307 -20.236984 52.061203 16711746
3.6496255 -19.844213 48.98246 16711746
11.117254 -21.932447 54.481514 16711746
3.579603 -19.053598 57.370766 16711746
9.5734301 -17.677259 51.735092 16711746
3.2769468 -19.854027 48.879711 16711746
-1.1851963 -26.609125 54.399044 16711746
-1.9801416 -21.445404 49.848965 16711746
2.8974986 -17.918602 50.350903 16711746
11.390353 -20.204386 54.23867 16711746
3.3600581 -20.155569 49.238571 16711746
-7.2403903 -23.531572 53.178596 16711746
-7.877315 -17.750704 52.037914 16711746
-1.4661069 -16.275284 49.101585 16711746
-7.2552786 -24.798512 51.425491 16711746
8.338809 -23.164227 51.172775 16711746
-1.2979124 -42.293743 66.971321 16711746
-0.27225718 -22.239983 47.797016 16711746
-10.111558 -21.149643 48.912113 16711746
-7.7695427 -18.545542 48.528282 16711746
3.4204969 -18.393888 56.856701 16711746
-1.5479242 -16.90424 49.000126 16711746
-1.462221 -19.506737 49.620117 16711746
-2.5887423 -22.354187 50.673595 16711746
-6.8444109 -16.121454 51.461552 16711746
2.2109535 -17.397371 51.554878 16711746
-2.1514125 -24.116592 55.142349 16711746
-10.492085 -17.627825 52.778187 16711746
-4.0268073 -17.40336 50.028603 16711746
-6.6578827 -22.320648 50.557632 16711746
-7.3391857 -25.076096 51.442356 16711746
6.6958346 -27.284267 56.058338 16711746
-1.9470713 -18.558535 56.322857 16711746
8.8090048 -10.712461 49.548359 16711746
11.554992 -26.918274 61.738117 16711746
-3.746887 -18.11627 50.71608 16711746
1.2957414 -13.63608 48.842999 16711746
1.2383325 -14.628722 48.867363 16711746
-6.4588647 -26.231869 53.076454 16711746
-1.8436444 -31.590322 56.489731 16711746
-1.0028669 -25.381193 53.785263 16711746
-2.474529 -16.518915 52.491196 16711746
-12.213622 -24.898684 50.450333 16711746
-2.659379 -14.063304 49.342953 16711746
8.2373171 -13.055589 49.43895 16711746
3.2811029 -22.027731 53.064106 16711746
6.0626669 -16.530775 49.020153 16711746
7.0408764 -25.105398 64.29586 16711746
12.784975 -21.583704 54.891094 16711746
1.5096523 -23.886339 50.757278 16711746
-2.2034202 -14.891582 50.445984 16711746
3.1817558 -20.676516 53.235119 16711746
-5.950604 -29.414976 57.316818 16711746
-1.957077 -12.806294 50.279755 16711746
-5.0224366 -15.318493 49.838783 16711746
-4.8942394 -17.000422 51.028545 16711746
-6.0436759 -20.44927 50.952236 16711746
-8.9926176 -23.858938 52.340549 16711746
5.7511358 -13.461281 48.570324 16711746
10.346715 -16.315855 51.233051 16711746
10.993676 -26.80872 61.532097 16711746
6.5857935 -19.200842 53.10273 16711746
1.3063265 -13.397605 48.923489 16711746
-2.561687 -30.430317 56.230003 16711746
-0.16702263 -22.016052 50.264843 16711746
-25.780371 -32.444546 64.485039 16711746
-3.8094497 -19.451105 52.1581 16711746
2.9151347 -20.318407 52.508602 16711746
-2.2463682 -25.063223 54.577061 16711746
-0.16515756 -27.267357 51.184883 16711746
7.934031 -18.739178 50.005737 16711746
-3.7653825 -21.176489 65.03904 16711746
6.2629466 -19.111876 51.240784 16711746
4.46526 -17.122419 50.391418 16711746
3.5271389 -13.694698 52.577827 16711746
0.20804596 -9.0390873 48.588543 16711746
8.2525911 -19.846064 54.34774 16711746
-4.576457 -24.514729 54.718067 16711746
-1.812479 -20.082413 50.253139 16711746
-4.9149446 -26.022541 55.240894 16711746
12.299011 -25.701004 57.413712 16711746
2.384769 -10.646572 49.713573 16711746
1.20276 -8.7663574 48.646427 16711746
-8.2218056 -21.947588 52.091152 16711746
3.3692224 -18.484644 56.501163 16711746
-8.016324 -21.525576 51.968136 16711746
-1.7018511 -21.715641 52.189697 16711746
3.2488804 -18.37369 48.662426 16711746
-1.8187578 -16.898275 49.799847 16711746
-1.0967703 -22.266075 55.293568 16711746
-1.5471257 -21.343916 50.748737 16711746
4.2238021 -17.587439 50.081966 16711746
1.8986441 -17.838486 47.79398 16711746
2.2768614 -15.199781 50.295712 16711746
0.14700514 -8.4224768 48.204605 16711746
8.0565357 -33.377872 59.268291 16711746
-6.3282609 -27.195541 63.076347 16711746
2.6387515 -14.748567 52.539551 16711746
7.5494947 -21.712469 50.81842 16711746
-3.5674083 -16.406628 55.916733 16711746
0.68116224 -12.55379 49.637089 16711746
-1.9507207 -17.209503 49.622002 16711746
4.2629604 -21.359783 51.513382 16711746
3.0327914 -16.568354 51.815235 16711746
5.9301915 -18.002874 47.497665 16711746
2.8130741 -15.373348 49.211456 16711746
3.2185919 -19.036951 50.610653 16711746
3.4528394 -15.588563 49.692219 16711746
-9.4360704 -31.226698 52.684593 16711746
1.0757277 -12.055535 49.812412 16711746
2.6070955 -16.409105 49.799305 16711746
-3.5343533 -19.848043 50.0812 16711746
-4.336225 -25.689611 50.67065 16711746
-2.8915527 -21.683603 52.327724 16711746
-3.8152435 -22.431971 51.265678 16711746
-4.4171553 -26.530258 51.688354 16711746
-2.5415618 -16.035149 49.523647 16711746
19.192375 -19.764633 50.828777 16711746
6.8638749 -16.412437 52.909412 16711746
14.638935 -26.184288 58.710186 16711746
4.8779736 -17.930639 49.633892 16711746
4.4077067 -18.166206 50.675434 16711746
8.5952444 -18.338816 55.270386 16711746
14.562724 -23.675001 60.585075 16711746
-0.021018673 -7.717113 48.279736 16711746
27.200148 -47.263737 68.876053 16711746
1.3574609 -8.7314157 49.036831 16711746
3.7715988 -11.196614 48.896427 16711746
10.054816 -25.397953 52.442295 16711746
1.9597615 -8.4472828 48.890686 16711746
5.0153532 -10.802112 50.740688 16711746
-1.1719677 -16.113482 49.264717 16711746
6.5387974 -19.721666 51.373768 16711746
-1.7630275 -23.491154 52.663372 16711746
4.2072716 -12.631318 53.944153 16711746
-2.2088497 -16.971989 50.9888 16711746
6.4393921 -22.897787 49.827202 16711746
8.7887144 -28.756216 50.555115 16711746
4.6013284 -16.028223 52.097191 16711746
-5.9095473 -17.397751 50.848335 16711746
-7.6598969 -20.109957 50.971024 16711746
2.7620873 -16.224068 52.66695 16711746
-8.4869604 -22.506321 52.166656 16711746
8.7054548 -14.604174 49.532955 16711746
4.1973495 -17.041571 54.671234 16711746
1.0212715 -11.220005 48.972565 16711746
12.338934 -29.597519 64.950272 16711746
5.506443 -10.589816 48.114029 16711746
-14.349911 -34.0653 55.162033 16711746
-5.1509452 -21.741695 51.189922 16711746
14.970618 -22.889698 61.482819 16711746
1.2936308 -10.574493 48.883823 16711746
2.7544365 -11.153329 49.942318 16711746
9.4496117 -19.816511 56.170883 16711746
7.5305219 -18.907183 54.563492 16711746
-17.547754 -25.81216 51.667244 16711746
5.9377079 -13.085876 48.711731 16711746
1.5182064 -14.017064 50.609043 16711746
-4.5714612 -27.33201 52.774521 16711746
11.061992 -24.30036 55.215012 16711746
8.2270508 -29.394508 52.772457 16711746
10.774588 -22.382259 67.254471 16711746
7.9686284 -22.027105 52.21154 16711746
18.517908 -32.244217 72.63343 16711746
4.0798278 -27.257215 58.586594 16711746
15.631219 -29.447416 55.540512 16711746
1.1816682 -24.508581 60.214981 16711746
4.4582729 -28.31933 59.221775 16711746
9.6766844 -25.122868 61.701038 16711746
-11.112247 -26.119938 52.49625 16711746
-9.9318295 -30.338215 55.31456 16711746
20.28474 -38.478313 74.926476 16711746
4.7114177 -28.239508 54.874359 16711746
9.3911076 -33.255512 62.651672 16711746
18.621706 -35.91399 72.770164 16711746
6.4968972 -25.683899 57.445148 16711746
-17.663219 -26.016094 51.592308 16711746
11.752011 -24.387789 56.756592 16711746
14.339329 -16.366583 60.495495 16711746
18.33119 -21.875572 61.490902 16711746
21.091896 -29.322174 67.054314 16711746
23.157835 -29.76733 69.783791 16711746
24.511261 -47.138294 77.092285 16711746
14.020913 -60.451477 71.074425 16711746
20.720234 -41.735271 58.098675 16711746
-1.77009 -7.8351326 49.442371 16711746
0.83692521 -10.533822 49.658085 16711746
2.1952875 -13.06142 50.832703 16711746
7.90873 -23.526501 52.980114 16711746
4.2008986 -45.825809 51.175968 16711746
-1.46887 -7.5393872 49.463459 16711746
-0.12572083 -9.9041872 49.38343 16711746
-0.017145094 -8.1383533 49.465282 16711746
4.9954276 -45.573673 56.986446 16711746
1.4960291 -23.148556 55.77816 16711746
2.3138258 -19.810907 53.28619 16711746
1.7693343 -22.118526 56.070377 16711746
2.3019617 -23.685442 59.111217 16711746
24.462114 -36.658981 69.453888 16711746
20.123028 -23.488598 62.774986 16711746
18.480534 -19.318157 63.64518 16711746
22.604303 -32.248131 69.440147 16711746
4.911026 -15.399277 53.510586 16711746
20.0548 -31.257826 65.707161 16711746
24.029507 -30.496239 70.437996 16711746
18.211069 -19.208139 63.559414 16711746
-0.22063383 -7.8509836 49.518044 16711746
-1.4328514 -19.555126 53.977287 16711746
-2.5756314 -29.37867 56.792694 16711746
-0.46340808 -13.223916 53.854481 16711746
-0.71574759 -17.272276 55.239822 16711746
11.391163 -21.919699 69.108459 16711746
0.29275349 -26.545929 79.21682 16711746
11.602852 -23.371305 69.087753 16711746
8.6131039 -21.988983 55.998173 16711746
34.377586 -27.719088 58.621613 16711746
-0.89559758 -24.519281 73.27951 16711746
5.3974729 -44.654461 58.383083 16711746
9.2035236 -26.49501 48.079582 16711746
10.025688 -38.916389 54.162544 16711746
14.861292 -29.389738 55.906219 16711746
17.456066 -39.980949 61.00824 16711746
1.5739979 -21.417309 52.055908 16711746
23.145756 -42.545097 59.751839 16711746
18.697538 -20.649836 57.272369 16711746
32.795849 -49.70451 65.107674 16711746
21.311907 -49.619282 59.843414 16711746
11.605974 -31.397436 58.293957 16711746
4.3092794 -34.045517 52.570564 16711746
5.1472325 -19.255114 57.464188 16711746
-13.478489 -49.516186 62.532631 16711746
7.8631582 -22.596962 52.840805 16711746
1.7775855 -13.157371 50.433247 16711746
0.6564123 -9.6011152 50.217106 16711746
25.756174 -32.192104 72.161263 16711746
3.5101795 -25.325821 51.137566 16711746
21.164936 -55.127953 64.770912 16711746
2.487951 -26.077116 52.038059 16711746
2.1867061 -20.534958 52.254459 16711746
-4.2825522 -27.31518 57.239937 16711746
1.4417287 -11.730589 50.369938 16711746
9.467062 -35.736629 54.587532 16711746
4.1898284 -17.966417 49.767883 16711746
-3.2345512 -14.908145 51.880459 16711746
2.964812 -15.458235 50.90168 16711746
3.00951 -16.856646 50.397839 16711746
3.5937555 -19.45562 50.2019 16711746
-1.5338503 -13.033839 51.832493 16711746
-0.63987106 -13.004765 52.200615 16711746
-0.6579442 -9.8082075 51.77195 16711746
-0.60076076 -9.7404766 51.742542 16711746
-1.7661304 -11.675684 52.054153 16711746
-2.2957704 -12.217715 51.501659 16711746
-0.60115755 -9.9815016 51.902672 16711746
-2.0508082 -15.205106 53.196186 16711746
-1.3875878 -12.700634 51.18663 16711746
1.635013 -19.217426 49.877712 16711746
8.7849092 -25.393253 50.495586 16711746
3.1682711 -18.095047 51.471378 16711746
-5.9994226 -32.462433 57.066662 16711746
2.5790401 -13.254212 49.343864 16711746
7.2485223 -15.473207 54.487701 16711746
10.853356 -59.761383 61.099812 16711746
13.135406 -35.789833 53.614655 16711746
25.435331 -24.985525 54.762611 16711746
42.935303 -58.767658 71.422768 16711746
8.1593199 -16.772762 49.242966 16711746
14.739947 -15.422914 51.249176 16711746
32.709503 -52.93251 92.996529 16711746
25.84111 -42.515762 68.759438 16711746
19.592161 -20.822647 53.539066 16711746
-12.830112 -57.017754 65.763763 16711746
20.840256 -20.728647 51.44688 16711746
11.505795 -25.905005 55.350204 16711746
10.914058 -32.958118 60.036144 16711746
2.8467782 -21.541103 55.140293 16711746
31.973249 -61.786205 74.096802 16711746
-0.55016983 -11.496418 53.338764 16711746
17.809917 -20.949041 52.079876 16711746
11.799261 -21.839962 49.990616 16711746
57.504375 -68.699875 79.391266 16711746
0.198374 -9.631875 50.849239 16711746
9.3756342 -28.541615 55.557117 16711746
-6.2015615 -33.967384 57.726391 16711746
21.438358 -37.599281 63.038643 16711746
32.056377 -58.805084 75.34536 16711746
20.037382 -33.085495 64.803627 16711746
0.99079686 -16.980158 53.947922 16711746
11.843449 -27.967398 59.197083 16711746
21.388393 -42.602371 63.250324 16711746
5.584363 -18.365891 54.076485 16711746
30.721128 -24.739563 51.869083 16711746
24.301868 -48.53854 65.427162 16711746
12.654837 -16.551516 49.958183 16711746
21.828936 -26.233768 52.978382 16711746
14.448636 -28.149508 57.511677 16711746
32.991104 -59.025669 75.027168 16711746
29.415165 -29.523918 53.085991 16711746
34.385239 -61.466137 74.936531 16711746
27.122711 -55.692738 86.121651 16711746
6.0421286 -35.865772 81.564278 16711746
0.098816723 -17.641678 53.763603 16711746
2.8669579 -24.216246 69.489952 16711746
2.1668916 -20.721018 65.763618 16711746
-1.259411 -7.8034682 51.490353 16711746
21.785599 -64.867775 61.471844 16711746
29.126715 -48.915218 70.572441 16711746
20.549892 -35.699097 64.988304 16711746
33.15284 -54.225052 73.23101 16711746
24.944136 -46.71574 61.110886 16711746
-0.050003268 -10.721716 51.486046 16711746
-3.1405804 -17.897398 56.138504 16711746
1.2507391 -12.055151 51.413849 16711746
-2.0998609 -11.282101 53.076099 16711746
2.8833001 -18.538435 53.75536 16711746
0.69189453 -21.052959 53.938755 16711746
1.076841 -17.009819 53.224697 16711746
0.44825807 -11.724762 51.769825 16711746
-0.14619091 -9.3742342 51.661407 16711746
-1.8120525 -9.7845039 54.86787 16711746
4.8767295 -22.789413 50.069561 16711746
50.177963 -84.699394 82.798523 16711746
72.991074 -101.13257 108.71929 16711746
-1.362431 -13.648529 54.610069 16711746
1.4503839 -25.418301 56.366352 16711746
0.13075911 -22.279678 54.483917 16711746
1.486946 -13.640753 52.722939 16711746
0.91132349 -13.297762 52.621311 16711746
-0.30885386 -10.807184 51.366119 16711746
0.21239166 -11.9961 51.585281 16711746
2.0321059 -15.517314 52.712456 16711746
18.033892 -42.378075 58.729958 16711746
53.811695 -68.453087 95.313362 16711746
0.68998367 -11.880851 51.258762 16711746
2.1597159 -14.997297 51.760265 16711746
1.2933619 -12.928215 51.619511 16711746
0.45951831 -11.773886 51.741596 16711746
11.240252 -17.684042 52.529694 16711746
13.883655 -16.753685 49.447491 16711746
5.5502706 -18.905758 53.437965 16711746
3.2267349 -15.849984 52.290218 16711746
2.7990563 -13.642218 52.098927 16711746
4.6387711 -15.820345 53.51289 16711746
2.4250474 -15.685874 51.739655 16711746
5.8918142 -16.948097 56.204746 16711746
0.85352343 -11.654734 52.370609 16711746
19.160172 -21.927807 48.399902 16711746
18.971199 -19.477337 49.176857 16711746
2.003484 -14.60437 51.682487 16711746
4.0764556 -17.563263 52.765404 16711746
13.396122 -16.69729 56.919991 16711746
9.9003277 -27.401091 53.599945 16711746
4.3099957 -17.342607 53.173626 16711746
5.5082355 -12.784546 53.436039 16711746
27.472879 -54.842884 64.344879 16711746
27.807184 -36.278736 66.867622 16711746
18.769514 -26.235687 65.430099 16711746
16.504036 -15.53743 60.92371 16711746
2.4639416 -17.408579 52.894077 16711746
4.6451988 -14.473801 50.802299 16711746
1.4993613 -13.028875 51.578007 16711746
78.355034 -80.151695 121.31942 16711746
16.808123 -19.328598 59.027081 16711746
-3.5381939 -17.784117 66.074425 16711746
21.812523 -21.037233 48.772701 16711746
9.053196 -24.063368 54.738361 16711746
8.9278221 -23.079472 55.254108 16711746
-10.901048 -14.105702 61.57122 16711746
10.520456 -20.873388 58.418285 16711746
8.1746387 -27.107056 54.582924 16711746
4.8363667 -23.424395 60.053707 16711746
-0.45810023 -7.1793203 51.822914 16711746
-12.755757 -18.76194 63.532181 16711746
-7.768775 -26.407469 56.616291 16711746
11.619613 -29.720789 54.641769 16711746
-0.25102869 -12.81023 52.144405 16711746
-2.0774901 -11.160697 56.708233 16711746
-6.7496552 -17.090252 54.956589 16711746
-10.630897 -41.73801 63.688877 16711746
-10.057288 -25.43117 56.930374 16711746
-3.158998 -26.864902 57.570141 16711746
-5.7217803 -24.769516 59.200996 16711746
-10.810036 -35.990784 57.072681 16711746
-11.976907 -34.70155 58.54208 16711746
-9.6477575 -31.694632 56.027092 16711746
4.3606653 -27.48806 53.805653 16711746
-4.9713769 -20.954628 56.73167 16711746
10.527578 -49.864319 55.945286 16711746
-12.187464 -28.542297 59.073532 16711746
-7.296771 -24.791718 56.285961 16711746
-5.1074672 -20.313028 55.830376 16711746
-8.88311 -21.824324 56.894093 16711746
-8.1138468 -20.185198 56.357731 16711746
-0.99504656 -9.6712694 52.327686 16711746
-1.426789 -11.89685 52.755539 16711746
-0.79411608 -9.1147757 52.279339 16711746
-3.8197651 -12.530596 58.806122 16711746
-1.3717643 -12.266066 52.560925 16711746
-14.667339 -38.620655 58.028503 16711746
-2.8033717 -14.836436 59.917709 16711746
-8.5780964 -22.293005 56.042721 16711746
-6.3010411 -26.655687 58.515942 16711746
3.2025044 -23.475416 51.846085 16711746
5.4646921 -20.364384 65.38446 16711746
-0.29986 -7.9218383 52.86179 16711746
-8.5488129 -19.958021 55.489697 16711746
-5.547874 -18.94087 63.294014 16711746
-1.3162478 -7.9315648 52.220627 16711746
2.4768677 -22.231346 53.666134 16711746
3.0043204 -39.361732 57.119072 16711746
8.9366398 -29.805555 55.798286 16711746
-11.041773 -21.424131 70.515877 16711746
0.25043488 -9.2198772 53.244499 16711746
-0.66812289 -7.9504499 52.411873 16711746
-10.158827 -26.833149 56.247295 16711746
-10.864469 -19.248388 68.236984 16711746
7.870707 -24.604776 51.901577 16711746
6.2191215 -21.150749 60.251183 16711746
-13.608853 -35.13319 58.098026 16711746
10.660166 -18.165033 52.214737 16711746
5.1939406 -25.740492 52.844025 16711746
11.305034 -27.709341 57.015648 16711746
14.147254 -35.016953 59.825237 16711746
18.661856 -27.630037 69.809616 16711746
25.314518 -58.67786 86.176262 16711746
27.408796 -39.238987 75.374077 16711746
18.156858 -26.68918 72.20134 16711746
16.741388 -22.344923 67.653442 16711746
2.6280963 -30.352112 71.901886 16711746
13.70843 -27.861414 67.220558 16711746
5.9062476 -31.115404 69.395241 16711746
14.31806 -26.304724 64.245453 16711746
13.03722 -28.012117 64.688744 16711746
15.318137 -22.866732 63.220673 16711746
7.4993668 -20.418802 54.033684 16711746
12.09248 -22.922525 60.45792 16711746
9.020669 -28.579744 60.366734 16711746
8.1292896 -27.944778 55.360569 16711746
9.3436985 -27.409904 74.290009 16711746
16.0417 -32.580711 67.168831 16711746
4.0302792 -22.798023 52.035782 16711746
6.4331813 -24.07715 54.79694 16711746
8.112524 -32.702309 66.341789 16711746
7.3501668 -33.160385 67.235619 16711746
2.7267821 -29.227175 61.512882 16711746
17.104963 -29.675241 70.319672 16711746
-15.885915 -40.628128 57.785999 16711746
5.8750343 -31.280468 69.494202 16711746
7.036953 -26.83099 52.980801 16711746
-13.823474 -35.131596 58.028236 16711746
2.0730126 -30.577843 63.913746 16711746
4.8822513 -25.396992 56.685349 16711746
8.2989655 -50.168049 76.082397 16711746
12.877705 -27.976877 61.640186 16711746
7.9141903 -30.196457 67.40097 16711746
18.136679 -39.852097 58.834087 16711746
10.129347 -29.521715 76.268799 16711746
14.511573 -24.997797 62.804245 16711746
5.649158 -25.77705 67.267189 16711746
5.2323446 -13.105705 52.235741 16711746
10.43145 -24.20508 59.962967 16711746
11.469179 -34.365452 51.99168 16711746
13.325701 -33.573128 59.447193 16711746
8.2449369 -26.695774 60.074017 16711746
12.242911 -47.764832 67.71376 16711746
15.420705 -35.954994 62.997177 16711746
8.2552185 -34.148781 67.307823 16711746
9.7461939 -25.362753 55.85181 16711746
5.0798407 -28.244453 54.014168 16711746
8.886632 -27.357874 73.688042 16711746
23.586992 -29.788225 74.379745 16711746
8.2920666 -24.486874 76.150734 16711746
15.897511 -26.603485 63.666706 16711746
15.465828 -37.004868 60.329712 16711746
8.1595592 -26.543108 59.880066 16711746
10.959515 -38.37875 64.033806 16711746
4.8125744 -28.74025 54.641109 16711746
4.3918905 -33.833107 56.259457 16711746
10.413792 -34.721806 58.836987 16711746
4.769465 -33.04771 66.521889 16711746
6.1929941 -29.612963 63.14883 16711746
11.022831 -17.83943 52.92831 16711746
8.1618671 -17.036007 53.295696 16711746
7.6371446 -21.027082 54.441372 16711746
11.996151 -53.360573 71.102478 16711746
5.8676271 -31.225414 69.398689 16711746
17.562733 -21.677198 65.469818 16711746
21.224478 -27.43792 72.074944 16711746
21.856989 -30.912598 72.362236 16711746
16.046337 -18.651766 58.507145 16711746
16.667517 -27.514862 64.06205 16711746
13.151864 -28.331409 64.744408 16711746
21.605526 -32.570919 70.821068 16711746
13.381094 -26.311739 67.947784 16711746
19.559978 -26.983042 66.108162 16711746
13.413682 -35.325863 69.864555 16711746
14.788633 -39.154476 71.144554 16711746
7.4033508 -43.256409 70.565376 16711746
16.938089 -39.788975 73.309982 16711746
6.1488409 -18.543499 54.052624 16711746
8.6257973 -35.144333 67.889114 16711746
5.9968839 -34.63805 65.807251 16711746
12.885365 -23.066441 58.467999 16711746
13.508845 -27.41481 60.630512 16711746
7.2030673 -12.371405 51.107525 16711746
9.5580387 -27.810934 56.054028 16711746
8.2096996 -21.338362 52.152229 16711746
9.1706438 -15.545187 52.968201 16711746
6.4330254 -24.879416 58.017303 16711746
7.4810114 -37.37941 73.712639 16711746
1.737646 -26.996845 67.788734 16711746
15.296896 -15.511204 61.247112 16711746
15.801327 -30.83905 74.430801 16711746
31.729759 -37.192062 81.391075 16711746
26.464579 -66.514091 84.200974 16711746
16.66086 -31.030113 63.750626 16711746
7.9042954 -16.032982 52.840092 16711746
-7.3064375 -30.267458 58.882076 16711746
-4.4673986 -21.13662 55.395695 16711746
-5.2830172 -23.110537 56.151783 16711746
12.220437 -44.339806 72.278961 16711746
9.4892979 -42.669521 70.672386 16711746
-14.259153 -28.133453 75.642082 16711746
8.9505081 -18.357023 53.401039 16711746
21.832512 -33.586685 62.555374 16711746
14.605657 -18.546511 55.68486 16711746
8.4906311 -30.201694 59.806297 16711746
3.4575977 -9.6003695 51.359123 16711746
10.943387 -37.193752 53.298351 16711746
8.8201685 -23.569235 54.830898 16711746
5.3486261 -30.527178 69.093773 16711746
13.358744 -18.636061 56.657093 16711746
7.7774696 -19.162315 55.49506 16711746
6.6677871 -25.810255 58.342434 16711746
15.63062 -37.13026 74.209808 16711746
12.395687 -47.197414 70.954155 16711746
4.5534825 -28.671745 62.858925 16711746
-2.1909835 -21.076 54.469433 16711746
-10.562378 -31.094433 57.758289 16711746
7.9388523 -19.198944 52.978531 16711746
-12.273489 -21.012857 58.711349 16711746
-2.9711819 -20.53933 56.29015 16711746
-5.9153996 -28.445471 59.102871 16711746
7.8243208 -29.29047 58.127892 16711746
8.760788 -29.444235 62.006447 16711746
8.7248201 -18.107458 53.35569 16711746
6.5548949 -11.810293 51.460743 16711746
7.512413 -27.881205 53.059036 16711746
5.4078202 -34.982674 58.603603 16711746
5.7705159 -19.170736 53.881809 16711746
-8.3538723 -26.004539 67.388596 16711746
25.057617 -38.785412 81.149605 16711746
23.259571 -36.276527 75.436859 16711746
16.123575 -19.936058 61.891361 16711746
16.402426 -27.342815 63.936344 16711746
22.395971 -42.479561 72.787079 16711746
15.064707 -29.70483 64.001106 16711746
10.604043 -26.119589 56.550686 16711746
9.916091 -15.573284 55.622505 16711746
10.747638 -23.929562 50.614174 16711746
