# .PCD v.7 - Point Cloud Data file format
VERSION .7
FIELDS x y z rgb
SIZE 4 4 4 4
TYPE F F F F
COUNT 1 1 1 1
WIDTH 1193
HEIGHT 1
VIEWPOINT 0 0 0 1 0 0 0
POINTS 1193
DATA ascii
 1.0501255 -0.0074358 2.7876587 16777215
 1.0516212 -0.0063026 2.7894006 16777215
 1.0522401 -0.0065874 2.7895701 16777215
 1.0519809 -0.0062149 2.7908037 16777215
 1.0525236 -0.0049986 2.7922106 16777215
 1.0537007 -0.0054585 2.7929854 16777215
 1.0543280 -0.0054146 2.7946305 16777215
 1.0550472 -0.0059325 2.7963119 16777215
 1.0546354 -0.0060381 2.7976446 16777215
 1.0557032 -0.0055236 2.7982540 16777215
 1.0555767 -0.0057793 2.7987108 16777215
 1.0560352 -0.0059189 2.7989306 16777215
 1.0553463 -0.0050054 2.7991829 16777215
-1.0737835 -0.8986490 1.0517595 16711746
-5.2560782 -6.1804910 8.0578032 16711746
-6.2964849 -6.6058483 2.8454473 16711746
-0.3966164 -0.9842272 0.5422269 16711746
-0.7732657 -1.1728590 0.7209280 16711746
-0.1942406 -0.8862352 1.0243917 16711746
-1.0840350 -1.2739272 0.9624599 16711746
-0.1979081 -0.6453624 0.1814872 16711746
-0.3015588 -1.1821462 1.1179807 16711746
-0.1758899 -0.9586495 0.9920884 16711746
-0.3034701 -0.8010230 1.7425539 16711746
-0.4957727 -1.0012667 0.3145316 16711746
-0.9061286 -0.6525287 0.6607360 16711746
-0.1661579 -0.4868031 0.2735563 16711746
-0.7422049 -0.8101034 1.4104049 16711746
-0.9674465 -0.6669458 1.0509216 16711746
-0.9410887 -1.0087894 0.7133200 16711746
-0.4773697 -0.7436167 1.8293598 16711746
-0.3482765 -0.6780164 1.7009683 16711746
-0.0828385 -0.4655544 0.2191107 16711746
-0.1174026 -0.6952590 0.3222618 16711746
-0.3095604 -0.4300218 0.8437309 16711746
-0.6779116 -0.8805265 0.4173262 16711746
-0.1230388 -0.6606383 0.2945040 16711746
-0.8307181 -0.4183562 0.8551092 16711746
-0.6858858 -2.9302592 2.4340160 16711746
-0.3092885 -0.4307544 1.1175718 16711746
-1.2931604 -0.8587372 1.2608588 16711746
-1.3076670 -0.9765527 1.2780492 16711746
-0.2310457 -0.9846967 0.8771657 16711746
-0.4459397 -1.4147491 1.1993090 16711746
-1.6147715 -1.3887266 1.6827037 16711746
-0.5663958 -1.0613821 2.2458215 16711746
-0.3162460 -0.3811998 1.1520488 16711746
-0.5253826 -0.4280418 0.5844833 16711746
-0.0069391 -0.5318256 0.1973612 16711746
-1.5128131 -0.7228796 1.3350644 16711746
-0.4305195 -0.4585847 0.4888181 16711746
-0.4322602 -0.5795830 0.5748509 16711746
-0.9094471 -1.0658734 1.2938700 16711746
-0.1947094 -0.7592033 1.1294283 16711746
-0.4632663 -0.7990599 0.8734868 16711746
-0.4619296 -1.0653855 1.2121848 16711746
-0.5400048 -0.2211975 0.8139411 16711746
-1.4213421 -0.5286411 1.2965549 16711746
-0.4781067 -0.3907687 1.0957844 16711746
-0.4187873 -0.4716833 1.1701585 16711746
-0.7145151 -0.9657937 0.4901036 16711746
-0.5168892 -0.7233019 0.3331141 16711746
-0.4376215 -0.6245607 0.1962598 16711746
-0.6126387 -1.1673696 0.5240758 16711746
-0.9597124 -0.8394504 0.6409210 16711746
-0.6386853 -0.9900306 0.7918881 16711746
-0.2130236 -0.5735556 0.3260573 16711746
-0.6165152 -1.0495278 0.6321604 16711746
1.6146345 -2.0257325 3.1439662 16711746
0.9517887 -1.9539106 3.0726640 16711746
0.9723303 -0.9933732 2.7487812 16711746
2.2009084 -1.3146206 4.6717343 16711746
2.3485100 -1.8924962 4.2878842 16711746
1.2801535 -1.2806628 2.9048152 16711746
2.2708526 -1.6226940 2.6747267 16711746
1.1299741 -2.4957101 3.5761721 16711746
1.0721341 -0.4868833 2.3925624 16711746
-0.2850145 -3.9903224 5.7461195 16711746
0.9533935 -1.6085453 2.6305308 16711746
3.1207595 -2.0606976 6.4373794 16711746
1.0202788 -0.7022785 2.3661592 16711746
1.0308343 -0.6682755 2.4042680 16711746
2.2060091 -2.1828263 4.2453256 16711746
2.5869229 -1.2708060 4.8698001 16711746
0.7591276 -1.2807171 2.8023391 16711746
1.3433582 -1.4264048 3.1245735 16711746
1.2940036 -1.4843721 3.0849447 16711746
1.2737420 -1.5860547 3.1107998 16711746
1.2454900 -1.3391800 2.9939308 16711746
1.4412653 -1.5963427 3.1798708 16711746
0.9721642 -1.1353972 2.4649692 16711746
1.2163172 -1.2276981 2.9277315 16711746
1.1291740 -1.4110068 2.8478439 16711746
1.0689847 -0.9879392 2.4943411 16711746
0.3640125 -2.0722876 4.8720527 16711746
1.4350713 -1.0871887 3.2975564 16711746
0.4619366 -1.1225178 2.9015367 16711746
1.1445801 -0.7993135 2.4644978 16711746
-0.0115797 -0.9949313 3.0571985 16711746
0.0728249 -1.0410191 2.9608459 16711746
1.1147324 -0.7326058 2.4450197 16711746
-0.0210493 -0.7543387 2.9914529 16711746
0.8827060 -0.8768886 2.7167363 16711746
2.0652981 -1.5856025 4.1426115 16711746
1.3857759 -1.2835389 3.0828435 16711746
0.5486813 -1.3232270 2.6092529 16711746
2.8008177 -3.3112476 8.0850077 16711746
0.6372195 -1.4238826 2.7811697 16711746
0.8621665 -1.1323625 2.9010789 16711746
0.6143180 -1.5469854 2.8269827 16711746
1.1581854 -1.3246704 2.7119374 16711746
0.2950024 -1.4919587 3.0238698 16711746
1.3744296 -1.2112682 3.2661176 16711746
0.5124572 -1.1522241 3.2717438 16711746
0.9416855 -1.4103372 2.5601666 16711746
0.6196066 -1.4695548 2.7945836 16711746
0.6502609 -1.8408512 2.7973304 16711746
0.8579618 -1.0784111 2.8602037 16711746
0.9130487 -1.6281397 2.6937408 16711746
1.1322465 -1.4271829 2.7275198 16711746
0.7198042 -1.3354280 2.7101946 16711746
0.9365730 -1.3888533 2.5356135 16711746
0.6812191 -1.6199040 2.7788413 16711746
0.7914959 -1.5787677 3.4193809 16711746
0.6614079 -0.7263137 3.0503092 16711746
0.7258957 -1.3822290 2.9698384 16711746
0.5606968 -1.8388193 2.9357831 16711746
0.9083008 -1.3071036 2.9859195 16711746
0.5551797 -1.4470958 3.2068565 16711746
1.7023919 -1.7635673 3.9735997 16711746
2.2344418 -1.2001497 4.0859666 16711746
2.1314626 -1.0946929 3.9504526 16711746
1.2784473 -1.4898298 2.9016278 16711746
1.9530238 -1.9033718 3.8865154 16711746
0.9169409 -1.4632195 2.7615306 16711746
1.7628233 -1.4348205 2.8086944 16711746
1.1006212 -0.5135309 2.5855951 16711746
1.6145687 -1.9722185 3.3391683 16711746
3.3379261 -4.3748698 10.1157894 16711746
-1.3587922 -4.1031237 5.4592824 16711746
0.6805542 -1.4955617 2.9888785 16711746
-0.5751905 -1.2976844 3.4334788 16711746
1.4465005 -1.8906841 3.2647526 16711746
-0.3712327 -1.1094674 3.2641380 16711746
0.3980407 -1.0764517 2.9263113 16711746
0.3221996 -1.4299301 2.9906485 16711746
0.3956343 -1.2346245 2.8824940 16711746
1.0243064 -0.8055830 2.4233878 16711746
0.4419785 -1.5541924 2.9241493 16711746
0.9558045 -1.1470085 2.7457352 16711746
0.7472066 -1.2489594 2.8051760 16711746
0.9551280 -0.8397982 2.5693347 16711746
-0.0205404 -0.7729570 3.0495520 16711746
0.5959882 -1.2348669 2.6513109 16711746
0.0027429 -1.5255170 3.0672753 16711746
0.3182729 -0.8072045 3.8195238 16711746
0.7168272 -1.0781726 2.8304946 16711746
0.2427363 -0.6594028 2.8304253 16711746
0.4299588 -0.6826175 2.6415217 16711746
1.0826619 -0.5081466 2.3986561 16711746
0.6591893 -0.6996110 2.8170800 16711746
0.5886742 -0.8248227 2.7862005 16711746
1.0601583 -0.4183186 2.3752325 16711746
0.9442320 -1.1674093 2.7612042 16711746
2.0586472 -1.1837873 4.3547893 16711746
2.9821808 -4.6130881 8.3208294 16711746
-2.5074050 -3.0698395 3.2516584 16711746
0.3156624 -0.5353065 2.6996264 16711746
-0.2193124 -1.3154094 2.9384136 16711746
1.1543208 -0.9364809 2.6230834 16711746
0.9203258 -0.6164359 2.5149040 16711746
0.7656524 -0.3648155 2.8402519 16711746
0.9258770 -1.5043632 2.8176172 16711746
1.1281017 -0.7886084 2.7680032 16711746
1.3423934 -0.9370184 2.6133752 16711746
0.8685614 -1.3511763 2.8600206 16711746
0.8012654 -0.9977951 2.6826978 16711746
0.9107010 -0.9966473 2.6112216 16711746
1.1187935 -0.7847387 2.5351803 16711746
0.7998185 -1.2346081 2.7793665 16711746
0.7486687 -1.0657156 2.6803849 16711746
0.7044213 -1.4010178 2.9279127 16711746
0.7113985 -1.2496587 2.7882874 16711746
1.0152820 -0.4372549 2.4311850 16711746
1.0454122 -0.5994129 2.4884772 16711746
2.5265450 -1.3428185 5.3669004 16711746
1.0460318 -0.9886615 3.1024477 16711746
0.9923366 -1.5634003 2.7470109 16711746
4.3129573 -9.7006683 13.3220291 16711746
0.9363629 -0.6019500 2.4412792 16711746
1.1614162 -0.5771353 2.4526098 16711746
1.1216023 -0.3662539 2.9117937 16711746
0.0363678 -0.7073881 2.9634566 16711746
1.0573082 -1.3985261 3.4040587 16711746
0.7047176 -1.1056806 2.6822033 16711746
0.9681576 -0.7411588 2.8585980 16711746
0.8075137 -1.3506509 2.7749186 16711746
2.6015944 -9.1737099 11.9616032 16711746
1.6039231 -0.9293227 3.4806693 16711746
0.9669797 -0.3870160 2.3414621 16711746
0.8001348 -0.8109012 2.5228078 16711746
0.5603823 -0.3821042 2.9441466 16711746
0.6741645 -1.2314612 2.8223472 16711746
1.1609129 -0.8647237 2.8401830 16711746
0.0885091 -1.1149141 2.7353778 16711746
1.2029173 -0.5131728 2.4677794 16711746
1.2809715 -1.3004941 2.8965194 16711746
1.1554362 -0.7024371 2.7255700 16711746
0.9989974 -1.0329064 3.0444744 16711746
0.5550617 -0.2771229 2.6423423 16711746
1.0286093 -0.4144719 2.4127285 16711746
0.3275948 -0.5884691 2.5355985 16711746
0.2993263 -1.0521382 3.0289342 16711746
0.6434087 -1.5678347 2.9164975 16711746
1.8197956 -1.7855741 3.6380622 16711746
0.8807054 -0.3337702 2.4709156 16711746
1.0819949 -1.8520899 3.8437233 16711746
2.0866148 -2.5757239 4.1821141 16711746
1.6082603 -0.8721346 2.4173167 16711746
2.1400201 -1.2258822 4.5042777 16711746
0.9963330 -0.5465097 2.6012611 16711746
1.0765541 -1.1400201 2.5811763 16711746
1.1572679 -0.5946388 2.6094327 16711746
1.1196041 -0.5379446 2.5703063 16711746
1.1511862 -0.7639269 2.7347357 16711746
2.2494297 -1.3096880 2.4022887 16711746
1.0110594 -0.6852723 2.4761291 16711746
1.0898440 -0.5529734 2.5276511 16711746
0.5331266 -0.3563111 2.8023548 16711746
0.6058317 -0.7007374 3.0592606 16711746
1.0881410 -0.6819701 2.7249496 16711746
1.1049509 -0.7761137 2.6153843 16711746
0.6138819 -0.7703050 2.6857591 16711746
0.5896356 -0.9928836 2.6098931 16711746
1.0760098 -0.2917817 2.4854865 16711746
1.2715493 -0.8151549 2.7643018 16711746
1.4603266 -0.5509708 2.5581918 16711746
1.2896549 -1.3710229 2.8170660 16711746
1.0044943 -0.5992627 2.4615591 16711746
1.1336076 -0.6824796 2.5519822 16711746
2.4916606 -2.6931705 5.2537398 16711746
1.2705773 -0.8055490 3.1555812 16711746
1.2236594 -0.5594041 2.7283804 16711746
2.4527659 -4.0280633 8.1405659 16711746
5.8322616 -8.7247238 11.7056913 16711746
5.2489753 -11.6256475 8.6293488 16711746
1.0640020 -0.6471378 2.4615254 16711746
1.0398160 -0.4833660 2.5007389 16711746
0.2899855 -1.0462164 2.7357130 16711746
0.9964010 -0.6146172 2.5160964 16711746
1.0939139 -0.4770372 2.6026435 16711746
1.2782118 -0.8500459 2.8206329 16711746
1.1571722 -0.8133502 2.5336165 16711746
1.1153280 -0.7968035 2.8096821 16711746
1.7833457 -1.0774623 2.5107207 16711746
1.2073333 -1.1025505 2.6853342 16711746
1.1049160 -0.6220072 2.4677095 16711746
1.1189145 -0.6896134 2.9048781 16711746
1.2118787 -1.2581924 3.1651218 16711746
0.9663462 -0.8110919 2.5312760 16711746
1.0884161 -0.6821121 2.5222521 16711746
0.8857363 -0.7406568 2.9698961 16711746
1.0752088 -1.0111417 2.5962832 16711746
1.0544432 -0.9203003 2.6955087 16711746
0.8933758 -0.7831057 3.0112877 16711746
1.4028392 -0.8680332 2.5602534 16711746
0.9820420 -0.7562748 2.8183463 16711746
1.9985185 -1.0160385 2.4131238 16711746
0.9329152 -0.9831708 2.8310695 16711746
1.0621872 -0.8434162 2.5938098 16711746
1.8926299 -0.8671863 2.5618293 16711746
1.4173692 -1.1984200 3.2514129 16711746
1.7822556 -1.0372695 3.2252674 16711746
1.2608463 -0.3663116 2.6356266 16711746
1.5746288 -1.4771808 3.5632985 16711746
1.8070028 -1.0638468 3.2415814 16711746
1.2420255 -1.0613250 2.6951883 16711746
1.2759169 -0.7223577 2.6171472 16711746
1.3443090 -1.1517230 2.9773543 16711746
1.3802253 -0.9019712 2.5774291 16711746
1.1536003 -0.7974105 2.5114262 16711746
1.3740312 -0.7905116 2.5627427 16711746
0.9458116 -1.0134292 2.9374707 16711746
1.4151587 -0.9759613 2.8433781 16711746
1.5353622 -0.8588781 2.5820887 16711746
1.3432846 -0.6063269 2.7835464 16711746
1.3753165 -0.7606499 2.4783392 16711746
1.1471382 -0.2675887 2.7069559 16711746
1.5012017 -1.3617264 3.4031851 16711746
0.9436123 -0.8536533 2.5281720 16711746
4.9125867 -7.2375908 9.8769941 16711746
1.4870534 -2.6556971 3.1678212 16711746
2.2581537 -3.7982433 3.9315374 16711746
0.8691554 -0.6002654 3.1548860 16711746
1.0331314 -0.9632196 2.7881470 16711746
1.7587117 -1.3764310 3.5484679 16711746
1.2800328 -1.5797901 3.0792158 16711746
0.8064083 -1.4019579 3.2884374 16711746
1.8697697 -1.0634918 3.5574937 16711746
1.3382540 -0.9222601 2.6888461 16711746
1.0870140 -1.1246450 2.7817888 16711746
1.8511382 -1.6077433 3.8373988 16711746
1.3720407 -0.9349636 2.6383901 16711746
1.2156305 -0.9920925 2.6129835 16711746
1.2132486 -0.9770694 2.6070735 16711746
0.5591171 -0.2769881 2.8384798 16711746
1.1148125 -0.9563353 2.9154575 16711746
0.8202752 -1.0887897 3.0219162 16711746
0.6984115 -0.7058079 2.8450849 16711746
1.7418960 -0.9387410 2.4702663 16711746
1.8255833 -1.0328337 3.4506869 16711746
1.4950308 -0.7577702 2.5007987 16711746
1.3162535 -0.8303438 2.5994842 16711746
0.5018478 -1.0921113 4.4798427 16711746
0.9408149 -0.8594283 2.9437101 16711746
1.5642474 -1.9585209 3.1871417 16711746
0.0170015 -0.6492660 3.1502273 16711746
2.6661735 -2.8704419 4.0499949 16711746
1.0576338 -0.4431323 2.5334969 16711746
-2.7396994 -4.0907679 3.5248203 16711746
1.0761032 -0.4551696 2.5579567 16711746
0.5609249 -0.1920042 2.5696898 16711746
0.7636794 -0.5123581 2.5543842 16711746
2.0338063 -1.1962962 2.6624475 16711746
0.5381126 -0.6802950 3.3638372 16711746
0.7833527 -1.2290442 3.3750191 16711746
1.2587556 -1.3351222 2.8184273 16711746
0.7581934 -0.6332746 3.2028482 16711746
0.9219351 -1.3434281 3.2666121 16711746
0.7636503 -0.6336573 3.2009585 16711746
1.1917890 -0.5696889 2.8456097 16711746
1.7923805 -1.4864233 3.6898577 16711746
1.7268198 -1.0730826 3.4283845 16711746
0.8068503 -1.4499792 4.0812540 16711746
1.4594542 -1.6717086 3.3502400 16711746
1.3477585 -0.7701268 3.1638787 16711746
1.3529683 -1.2057396 3.6998789 16711746
1.7359486 -0.7514913 3.8326786 16711746
1.1856205 -0.8797472 2.8683112 16711746
0.9826914 -0.5329772 2.5134192 16711746
0.5048741 -0.7006420 3.2285552 16711746
0.3049567 -0.5948246 2.7543414 16711746
0.3445025 -0.8168145 2.7737830 16711746
0.2568272 -0.6442408 3.0510333 16711746
1.2427695 -0.7970009 2.6734898 16711746
0.6161383 -0.9069558 2.6900856 16711746
1.0179892 -0.8924440 2.6533811 16711746
0.7249641 -0.9290804 2.7080486 16711746
0.7240425 -0.8592823 2.5777507 16711746
0.1160874 -0.6713368 2.8989258 16711746
1.4065957 -0.9718080 2.8926582 16711746
0.9957864 -0.6522966 2.5528197 16711746
0.6166087 -0.7847608 2.7915628 16711746
0.3804376 -0.7677075 2.7418802 16711746
0.2074807 -0.6781331 3.1028366 16711746
0.3790588 -0.5196935 2.9178164 16711746
1.3534300 -0.7731442 2.7491627 16711746
0.7757387 -0.7969231 2.7676017 16711746
1.3892992 -0.9014801 2.7550700 16711746
0.9283991 -0.7112729 2.5891893 16711746
1.2020506 -1.1754078 3.4057970 16711746
1.5891804 -1.2862645 3.2927938 16711746
1.1420355 -0.5588396 2.4791923 16711746
0.8061092 -0.9322029 2.6368182 16711746
0.8844064 -0.9287861 2.8599238 16711746
0.7536234 -0.7252020 2.9436803 16711746
1.2823255 -1.0833075 2.7333293 16711746
1.5088621 -1.0696136 3.1624746 16711746
1.2151231 -0.9580177 3.4054680 16711746
1.4122744 -0.8528602 3.2293596 16711746
1.4428242 -1.2526648 3.3040352 16711746
0.6417527 -0.3650480 3.1688206 16711746
1.1525322 -0.9189275 3.2351565 16711746
1.1180832 -1.1310387 2.7144120 16711746
0.7486420 -0.8048358 2.6497633 16711746
0.3931980 -0.5036263 2.7920818 16711746
1.6992310 -0.7636166 3.1262228 16711746
1.5171797 -1.3082718 4.4017491 16711746
2.4509897 -1.5659567 4.4752083 16711746
0.7444879 -0.9161314 2.9400325 16711746
1.7595305 -1.1585741 4.2838182 16711746
1.8110560 -1.5728655 3.6337647 16711746
0.6998962 -0.4901117 2.4624403 16711746
3.2926795 -1.1737337 4.4045105 16711746
1.0621514 -0.6578262 2.7265410 16711746
0.9563562 -0.4008403 2.6435213 16711746
0.8807614 -0.6019173 2.5576828 16711746
0.8434394 -0.7489159 2.5264974 16711746
0.8159994 -0.7763307 2.5735428 16711746
0.7593480 -0.6898321 2.9160063 16711746
0.8653527 -0.5626302 2.5274453 16711746
0.4812635 -0.4316110 2.8553357 16711746
0.2653156 -0.3537605 2.9070857 16711746
1.1690953 -0.5831912 2.6784029 16711746
0.8633803 -0.7041017 2.7217913 16711746
0.6698738 -0.5665857 2.5518527 16711746
0.2564562 -0.5590913 2.7588422 16711746
0.6759734 -0.5233840 2.5536218 16711746
0.5997403 -0.7027713 2.6063628 16711746
0.7827113 -0.6010697 2.8388224 16711746
0.4905524 -0.6830949 2.6829572 16711746
0.2853604 -0.3059740 2.9103506 16711746
0.8896402 -0.5283158 2.6282060 16711746
1.1791672 -0.9427626 3.2556708 16711746
0.3894212 -0.4121099 2.8772006 16711746
0.7863114 -0.5813883 2.7338102 16711746
1.0157057 -0.5636540 2.8703709 16711746
0.3970381 -0.3592426 2.7170198 16711746
0.7143071 -0.4849526 2.7176828 16711746
0.4502279 -0.4989116 2.7572777 16711746
0.9713134 -0.5460542 2.5481832 16711746
0.7589613 -0.6437241 2.9588273 16711746
0.6433613 -0.4335782 2.8734934 16711746
0.7013848 -0.4006526 2.9616003 16711746
0.7339478 -0.5362406 2.7633438 16711746
0.7815319 -0.6806787 2.8548386 16711746
0.7376562 -0.5601832 2.5968447 16711746
0.5003111 -0.5979902 2.6464341 16711746
0.9843324 -0.7297703 2.6276641 16711746
1.1431366 -1.0051652 3.2934456 16711746
1.3561488 -1.1072879 2.7196710 16711746
1.6404301 -1.1001129 3.4214602 16711746
1.4114449 -0.8671591 3.2886567 16711746
1.0782588 -1.0206482 2.6149909 16711746
1.1148711 -0.8938729 3.1741929 16711746
1.2712413 -0.8271876 2.7856872 16711746
1.2112279 -1.0228194 3.5839317 16711746
1.7679684 -0.8919658 3.3624687 16711746
0.6037338 -0.5820851 3.1983035 16711746
0.5782163 -0.5939759 3.2329531 16711746
0.5482674 -0.4855796 3.1681905 16711746
1.3067924 -1.4107772 3.0519979 16711746
1.1865113 -0.7680781 3.1967986 16711746
0.6078846 -0.4286250 3.1522355 16711746
0.3538038 -0.5009732 3.0279756 16711746
0.7781834 -0.6873544 2.8851252 16711746
0.6023470 -0.4018793 3.1659579 16711746
0.4697952 -0.5192258 2.4611359 16711746
1.4958658 -0.4516884 2.9514260 16711746
1.5239497 -1.1471691 3.5799432 16711746
1.8362083 -1.4104089 3.4838181 16711746
1.0405692 -1.3068551 3.7080543 16711746
1.7294039 -1.5352941 3.4930973 16711746
2.1757004 -1.3811520 4.3928151 16711746
1.0437268 -0.4205498 2.4923806 16711746
2.1518545 -1.0948442 4.6327457 16711746
1.7292262 -0.7753891 3.7762613 16711746
0.3774255 -1.9631296 3.9947958 16711746
0.0397098 -1.5165480 2.9668138 16711746
0.6314847 -0.4446691 2.8890235 16711746
1.0985534 -0.3959213 2.5049145 16711746
0.6404157 -0.1477800 2.5666323 16711746
1.0260954 -0.2777243 2.7387807 16711746
1.1446977 -0.2913561 2.6962218 16711746
1.1064688 -0.7755332 2.6028006 16711746
1.2922364 -0.8045541 2.6234341 16711746
1.2171978 -0.9012040 2.6962237 16711746
0.9591611 -0.1050134 2.4404297 16711746
1.1653471 -0.7279497 2.6395991 16711746
0.8048334 -0.8661135 2.9518340 16711746
1.1998730 -0.6117982 2.5534542 16711746
1.0836046 -0.6011285 3.1949692 16711746
0.3641630 -0.6149309 3.3310688 16711746
1.1327161 -0.6126078 3.1416688 16711746
1.3905356 -0.9388071 3.3597627 16711746
1.4122692 -1.8779968 2.9907126 16711746
1.1707706 -0.8213057 2.7185738 16711746
1.2895137 -0.9357831 2.6516466 16711746
0.8082607 -0.7367768 2.6076300 16711746
0.7094223 -0.4896926 2.5279865 16711746
0.8162607 -0.6723118 2.5836172 16711746
1.3814849 -1.0876706 2.7801085 16711746
1.7294697 -1.2244444 3.5888138 16711746
1.2133964 -1.0764453 3.5493591 16711746
1.7526450 -1.1072235 3.6857092 16711746
0.7331293 -0.2566149 2.8154020 16711746
1.4844137 -0.8880381 3.5708871 16711746
0.0212007 -1.3124888 2.8421278 16711746
1.8007516 -0.8601717 3.9520519 16711746
2.3867147 -1.4962126 4.3865547 16711746
2.5470624 -1.1459785 4.1832938 16711746
1.2113053 -0.9736245 2.5690181 16711746
2.3132348 -1.4737138 4.6021509 16711746
1.0176216 -1.4787034 3.9381320 16711746
0.9997600 -0.9371896 3.0901673 16711746
1.0980778 -0.4957985 2.9546027 16711746
-0.1551848 -2.3331640 3.6701639 16711746
0.4599204 -1.9716948 3.8663304 16711746
0.4710799 -1.0446393 2.6891816 16711746
0.2079104 -0.5285406 3.1794388 16711746
1.4067246 -0.6216207 2.6447320 16711746
0.5200483 -0.4787554 3.1771696 16711746
1.1165076 -1.2656877 2.6853726 16711746
1.0934514 -0.3932052 2.5864744 16711746
1.2621102 -1.0430903 2.7144058 16711746
0.6467332 -0.3329336 2.9401574 16711746
1.8491974 -0.9437066 3.6180556 16711746
1.2911109 -0.5661432 3.4067016 16711746
0.7022504 -0.2236885 2.7546341 16711746
1.6949494 -1.7397559 3.6012816 16711746
1.2458754 -1.0362715 2.7325239 16711746
1.6996469 -1.6442879 3.6834314 16711746
0.8903239 -0.9121156 2.6464796 16711746
2.0378232 -0.6360949 2.9400816 16711746
1.4247712 -0.9042804 2.7531691 16711746
1.4657485 -0.7522608 2.6864896 16711746
1.6962992 -0.6879261 2.7107491 16711746
1.7207004 -1.0188547 2.8234925 16711746
1.2660722 -1.1980178 2.7871833 16711746
0.9782277 -0.4981404 2.9463146 16711746
2.0244265 -1.3802776 3.8386059 16711746
1.1964781 -0.5542774 3.1851637 16711746
1.2361379 -0.6705856 2.5611475 16711746
1.7922361 -1.3990130 3.6263452 16711746
0.7412363 -1.5674342 3.2671227 16711746
2.9408243 -1.2876688 4.7987242 16711746
1.7917746 -0.9042854 3.8765707 16711746
1.7296107 -0.8470656 3.7609599 16711746
-0.1672746 -1.8664805 3.1938841 16711746
1.2139515 -0.6340628 2.6588714 16711746
1.1081465 -0.7524688 2.6834240 16711746
2.0110300 -1.1550859 4.2829080 16711746
0.8180962 -1.2589637 2.7510521 16711746
1.1695641 -0.2660901 2.7380357 16711746
1.1666548 -0.3699903 2.6373334 16711746
0.3576005 -1.1955639 3.0186989 16711746
1.4965686 -0.6342057 2.5222051 16711746
1.9278800 -1.7225806 3.9339426 16711746
1.2530839 -1.1614408 2.9487076 16711746
0.6570334 -0.7165469 2.6814971 16711746
1.0648739 -1.0942420 2.7551003 16711746
1.1503239 -1.1456192 2.8085463 16711746
-0.1900413 -0.7132419 3.2515571 16711746
1.4374603 -0.9595144 3.9220390 16711746
0.0968907 -0.5488251 3.0974879 16711746
1.5562284 -0.6805437 2.5311580 16711746
1.0546474 -0.6642750 2.5738583 16711746
1.1002754 -0.7227233 2.6341760 16711746
1.0168605 -0.7728768 2.6341708 16711746
0.9835957 -0.5953323 2.7254457 16711746
1.0361345 -0.4735293 2.5534093 16711746
0.9585720 -0.4547755 2.6091146 16711746
1.1819435 -0.4839281 2.6422303 16711746
1.1905953 -0.2298054 2.8070788 16711746
1.4435380 -0.7154972 2.9696038 16711746
1.5454739 -0.5321894 3.0196595 16711746
1.2415261 -0.4681462 2.5166276 16711746
1.4374729 -0.5152466 2.5723183 16711746
1.9206864 -1.0076567 3.6259422 16711746
1.2167495 -0.8659768 2.6087332 16711746
0.9949664 -1.4382926 3.9529438 16711746
0.6243221 -0.5277883 2.6167920 16711746
2.1096349 -0.8550463 4.5539846 16711746
1.6538182 -1.1444021 4.5452023 16711746
1.2976426 -1.1983247 2.6784344 16711746
2.1141148 -1.0941993 3.2421169 16711746
5.3620582 -8.8364086 6.0945001 16711746
1.1793250 -0.5445966 2.5517650 16711746
0.9780176 -0.7709716 2.7137914 16711746
1.1290231 -0.6466004 2.6389756 16711746
1.1115959 -0.4256650 2.7228472 16711746
0.5668704 -0.6126252 2.5989251 16711746
0.9840162 -0.8114154 2.7313631 16711746
1.1661106 -0.5476546 2.6588466 16711746
0.9475319 -0.7201365 2.7566295 16711746
0.5799625 -0.6392472 2.6625283 16711746
1.0987507 -0.7613047 2.6928561 16711746
1.1623694 -0.3872633 2.6120257 16711746
0.7457258 -0.4681884 3.0459249 16711746
1.1700367 -0.5813975 2.7374413 16711746
0.8623363 -0.6821240 2.9122114 16711746
0.4645311 -1.0029094 3.7408087 16711746
0.9609141 -0.0514330 2.4134002 16711746
1.0005227 -0.8490139 2.7002647 16711746
1.4320749 -0.7863134 3.1149397 16711746
1.2788783 -0.6399470 2.5035682 16711746
1.2543443 -0.5829209 2.5171843 16711746
1.3018509 -0.8564258 2.5905123 16711746
1.3889875 -0.7034734 2.7025242 16711746
1.3631929 -0.6708567 2.6875465 16711746
1.2513939 -0.6940435 2.6851435 16711746
0.9793041 -0.9370689 3.2098963 16711746
0.0410280 -0.8541579 2.6503758 16711746
1.2978750 -0.7630315 2.9648919 16711746
1.3536540 -0.7386194 3.1902051 16711746
1.2331982 -0.5946302 2.6116238 16711746
1.0234393 -0.8827974 3.2720575 16711746
1.2478051 -0.7170953 2.9596999 16711746
1.2615120 -0.6620877 2.9803312 16711746
1.2488756 -0.5477344 2.9798303 16711746
1.2514832 -0.6321210 2.7937508 16711746
0.9991062 -0.9359009 3.2612329 16711746
1.2300384 -0.7273881 2.7515965 16711746
0.7271658 -0.5504282 3.4512892 16711746
0.8990616 -0.7953439 3.3171861 16711746
1.3891076 -0.7022848 2.6987724 16711746
0.9493858 -0.8140600 2.9783733 16711746
1.2305723 -0.5684344 2.9285762 16711746
0.1320685 -1.1159449 3.0051801 16711746
1.2059250 -0.8465062 2.7021954 16711746
1.1326208 -0.4136409 2.7976456 16711746
0.9269497 -0.6493502 2.9785504 16711746
0.9766365 -0.5410928 3.0122356 16711746
0.9976041 -0.3827680 2.6008983 16711746
0.8979487 -0.6705719 3.1755826 16711746
1.5786438 -0.7858819 2.7005394 16711746
0.4961073 -0.6687552 2.6275375 16711746
1.2885880 -0.5307609 2.6767199 16711746
1.2217909 -1.3141316 2.8299589 16711746
1.3487892 -2.1399500 2.9842072 16711746
0.8518174 -0.6688174 2.7485673 16711746
1.2053300 -2.1529524 2.9875369 16711746
1.5366619 -1.2680861 2.8648179 16711746
1.7110006 -1.5681329 4.9023099 16711746
1.1921620 -0.5202057 2.6673489 16711746
1.2520630 -0.4151490 2.4939055 16711746
0.9786188 -0.6045561 2.6944566 16711746
1.2166265 -0.4818522 2.6696365 16711746
0.8396240 -0.3017277 2.9547644 16711746
1.0066708 -0.5754454 2.8363800 16711746
0.8527591 -0.2782098 2.9043047 16711746
1.4629472 -0.9469528 2.8539541 16711746
1.4909648 -0.6674306 2.9265525 16711746
1.4014943 -0.5759811 2.8440373 16711746
1.3965151 -0.8806030 2.7750750 16711746
1.3691374 -1.3958560 3.2384875 16711746
0.9401053 -0.3246980 2.5522721 16711746
0.9511978 -0.6965377 2.9888918 16711746
1.1659697 -0.3213579 2.8744025 16711746
0.9958058 -0.5631652 2.9572701 16711746
1.0303690 -0.4719646 2.6176941 16711746
1.0927942 -0.6103022 2.6807613 16711746
1.3934854 -0.4040863 2.8263097 16711746
0.9351912 -0.6297533 2.7972949 16711746
1.0489644 -1.2315102 2.7884884 16711746
0.9969916 -0.3830576 2.7264509 16711746
0.5876316 -0.9770585 3.0816984 16711746
1.5044063 -1.4158913 3.2479684 16711746
1.4957392 -1.3104256 3.3605745 16711746
0.9881666 -1.5563875 3.5644753 16711746
1.5104814 -0.3510415 2.8659897 16711746
0.9572975 -0.9821091 2.9903405 16711746
1.1257199 -0.5375877 3.0961080 16711746
0.9848878 -0.4333208 2.8305762 16711746
0.8135509 -0.9206169 2.9222684 16711746
0.7794158 -0.3640103 3.1555071 16711746
0.7726086 -0.4170055 3.1972623 16711746
0.9613312 -0.7692826 3.1261280 16711746
0.9099841 -0.8141990 2.8203180 16711746
0.9532678 -0.7972490 2.7719333 16711746
0.8731942 -1.0608672 2.9264050 16711746
0.8479097 -0.9524742 3.0669341 16711746
0.8653573 -0.8399506 2.9790690 16711746
0.9243270 -0.8949764 3.0942750 16711746
0.7740052 -0.7101609 2.9728041 16711746
0.4240209 -0.6495587 2.8465502 16711746
0.9277051 -0.7921347 3.0827351 16711746
1.0827184 -0.6510108 2.9945197 16711746
0.7135227 -0.6668910 2.7746146 16711746
0.8515922 -0.7483059 3.0076108 16711746
1.0215415 -0.9314625 3.2103634 16711746
1.2187055 -0.6408268 3.2185612 16711746
0.8161654 -0.3051242 3.0257714 16711746
0.8298183 -0.8424098 3.0872793 16711746
1.3875123 -0.5841508 2.7656426 16711746
0.8179735 -0.6842371 3.1030662 16711746
0.5843755 -0.3331721 2.7846634 16711746
0.9009987 -0.5551609 3.4455137 16711746
0.8247348 -0.4291922 3.1056168 16711746
0.8705724 -0.6429846 2.9136517 16711746
0.8953928 -0.6924608 2.8726597 16711746
1.1508534 -0.8069696 2.8554502 16711746
1.2712344 -1.0727191 2.8664839 16711746
1.2521063 -1.1384200 2.8163488 16711746
0.8865574 -0.7045479 2.8426826 16711746
0.9576957 -1.4194883 2.9507561 16711746
1.2303692 -1.0389346 2.9639733 16711746
1.1692306 -0.9433499 2.9404645 16711746
1.1996645 -0.9651840 2.8324764 16711746
1.3537726 -0.8722287 2.8451819 16711746
0.8280954 -1.2896886 3.1114337 16711746
1.1976084 -0.4520090 2.7879636 16711746
1.7481697 -1.0258681 3.3855102 16711746
1.2088052 -1.1970310 2.9106691 16711746
0.9812041 -0.8220849 3.1208308 16711746
0.9523805 -0.5545489 2.8682466 16711746
-1.0610707 -2.4364812 3.9272211 16711746
2.2948327 -4.1249962 5.3246112 16711746
1.3956708 -2.1250114 3.0234537 16711746
1.8022109 -1.6490275 3.3125997 16711746
2.2564194 -1.1695716 4.8066182 16711746
-0.3650624 -1.1390262 3.2667048 16711746
0.7062343 -0.3710828 2.6382749 16711746
0.8878453 -0.3208608 2.8395994 16711746
0.8948568 -0.9100898 3.0124490 16711746
0.8801863 -1.1076878 3.1177416 16711746
1.1589746 -0.8845470 3.0383637 16711746
1.3497788 -0.8167053 2.8419819 16711746
1.0830979 -0.4289570 3.0267978 16711746
1.5013540 -0.5076214 2.8367658 16711746
1.2621794 -0.3825607 3.1301670 16711746
1.2889047 -0.7468364 3.0141542 16711746
0.9927624 -0.7746112 2.9836080 16711746
0.1379099 -1.2730330 2.9581957 16711746
0.8597273 -0.9288151 3.0670552 16711746
1.2204807 -0.2807359 2.8741970 16711746
0.8321263 -1.2606134 3.0988209 16711746
0.8231899 -0.7223233 2.9219611 16711746
0.8345125 -1.1825691 2.9077899 16711746
1.1970905 -0.5990679 3.4032936 16711746
1.5885031 -0.6769033 3.0533500 16711746
1.0918237 -0.5542609 2.6768398 16711746
0.7567441 -0.8805700 3.0592470 16711746
1.4715598 -0.9115178 2.8647895 16711746
1.4516605 -1.2571671 3.2352443 16711746
1.4948542 -1.0098003 3.2724357 16711746
1.3456640 -0.9398910 3.1164227 16711746
1.6078392 -0.6721565 2.8590152 16711746
1.1113552 -0.8413669 3.1228633 16711746
1.2477778 -1.2008458 2.9423449 16711746
1.4607413 -1.0022265 2.8386331 16711746
1.0520263 -0.2862704 2.5467036 16711746
0.5064094 -0.7882095 3.2792976 16711746
2.3771057 -1.0112226 3.1431897 16711746
0.9663844 -1.4587376 3.4656255 16711746
0.9448235 -1.3563788 3.3451991 16711746
0.7276486 -0.8306608 3.0785098 16711746
1.2521013 -0.6825061 2.7025070 16711746
1.3014339 -0.3436067 2.6646516 16711746
1.4669387 -0.5391028 2.7727077 16711746
0.8335150 -0.3426260 3.0724182 16711746
1.2835736 -0.8926030 2.8471749 16711746
1.5509703 -1.2534829 2.9421394 16711746
0.8635894 -0.7181068 2.7431648 16711746
0.9507520 -0.5667841 2.8476267 16711746
0.9132671 -0.7606430 2.7963166 16711746
1.1052840 -0.6195644 2.8088822 16711746
1.1577175 -0.8937452 2.8654292 16711746
1.4966697 -1.0996962 2.9748707 16711746
1.1761431 -0.7213367 2.8403032 16711746
1.1942005 -0.7812921 2.8749588 16711746
0.9428638 -0.7270610 2.7630796 16711746
1.5063568 -0.5285410 2.8002918 16711746
0.9449565 -0.7872580 2.8546739 16711746
1.5021304 -0.5358717 2.7996430 16711746
1.4857326 -0.4307774 2.8594878 16711746
1.5086735 -1.0790935 2.8365512 16711746
0.7999799 -0.4716964 2.6585736 16711746
1.5541482 -1.4111656 3.2811456 16711746
1.5702616 -0.8339949 3.3212059 16711746
1.5333571 -1.1712526 2.8827178 16711746
1.4182752 -0.9423828 3.0839353 16711746
1.5506837 -0.7483662 3.0893149 16711746
1.4908773 -0.6216714 3.0776336 16711746
0.8498892 -0.9656203 2.9999342 16711746
1.4558338 -0.8478904 3.1687057 16711746
1.4906346 -0.7863922 2.8086703 16711746
0.7281308 -0.8846409 3.0589724 16711746
0.2265319 -0.7204258 3.1033189 16711746
0.8331605 -0.6752884 2.7599669 16711746
0.9757000 -0.2343050 2.5599642 16711746
1.2958330 -0.7212564 3.0337641 16711746
1.6794083 -1.0668783 3.3967814 16711746
1.4980062 -0.5741071 2.7477379 16711746
0.5097527 -0.4226675 2.7255528 16711746
1.3573737 -1.0322456 4.1038189 16711746
1.4844062 -0.9633368 3.1754434 16711746
0.4632303 -1.0759950 3.0340178 16711746
1.6202762 -0.8081294 3.4676321 16711746
1.5396442 -0.6607754 2.8330429 16711746
0.7185820 -1.0257382 2.9197764 16711746
1.7339572 -0.9988090 3.4576735 16711746
0.9362805 -0.8120981 2.9064341 16711746
1.1813504 -0.1931454 2.8007100 16711746
1.2153083 -1.7037191 4.7255635 16711746
1.5882549 -2.3686364 3.8667407 16711746
1.1439130 -1.0501099 2.9776635 16711746
1.4605033 -2.4760561 3.2435346 16711746
0.7436411 -0.8392127 3.0524285 16711746
1.2474105 -0.5809023 2.7459655 16711746
0.2966254 -0.6725882 2.8955083 16711746
1.2779795 -0.6814266 2.9961040 16711746
0.7993670 -1.0046972 3.1128194 16711746
1.3526789 -0.7629954 3.2114341 16711746
0.8805417 -0.8908811 2.8657134 16711746
1.6456732 -0.6696726 3.1109965 16711746
1.2604637 -0.6396890 3.0021641 16711746
0.7599757 -1.0210561 3.0756276 16711746
1.7363715 -0.8517979 2.9514112 16711746
1.3731983 -0.7070349 2.7155089 16711746
1.4994278 -0.5988743 2.7944636 16711746
0.8365556 -1.0597854 3.0743194 16711746
1.5413942 -0.7413049 3.0815949 16711746
1.6272378 -0.6522310 3.0924339 16711746
0.6692214 -0.3141870 3.1191220 16711746
0.6061167 -0.3691203 3.2432365 16711746
0.6598880 -1.0848068 2.9110785 16711746
1.5769253 -0.7901299 3.1291163 16711746
1.8880903 -0.7297857 3.0558801 16711746
0.4935693 -0.3150749 3.3143513 16711746
0.8520565 -0.7885699 2.7104599 16711746
0.7993305 -0.7564625 2.8900344 16711746
0.6420888 -0.5982983 2.8259327 16711746
0.6485271 -0.6390388 2.6859000 16711746
0.7950338 -0.2029948 2.8026054 16711746
0.6438628 -0.6882899 2.7698917 16711746
0.6478106 -1.3321604 3.0236552 16711746
1.5509412 -0.8250129 2.8517041 16711746
0.7682463 -0.5804883 2.8288789 16711746
0.4754335 -0.5063900 2.7849655 16711746
1.6180290 -0.6974469 2.8442609 16711746
1.7008624 -0.6293035 2.8139055 16711746
0.0632244 -0.8115847 3.0721226 16711746
1.7855335 -0.6955504 2.8522232 16711746
1.7850692 -0.8572549 2.9948964 16711746
1.7021369 -0.8547807 3.3499238 16711746
1.4441687 -0.8053840 3.0781696 16711746
-0.1882280 -0.9419441 3.2122290 16711746
1.6318165 -0.6577200 3.0950928 16711746
1.0663979 -0.7542830 3.4265926 16711746
-0.0101054 -0.7814566 3.0586991 16711746
1.5131677 -0.8565044 3.2364740 16711746
0.4768383 -0.9722727 2.9084456 16711746
1.7825871 -0.6762061 3.3698874 16711746
1.5217136 -1.1504071 2.8755057 16711746
1.0373671 -1.1746906 3.2764523 16711746
1.0379344 -1.1447363 3.3892403 16711746
1.8836173 -1.0507282 3.9278531 16711746
1.4773128 -0.9739167 2.8636191 16711746
2.0734832 -1.3290561 4.2270904 16711746
0.8300933 -1.0279154 3.1286931 16711746
1.0534606 -0.2598641 2.7909622 16711746
0.5442953 -0.7493478 2.8993967 16711746
0.8397138 -0.8220549 2.8404944 16711746
0.1849991 -0.6369158 2.9677458 16711746
0.1704333 -0.5843176 2.9400108 16711746
1.0182682 -0.4798855 2.6499102 16711746
1.1983732 -0.4642674 2.9802806 16711746
0.1521564 -0.6887305 2.8360915 16711746
0.8107437 -0.4171229 2.6962953 16711746
1.1671326 -0.5722229 2.8653815 16711746
1.0307658 -0.8918918 2.9511290 16711746
1.1263052 -0.4581661 2.9519629 16711746
1.8753966 -0.9607084 3.6681192 16711746
1.2666233 -1.1308794 3.8246903 16711746
1.5580405 -0.7734634 3.2234237 16711746
1.5545340 -0.8976526 3.2949493 16711746
1.4951810 -1.0419779 3.3141437 16711746
0.9071079 -1.1192715 3.3256710 16711746
0.2041436 -0.7525002 4.2159619 16711746
1.5918264 -0.7033557 2.8368094 16711746
0.8330905 -0.4442460 2.6969244 16711746
0.7974010 -1.1077666 2.8863811 16711746
1.4826256 -0.5115649 2.7888324 16711746
1.2349966 -0.6217831 2.8051426 16711746
0.7614862 -1.0622274 2.7875292 16711746
0.6236047 -0.7002987 2.7009819 16711746
1.2910018 -0.9073377 2.8518281 16711746
1.8774246 -0.9796742 3.5790603 16711746
1.2770053 -0.9549298 2.9918027 16711746
1.9825622 -1.0339096 3.0416100 16711746
0.7335433 -0.5891445 2.7356234 16711746
1.7967564 -0.8965561 2.8817358 16711746
1.2029784 -0.8032328 2.7688100 16711746
1.1729691 -0.8821008 3.4823170 16711746
1.7383730 -1.0884358 3.6325521 16711746
1.3181027 -0.7340106 2.9294467 16711746
1.6220150 -0.9358976 3.4513273 16711746
0.9301109 -0.8313506 3.2358718 16711746
0.9461860 -1.0785728 3.1903210 16711746
0.9398658 -1.0476247 3.1660395 16711746
1.1640035 -0.7070515 2.7202330 16711746
0.2194172 -0.6061164 3.0320377 16711746
1.3000473 -1.1486310 2.9865475 16711746
2.0460520 -1.2378073 4.2028904 16711746
1.5870374 -0.8700697 3.3547418 16711746
1.5997008 -0.8898630 2.8842816 16711746
1.2982939 -0.6865107 2.8026037 16711746
1.7809840 -0.8917022 2.9420478 16711746
1.3545386 -0.7910034 3.1941569 16711746
0.7278568 -0.9845145 3.1261139 16711746
0.7393748 -1.0187368 2.9866204 16711746
0.1287786 -0.6304163 2.9088306 16711746
1.5353562 -0.6836978 2.7907839 16711746
0.6742204 -0.5581681 2.7916572 16711746
0.2898142 -1.3707042 3.0756576 16711746
0.5919271 -0.6866302 2.7433760 16711746
1.2547151 -0.6896637 2.9573646 16711746
0.7852162 -0.4907553 2.7079306 16711746
1.1237863 -0.7170973 2.9192665 16711746
0.7320362 -0.6975451 2.8041260 16711746
1.1681327 -0.4682254 2.8103707 16711746
0.7531536 -0.8587643 2.7178705 16711746
0.9858771 -0.9566701 3.2388966 16711746
1.3641739 -0.7621199 2.7716956 16711746
2.1631303 -1.0900949 3.6052959 16711746
1.7146103 -1.1147137 3.7032671 16711746
1.3351009 -0.9414527 3.0963252 16711746
1.5994951 -0.9786925 3.6065142 16711746
0.7186686 -1.1243422 2.8852332 16711746
1.0980506 -0.8629396 3.5833881 16711746
1.1744115 -0.6466070 3.1629753 16711746
1.1035982 -0.9820883 3.7375646 16711746
0.2633092 -0.6859250 3.0883820 16711746
0.3025170 -0.8250456 2.9413342 16711746
1.8127863 -0.7898281 3.1187825 16711746
1.0831299 -0.7038246 3.4329033 16711746
0.5803096 -1.3554713 3.0443611 16711746
1.6216608 -0.6085785 2.9711258 16711746
1.1310587 -0.1730651 2.5732598 16711746
1.3327423 -1.2726579 2.8258989 16711746
1.0438501 -0.7205358 3.0593400 16711746
1.3847282 -0.8430402 2.7743530 16711746
1.0415769 -0.4810077 2.6590760 16711746
1.2136273 -0.4694673 2.8489304 16711746
0.5828930 -0.3762276 2.7293348 16711746
1.4451667 -0.8529613 3.2098796 16711746
0.7666712 -1.1867014 2.8254290 16711746
1.2683184 -1.0256363 2.8694427 16711746
0.8553689 -0.8677994 2.7782817 16711746
1.2655329 -1.2822474 2.8550637 16711746
0.4875659 -0.8391746 3.3322713 16711746
1.6661539 -0.6982253 3.1307311 16711746
1.2067810 -0.8330747 2.8002574 16711746
0.9922255 -1.2802675 3.3644147 16711746
0.9113429 -0.9312290 3.1579859 16711746
1.3596432 -0.8044788 2.7720394 16711746
2.7592320 -1.2122961 3.6790555 16711746
0.9870160 -1.7713104 4.5191483 16711746
1.4832679 -1.4276448 3.2350962 16711746
1.2273716 -0.9339679 2.8484416 16711746
1.6838579 -0.7711068 3.5979276 16711746
1.2712532 -0.3062808 2.9735603 16711746
1.2695326 -1.1265752 3.9387829 16711746
1.3717251 -0.8017688 2.7470706 16711746
1.6569484 -0.7189022 3.3070891 16711746
1.0058938 -0.8614547 3.1300361 16711746
0.4017311 -1.2030218 3.0291848 16711746
0.8969363 -1.1306137 3.1411293 16711746
1.9879191 -3.7796080 3.4245694 16711746
0.6956518 -0.5587273 3.5748217 16711746
1.4654540 -1.2301173 3.1407204 16711746
0.8587692 -0.8180528 2.7461939 16711746
2.0950863 -1.1611396 3.1923795 16711746
1.7551740 -0.7231110 4.0035043 16711746
1.3705242 -0.8249845 2.7784500 16711746
1.0311522 -0.6077163 2.9754698 16711746
0.1167162 -0.6555266 2.9278617 16711746
-0.0594238 -0.9789132 3.3712318 16711746
0.5416318 -0.8781339 2.8938015 16711746
1.0482037 -1.0885376 2.8932054 16711746
1.5658154 -0.8167500 3.2001183 16711746
0.9219689 -0.9346497 2.8513625 16711746
0.8275512 -0.8629783 2.7880723 16711746
1.5337298 -0.9433819 3.1218882 16711746
1.6722827 -1.1955041 3.2256744 16711746
1.3104155 -0.5178314 2.7729752 16711746
0.4194990 -0.4242151 2.8174806 16711746
1.0841883 -0.8194391 2.8450265 16711746
0.6984327 -1.1402134 2.8514988 16711746
1.0083983 -0.5257087 2.9294357 16711746
1.6066694 -0.7101511 3.5224981 16711746
0.9717245 -0.6201541 2.8765211 16711746
2.3321893 -5.0851398 4.8896170 16711746
0.9158693 -0.5659282 2.6715667 16711746
1.0410194 -0.8898513 2.9572251 16711746
0.7455148 -1.0701401 3.1497376 16711746
1.6341836 -1.2989458 3.4150023 16711746
1.6485032 -0.9994216 3.4454725 16711746
1.6130399 -0.9381154 3.2998481 16711746
1.7180670 -1.1452105 3.8084676 16711746
1.4559193 -0.8582509 2.7755554 16711746
0.6797192 -1.1767192 3.2566979 16711746
0.4882090 -1.2307801 3.2658710 16711746
1.8691782 -1.1712552 3.9475377 16711746
1.5188103 -1.0030067 3.2107735 16711746
1.1273153 -0.5471270 2.6691759 16711746
1.1053985 -0.8469889 3.0496709 16711746
1.0022836 -0.8790836 3.1368713 16711746
1.2187107 -1.0705388 2.8887239 16711746
1.4367155 -1.0644381 3.2834773 16711746
0.9714854 -1.2522101 3.2319815 16711746
1.2758412 -0.6264698 2.8230529 16711746
0.9428529 -0.6791418 2.9840262 16711746
0.9593188 -0.6749321 2.8875628 16711746
1.2849786 -0.6573457 2.8871574 16711746
1.1362283 -0.5378346 3.0053174 16711746
0.8678487 -0.4991541 2.8186595 16711746
1.0078228 -0.5883196 3.0633016 16711746
0.9742926 -0.5082227 2.7902827 16711746
1.0440713 -0.6562661 2.9874322 16711746
1.3815114 -0.5910661 2.9119682 16711746
0.7803843 -0.5282266 2.9021742 16711746
1.0641545 -0.6046577 2.8688836 16711746
1.1999598 -0.6087352 3.0177603 16711746
1.0390137 -0.5952441 2.9757011 16711746
1.0340146 -0.6427112 2.9852889 16711746
1.3050926 -0.6043332 2.7937958 16711746
1.2190596 -0.7082703 2.9404113 16711746
0.8981268 -0.4670596 2.9479668 16711746
1.0485665 -0.5754566 3.0540042 16711746
1.2353777 -0.6165162 3.0699146 16711746
1.3620088 -0.6285844 2.9166276 16711746
0.9985554 -0.5474096 2.7431023 16711746
1.2091391 -0.6524646 2.7527893 16711746
1.1930345 -0.5607044 2.9856429 16711746
0.9990809 -1.1145784 3.2543349 16711746
1.6876698 -0.9717869 3.2787876 16711746
1.6588825 -0.7281089 3.3102124 16711746
0.9163733 -0.7158203 3.0777583 16711746
1.5758479 -0.7064617 3.1564465 16711746
0.9771852 -0.4576698 2.6802378 16711746
0.9472741 -0.5742781 2.7863650 16711746
1.3771101 -0.7610644 3.1735718 16711746
1.2885296 -0.8958252 2.8441253 16711746
-1.7069082 -3.3642123 5.7335715 16711746
0.9718072 -0.4359396 2.7370362 16711746
1.4437940 -0.7097827 3.3131928 16711746
1.4589584 -0.7063784 3.1610973 16711746
0.9257388 -0.6872705 3.0117636 16711746
1.1598703 -0.6293960 2.8240049 16711746
1.4170398 -0.6447706 3.1045635 16711746
1.2855459 -0.8602840 2.9400477 16711746
1.4243662 -0.5829325 2.9792750 16711746
0.9276382 -0.4245690 3.0164568 16711746
1.3334690 -0.8197014 3.3004766 16711746
1.0135378 -0.3909898 2.7345011 16711746
1.3451297 -0.6829715 2.8327937 16711746
0.9524763 -0.5915443 2.7526453 16711746
1.0195889 -0.5273419 2.7414453 16711746
0.9706033 -0.4856437 2.7112370 16711746
1.4497715 -0.5830010 2.6620493 16711746
1.4850971 -0.8530815 3.2254548 16711746
0.7745495 -0.8564775 2.9720583 16711746
0.7455251 -0.9620960 3.0014188 16711746
1.4341199 -0.8594083 2.9615023 16711746
1.3500475 -0.8162863 2.9407978 16711746
1.5473057 -1.0638677 3.4175441 16711746
1.1575578 -0.1424794 2.7790856 16711746
0.5172720 -1.0107020 3.0773747 16711746
0.9836186 -0.4536184 2.7628324 16711746
1.3289196 -0.5290580 3.1099339 16711746
0.9254315 -0.7729084 3.0295236 16711746
0.7548257 -0.9396651 2.9874778 16711746
0.9250417 -0.7601582 3.0226283 16711746
0.6617513 -1.0060065 3.0160406 16711746
0.9391713 -0.7323725 3.0204961 16711746
1.4212360 -0.7317282 3.0912573 16711746
0.7137857 -1.0795331 3.0135553 16711746
0.9230148 -0.7134842 3.0335836 16711746
0.9463617 -0.6268470 2.7496691 16711746
0.5829349 -0.8906856 3.0192950 16711746
0.7347071 -1.0077971 2.9789970 16711746
0.7388673 -0.5623637 2.8965330 16711746
1.2571337 -0.6261907 3.0145540 16711746
0.8597012 -0.8842360 3.0495198 16711746
0.8461765 -0.9635590 2.9017622 16711746
1.3833889 -0.6069288 3.1951630 16711746
0.8265204 -0.4509147 2.7809045 16711746
0.7289304 -0.9620429 2.9255342 16711746
1.0924888 -0.8769911 3.0632348 16711746
1.3172628 -0.5060683 2.7777505 16711746
0.8351887 -0.6458865 3.1322489 16711746
0.9323002 -0.5180586 2.7702177 16711746
0.9214721 -0.4650266 3.0566576 16711746
1.7338388 -0.8641862 3.5989633 16711746
0.9286692 -0.8479828 3.0709901 16711746
0.9217685 -0.6650277 3.0305939 16711746
1.4538980 -0.4705227 2.6743608 16711746
0.5018063 -0.8645702 3.0013647 16711746
1.2776201 -1.3446234 2.9396288 16711746
0.9857861 -2.7744796 3.2766390 16711746
0.8420290 -0.3115479 3.0266137 16711746
0.9358658 -0.5652770 2.8165808 16711746
0.9811842 -0.3952704 2.8760948 16711746
1.3413681 -0.4233039 2.6863174 16711746
0.8466272 -0.4182984 2.9426847 16711746
1.0016507 -0.4083824 2.9931777 16711746
1.3139801 -0.6267892 2.7466969 16711746
1.2036724 -0.6112790 2.9149878 16711746
0.9217272 -0.8895620 3.0605941 16711746
0.6101419 -0.8119076 3.0049107 16711746
0.7007145 -0.8461911 2.9608409 16711746
0.6952063 -0.7482995 2.9591780 16711746
1.2833036 -0.6432672 2.8686032 16711746
0.7520700 -0.6273875 3.2494366 16711746
1.4125335 -0.5009058 2.9016612 16711746
0.8435037 -0.5957115 3.0830619 16711746
0.7922653 -0.6858428 3.2371569 16711746
1.6664095 -1.0325669 3.5506561 16711746
1.6330923 -0.8252765 3.5235453 16711746
1.7153264 -1.1253490 3.7426679 16711746
0.9968686 -0.3910173 2.8240879 16711746
1.3740842 -0.7493195 2.9072497 16711746
0.8826677 -1.0443683 2.9215620 16711746
0.7290970 -0.9784212 2.9398034 16711746
0.6892378 -1.1389205 3.0063660 16711746
0.6592203 -1.0087906 2.9213860 16711746
0.5984362 -0.9821575 2.9860747 16711746
0.8990002 -0.9507671 2.8862576 16711746
0.8922589 -0.9131173 3.0102580 16711746
0.9630201 -0.9378255 2.9039710 16711746
1.4242735 -0.5119638 2.9134881 16711746
0.7138991 -0.7342731 2.9328294 16711746
0.9276540 -0.7202160 2.8320930 16711746
0.7590037 -1.2852558 2.9571481 16711746
1.3790575 -0.5180326 2.9900339 16711746
0.6837639 -0.8122854 2.9076951 16711746
0.5119343 -1.1632520 3.0709810 16711746
0.9064097 -0.5980094 2.8222392 16711746
1.4124358 -0.6051280 2.7301693 16711746
1.4566128 -0.6356292 3.0195942 16711746
1.4363047 -0.8447680 3.3458130 16711746
0.3265508 -0.9838291 3.0180883 16711746
1.3992816 -0.8621715 3.0130477 16711746
1.1028101 -0.7145800 2.7530825 16711746
0.9464980 -1.1418543 3.1273067 16711746
1.5868822 -0.6383551 3.2920663 16711746
1.5607198 -0.6336171 2.8447840 16711746
1.1632316 -0.7730277 2.9236679 16711746
1.5783825 -1.0403636 3.3944402 16711746
1.8085815 -0.9003467 3.5092442 16711746
1.0622437 -0.5207668 3.2362475 16711746
1.2062246 -0.5586975 3.2009566 16711746
0.8780653 -0.9492577 3.0596678 16711746
1.2018795 -0.5441688 3.1827166 16711746
1.0725296 -0.5879685 3.3305640 16711746
0.8056995 -0.7460303 2.7900181 16711746
0.7792557 -0.9660813 2.8884308 16711746
1.0736803 -0.6303514 3.3745711 16711746
0.9546971 -0.8796711 2.8941667 16711746
0.8462158 -0.5436928 2.8762867 16711746
0.9909419 -0.7713015 2.9218211 16711746
1.1159770 -0.8664495 2.8339031 16711746
0.6031231 -0.7666479 3.5543108 16711746
1.1006718 -0.6982810 3.3017118 16711746
1.2459763 -0.4728100 3.1740825 16711746
0.8538574 -0.5296118 2.8672826 16711746
0.7564399 -0.8790455 2.8277564 16711746
1.2878505 -0.7852198 3.1338336 16711746
0.8236737 -0.6895262 3.1663396 16711746
1.2168136 -0.5749995 3.2164617 16711746
0.4422410 -1.1353188 2.9844840 16711746
0.3199620 -0.6298987 3.0551455 16711746
0.6032332 -0.7880681 2.8578846 16711746
1.2340463 -0.7410073 2.9789357 16711746
1.3235648 -0.9072967 3.2259431 16711746
1.1073925 -0.7830759 2.8072286 16711746
0.5448860 -0.4276574 3.5050406 16711746
0.7145778 -0.6939234 3.3275421 16711746
1.1442654 -0.2220407 2.8804452 16711746
1.1031327 -0.6040956 3.1975300 16711746
0.7338530 -0.5386578 2.8654275 16711746
0.7509066 -0.6668710 2.8110578 16711746
0.2441169 -0.9588105 3.0526502 16711746
1.4802042 -0.7785408 3.0011489 16711746
1.0730017 -0.6828636 2.8570988 16711746
0.6791366 -0.5667557 3.2844803 16711746
1.2504802 -0.5587777 3.1595168 16711746
0.6411743 -0.9933544 2.9147265 16711746
0.1636813 -0.5405552 3.0698173 16711746
0.4608720 -0.9691831 2.9922514 16711746
0.6962187 -1.0584341 2.8773942 16711746
0.4641015 -0.9211233 2.9504328 16711746
0.6315398 -0.9621002 2.9011469 16711746
1.1360487 -0.4275346 3.2191949 16711746
0.7332546 -0.6409519 2.9987993 16711746
1.1731480 -0.4304949 3.0464416 16711746
0.5140942 -0.9482453 2.9212041 16711746
1.3013762 -0.6555231 3.3686938 16711746
0.7136192 -0.7778114 2.9241371 16711746
1.4813509 -1.1020029 3.4012990 16711746
1.3877002 -1.6397405 3.1594415 16711746
0.8601324 -0.1967217 2.7736878 16711746
1.0695952 -0.7377474 2.8080261 16711746
1.1523250 -0.6214514 2.8108003 16711746
1.1666046 -0.6949223 2.8418031 16711746
1.2612242 -0.5881915 2.7731354 16711746
1.1072263 -0.5119581 2.7877085 16711746
0.6281166 -1.0275997 2.9103987 16711746
1.1569829 -0.3642450 3.0108643 16711746
1.4327990 -0.8073066 3.2609928 16711746
1.0492609 -0.7732459 3.4747090 16711746
1.1545007 -0.4685762 2.8882754 16711746
2.7585864 -2.0329981 4.6743569 16711746
0.7221451 -0.4013650 2.8510311 16711746
1.3287451 -1.0054524 2.9607975 16711746
1.1700393 -0.5199034 2.9204416 16711746
1.4303765 -0.9330647 3.1209795 16711746
1.1718194 -0.8947613 3.0001812 16711746
1.1993616 -0.4095045 3.1517949 16711746
0.3668168 -0.7187258 2.9266801 16711746
0.4908159 -0.7103750 2.8035390 16711746
