# .PCD v.7 - Point Cloud Data file format
VERSION .7
FIELDS x y z rgb
SIZE 4 4 4 4
TYPE F F F F
COUNT 1 1 1 1
WIDTH 250
HEIGHT 1
VIEWPOINT 0 0 0 1 0 0 0
POINTS 250
DATA ascii

 0.0000000 0.0000000 0.0000000 16777215
 0.0038514 -0.0187203 -0.0033270 16777215
 0.0031292 -0.0195406 -0.0034115 16777215
 0.0035669 -0.0196673 -0.0040727 16777215
 0.0011851 -0.0178861 -0.0050760 16777215
 -0.0011592 -0.0240714 -0.0031377 16777215
 -0.0036091 -0.0215113 -0.0050032 16777215
 -0.0009954 -0.0209765 -0.0062130 16777215
 -0.0056052 -0.0231466 -0.0053059 16777215
 -0.0058797 -0.0234866 -0.0060930 16777215
 -0.0063505 -0.0219829 -0.0065643 16777215
 -0.0061510 -0.0235629 -0.0060415 16777215
 -0.0053681 -0.0214156 -0.0068863 16777215
 -0.0032723 -0.0232885 -0.0046819 16777215
 -0.0052347 -0.0238080 -0.0030965 16777215
 -0.0073524 -0.0230486 -0.0032407 16777215
 -0.0099293 -0.0233258 -0.0025357 16777215
 -0.0121260 -0.0246554 -0.0026930 16777215
 -0.0141578 -0.0256513 -0.0030249 16777215
 -0.0153150 -0.0333687 -0.0029412 16777215
 -0.0111518 -0.0357578 -0.0016171 16777215
 -0.0027697 -0.0376067 0.0000891 16777215
 0.0046564 -0.0365047 0.0011193 16777215
 0.0135226 -0.0317574 0.0038969 16777215
 0.0137965 -0.0317897 0.0031389 16777215
 0.0149335 -0.0287129 0.0050434 16777215
 0.0137159 -0.0259023 0.0052292 16777215
 0.0068109 -0.0225407 0.0045353 16777215
 -0.0012526 -0.0227982 0.0036676 16777215
 -0.0063784 -0.0259321 0.0023996 16777215
 -0.0126604 -0.0281890 0.0019068 16777215
 -0.0177658 -0.0308804 0.0043209 16777215
 -0.0177952 -0.0321099 0.0100325 16777215
 -0.0162139 -0.0322808 0.0172859 16777215
 -0.0136501 -0.0356835 0.0288180 16777215
 0.0018373 -0.0458665 0.0597345 16777215
 0.0131330 -0.0614253 0.0833164 16777215
 0.0190094 -0.0724846 0.0943473 16777215
 0.0171741 -0.0788943 0.1090858 16777215
 0.0127379 -0.0815530 0.1271557 16777215
 0.0056768 -0.0858034 0.1457316 16777215
 0.0018086 -0.0847034 0.1611572 16777215
 -0.0005710 -0.0849468 0.1779252 16777215
 0.0083363 -0.0920228 0.2016813 16777215
 0.0180928 -0.0944080 0.2244444 16777215
 0.0141142 -0.0989041 0.2545976 16777215
 0.0029563 -0.0994698 0.2890587 16777215
 0.0044692 -0.1024998 0.3128190 16777215
 0.0160562 -0.1090841 0.3451271 16777215
 0.0159648 -0.1100776 0.3703526 16777215
 0.0159597 -0.1149811 0.3947571 16777215
 0.0122507 -0.1149052 0.4279531 16777215
 0.0096019 -0.1242169 0.4609674 16777215
 0.0033391 -0.1271955 0.4891791 16777215
 0.0017175 -0.1367684 0.5196338 16777215
 0.0042710 -0.1413692 0.5451404 16777215
 0.0020041 -0.1511092 0.5788771 16777215
 -0.0119324 -0.1519771 0.6072438 16777215
 -0.0175817 -0.1513901 0.6352568 16777215
 -0.0162881 -0.1597764 0.6692631 16777215
 -0.0107198 -0.1576983 0.6931065 16777215
 -0.0095662 -0.1605872 0.7232377 16777215
 -0.0124669 -0.1586977 0.7563384 16777215
 -0.0173153 -0.1604394 0.7867025 16777215
 -0.0175365 -0.1620452 0.8171397 16777215
 -0.0168626 -0.1661334 0.8432814 16777215
 -0.0168176 -0.1715177 0.8663241 16777215
 -0.0165381 -0.1749530 0.8811297 16777215
 -0.0186381 -0.1749662 0.9085320 16777215
 -0.0235799 -0.1781071 0.9334070 16777215
 -0.0215615 -0.1806403 0.9563137 16777215
 -0.0223603 -0.1830082 0.9714402 16777215
 -0.0247151 -0.1856012 0.9845473 16777215
 -0.0272773 -0.1874378 1.0034027 16777215
 -0.0306972 -0.1916487 1.0258191 16777215
 -0.0303887 -0.1941954 1.0387101 16777215
 -0.0315364 -0.1967958 1.0630877 16777215
 -0.0314033 -0.1999701 1.0836695 16777215
 -0.0336228 -0.2033800 1.1032126 16777215
 -0.0365756 -0.2049700 1.1169901 16777215
 -0.0411971 -0.2065920 1.1384630 16777215
 -0.0425772 -0.2104147 1.1571640 16777215
 -0.0439933 -0.2122839 1.1745547 16777215
 -0.0439911 -0.2139272 1.1928196 16777215
 -0.0423115 -0.2170878 1.2105155 16777215
 -0.0401813 -0.2219469 1.2299601 16777215
 -0.0440048 -0.2213738 1.2501103 16777215
 -0.0478524 -0.2211709 1.2695651 16777215
 -0.0506509 -0.2224777 1.2862210 16777215
 -0.0544178 -0.2229021 1.3016183 16777215
 -0.0569625 -0.2264313 1.3232092 16777215
 -0.0552707 -0.2281861 1.3398587 16777215
 -0.0517482 -0.2319383 1.3539846 16777215
 -0.0520068 -0.2359848 1.3680775 16777215
 -0.0517264 -0.2372632 1.3821113 16777215
 -0.0529245 -0.2398200 1.4032460 16777215
 -0.0541841 -0.2406134 1.4215301 16777215
 -0.0537931 -0.2442476 1.4407326 16777215
 -0.0519874 -0.2468576 1.4573212 16777215
 -0.0493087 -0.2482013 1.4703829 16777215
 -0.0462910 -0.2524772 1.4822443 16777215
 -0.0464404 -0.2541155 1.4975263 16777215
 -0.0480158 -0.2553093 1.5116960 16777215
 -0.0504777 -0.2542956 1.5221579 16777215
 -0.0521364 -0.2561788 1.5389454 16777215
 -0.0532160 -0.2579117 1.5552617 16777215
 -0.0540057 -0.2598722 1.5745735 16777215
 -0.0554864 -0.2609181 1.5905101 16777215
 -0.0550841 -0.2631880 1.5997323 16777215
 -0.0565249 -0.2644734 1.6139144 16777215
 -0.0622482 -0.2647512 1.6377105 16777215
 -0.0629364 -0.2660587 1.6524332 16777215
 -0.0634577 -0.2684712 1.6646299 16777215
 -0.0596423 -0.2708408 1.6845415 16777215
 -0.0573268 -0.2720459 1.6990433 16777215
 -0.0563531 -0.2762099 1.7128497 16777215
 -0.0585578 -0.2765877 1.7278540 16777215
 -0.0601162 -0.2788831 1.7441263 16777215
 -0.0617253 -0.2799493 1.7576678 16777215
 -0.0622711 -0.2821426 1.7716316 16777215
 -0.0628120 -0.2832630 1.7866706 16777215
 -0.0582428 -0.2873677 1.8064411 16777215
 -0.0556021 -0.2900608 1.8205773 16777215
 -0.0548078 -0.2927810 1.8306515 16777215
 -0.0626241 -0.2934231 1.8567177 16777215
 -0.0659940 -0.2953003 1.8765212 16777215
 -0.0671441 -0.2987896 1.9008774 16777215
 -0.0649874 -0.3004152 1.9228259 16777215
 -0.0657611 -0.3051381 1.9402385 16777215
 -0.0698580 -0.3071274 1.9560246 16777215
 -0.0745758 -0.3080701 1.9796896 16777215
 -0.0728428 -0.3094276 1.9901993 16777215
 -0.0739270 -0.3121045 2.0117939 16777215
 -0.0716153 -0.3150807 2.0266738 16777215
 -0.0713938 -0.3173994 2.0410354 16777215
 -0.0734511 -0.3183571 2.0577123 16777215
 -0.0764970 -0.3184959 2.0692298 16777215
 -0.0782960 -0.3202945 2.0912628 16777215
 -0.0786001 -0.3235689 2.1098986 16777215
 -0.0761262 -0.3268382 2.1325107 16777215
 -0.0764657 -0.3301309 2.1488249 16777215
 -0.0764992 -0.3327304 2.1578991 16777215
 -0.0797793 -0.3333687 2.1714954 16777215
 -0.0805264 -0.3339485 2.1927595 16777215
 -0.0820411 -0.3375652 2.2080672 16777215
 -0.0837070 -0.3397848 2.2258759 16777215
 -0.0809024 -0.3426011 2.2445116 16777215
 -0.0821450 -0.3450046 2.2557256 16777215
 -0.0853164 -0.3470237 2.2751963 16777215
 -0.0855709 -0.3490352 2.2894812 16777215
 -0.0866947 -0.3500035 2.3025680 16777215
 -0.0874650 -0.3518802 2.3166859 16777215
 -0.0886618 -0.3518836 2.3277609 16777215
 -0.0868453 -0.3541110 2.3417673 16777215
 -0.0858091 -0.3569187 2.3575912 16777215
 -0.0865590 -0.3595312 2.3766921 16777215
 -0.0893089 -0.3608754 2.3926046 16777215
 -0.0925714 -0.3604860 2.4094706 16777215
 -0.0948141 -0.3631814 2.4306829 16777215
 -0.0951279 -0.3651724 2.4450693 16777215
 -0.0947247 -0.3683033 2.4623270 16777215
 -0.0943837 -0.3707998 2.4758573 16777215
 -0.0963398 -0.3733754 2.4872968 16777215
 -0.1002196 -0.3737995 2.5076575 16777215
 -0.1029747 -0.3758091 2.5274911 16777215
 -0.1047099 -0.3794252 2.5450795 16777215
 -0.1019484 -0.3832069 2.5619857 16777215
 -0.1010336 -0.3854780 2.5759921 16777215
 -0.1020859 -0.3877581 2.5923586 16777215
 -0.1076042 -0.3880518 2.6141486 16777215
 -0.1104385 -0.3890683 2.6284103 16777215
 -0.1107314 -0.3922511 2.6488574 16777215
 -0.1108744 -0.3933749 2.6664836 16777215
 -0.1082372 -0.3961337 2.6793904 16777215
 -0.1055976 -0.3983049 2.6925187 16777215
 -0.1079674 -0.3999770 2.7068000 16777215
 -0.1105472 -0.4005969 2.7193367 16777215
 -0.1135948 -0.4020589 2.7362907 16777215
 -0.1138744 -0.4045587 2.7527997 16777215
 -0.1131057 -0.4059784 2.7717299 16777215
 -0.1099315 -0.4077858 2.7860813 16777215
 -0.1103298 -0.4089702 2.7977729 16777215
 -0.1139207 -0.4103807 2.8127279 16777215
 -0.1160186 -0.4114529 2.8292410 16777215
 -0.1183267 -0.4135336 2.8421659 16777215
 -0.1194651 -0.4174657 2.8598092 16777215
 -0.1207903 -0.4188398 2.8771033 16777215
 -0.1197152 -0.4212171 2.8905897 16777215
 -0.1166313 -0.4239629 2.9061053 16777215
 -0.1168801 -0.4260396 2.9220912 16777215
 -0.1190859 -0.4265626 2.9368737 16777215
 -0.1219274 -0.4284555 2.9542041 16777215
 -0.1243547 -0.4306022 2.9719250 16777215
 -0.1248737 -0.4316538 2.9900639 16777215
 -0.1231484 -0.4327472 3.0028334 16777215
 -0.1245016 -0.4375615 3.0179236 16777215
 -0.1261029 -0.4374179 3.0278027 16777215
 -0.1299889 -0.4394994 3.0463228 16777215
 -0.1326840 -0.4400278 3.0592442 16777215
 -0.1344538 -0.4420366 3.0729713 16777215
 -0.1369070 -0.4441597 3.0900726 16777215
 -0.1366724 -0.4463862 3.1038775 16777215
 -0.1372677 -0.4476899 3.1171641 16777215
 -0.1389003 -0.4490010 3.1261089 16777215
 -0.1420094 -0.4489380 3.1416950 16777215
 -0.1446571 -0.4515938 3.1570952 16777215
 -0.1476769 -0.4533717 3.1725981 16777215
 -0.1493042 -0.4540515 3.1849387 16777215
 -0.1494576 -0.4558505 3.2000146 16777215
 -0.1469911 -0.4579627 3.2109175 16777215
 -0.1496125 -0.4596297 3.2246134 16777215
 -0.1526705 -0.4594334 3.2373033 16777215
 -0.1551026 -0.4596060 3.2518935 16777215
 -0.1570115 -0.4616381 3.2644882 16777215
 -0.1577797 -0.4635155 3.2804546 16777215
 -0.1561254 -0.4651872 3.2980680 16777215
 -0.1535185 -0.4691533 3.3122246 16777215
 -0.1583141 -0.4693702 3.3270564 16777215
 -0.1602857 -0.4691392 3.3385699 16777215
 -0.1610686 -0.4711468 3.3526285 16777215
 -0.1609288 -0.4717194 3.3674955 16777215
 -0.1604406 -0.4713634 3.3833971 16777215
 -0.1581566 -0.4734682 3.3967414 16777215
 -0.1584215 -0.4749078 3.4116497 16777215
 -0.1588834 -0.4762997 3.4272413 16777215
 -0.1588621 -0.4785084 3.4389496 16777215
 -0.1601164 -0.4805002 3.4504063 16777215
 -0.1600323 -0.4813546 3.4646735 16777215
 -0.1553022 -0.4834749 3.4771237 16777215
 -0.1540143 -0.4880592 3.4889300 16777215
 -0.1553252 -0.4878052 3.5026414 16777215
 -0.1578959 -0.4873385 3.5148034 16777215
 -0.1598133 -0.4904274 3.5260363 16777215
 -0.1618980 -0.4920203 3.5385871 16777215
 -0.1640819 -0.4925001 3.5524497 16777215
 -0.1626558 -0.4936933 3.5625045 16777215
 -0.1613751 -0.4962734 3.5730791 16777215
 -0.1634339 -0.4980721 3.5839474 16777215
 -0.1655145 -0.5001960 3.5992441 16777215
 -0.1664889 -0.5005375 3.6067126 16777215
 -0.1687160 -0.5021126 3.6170895 16777215
 -0.1695621 -0.5024343 3.6287336 16777215
 -0.1679853 -0.5035233 3.6374884 16777215
 -0.1674800 -0.5051516 3.6461062 16777215
 -0.1699415 -0.5062138 3.6544116 16777215
 -0.1730945 -0.5066670 3.6642454 16777215
 -0.1759998 -0.5069790 3.6708298 16777215
 -0.1771227 -0.5077693 3.6748714 16777215
 -0.1747516 -0.5089257 3.6763697 16777215
 -0.1751573 -0.5079261 3.6773050 16777215
