# .PCD v.7 - Point Cloud Data file format
VERSION .7
FIELDS x y z rgb
SIZE 4 4 4 4
TYPE F F F F
COUNT 1 1 1 1
WIDTH 1178
HEIGHT 1
VIEWPOINT 0 0 0 1 0 0 0
POINTS 1178
DATA ascii
-0.1558540 -0.1768534 1.8163369 16711746
-0.0707858 -0.1698540 1.8189185 16711746
-0.2121769 -0.1942917 1.9476786 16711746
-0.2197124 -0.1810906 1.8449562 16711746
-0.1464245 -0.1793781 1.8190305 16711746
0.1753960 -0.1931754 1.9578906 16711746
-0.0956034 -0.1994168 2.0587311 16711746
0.1249063 -0.1574209 1.8207928 16711746
0.0890499 -0.1946557 2.0228245 16711746
-0.1787029 -0.1786511 1.8064096 16711746
0.1900272 -0.2066647 2.0478337 16711746
0.1524248 -0.1804475 1.8565919 16711746
0.7478042 -0.6372793 2.7083654 16711746
-0.0921142 -0.1759349 1.8396671 16711746
0.1600644 -0.1769907 1.8630506 16711746
-0.1129342 -0.2139077 2.1657577 16711746
-0.0606459 -0.1739614 1.8400475 16711746
-0.2157499 -0.2032438 1.9618634 16711746
0.0818360 -0.1604170 1.8097498 16711746
1.1053807 -0.8411293 2.9445877 16711746
-0.1059046 -0.1801484 1.9017303 16711746
1.3905898 -0.9644737 3.0458751 16711746
1.0911942 -1.3575107 4.4186110 16711746
0.1522512 -0.1915900 1.9518173 16711746
0.0436873 -0.1857466 1.9351600 16711746
0.1356902 -0.1957303 2.0161700 16711746
0.0753110 -0.1801164 1.8535793 16711746
0.2074212 -0.1956392 1.9968923 16711746
-0.2148372 -0.1939057 1.8680617 16711746
-0.1668311 -0.1670966 1.8240420 16711746
0.2002394 -0.1826602 1.8566076 16711746
0.1899727 -0.2103364 2.0644622 16711746
0.2022084 -0.2475478 2.0486925 16711746
-0.0456785 -0.1831955 1.8619848 16711746
-0.2823776 -0.1943761 1.9642385 16711746
-0.1064705 -0.1839987 1.8776248 16711746
-0.1263030 -0.1691723 1.8057475 16711746
-0.1361994 -0.1822221 1.8167748 16711746
0.2247464 -0.2335561 2.0952370 16711746
0.1403612 -0.1908093 1.9747417 16711746
-0.1788990 -0.1788147 1.8035785 16711746
-0.1384112 -0.1797958 1.8893199 16711746
-0.4885171 -0.2218851 2.2217896 16711746
-0.1813755 -0.1725744 1.8112171 16711746
-0.1442797 -0.1673650 1.7928399 16711746
-0.1512892 -0.1828752 1.8511627 16711746
-0.0171964 -0.1716316 1.8224149 16711746
0.0169723 -0.2011879 2.0746858 16711746
0.0086561 -0.1861694 1.9318584 16711746
-0.1460345 -0.1791710 1.8375423 16711746
-0.1218407 -0.1901895 1.9530311 16711746
-0.0705797 -0.1786122 1.8757007 16711746
0.2814241 -0.2121500 2.1057045 16711746
0.4651643 -0.2279499 2.3110878 16711746
-0.0208152 -0.1828445 1.8998746 16711746
-0.4918171 -0.2289029 2.2189832 16711746
-0.4571989 -0.5269808 2.2163832 16711746
-0.0966668 -0.1702806 1.8149694 16711746
-0.0891229 -0.1748892 1.8544074 16711746
-0.0967473 -0.1809319 1.9274707 16711746
-0.1142297 -0.1862819 1.9888408 16711746
0.2383007 -0.1859492 1.8955686 16711746
0.5267610 -0.4873026 2.3730040 16711746
-0.1318541 -0.2156526 1.8619734 16711746
-0.1419025 -0.1845912 1.9099367 16711746
0.0513348 -0.1676672 1.8175534 16711746
0.2617896 -0.2022118 1.8879042 16711746
0.1130525 -0.1654045 1.8086421 16711746
-0.0743123 -0.1702089 1.8253739 16711746
-0.1091767 -0.1782250 1.8705745 16711746
0.1266664 -0.1779118 1.8515443 16711746
0.1024846 -0.1640382 1.8444681 16711746
-0.0250790 -0.1874200 1.8861166 16711746
0.0532520 -0.1882144 1.9546627 16711746
0.0344294 -0.1741452 1.8555365 16711746
-0.1417369 -0.1799041 1.9310497 16711746
0.2684036 -0.2879630 2.2414050 16711746
0.0395864 -0.1722918 1.8381203 16711746
0.1683742 -0.1933516 1.9511098 16711746
0.1400117 -0.1711797 1.8662069 16711746
-0.0588167 -0.4417923 2.2352972 16711746
0.0190974 -0.2161929 2.1915348 16711746
0.1594825 -0.3122343 2.6309674 16711746
0.1673908 -0.2085364 2.0635951 16711746
0.1387271 -0.1655282 1.8382994 16711746
0.1599347 -0.1806311 1.8365121 16711746
-0.1056244 -0.1817066 1.8787365 16711746
-0.1506841 -0.1833750 1.8496549 16711746
-0.4652768 -0.1951914 2.0334511 16711746
-0.0137828 -0.1784572 1.8485038 16711746
-0.0640669 -0.1666849 1.8172785 16711746
-0.1245401 -0.1713099 1.8201597 16711746
0.1541782 -0.1798556 1.8545797 16711746
0.0672691 -0.1837777 1.9184449 16711746
0.0833955 -0.1949819 2.0459898 16711746
-0.1536115 -0.1869198 1.9074767 16711746
-0.1448097 -0.1673606 1.7937363 16711746
-0.2046459 -0.2000457 1.9162982 16711746
0.0965975 -0.1670862 1.8354527 16711746
-0.0140074 -0.1791248 1.8487473 16711746
-0.0000673 -0.1905088 1.9525847 16711746
-0.4865984 -0.2229613 2.2214460 16711746
-0.1484544 -0.1821177 1.8838005 16711746
-0.1596766 -0.1733503 1.8077472 16711746
0.0451241 -0.1834492 1.9371712 16711746
-0.0934738 -0.1710452 1.8532288 16711746
0.2034600 -0.1741766 1.8600044 16711746
0.8981966 -0.6276675 2.2598283 16711746
2.2313921 -1.3716928 3.8563881 16711746
0.6322604 -1.0693024 3.4680607 16711746
1.4492359 -0.9935626 3.0994494 16711746
0.1460825 -0.1902463 1.8995340 16711746
-0.1413866 -0.1840632 1.9108821 16711746
-0.1601795 -0.1908855 1.8895723 16711746
0.1596082 -0.1778843 1.8266972 16711746
0.1664946 -0.1864860 1.9429090 16711746
-0.1395117 -0.1795198 1.8437363 16711746
0.2554955 -0.1835058 1.8798476 16711746
-0.1805898 -0.1765182 1.8134795 16711746
0.0483044 -0.1696568 1.8209945 16711746
0.2168260 -0.2292931 1.9136652 16711746
0.0692763 -0.1821021 1.9213468 16711746
-0.1426119 -0.1687155 1.8181218 16711746
-0.1643128 -0.1687382 1.8144859 16711746
-0.1916981 -0.1898534 1.8762604 16711746
0.0396735 -0.1720213 1.8383276 16711746
0.2036365 -0.2311553 1.9014399 16711746
0.1042257 -0.1846363 1.9277765 16711746
0.1406357 -0.1852431 1.8426853 16711746
-0.1698631 -0.1821401 1.8780357 16711746
-0.2062417 -0.1883728 1.8342463 16711746
-0.1090515 -0.1741167 1.8549893 16711746
-0.3023734 -0.1885310 1.9497693 16711746
-0.0224299 -0.1775535 1.8443134 16711746
-0.2993293 -0.1895192 1.9461280 16711746
0.0091498 -0.1868728 1.9306747 16711746
0.1552601 -0.1791864 1.8573980 16711746
-0.0122068 -0.1770022 1.8539450 16711746
0.0142933 -0.1891620 1.9441696 16711746
0.1361158 -0.1768742 1.9152966 16711746
0.1091386 -0.1823939 1.9346554 16711746
0.1732227 -0.2143200 2.0381408 16711746
0.0237462 -0.1850190 1.8757999 16711746
-0.2163262 -0.1944093 1.8696328 16711746
0.1636010 -0.2172543 1.8549052 16711746
0.0838030 -0.1689470 1.8596809 16711746
0.1287938 -0.1666788 1.8089741 16711746
0.1358670 -0.1952021 2.0153761 16711746
-0.0711518 -0.1777446 1.8557127 16711746
-0.0000323 -0.1711869 1.8187610 16711746
0.2795733 -0.1912558 1.8658514 16711746
-0.5118234 -0.2755544 2.0947011 16711746
0.0258991 -0.1837968 1.8791339 16711746
0.2294355 -0.2725116 2.2913063 16711746
0.4907172 -0.2615302 2.3664911 16711746
-0.1541726 -0.1883679 1.9880029 16711746
0.2354010 -0.2307737 2.1239741 16711746
-0.0206343 -0.1810912 1.8723195 16711746
-0.0532187 -0.1910935 2.0116508 16711746
0.2026425 -0.2017806 2.0259016 16711746
0.1218701 -0.1750231 1.8984258 16711746
-0.0270068 -0.1986406 2.0004783 16711746
0.1552858 -0.2029805 1.7707956 16711746
-0.1606692 -0.1859051 1.8647462 16711746
0.1366690 -0.2017187 2.0648265 16711746
0.2054059 -0.2102313 2.0617259 16711746
0.2004066 -0.1903229 1.8263133 16711746
-0.0959041 -0.1718833 1.8502280 16711746
-0.1334712 -0.1813417 1.8675377 16711746
-0.0880961 -0.1678097 1.8161924 16711746
-0.0775733 -0.1886420 1.9641384 16711746
-0.1322571 -0.1892626 2.0061483 16711746
0.1202425 -0.1833594 1.8793639 16711746
0.0964819 -0.1758659 1.8290737 16711746
0.2020470 -0.2014907 2.0254774 16711746
0.1436326 -0.1693186 1.8700095 16711746
0.0830152 -0.1867091 1.9565254 16711746
0.6262308 -0.3211119 2.6318994 16711746
-0.1310090 -0.2038772 2.0905068 16711746
-0.4119903 -0.1734993 1.9253951 16711746
0.1739984 -0.3189186 2.7420392 16711746
3.0303867 -0.7382724 4.2481427 16711746
2.7638154 -0.7151698 3.7176151 16711746
0.2075052 -0.2460394 2.0505397 16711746
0.8568770 -1.2737026 3.8869758 16711746
-0.1242598 -0.1873661 1.9374323 16711746
0.2210335 -0.1970489 1.9501921 16711746
0.1792204 -0.1928806 1.9597681 16711746
-0.0484774 -0.1801079 1.8649552 16711746
-0.1184466 -0.1784070 1.8467419 16711746
0.2082589 -0.1772531 1.9451785 16711746
0.0293411 -0.1803947 1.8909042 16711746
-0.1095572 -0.1800400 1.8647304 16711746
0.0598878 -0.1835675 1.9363197 16711746
0.2280471 -0.1952094 1.9584560 16711746
-0.0071172 -0.1807143 1.8517406 16711746
-0.2856655 -0.1928402 1.9683918 16711746
0.0476170 -0.1782119 1.8934873 16711746
-0.1013043 -0.1801258 1.8972821 16711746
0.0691145 -0.1765758 1.8730474 16711746
0.0444628 -0.1814484 1.8855462 16711746
0.2663031 -0.1722122 1.8641284 16711746
0.1882705 -0.1848341 1.9247433 16711746
-0.2060307 -0.1843836 1.8589491 16711746
0.1344504 -0.1935313 1.9678361 16711746
0.0667002 -0.1785514 1.8712906 16711746
-0.1447731 -0.1852185 1.9067014 16711746
-0.0611621 -0.1831438 1.8919922 16711746
0.1834907 -0.1883175 1.9412013 16711746
-0.2014356 -0.1847440 1.9005880 16711746
0.3293017 -0.1799782 1.9991417 16711746
-0.1808913 -0.1836120 1.8509430 16711746
0.0830112 -0.2028744 1.9810652 16711746
0.0292377 -0.1981116 2.0605991 16711746
-0.0892461 -0.1738748 1.8431665 16711746
-0.1173077 -0.1797547 1.9171535 16711746
-0.0732491 -0.1787021 1.8806415 16711746
-0.4411478 -0.2000320 2.0099616 16711746
0.0637864 -0.1667813 1.8024948 16711746
-0.0063379 -0.1802393 1.8532910 16711746
0.1468516 -0.1938606 1.9182868 16711746
-0.2079058 -0.1842767 1.8610246 16711746
-0.1660040 -0.1843117 1.8713764 16711746
-0.1018562 -0.1836743 1.8904138 16711746
-0.0655424 -0.1793370 1.8523897 16711746
-0.2169053 -0.1825393 1.8348539 16711746
-0.4558983 -0.2383287 2.1870618 16711746
-0.1728183 -0.1699663 1.8356813 16711746
-0.0103474 -0.1842881 1.9310647 16711746
0.0009608 -0.1837992 1.9036459 16711746
-0.0125749 -0.2017695 2.0216897 16711746
-0.0119395 -0.2077885 2.1128330 16711746
-0.4777659 -0.2380171 2.2163949 16711746
0.4636841 -0.2285727 2.3077834 16711746
0.1029823 -0.2115911 2.1920042 16711746
0.1022154 -0.1640798 1.8273587 16711746
0.1441595 -0.1745863 1.8219670 16711746
0.1670898 -0.2225981 2.1223481 16711746
0.1519787 -0.3136831 2.6932447 16711746
-0.1551222 -0.2434386 2.4106424 16711746
-0.1553233 -0.2294307 2.2045152 16711746
0.1717620 -0.2401670 2.3119161 16711746
1.4729900 -0.8854872 3.3323448 16711746
-2.6802809 -0.6816550 5.0312467 16711746
0.8553619 -0.3097806 3.0818486 16711746
-0.4143976 -0.1957930 1.9849464 16711746
-0.3017677 -0.1973066 2.0108588 16711746
-0.0286089 -0.1829894 1.8797616 16711746
-0.0208862 -0.1827997 1.8676295 16711746
-0.0012464 -0.1792738 1.8785702 16711746
-0.0089192 -0.1916769 1.9538993 16711746
-0.1335409 -0.1816892 1.8668154 16711746
-0.1245814 -0.1951296 2.0468943 16711746
-0.1545343 -0.1978869 2.0830982 16711746
-0.2678018 -0.2076998 2.0664039 16711746
-0.1346366 -0.1859061 1.9943957 16711746
-0.4040638 -0.1977425 1.9774220 16711746
-0.0508129 -0.1855988 1.9202350 16711746
0.1245995 -0.1852076 1.9758774 16711746
0.0503623 -0.1930060 2.0011621 16711746
-0.1388115 -0.1824622 1.9319677 16711746
0.1384252 -0.1841886 2.0168290 16711746
-0.1346915 -0.1821828 1.8818214 16711746
-0.0288041 -0.1832955 1.8793584 16711746
-0.0463364 -0.1820474 1.8655809 16711746
0.2388542 -0.1673598 1.9750748 16711746
-0.4201446 -0.1909878 2.0107758 16711746
-0.1789262 -0.1740085 1.8085971 16711746
-0.1561009 -0.1875508 1.9903601 16711746
0.2530411 -0.1861660 1.9413502 16711746
-0.1816038 -0.1956051 1.9693040 16711746
0.0006450 -0.1835861 1.9116157 16711746
0.0436880 -0.1973717 2.0098608 16711746
0.2049678 -0.1764193 1.8775370 16711746
-0.0509272 -0.1872763 1.8942251 16711746
-0.1538897 -0.2010741 1.9339144 16711746
-0.0011711 -0.1870272 1.9340919 16711746
-0.2045318 -0.1852634 1.7985923 16711746
-0.0120113 -0.2021361 2.0226760 16711746
0.3302504 -0.2014725 2.0762076 16711746
0.0760347 -0.2115725 2.1566930 16711746
0.2404459 -0.2027117 1.9958998 16711746
-0.0566608 -0.1882142 1.9351006 16711746
-0.0776918 -0.1870464 1.9680513 16711746
-0.2417292 -0.1894016 1.8750321 16711746
-0.4118135 -0.1929175 2.0063548 16711746
-0.0446724 -0.1920222 1.9237940 16711746
-0.0834919 -0.1837728 1.8800520 16711746
-0.0247153 -0.1870019 1.8867116 16711746
-0.0174646 -0.2008079 2.0449319 16711746
-0.0932347 -0.1991975 2.0611970 16711746
0.1531988 -0.2229657 2.0213246 16711746
-0.1081993 -0.1849780 1.9357197 16711746
-0.1214425 -0.1844776 1.9807543 16711746
-0.1661979 -0.1775270 1.8248534 16711746
-0.0204266 -0.1801530 1.8728497 16711746
0.1221830 -0.2064974 2.1186409 16711746
-0.0376527 -0.2151792 2.1558926 16711746
0.1680580 -0.2224298 2.1222029 16711746
0.1068300 -0.1835533 1.9318784 16711746
0.4701758 -0.2274897 2.3187864 16711746
-0.1307445 -0.2008308 2.0994914 16711746
-0.2096028 -0.2066338 2.0335014 16711746
-0.1346116 -0.1867475 1.9919316 16711746
0.1985699 -0.2290074 2.1237249 16711746
0.1380104 -0.1945381 2.0205507 16711746
0.0005167 -0.1906299 1.9533058 16711746
0.1817952 -0.2018682 2.0391991 16711746
-0.1085780 -0.1806946 1.8639024 16711746
0.1576226 -0.1867895 1.9217212 16711746
-0.1324456 -0.2009215 2.0999064 16711746
-0.1602053 -0.1901127 1.8905196 16711746
-0.0418747 -0.5129250 2.3212605 16711746
0.1672089 -0.2686839 2.4511528 16711746
0.9189267 -0.3591735 2.6958027 16711746
-0.3712868 -0.2091943 2.1830504 16711746
0.0442964 -0.2126437 2.1622167 16711746
-1.0167643 -0.8381790 3.1461020 16711746
3.4818335 -0.8206481 4.9430237 16711746
0.5611608 -1.0596991 3.4182315 16711746
0.9853980 -1.3503573 4.6655121 16711746
0.6839525 -1.2424585 3.8056586 16711746
3.6505587 -0.9536391 5.0611596 16711746
-0.1547552 -0.1863536 1.8712496 16711746
-0.1006069 -0.1796590 1.8664603 16711746
-0.2820727 -0.1937009 1.9666151 16711746
-0.1704222 -0.1835729 1.9384030 16711746
-0.0996607 -0.1828880 1.8606145 16711746
-0.1635538 -0.1865415 1.9461461 16711746
-0.3259622 -0.1900101 2.0415125 16711746
0.1271463 -0.1718443 1.9610150 16711746
-0.1436847 -0.1932913 1.9462095 16711746
-0.1489692 -0.1887382 1.9614816 16711746
-0.1941453 -0.1918024 1.8873028 16711746
-0.1481383 -0.1871572 1.8496197 16711746
-0.3118734 -0.1946576 2.0188575 16711746
-0.4473754 -0.2546254 1.9982966 16711746
-0.0612442 -0.1867614 1.9231995 16711746
-0.2102782 -0.1983236 1.9241921 16711746
-0.1614490 -0.3381181 2.4521532 16711746
-0.0764163 -0.2056811 2.1120749 16711746
1.9006679 -0.8727997 3.4134290 16711746
1.2011968 -0.9543814 3.1471462 16711746
0.5197214 -0.8348484 3.0400958 16711746
-0.0083433 -0.2122419 2.1297176 16711746
-0.0442421 -0.2051808 2.0706964 16711746
-0.2385726 -0.1914533 1.9384471 16711746
-0.1052142 -0.1846202 1.8756367 16711746
0.1059326 -0.1834692 1.9327983 16711746
-0.4808185 -0.2317014 2.2058053 16711746
-0.1235343 -0.1955177 2.0439031 16711746
-0.1438465 -0.2484359 2.3480313 16711746
1.0480334 -0.8062548 2.7414351 16711746
-1.0475830 -0.8228903 3.1948612 16711746
1.1669723 -0.8843294 3.0590208 16711746
0.1645041 -0.2044193 2.0184653 16711746
-0.0740956 -0.5022167 2.4910464 16711746
-0.1254892 -0.1824739 1.9524672 16711746
-0.4780850 -0.2417720 2.3616610 16711746
-0.1480566 -0.2635716 1.9265629 16711746
-0.1474793 -0.1883979 1.8631675 16711746
0.0686082 -0.1836752 1.9219704 16711746
-0.3033624 -0.1962768 2.0115020 16711746
0.1546706 -0.4121638 2.0946546 16711746
-0.1130127 -0.1824593 1.8802936 16711746
-0.1241399 -0.1821536 1.9158435 16711746
0.0398485 -0.1832052 1.9459715 16711746
-0.1668372 -0.1824948 1.9566081 16711746
-0.2489089 -0.1868262 1.8747185 16711746
-0.1398373 -0.1851288 1.9074932 16711746
-0.0777097 -0.1899021 1.9614034 16711746
-0.0961897 -0.2007557 2.0508058 16711746
0.0413126 -0.1901306 1.9571068 16711746
-0.1347374 -0.1771874 1.8404806 16711746
-0.1307352 -0.2013778 2.0970097 16711746
-0.0171039 -0.1889829 1.9204654 16711746
-0.4003523 -0.2076602 1.9792911 16711746
0.1260836 -0.1719623 1.9043423 16711746
-0.1650017 -0.1870615 1.8967469 16711746
-0.1078951 -0.1835865 1.9385396 16711746
-0.1116694 -0.1898839 1.9620607 16711746
-0.1184797 -0.1873702 1.9703438 16711746
0.1773904 -0.2035000 2.0313501 16711746
-0.1499176 -0.1835921 1.8819197 16711746
0.1393597 -0.1906838 1.9713374 16711746
-0.1000503 -0.1795520 1.8665173 16711746
-0.0960973 -0.2002405 2.0526583 16711746
0.0086472 -0.1854200 1.9328076 16711746
0.0444303 -0.1861648 1.9363623 16711746
0.0481907 -0.1944416 1.9936092 16711746
-0.1472792 -0.1836168 1.9018048 16711746
-0.0569735 -0.1903076 1.9342641 16711746
-0.0165883 -0.1820729 1.8945695 16711746
-0.1500680 -0.1868418 1.9686942 16711746
-0.0578235 -0.1891297 1.9361814 16711746
-0.1646629 -0.1862420 1.8983697 16711746
-0.2648756 -0.1969666 1.8715022 16711746
0.0079940 -0.1820160 1.8956214 16711746
0.1638385 -0.1844050 1.9271107 16711746
-0.0161873 -0.1865741 1.8882115 16711746
-0.0516008 -0.1944876 2.0032885 16711746
-0.1410977 -0.1794893 2.0402081 16711746
-0.1546351 -0.2046461 1.9314722 16711746
0.0079576 -0.1822208 1.8947487 16711746
-0.1189469 -0.2018370 1.9552633 16711746
-0.2089119 -0.1850352 1.8606136 16711746
0.0144810 -0.1857453 1.9220560 16711746
0.1382796 -0.1911044 1.9765427 16711746
0.1045879 -0.1929708 1.9693298 16711746
-0.3078708 -0.1886282 1.9494506 16711746
0.1027766 -0.1861512 1.9261914 16711746
0.0926668 -0.1857352 1.9493259 16711746
-0.2094562 -0.1866178 1.8445374 16711746
0.0904681 -0.1661163 1.8907024 16711746
-0.0175260 -0.1892220 1.9191754 16711746
-0.4332855 -0.2023308 2.1643076 16711746
0.0151107 -0.1907406 1.9771578 16711746
0.1775869 -0.2143433 2.0482376 16711746
0.2694208 -0.2881696 2.2278171 16711746
0.1385593 -0.1940243 2.0195267 16711746
-0.1419465 -0.3087527 2.0992541 16711746
-0.0608546 -0.1864930 1.9249743 16711746
-0.0238970 -0.1895772 1.9806130 16711746
-0.0125734 -0.2010848 2.0243351 16711746
-0.0764255 -0.1904633 1.9563683 16711746
0.2363438 -0.2819550 2.1157098 16711746
-0.6755116 -0.2917813 2.3675811 16711746
-0.6085071 -0.3421946 2.3644059 16711746
-0.1286172 -0.2687739 1.8711399 16711746
-0.1559462 -0.1867308 1.9929842 16711746
-0.5068827 -0.2857293 2.1811512 16711746
0.1775122 -0.2175923 2.0971513 16711746
-0.1402026 -0.1807193 1.9274695 16711746
-0.0088024 -0.2363651 2.3022678 16711746
0.0834797 -0.2339477 2.3221719 16711746
0.0089450 -0.1942404 1.9890608 16711746
0.0905815 -0.1868214 1.9464668 16711746
0.1847441 -0.1945864 1.9951357 16711746
0.1541210 -0.2255965 2.2039535 16711746
-0.1097081 -0.1793469 1.8664252 16711746
-0.4285838 -0.1891955 2.0176303 16711746
0.0203042 -0.2197748 2.1766040 16711746
-0.0098925 -0.2138108 2.1254721 16711746
-0.1639308 -0.3408253 2.4904017 16711746
-0.1189690 -0.1844884 1.9674770 16711746
-0.5219690 -0.2028316 2.0875564 16711746
0.1392537 -0.2018833 2.0672343 16711746
0.1592860 -0.1857099 1.9203914 16711746
-0.0887072 -0.1916615 1.9714143 16711746
-0.1074761 -0.1863487 1.9475012 16711746
0.1925608 -0.3008911 2.5138268 16711746
1.6931251 -1.0680605 3.6123385 16711746
-0.0338179 -0.8437266 3.3237174 16711746
-0.0351517 -0.2652265 2.5558064 16711746
-0.3912219 -0.3269447 3.1437430 16711746
0.5891584 -0.2133029 2.1753356 16711746
-0.1607025 -0.1821398 1.8808298 16711746
0.1079993 -0.1958831 2.0165777 16711746
-0.0080407 -0.1907888 1.9558313 16711746
-0.1718111 -0.1818485 1.9411832 16711746
0.0302768 -0.1792742 1.8931370 16711746
0.1269416 -0.1884276 1.8758944 16711746
0.0084815 -0.1860858 1.9315057 16711746
-0.0503624 -0.1850429 1.8995780 16711746
-0.1289864 -0.1779550 1.9577006 16711746
0.0151479 -0.1851952 1.9248071 16711746
-0.2056866 -0.1955620 1.9486858 16711746
0.1575263 -0.1973860 1.9989533 16711746
0.0558533 -0.1902822 1.9764409 16711746
-0.2130131 -0.1813628 1.8656689 16711746
-0.1056027 -0.1772862 1.9348927 16711746
0.0080337 -0.1867679 1.9305509 16711746
-0.1661635 -0.1843002 1.8700026 16711746
-0.2996122 -0.1907583 1.9426764 16711746
-0.4603482 -0.2111956 2.0912635 16711746
-0.2107795 -0.1828048 1.8815565 16711746
-0.2090139 -0.1921566 1.9541628 16711746
0.0840718 -0.1973496 2.0437400 16711746
0.0290069 -0.2001942 2.0217371 16711746
-0.1572391 -0.1832263 1.9134591 16711746
-0.0964538 -0.1798065 1.9287940 16711746
0.1243420 -0.2057309 2.0914326 16711746
0.0074418 -0.1890959 1.9648672 16711746
0.1932486 -0.2074912 2.0606918 16711746
0.2509855 -0.2002489 2.0073473 16711746
-0.4753511 -0.2134617 2.1410038 16711746
-0.0507094 -0.1853965 1.8988835 16711746
0.1067646 -0.1735642 1.9005374 16711746
0.0088864 -0.1986132 2.0054898 16711746
-0.1219084 -0.2017246 2.0593746 16711746
-0.3111510 -0.1953448 2.0192771 16711746
-0.1604254 -0.1899324 1.8908911 16711746
-0.1717746 -0.2177147 2.0506327 16711746
-0.0060411 -0.1941997 1.9738797 16711746
-0.1212045 -0.1869976 1.9455264 16711746
-0.0703477 -0.1836821 1.9342541 16711746
-0.1592866 -0.2255665 2.2349565 16711746
0.0144623 -0.1890516 1.9434774 16711746
-0.1674681 -0.2239545 2.2567160 16711746
0.0053111 -0.2036483 2.0886064 16711746
0.1881865 -0.2070163 2.0439026 16711746
0.1156468 -0.1828384 1.8392998 16711746
-0.1773680 -0.3008941 2.3733571 16711746
1.1889110 -0.8410375 3.0650613 16711746
1.6372802 -1.0685257 3.2573752 16711746
-0.4727911 -0.2749991 2.2651162 16711746
0.2025822 -0.1967902 1.9865110 16711746
0.0290079 -0.1872689 1.9488848 16711746
0.2144301 -0.1981845 2.0391057 16711746
0.1749636 -0.2186486 2.1090467 16711746
-0.1301915 -0.1846927 1.9747711 16711746
-0.1526686 -0.1879385 1.9937373 16711746
-0.0350307 -0.1879965 1.9295932 16711746
-0.0242736 -0.1956951 2.0047464 16711746
0.0266716 -0.2003287 2.0462582 16711746
-0.1300957 -0.1762765 1.9456297 16711746
-0.4657576 -0.2149550 2.1328692 16711746
-0.0693595 -0.1902750 1.9646661 16711746
0.0229350 -0.1977821 2.0144024 16711746
0.0774123 -0.1980937 2.0310566 16711746
-0.4042315 -0.2074381 1.9818945 16711746
-0.0510129 -0.1903147 2.0131702 16711746
0.0201127 -0.1925733 1.9897314 16711746
0.3678061 -0.2168341 2.1537054 16711746
0.4267147 -0.2801673 2.1298692 16711746
0.0590136 -0.1819289 1.9146947 16711746
-0.0674300 -0.1903713 1.9555631 16711746
-0.0392260 -0.1873354 1.9323953 16711746
0.1257710 -0.1893955 1.8787729 16711746
0.1222207 -0.2060030 2.1176426 16711746
-0.0184544 -0.2029248 2.0384688 16711746
-0.1653782 -0.2128232 1.9454026 16711746
-0.0700224 -0.1897222 1.9661994 16711746
0.1135391 -0.1885889 1.9802560 16711746
-0.0599334 -0.1917721 1.9727961 16711746
0.0762648 -0.2119454 2.1566880 16711746
0.0228089 -0.1975406 2.0146267 16711746
-0.0900490 -0.1886210 1.9801295 16711746
-0.1329426 -0.1880271 2.0067165 16711746
-0.2150225 -0.1828745 1.8737223 16711746
0.1586725 -0.2897381 2.4196706 16711746
-0.0136832 -0.2026730 2.0187657 16711746
-0.0887877 -0.1893826 1.9742789 16711746
-0.1295655 -0.2686602 1.8698889 16711746
0.1894222 -0.2168118 2.0832839 16711746
0.4722238 -0.5281754 2.3465078 16711746
0.3389892 -0.5403086 2.5089157 16711746
-0.0195963 -0.2021481 2.0388296 16711746
0.1870780 -0.2460889 2.3447006 16711746
-0.1138395 -0.1931272 2.0240276 16711746
0.0436402 -0.1860395 1.9352782 16711746
-0.1571190 -0.1960078 2.0531695 16711746
-0.1601077 -0.2557553 2.3349328 16711746
0.2635887 -0.1978135 2.0168095 16711746
0.0545900 -0.1889817 1.9529030 16711746
0.1197325 -0.2084183 2.1140959 16711746
0.1365514 -0.1946887 2.0155094 16711746
0.1411732 -0.2003482 2.0687177 16711746
0.1985238 -0.2179980 2.1073251 16711746
0.1039033 -0.2218076 2.2994645 16711746
-0.1402878 -0.1961541 2.0765960 16711746
0.0281016 -0.1880152 1.9490112 16711746
-0.4851220 -0.2176684 2.1850255 16711746
-0.0359921 -0.1898814 1.9276670 16711746
-0.0636245 -0.1963159 2.0387075 16711746
0.0315866 -0.2358587 2.2963958 16711746
-0.1592091 -0.2264887 2.2273159 16711746
0.0595597 -0.1799023 1.9111767 16711746
0.0573970 -0.1824981 1.9215435 16711746
0.1392797 -0.1916798 1.9815297 16711746
0.0434725 -0.1886085 1.9609165 16711746
0.2158240 -0.2039772 2.0423512 16711746
0.1421878 -0.1905133 1.9578841 16711746
0.1688057 -0.1960573 1.9645222 16711746
-0.3038875 -0.1959355 2.0125072 16711746
-0.0217374 -0.1860811 1.9247375 16711746
-0.1144863 -0.2734288 1.8664969 16711746
-0.1174844 -0.1698864 2.0003955 16711746
0.1924501 -0.2845735 2.0911782 16711746
0.1802446 -0.2404922 2.0473087 16711746
-0.1202374 -0.2848364 1.8565637 16711746
0.1218503 -0.1926725 2.0654364 16711746
0.0023662 -0.2069789 2.0722973 16711746
0.2344477 -0.2762079 2.2800200 16711746
0.1132223 -0.1806230 1.9360135 16711746
0.0141435 -0.1920973 1.9819508 16711746
-0.0092294 -0.2018723 2.0305738 16711746
-0.1131852 -0.1811805 1.9411246 16711746
-0.0901333 -0.1882927 1.9796273 16711746
-0.1417968 -0.1776599 1.9540403 16711746
0.1771508 -0.2179355 2.0960522 16711746
0.5639319 -0.2360349 2.2909570 16711746
-0.0258857 -0.1916947 1.9440922 16711746
-0.0636194 -0.1926452 2.0138900 16711746
0.0217009 -0.1985503 2.0119102 16711746
-0.1271860 -0.2694866 1.8683232 16711746
-0.0047240 -0.2202912 2.1981823 16711746
1.5245342 -0.5127236 3.0545027 16711746
-0.0800659 -0.3705809 2.2291598 16711746
-0.0761274 -0.1891568 1.9547981 16711746
-0.1103671 -0.2151758 2.1556907 16711746
0.2982242 -0.2044513 2.0274849 16711746
0.1314029 -0.2170082 2.1309118 16711746
0.1749139 -0.2630032 2.3855412 16711746
0.2265297 -0.1949999 1.9588366 16711746
0.1550142 -0.2260625 2.2036200 16711746
0.1123177 -0.2223977 2.2348394 16711746
0.1245532 -0.1911464 1.9918789 16711746
-0.1583420 -0.1955456 2.0554254 16711746
0.1574251 -0.2105448 2.0800529 16711746
-0.1197522 -0.1825809 1.9507520 16711746
-0.1723174 -0.1809207 1.9437183 16711746
-0.1344030 -0.1903506 2.0219841 16711746
0.2294751 -0.1941048 1.9613245 16711746
0.0109253 -0.2012882 2.0480399 16711746
-0.1340846 -0.1912656 2.0211370 16711746
0.2315892 -0.2736732 2.2975678 16711746
0.0448414 -0.1850821 1.9371186 16711746
0.1457823 -0.1870935 1.9855694 16711746
-0.2250336 -0.1798195 1.9057603 16711746
-0.0143255 -0.1955115 1.9850457 16711746
0.1956232 -0.2085586 2.0705645 16711746
0.1345196 -0.2060354 2.0852487 16711746
-0.2391392 -0.1905345 1.9393075 16711746
-0.1256324 -0.1966643 2.0735734 16711746
-0.4634393 -0.2392370 2.1564000 16711746
-0.1104738 -0.1788210 1.9611152 16711746
0.1055118 -0.1736619 1.8996854 16711746
0.2606539 -0.2015071 2.0358229 16711746
-0.1472545 -0.1829369 1.9677345 16711746
-0.1311418 -0.1907355 2.0003586 16711746
-0.1459968 -0.1770017 1.9228671 16711746
-0.2135472 -0.1768329 1.9181445 16711746
-0.0516458 -0.1952950 2.0007823 16711746
0.2500629 -0.1892383 1.9735847 16711746
0.0399856 -0.1916412 1.9537748 16711746
0.0064439 -0.1840619 1.9670615 16711746
0.1909107 -0.2478625 2.0604992 16711746
-0.0355988 -0.1904444 1.9652952 16711746
0.1576034 -0.1889622 1.9604423 16711746
0.0585064 -0.1895972 1.9795849 16711746
0.1259948 -0.1989150 2.0704691 16711746
0.0140964 -0.1920343 1.9819212 16711746
0.1286790 -0.1895782 1.9957417 16711746
-0.1095189 -0.1798533 1.9574385 16711746
-0.1476724 -0.1734079 1.9273567 16711746
0.0094013 -0.1870213 1.9683590 16711746
-0.0364703 -0.1878759 1.9334832 16711746
0.0188443 -0.1806717 1.9197638 16711746
0.0312440 -0.1977395 2.0286038 16711746
0.0821450 -0.1966399 1.9881198 16711746
0.0187804 -0.1805255 1.9200463 16711746
0.1885549 -0.2012530 1.9769347 16711746
0.0568369 -0.1952790 2.0234525 16711746
0.1834310 -0.1910077 1.9770387 16711746
0.0682714 -0.1821366 1.9191715 16711746
0.0923765 -0.1820911 1.8895139 16711746
0.2203384 -0.1972067 1.9541372 16711746
-0.0089285 -0.1912262 1.9549553 16711746
0.2177332 -0.2506966 2.0903254 16711746
0.1433481 -0.1817708 1.9448354 16711746
0.3869108 -0.2130215 2.1769946 16711746
0.1750145 -0.1923510 1.9319743 16711746
-0.1543478 -0.1823882 1.9783341 16711746
0.1346814 -0.1892525 2.0151672 16711746
-0.1202015 -0.1886348 1.9586172 16711746
-0.2789544 -0.1963867 1.9610564 16711746
0.0229105 -0.2036040 2.0493760 16711746
-0.0008800 -0.2096992 2.1013379 16711746
0.0337666 -0.1988331 2.0915635 16711746
-0.1419933 -0.1979052 2.0802495 16711746
0.1793345 -0.2358298 2.2807848 16711746
0.1651356 -0.1858827 1.9635086 16711746
-0.0216956 -0.1860723 1.9252212 16711746
-0.0018879 -0.1843267 1.9196658 16711746
0.5521188 -0.2163882 2.1984320 16711746
0.1721848 -0.1838015 1.9725460 16711746
0.1729280 -0.1892682 2.0181165 16711746
-0.3756330 -0.1889299 2.0534346 16711746
-0.2724536 -0.1947427 1.9857914 16711746
0.0344632 -0.2197313 2.1252165 16711746
0.0523879 -0.1871559 1.9543382 16711746
0.1606014 -0.2106463 2.0534692 16711746
0.0826817 -0.1977525 2.0395923 16711746
-0.0261920 -0.1982176 1.9990070 16711746
-0.0375609 -0.2169543 2.1471207 16711746
0.0245127 -0.1843642 1.9359783 16711746
-0.1012400 -0.1907206 1.9896433 16711746
0.1762325 -0.2183615 2.0926104 16711746
0.1731492 -0.2023294 2.0263171 16711746
0.0585824 -0.1897254 1.9543797 16711746
-0.0865053 -0.2215332 2.2083144 16711746
-0.0527167 -0.1929869 2.0056374 16711746
0.0006343 -0.1911489 1.9519569 16711746
-0.0598807 -0.2226155 2.2218819 16711746
-0.1360694 -0.1884645 2.0292006 16711746
0.0224369 -0.1959467 1.9771364 16711746
0.0224501 -0.1954980 1.9783156 16711746
-0.1245740 -0.1966790 2.0561790 16711746
0.0939713 -0.2668578 2.5647607 16711746
0.0043875 -0.1938227 1.9851753 16711746
1.7440834 -1.1873147 5.0505128 16711746
-0.1307075 -0.1962573 2.0488536 16711746
0.0674147 -0.1845963 1.9472263 16711746
0.1744541 -0.1941843 1.9688656 16711746
-0.1825905 -0.2113261 2.0468042 16711746
-0.0495320 -0.1935794 2.0053880 16711746
-0.1132826 -0.1900093 1.9688576 16711746
-0.1357980 -0.1834693 1.9476782 16711746
0.0816526 -0.1917944 2.0049341 16711746
-0.0909057 -0.2078798 2.0337567 16711746
-0.1850300 -0.2092699 2.0757382 16711746
-0.1776406 -0.2278402 2.2402277 16711746
0.0749369 -0.2120082 2.1577611 16711746
-0.1234130 -0.2081537 2.1163628 16711746
-0.0108991 -0.2249880 2.1676788 16711746
-0.0126517 -0.1956630 1.9854537 16711746
-0.1127186 -0.2607433 2.5302896 16711746
-0.1133182 -0.2598661 2.5325127 16711746
0.0055543 -0.2334923 2.2291811 16711746
-0.2137133 -0.4697594 2.8794034 16711746
-0.5185688 -0.3177567 3.4967413 16711746
0.1963616 -0.2421291 2.2719376 16711746
-0.0278285 -0.1966667 1.9996402 16711746
0.1152953 -0.1873446 1.9821105 16711746
-0.0947797 -0.1977479 2.1101155 16711746
-0.1340465 -0.1914823 2.0195444 16711746
0.1674896 -0.2225025 2.1198049 16711746
-0.0088507 -0.2013128 2.0317020 16711746
-0.1682492 -0.2340928 2.2421706 16711746
-0.0604103 -0.1977385 2.0343125 16711746
0.0088483 -0.1846460 1.9336860 16711746
-0.1236059 -0.1990160 2.0634563 16711746
-0.0496568 -0.1943517 2.0032184 16711746
0.0587083 -0.2041861 2.2052689 16711746
-0.1309255 -0.1900475 2.0018001 16711746
0.1630425 -0.2938844 2.4344454 16711746
0.1791039 -0.2145194 2.0704100 16711746
0.1624549 -0.1947415 2.0048881 16711746
-0.1168210 -0.1841969 1.9808369 16711746
-0.1388006 -0.2916143 2.0967841 16711746
-0.0136875 -0.2055679 2.0129783 16711746
-0.1516568 -0.2464861 2.3753650 16711746
0.0510388 -0.1908490 2.0052176 16711746
1.6972203 -0.9345880 3.1821911 16711746
0.1949151 -0.2437869 2.0640459 16711746
0.1183797 -0.2094749 2.1120999 16711746
-0.1265370 -0.2030680 2.0992374 16711746
-0.0100472 -0.2082355 2.1097639 16711746
-0.0760063 -0.2074131 2.0954196 16711746
-0.0792756 -0.2126311 2.1301808 16711746
-0.2525642 -0.2185018 2.1363366 16711746
-0.0579647 -0.1930565 1.9936360 16711746
-0.1153211 -0.1857885 1.9741050 16711746
0.1301387 -0.1969141 2.0103812 16711746
0.1165475 -0.1905949 2.0303361 16711746
0.1031280 -0.2148766 2.0839336 16711746
0.3710149 -0.2112083 2.1294811 16711746
-0.1230481 -0.1995589 2.0497186 16711746
-0.0855422 -0.2234741 2.2005701 16711746
-0.1817050 -0.1996316 2.0720079 16711746
0.1378202 -0.3579205 2.0350289 16711746
-0.2174106 -0.2293794 2.2257876 16711746
0.1009824 -0.2101395 2.1247861 16711746
-0.0650934 -0.2001389 2.0267532 16711746
0.1943706 -0.1944640 2.0494320 16711746
-0.1328475 -0.1870267 2.0089264 16711746
-0.1747551 -0.2799222 2.0400319 16711746
-0.0525801 -0.2049034 2.0574603 16711746
-0.0312140 -0.2061175 2.0881183 16711746
0.1460029 -0.2210533 2.1331851 16711746
-0.0790586 -0.1990828 2.0340452 16711746
-0.0122728 -0.2088405 2.1076760 16711746
-0.1914549 -0.3002126 2.2986338 16711746
0.0541215 -0.2250832 2.2436926 16711746
0.0086916 -0.2099024 2.0403731 16711746
0.1930308 -0.2097060 2.0690291 16711746
-0.1579591 -0.2203342 2.2014766 16711746
0.2119165 -0.2726725 2.6820285 16711746
0.1032440 -0.2084864 2.1331537 16711746
0.1745868 -0.2774483 2.5539517 16711746
0.1762789 -0.2201245 2.0700758 16711746
-0.1524156 -0.1939473 2.0508537 16711746
-0.1400993 -0.2195622 2.2429094 16711746
-0.0161579 -0.2139138 2.1236169 16711746
0.0323281 -0.1886841 1.9866921 16711746
-0.0130093 -0.2006366 2.0199058 16711746
0.1147927 -0.1968878 2.0598295 16711746
-0.1126565 -0.1938664 2.0221171 16711746
-0.0581444 -0.2237757 2.2159400 16711746
0.0856948 -0.1953721 2.0449665 16711746
-0.1585280 -0.1927523 2.0036318 16711746
-0.0796696 -0.2127282 2.1328361 16711746
0.2551145 -0.2961242 2.2762544 16711746
-0.1599791 -0.2336658 2.2903047 16711746
0.1826320 -0.2468575 2.2504225 16711746
-0.0750289 -0.4191707 2.2661970 16711746
-0.4949573 -0.2463972 2.4434760 16711746
-0.0278180 -0.2412914 2.3329628 16711746
0.0018070 -0.2078022 2.0701480 16711746
-0.0031388 -0.2079604 2.0622725 16711746
0.1744808 -0.3341984 2.9488862 16711746
-0.0587560 -0.6745416 3.0382602 16711746
-0.3762405 -0.6354216 3.6638961 16711746
0.0288156 -0.2040254 2.0693617 16711746
-0.1728559 -0.2052042 2.0462103 16711746
-0.2643802 -0.2209913 2.1441889 16711746
-0.2313430 -0.2130087 2.0938697 16711746
0.0678324 -0.2178319 2.1586237 16711746
0.0142987 -0.2198742 2.1689470 16711746
-0.1593511 -0.2266261 2.2302299 16711746
-0.0431045 -0.2095685 2.0888748 16711746
0.1694303 -0.2485914 2.3608046 16711746
0.0365148 -0.2179594 2.1604216 16711746
-0.0596542 -0.1988591 2.0314119 16711746
0.1541220 -0.2778066 2.1605725 16711746
-0.0379076 -0.2148973 2.1532230 16711746
-0.1591551 -0.1923566 2.0025363 16711746
-0.1560348 -0.2071531 2.1055222 16711746
0.1311401 -0.3272128 2.1441522 16711746
0.0720164 -0.2340005 2.3323286 16711746
-0.4055192 -0.2112185 2.2299082 16711746
0.2093705 -0.2406366 2.2985637 16711746
0.0238042 -0.1963890 2.0171812 16711746
-0.0643639 -0.4725334 2.3070257 16711746
-0.1617359 -0.2204827 2.0690546 16711746
0.1812606 -0.2047742 2.0571320 16711746
-0.0662405 -0.5736058 2.5815754 16711746
-0.0163481 -0.2640750 2.4387934 16711746
-2.3075602 -0.9782552 4.0331726 16711746
-2.0395513 -0.9074581 3.7435694 16711746
-0.0808689 -0.3619321 2.5207789 16711746
-2.0911849 -0.5301360 4.2922235 16711746
1.2572051 -1.5836535 4.6269855 16711746
-0.2592943 -0.3316641 2.6961410 16711746
-0.1459370 -0.2261191 1.9549825 16711746
-0.1650632 -0.2194840 2.0728650 16711746
-0.1140035 -0.1927554 2.0247457 16711746
0.2455594 -0.2425278 2.0850208 16711746
-0.0070056 -0.2059556 2.0641558 16711746
-0.0077751 -0.1996830 2.0350144 16711746
-0.0763311 -0.1994299 1.9986514 16711746
-0.1832537 -0.2806326 2.0570257 16711746
-0.1288387 -0.1932111 1.9951700 16711746
0.2586963 -0.2392755 2.0978272 16711746
-0.1612278 -0.2112376 1.9875958 16711746
-0.0137156 -0.2045713 2.0158494 16711746
-0.0326427 -0.2065629 2.0824842 16711746
0.1490341 -0.1872327 2.0291038 16711746
-0.0713224 -0.2055884 2.0967877 16711746
-0.1360159 -0.1963969 2.0857244 16711746
-0.1410897 -0.1922955 1.9937596 16711746
-0.1582607 -0.2170056 2.0267892 16711746
0.0120292 -0.2126476 2.1446948 16711746
0.0390943 -0.2126300 2.1312804 16711746
-0.1627264 -0.2374090 2.3383825 16711746
-0.0177333 -0.2167131 2.1585596 16711746
-0.0368035 -0.2136462 2.1593750 16711746
-0.1499283 -0.1919477 1.9868988 16711746
-0.1546624 -0.2070855 2.1041822 16711746
-0.0799465 -0.2157385 2.1227698 16711746
-0.0020027 -0.2082506 2.0904503 16711746
-0.1377898 -0.1978888 2.0855062 16711746
-0.3118961 -0.2091245 2.1045599 16711746
-0.2023937 -0.2101533 2.0232587 16711746
0.0839757 -0.1898324 2.0245333 16711746
-0.0588850 -0.1974189 2.0348947 16711746
0.0727084 -0.2022195 2.0763586 16711746
0.0056613 -0.2075429 2.0758064 16711746
-0.1810062 -0.1991068 2.0636764 16711746
0.1123716 -0.1979512 2.0572760 16711746
0.0772759 -0.1868644 2.0167205 16711746
0.0147105 -0.2065979 2.0730791 16711746
-0.0172102 -0.2089050 2.0833013 16711746
-0.2122171 -0.2077605 2.0622625 16711746
0.0285852 -0.1997173 2.0456753 16711746
-0.2336404 -0.2179748 2.0752766 16711746
0.1183893 -0.2099140 2.1092279 16711746
-0.2192658 -0.2028219 2.0432584 16711746
-0.1912664 -0.2049155 2.0191095 16711746
-0.1497954 -0.2054144 2.0660884 16711746
-0.4777193 -0.2266622 2.2747860 16711746
-0.0970941 -0.1974761 2.1025321 16711746
-0.0984389 -0.1957834 2.0265768 16711746
0.0991695 -0.1899656 2.0919075 16711746
-0.1230996 -0.1991894 2.0583692 16711746
0.1844706 -0.2345342 2.2861807 16711746
-0.0622640 -0.2104676 2.1377037 16711746
0.2077496 -0.2193391 2.2027264 16711746
-0.1712201 -0.2071999 1.9882261 16711746
-0.2902902 -0.2171783 2.1379726 16711746
-0.1347582 -0.1982571 2.0811243 16711746
-0.1760753 -0.2059890 2.0434184 16711746
-0.1718104 -0.2218033 2.1827283 16711746
-0.0904218 -0.2081974 2.0750887 16711746
-0.0027141 -0.2072484 2.0674760 16711746
-0.1125114 -0.1967627 2.0174530 16711746
-0.1622652 -0.2231662 2.2047811 16711746
-0.1531899 -0.2078802 2.1366606 16711746
-0.2718050 -0.3641916 2.7500606 16711746
-0.0158834 -0.2129588 2.0968506 16711746
0.4519537 -0.4740480 2.3917272 16711746
-0.4778759 -0.2233866 2.2084742 16711746
-0.1157502 -0.2007814 2.0718830 16711746
0.1608516 -0.2568422 2.4001050 16711746
0.1729695 -0.2800068 2.5548553 16711746
0.1445436 -0.7969884 3.0192480 16711746
-0.0980841 -0.6417782 3.1270638 16711746
-0.4851447 -0.3280514 2.9317019 16711746
-0.4369156 -0.3231278 3.2169924 16711746
0.1217918 -0.2528020 2.4288545 16711746
0.0846098 -0.2061422 2.1213632 16711746
-0.0798534 -0.2027096 2.0641580 16711746
-0.1333495 -0.2098042 2.1449459 16711746
-0.0354513 -0.2384820 2.2916849 16711746
0.0400337 -0.2123926 2.1329691 16711746
-0.1764189 -0.2290830 2.2331874 16711746
-0.1898644 -0.2246732 2.1799347 16711746
-0.4876601 -0.2248363 2.2835844 16711746
-0.2637028 -0.2216312 2.1410782 16711746
0.0766041 -0.2034632 2.0647280 16711746
-0.1248391 -0.2053984 2.1207321 16711746
0.0749990 -0.2127533 2.1536994 16711746
-0.0124342 -0.2269884 2.2304139 16711746
-0.2223530 -0.2108980 2.0430539 16711746
-0.0061253 -0.2087452 2.0810652 16711746
-0.0005985 -0.2186035 2.2051036 16711746
-0.2169670 -0.2063122 2.0637324 16711746
-0.0441289 -0.1998128 2.0628841 16711746
0.1109725 -0.2230660 2.2315030 16711746
-0.0516523 -0.2037838 2.0602870 16711746
0.6615078 -0.5869902 2.7114160 16711746
-0.2183527 -0.1990347 2.0022724 16711746
-0.0418974 -0.2082646 2.0904002 16711746
-0.4858757 -0.2915488 2.2151241 16711746
0.0527989 -0.2270318 2.2369082 16711746
-0.1609134 -0.2318003 2.2994635 16711746
-0.4025144 -0.2233622 2.0326853 16711746
-0.1298937 -0.1971470 2.0471742 16711746
0.1006689 -0.2094534 2.1257086 16711746
-0.3915370 -0.2265028 2.0247092 16711746
-0.1922464 -0.2061442 2.0435264 16711746
-0.2987470 -0.2641616 2.5463114 16711746
-0.0018658 -0.2097677 2.0990624 16711746
-0.0822618 -0.2299225 2.2590251 16711746
-0.4500315 -0.2210580 2.2400460 16711746
-0.0414686 -0.2530345 2.5204346 16711746
0.1198481 -0.2427555 2.3893323 16711746
0.1026379 -0.2029729 2.0871570 16711746
0.1726586 -0.2193539 2.0917673 16711746
0.1141875 -0.1966455 2.0578272 16711746
0.1552377 -0.2225079 2.1444781 16711746
0.1162433 -0.2217282 2.2379103 16711746
0.0798221 -0.1952315 2.0325072 16711746
0.1146705 -0.1963454 2.0588374 16711746
-0.1283659 -0.1930040 2.0718305 16711746
-0.0756719 -0.2062653 2.0978665 16711746
-0.0787661 -0.2127681 2.1304116 16711746
-0.0102758 -0.2095550 2.1049330 16711746
-0.1425671 -0.1992001 2.0994494 16711746
0.1848363 -0.2860829 2.5382543 16711746
0.1593101 -0.2215915 2.1502082 16711746
0.1582552 -0.2216424 2.1482210 16711746
-1.3149078 -0.4036059 4.2426367 16711746
-0.5144657 -0.4329631 3.7014790 16711746
0.4049232 -1.3053187 4.8082790 16711746
0.8298702 -0.2826138 2.9889896 16711746
0.0840979 -0.1998225 2.0636897 16711746
-0.4746608 -0.2264117 2.2721784 16711746
0.1115116 -0.1887893 2.0202541 16711746
0.1297986 -0.2005474 2.0814040 16711746
-0.1307928 -0.1919657 2.0750484 16711746
-0.2383353 -0.1985380 2.0586224 16711746
-0.1255542 -0.2046385 2.1226201 16711746
0.1563333 -0.2412930 2.2321014 16711746
-0.0029576 -0.2095910 2.0866852 16711746
0.3008330 -0.2369613 2.2572575 16711746
0.2964422 -0.2394444 2.2522407 16711746
-0.1788833 -0.2180898 2.1394730 16711746
-0.1981540 -0.2259455 2.1848373 16711746
-0.1812592 -0.2176986 2.0556407 16711746
-0.0455216 -0.2249870 2.1663718 16711746
-0.1482067 -0.2788911 2.0161407 16711746
0.1062120 -0.2142494 2.1618974 16711746
-0.2419799 -0.1998776 2.0638325 16711746
-0.2412439 -0.2165736 2.0211358 16711746
0.5451552 -0.3311216 2.9723487 16711746
0.0792920 -0.2107879 2.1596589 16711746
0.3035654 -0.2577118 2.3511372 16711746
0.1587693 -0.2211261 2.1282761 16711746
-0.3341033 -0.2119667 2.1583934 16711746
0.1136732 -0.1973653 2.0589080 16711746
0.0738358 -0.2020878 2.0571907 16711746
0.0851204 -0.2057394 2.0868945 16711746
-0.1390695 -0.2247951 2.2409697 16711746
-0.0035396 -0.2094033 2.0868289 16711746
0.0922466 -0.2281185 2.2586646 16711746
-0.0556846 -0.2129407 2.1394773 16711746
0.0934407 -0.2656144 2.5268557 16711746
-0.5237514 -0.2657267 2.6552050 16711746
0.0910554 -0.1945900 2.0471716 16711746
0.1193386 -0.1938463 2.0452578 16711746
-0.7594754 -0.2427737 2.4928529 16711746
-0.1273072 -0.2019233 2.0958986 16711746
-0.1349730 -0.2246243 2.2211671 16711746
-0.7175306 -0.6264738 3.5635183 16711746
-0.1411529 -0.1996458 2.0767934 16711746
-0.1130199 -0.2169540 2.1579282 16711746
0.0283919 -0.2094033 2.1004791 16711746
0.1426811 -0.2027646 2.0709329 16711746
0.0427324 -0.2102029 2.1385486 16711746
0.0786467 -0.2366197 2.3093779 16711746
0.0252908 -0.2020355 2.0533171 16711746
-0.0209614 -0.2310173 2.2663562 16711746
0.1300131 -0.2187473 2.2012126 16711746
0.5040254 -0.2581799 2.3980584 16711746
0.0798670 -0.2364090 2.3195226 16711746
0.1712777 -0.2223025 2.1223505 16711746
0.1760016 -0.2205407 2.1625924 16711746
-0.1905603 -0.2146565 2.0680711 16711746
0.0777363 -0.2329406 2.3309736 16711746
0.0544883 -0.2260669 2.2382164 16711746
-0.0539425 -0.2129419 2.1365209 16711746
-0.1708131 -0.2229068 2.1808770 16711746
0.3089954 -0.3061171 2.2842796 16711746
0.1379874 -0.2040992 2.0607066 16711746
0.2387200 -0.3051423 2.3224943 16711746
0.3319547 -0.2306950 2.2904992 16711746
0.0205215 -0.2200598 2.1751516 16711746
-0.4269698 -0.2219421 2.1914909 16711746
-0.1324560 -0.2098720 2.1456788 16711746
-0.0348466 -0.2322012 2.2503839 16711746
0.0138144 -0.2130402 2.0942528 16711746
0.1260159 -0.2297958 2.0093081 16711746
-0.2800241 -0.2449804 2.3755748 16711746
-0.1163903 -0.2095619 2.1437960 16711746
-0.7997105 -0.4439455 2.5567207 16711746
0.1954312 -0.2762019 2.2591929 16711746
0.1229206 -0.2198767 2.2242277 16711746
0.0124727 -0.2832856 2.6267948 16711746
-0.0214019 -0.2313505 2.2657568 16711746
-0.4491436 -0.2275840 2.1809545 16711746
0.0904492 -0.2672304 2.5211320 16711746
0.0124447 -0.2832587 2.6395457 16711746
-0.1634342 -0.2566111 2.3610709 16711746
-0.0804725 -0.2316666 2.2507870 16711746
0.1505704 -0.2223548 2.0187726 16711746
-0.1553223 -0.2730761 2.0309246 16711746
-0.1423590 -0.2519281 2.5438464 16711746
0.0129226 -0.2831447 2.6393166 16711746
-0.4674485 -0.2328853 2.3408175 16711746
-0.4226492 -0.2073825 2.2490768 16711746
0.0364394 -0.2178388 2.1619403 16711746
0.1745610 -0.2187343 2.1063802 16711746
0.1277983 -0.2592626 2.4627364 16711746
-0.1533423 -0.2074655 2.1353097 16711746
-0.0762628 -0.2069874 2.0960884 16711746
-0.2574763 -0.2372586 2.3273578 16711746
-0.0915722 -0.2331296 2.3165886 16711746
-0.1345581 -0.2080825 2.1500506 16711746
0.0280570 -0.2218495 2.1936483 16711746
-0.0895423 -0.6023300 3.0039883 16711746
0.1219401 -0.3242103 2.8254440 16711746
-0.1453673 -0.2257838 2.2432182 16711746
-0.0085721 -0.2387858 2.2905731 16711746
-0.2213299 -0.2326391 2.2297480 16711746
-0.0190292 -0.2105349 2.1265810 16711746
-0.0849144 -0.2306060 2.2515585 16711746
-0.1902353 -0.2250500 2.1796861 16711746
0.1810901 -0.2167760 2.1348405 16711746
-0.0400669 -0.2187073 2.1670163 16711746
-0.0196183 -0.2118133 2.1236405 16711746
0.0366881 -0.2308695 2.2645233 16711746
0.0586914 -0.2110592 2.1582611 16711746
-0.1189434 -0.2061520 2.1042507 16711746
-0.1741284 -0.2192674 2.1353106 16711746
-0.1044907 -0.2236694 2.1933367 16711746
-0.3643275 -0.2356366 2.3387451 16711746
-0.0282011 -0.2164236 2.1571732 16711746
-0.0677191 -0.2168864 2.1608071 16711746
-0.0137904 -0.2119595 2.1286197 16711746
-0.1283136 -0.2016921 2.0958354 16711746
-0.2149801 -0.2137365 2.0746171 16711746
-0.0886307 -0.2081209 2.1129203 16711746
-0.0744587 -0.2180670 2.1583886 16711746
0.1318910 -0.2114729 2.1689138 16711746
-0.1602190 -0.2312281 2.2901249 16711746
-0.1336187 -0.2087829 2.1466241 16711746
-0.2025233 -0.2222043 2.1583326 16711746
-0.2939256 -0.2153736 2.0926006 16711746
-0.0673896 -0.2174741 2.1579928 16711746
0.1781052 -0.2360674 2.2664554 16711746
0.1343266 -0.2192454 2.2195978 16711746
0.1213561 -0.2391695 2.3408787 16711746
0.1127464 -0.2319155 2.3004453 16711746
0.3680199 -0.2246322 2.3228793 16711746
-0.1598449 -0.2326519 2.2959046 16711746
0.1741637 -0.2403155 2.3178339 16711746
0.0794292 -0.2093964 2.1615295 16711746
-0.1802292 -0.2047759 2.0685954 16711746
-0.1186282 -0.2058703 2.1027067 16711746
0.1886470 -0.3052660 2.2607853 16711746
-0.2542319 -0.2538634 2.3155999 16711746
0.1485787 -0.1911482 2.1471708 16711746
-0.0786029 -0.2166565 2.1218810 16711746
-0.1709258 -0.2748867 2.0286875 16711746
-0.0084973 -0.2383198 2.2934008 16711746
-0.1625956 -0.2358259 2.2779047 16711746
-0.0170301 -0.2190365 2.1773050 16711746
-0.0361254 -0.2385971 2.2892282 16711746
-0.0735678 -0.2163671 2.1615715 16711746
-0.1161994 -0.2252336 2.2041268 16711746
-0.0783424 -0.4172288 2.3141921 16711746
0.1137516 -0.2327116 2.2997787 16711746
0.1212962 -0.2074427 2.1658547 16711746
-0.0175638 -0.2166169 2.1568611 16711746
-0.1854001 -0.3865001 2.3651743 16711746
0.2857977 -0.4915790 2.5866075 16711746
-0.1754863 -0.2294118 2.2368250 16711746
0.0118406 -0.2298304 2.2412243 16711746
0.0451792 -0.2454343 2.4839795 16711746
0.1535844 -0.3327110 2.8755617 16711746
-1.7471788 -0.2612200 3.9481902 16711746
-0.5064598 -0.3149069 3.4256430 16711746
-0.0243793 -0.2474545 2.3477571 16711746
0.0402183 -0.2054250 2.0981655 16711746
0.1426970 -0.2247456 2.2346609 16711746
-0.2219641 -0.2320589 2.2300739 16711746
-0.1515914 -0.2217253 2.1951420 16711746
0.1097793 -0.2046501 2.1416972 16711746
-0.0790374 -0.2129618 2.1268611 16711746
0.0285898 -0.2216864 2.1952217 16711746
-0.1393223 -0.2258763 2.2504098 16711746
-0.1504058 -0.2501432 2.3891869 16711746
-0.1561161 -0.2242392 2.2371914 16711746
0.1347793 -0.2058870 2.1799686 16711746
-0.1073736 -0.2195853 2.2209160 16711746
-0.1648039 -0.2787634 2.0328660 16711746
-0.1577348 -0.2804679 2.0271890 16711746
-0.2192415 -0.2296255 2.1838686 16711746
0.0167941 -0.2242198 2.2714856 16711746
0.0041024 -0.2245009 2.1909037 16711746
-0.1547835 -0.2380489 2.2721848 16711746
-0.1299031 -0.2624110 2.2645657 16711746
-0.0344431 -0.2331439 2.2495649 16711746
0.0425737 -0.2145398 2.1512182 16711746
-0.0612444 -0.2122817 2.1314452 16711746
-0.1270926 -0.2022063 2.1000171 16711746
0.2787396 -0.2605105 2.4452796 16711746
-0.0560852 -0.2233936 2.2182138 16711746
-0.4895824 -0.2773938 2.6685104 16711746
-0.0256808 -0.2423086 2.3248682 16711746
-0.0813351 -0.2347542 2.2808952 16711746
-0.0566983 -0.2240157 2.2156169 16711746
-0.0631160 -0.2169535 2.1516860 16711746
0.0347581 -0.2319933 2.2620678 16711746
-1.2530919 -0.4198136 2.9813905 16711746
0.0122766 -0.2102161 2.1119504 16711746
-0.2453389 -0.2546512 2.2896616 16711746
0.1840151 -0.2879866 2.5346076 16711746
0.3185526 -0.5546256 2.6282279 16711746
-0.0392831 -0.2393874 2.2807527 16711746
0.1550216 -0.2279176 2.2543108 16711746
-0.2326266 -0.2379168 2.2665317 16711746
-1.8498613 -0.6521472 3.5065172 16711746
-0.1940014 -0.2282809 2.1772039 16711746
-0.0182602 -0.2201074 2.1740460 16711746
-0.1018040 -0.2141022 2.1620264 16711746
-1.3730710 -0.4294923 3.1017663 16711746
-0.1712477 -0.2518602 2.4010451 16711746
-0.1592124 -0.2334390 2.2910790 16711746
-0.1438865 -0.3093030 2.1986125 16711746
-0.0675217 -0.3984134 2.2407022 16711746
0.6457218 -0.9909350 3.3149111 16711746
-0.4320061 -0.2496093 2.5246646 16711746
2.9002645 -1.3701819 4.8889513 16711746
0.0122461 -0.2179847 2.1699700 16711746
0.0754137 -0.2117608 2.1549780 16711746
