# .PCD v.7 - Point Cloud Data file format
VERSION .7
FIELDS x y z rgb
SIZE 4 4 4 4
TYPE F F F F
COUNT 1 1 1 1
WIDTH 88
HEIGHT 1
VIEWPOINT 0 0 0 1 0 0 0
POINTS 88
DATA ascii

 -0.0710877 0.0162230 1.1411856 16777215
 0.0013510 -0.0029878 0.0667511 16777215
1.0730877 -0.5497546 1.2325286 16711746
0.6725233 -0.3928125 0.8642765 16711746
0.3658953 -0.5781822 0.9144464 16711746
0.2381222 -0.3703036 0.5913507 16711746
0.4166963 -0.3538967 0.6507584 16711746
1.0727394 -0.6505670 1.0854512 16711746
11.9179783 -5.3934422 6.0003481 16711746
0.8959521 -0.4066060 0.4926084 16711746
0.1968735 -0.3536679 0.5479497 16711746
0.6236295 -0.7847077 0.8368777 16711746
0.4225870 -0.5824312 0.6255133 16711746
0.4815604 -0.5657415 0.6792492 16711746
0.6162673 -0.7529902 0.8444596 16711746
0.4785821 -0.3282402 0.6639176 16711746
0.6804445 -0.4540937 0.8704322 16711746
0.9240541 -0.6841101 1.2096688 16711746
1.6686423 -1.1707871 2.0053070 16711746
0.5826596 -0.4365487 0.7666194 16711746
0.5871272 -0.5782685 0.5952691 16711746
0.5878117 -0.5619233 0.8058194 16711746
0.7489358 -0.7480268 1.0593235 16711746
0.3360417 -0.5689846 0.5989593 16711746
0.2465423 -0.4697388 0.5048011 16711746
1.3401155 -0.7496815 0.9259116 16711746
0.6773179 -0.4305938 0.9437545 16711746
0.6820270 -0.4702191 1.0144191 16711746
0.8717945 -0.7160320 0.7643391 16711746
0.8955892 -0.7734835 0.8173246 16711746
1.3587172 -1.1844218 1.1600436 16711746
0.7527395 -0.4096853 0.4948916 16711746
0.7555547 -0.4619372 0.4813463 16711746
0.4969293 -0.7588176 0.6182041 16711746
0.5047202 -0.8050386 0.6008136 16711746
0.4863717 -0.6818795 0.6725191 16711746
0.4095980 -0.3802706 0.6905842 16711746
0.6912974 -0.5313315 1.0616490 16711746
0.6716577 -0.3734554 0.8979051 16711746
0.3349016 -0.7323826 1.0754511 16711746
0.3073869 -0.6172723 1.1131735 16711746
0.2915142 -0.3324283 0.6261560 16711746
0.3064561 -0.4219946 0.7863598 16711746
0.4162984 -0.4570012 0.6251640 16711746
0.8753563 -0.6376984 0.9223267 16711746
1.4508536 -1.3565134 1.6343352 16711746
0.6750729 -0.4380901 0.7331643 16711746
0.5823429 -0.4626521 0.7633916 16711746
0.5808429 -0.4736021 0.7047335 16711746
0.3424763 -0.7530764 1.0612240 16711746
0.5884475 -0.7461398 1.1309224 16711746
0.8979159 -0.4437964 1.0139132 16711746
0.8666652 -0.2731354 0.5026686 16711746
1.2730104 -0.2406053 0.5248265 16711746
1.0819162 -0.6893588 1.0465389 16711746
0.6748047 -0.3161274 1.2385254 16711746
0.8162225 -0.5105081 0.6985698 16711746
0.5866402 -0.3645067 0.7306353 16711746
0.4269717 -0.4277623 1.0106459 16711746
0.7907802 -0.2953742 0.5484448 16711746
0.9330601 -0.8419203 1.0046766 16711746
0.6417542 -0.5994865 0.4737179 16711746
0.7531925 -0.5058119 0.2213175 16711746
0.8553671 -0.6570554 0.7662774 16711746
0.4745020 -0.4396891 0.4991314 16711746
0.5002581 -0.7906296 0.6381413 16711746
1.1083688 -0.3188825 0.4796221 16711746
2.2935693 -0.7022364 0.8529053 16711746
50.0537338 -19.1739731 8.5838060 16711746
0.4736474 -0.1517483 0.7525365 16711746
0.6860155 -0.2238685 1.0724957 16711746
0.4201356 -0.2340008 0.9879549 16711746
0.6959596 -0.1868215 1.1074642 16711746
0.4123599 -0.2305263 1.0225712 16711746
0.6134597 -0.2773863 0.8559802 16711746
0.6724453 -0.3610412 1.0087979 16711746
0.6689486 -0.2975627 0.8424783 16711746
0.6735149 -0.3917397 0.9458089 16711746
0.6767378 -0.2704221 1.0121526 16711746
0.7472379 -0.3550220 1.0877542 16711746
0.4203102 -0.3379625 0.9979046 16711746
0.3952479 -0.4977801 1.1805843 16711746
0.7704349 0.0412379 0.5425509 16711746
0.7225362 -0.0356539 0.6678277 16711746
1.0012338 -0.0630799 0.6739805 16711746
0.4841397 -0.1993299 0.6269886 16711746
0.4868188 -0.1556773 0.6550830 16711746
1.0874416 -0.3106790 1.2438409 16711746
