# .PCD v.7 - Point Cloud Data file format
VERSION .7
FIELDS x y z rgb
SIZE 4 4 4 4
TYPE F F F F
COUNT 1 1 1 1
WIDTH 112
HEIGHT 1
VIEWPOINT 0 0 0 1 0 0 0
POINTS 112
DATA ascii

-0.0540336 -0.7953212 0.3604367 16711746
0.3435615 -0.6963404 0.2650085 16711746
0.2841606 -0.5390145 0.2102942 16711746
-0.1304369 -0.7523288 0.4079047 16711746
-0.1395633 -0.7505504 0.3806680 16711746
0.6624925 -0.7177072 0.4010706 16711746
0.4949989 -0.5664611 0.2473367 16711746
-0.5527746 -0.7244273 1.2761818 16711746
-0.6935672 -0.7126847 0.8360099 16711746
0.6681503 -1.7159796 2.6341679 16711746
-0.2850066 -2.3058136 3.1475472 16711746
0.5317432 -1.3309631 1.4770663 16711746
-0.5342059 -2.0613637 3.9929924 16711746
0.4878054 -0.7213523 0.3501048 16711746
0.3543493 -0.6634865 0.3056542 16711746
0.6724654 -0.4911152 0.3385261 16711746
1.1838789 -0.8358329 0.4983779 16711746
0.5006635 -0.6633160 0.3787659 16711746
1.4399970 -1.7572607 1.4397717 16711746
1.9548227 2.3152404 -4.3831635 16711746
2.3618588 2.6238992 -5.0574522 16711746
0.0636422 -0.8010659 0.8053097 16711746
0.7020947 -1.0492938 1.3542581 16711746
0.9144489 -1.4584725 1.8708971 16711746
0.8718173 -0.9040730 0.8192468 16711746
0.0824186 -0.9944264 0.5564404 16711746
0.0239063 -0.7187119 0.4286749 16711746
0.4811008 -0.7271281 0.5524257 16711746
0.3861766 -0.6356540 0.6372393 16711746
0.6904377 -0.4702970 0.0709805 16711746
1.2491605 -1.3497047 1.5941042 16711746
0.6275476 -1.0568011 0.3995262 16711746
-0.1878429 -0.6399446 0.3512630 16711746
-0.1872221 -0.6088588 0.3288130 16711746
0.4434901 -0.7765978 0.5496553 16711746
-0.5076740 -1.9880885 3.9985623 16711746
1.2020538 -2.3041902 2.9851518 16711746
0.0928495 -1.4739922 1.6336571 16711746
1.6411175 1.5954572 -3.8357167 16711746
1.0876728 1.3743140 -3.5563509 16711746
-1.2465122 -1.7121927 3.3333945 16711746
-1.2518852 -2.0353556 4.5021715 16711746
-0.4511860 -2.2234044 4.0692348 16711746
0.3592425 -0.4983919 0.3099345 16711746
0.4117345 -0.6365860 0.3896951 16711746
0.3316363 -0.8531485 0.3271359 16711746
0.4134192 -0.8934161 0.4228145 16711746
0.8235449 -0.9336233 0.7626417 16711746
1.6506490 -2.0174830 1.4232415 16711746
0.5157962 -1.1976041 0.8752697 16711746
0.6293670 -1.3567549 0.9003239 16711746
0.3221563 -0.4697350 0.3279985 16711746
-0.1452772 -0.7263631 0.3915046 16711746
-0.1750905 -0.6341614 0.3188441 16711746
-0.0774387 -0.8068170 0.4868469 16711746
0.0279231 -0.8465567 0.4486694 16711746
0.2156510 -0.8701239 0.3455661 16711746
0.2413550 -0.8011494 0.3851234 16711746
-0.8003675 -1.2227865 0.9443496 16711746
2.0275681 -1.9127058 1.8381200 16711746
0.7641109 -1.1503425 1.0551263 16711746
0.3568458 -0.5054074 0.3021796 16711746
0.3673013 -0.5341414 0.2758770 16711746
0.4446675 -0.4769393 0.3492900 16711746
0.6571634 -0.4694081 0.0567258 16711746
1.2035706 -0.7437818 0.4242887 16711746
1.1075665 -1.9464008 0.8398876 16711746
1.0386614 -2.0702798 1.4900360 16711746
0.3814500 -0.4859785 0.3257639 16711746
0.4281173 -0.5028457 0.3188871 16711746
0.4330171 -0.8878245 0.8162400 16711746
-0.0370297 -1.3826977 1.4363861 16711746
0.0299804 -0.9031291 0.7586197 16711746
0.9215812 -0.7227495 0.3969683 16711746
0.7563261 -0.7491444 0.4258234 16711746
0.6839924 -0.5613531 0.1426336 16711746
0.4491773 -0.9119752 0.3735015 16711746
0.4382389 -0.9404739 0.3744091 16711746
0.4986151 -0.7419365 0.2861975 16711746
1.6267620 -1.8494114 1.5305187 16711746
1.3716515 -1.3713427 0.6268706 16711746
-0.1175977 -0.5679017 0.3335431 16711746
1.3088487 -1.6264486 1.5001230 16711746
0.7347208 -0.8225194 0.7643120 16711746
-0.0552263 -0.5285512 0.2857341 16711746
0.3937371 -0.7093083 0.2788603 16711746
-0.1588353 -0.9350957 0.4493801 16711746
-0.1105895 -0.7760106 0.4382120 16711746
0.7803234 -0.7718295 0.3447417 16711746
0.5124461 -0.5613849 0.2611300 16711746
1.8278960 -1.6611384 1.7854788 16711746
1.8854643 -1.7542144 1.7744418 16711746
0.0555163 -0.6872320 0.3389211 16711746
0.7689186 -0.8136463 0.8407007 16711746
1.1887540 -2.0962856 3.0233533 16711746
0.6284361 -0.6557954 0.7588503 16711746
1.1108613 -1.2775242 1.4153644 16711746
1.0555704 -0.7106655 0.5861499 16711746
1.3115697 -1.7748652 2.3115506 16711746
0.2721461 -0.7528615 0.3454556 16711746
0.2520216 -1.9246573 1.8648832 16711746
0.4515452 -0.5015512 0.3241792 16711746
0.1231497 -1.0674058 1.0208617 16711746
0.0818295 -0.8716940 0.8195217 16711746
0.0090079 -0.6062792 0.2694223 16711746
0.5810355 -1.1776444 0.9523171 16711746
0.9218370 -0.3604283 0.0562535 16711746
19.9610977 -29.4926739 45.8426476 16711746
1.9214280 -2.5023961 4.1554632 16711746
47.7256279 -63.2177353 52.8949966 16711746
26.5561523 -33.7540436 58.5777931 16711746
38.5952492 -63.1325760 51.3962517 16711746
