# .PCD v.7 - Point Cloud Data file format
VERSION .7
FIELDS x y z rgb
SIZE 4 4 4 4
TYPE F F F F
COUNT 1 1 1 1
WIDTH 83
HEIGHT 1
VIEWPOINT 0 0 0 1 0 0 0
POINTS 83
DATA ascii

 -0.0374423 0.1016467 4.5697956 16777215
 0.0051667 0.0031112 0.1129497 16777215
0.9416950 -0.4866973 0.2678949 16711746
0.7378217 -0.4319121 0.2625488 16711746
0.9127972 -0.8668169 0.4753298 16711746
0.5068504 -0.4288158 0.3884084 16711746
0.9811970 -0.7535744 0.7648806 16711746
0.7235072 -1.0680175 0.7056136 16711746
2.1723776 -1.5170546 0.6732287 16711746
0.7944436 -0.4614250 0.8821543 16711746
0.2585400 -0.2399232 0.4475585 16711746
0.3189479 -0.2594568 0.5131109 16711746
0.8217470 -0.3315128 0.7217718 16711746
0.3412887 -0.0684966 0.2852585 16711746
0.6412972 -0.1495954 0.7271294 16711746
0.4841435 -0.2750621 0.8016643 16711746
0.2699938 -0.0309940 0.3567247 16711746
0.5066701 -0.1800115 0.5198253 16711746
0.3976102 -0.0811891 0.3444226 16711746
2.5297105 -0.6032023 1.9362022 16711746
0.1870542 -0.3963954 0.6325424 16711746
0.2418156 -0.5449101 0.7622755 16711746
0.8220032 -2.1374619 1.2880406 16711746
4.3328614 -5.4378572 0.9730604 16711746
0.4347891 -0.7976396 0.3918349 16711746
3.9264803 -2.7416294 0.0202540 16711746
0.5246476 -0.4792468 0.5550855 16711746
0.0970142 -0.4342425 0.5104260 16711746
3.1024818 -2.5374577 0.7542089 16711746
0.3481283 -0.1625147 0.3522453 16711746
0.8360463 -0.9460316 0.3830874 16711746
2.1112924 -1.0973341 -0.0419806 16711746
6.6995153 -7.5201378 3.5771601 16711746
1.0735883 -1.2606318 0.8119159 16711746
0.8820170 -0.9175280 0.7692693 16711746
0.4701207 -0.4659277 0.4368542 16711746
2.1052432 -1.5443729 0.5445250 16711746
0.3470928 -0.1812256 0.4736453 16711746
1.1459553 -0.6802678 1.3961273 16711746
1.3222694 -2.3732345 1.3145976 16711746
0.3572882 -0.8111705 0.4406377 16711746
2.0138597 -0.6571557 0.4280757 16711746
1.0145893 -0.3616641 0.2784379 16711746
0.9536007 -1.3887005 1.1813637 16711746
2.8229532 -1.5645331 0.7562678 16711746
0.6775910 -0.3889085 0.2617772 16711746
9.2805119 -8.4105482 3.0147507 16711746
6.3043690 -4.6840830 5.3899980 16711746
0.5576908 -0.3865586 0.2383507 16711746
0.8155628 -0.8438521 0.4680172 16711746
0.8609380 -0.9421960 0.5004513 16711746
1.6960446 -1.1898735 0.5781606 16711746
0.6013409 -0.8897636 0.3398567 16711746
2.5698662 -1.4014515 -0.1625431 16711746
1.4836030 -1.0979540 1.4039248 16711746
0.5786015 -0.3750510 0.4814214 16711746
0.7933400 -0.5463643 0.6537451 16711746
0.4238954 -0.2881970 0.3802983 16711746
0.7938340 -0.5812687 0.4907875 16711746
0.0394178 -0.3920991 0.6836212 16711746
1.1240876 -0.4300552 0.2995740 16711746
0.7353699 -0.4081656 0.2939044 16711746
0.7835978 -0.5135204 0.3151207 16711746
0.4212472 -1.0048655 0.4433117 16711746
1.5407171 -1.3674960 0.9319803 16711746
0.3229965 -0.3258967 0.4676801 16711746
0.3064995 -0.2754389 0.4330532 16711746
3.7309935 -2.5724506 0.0782175 16711746
0.6392795 -0.3716013 0.6449260 16711746
0.5771587 -0.3158634 0.5590444 16711746
0.7648445 -0.6988741 0.4878241 16711746
1.8914599 -1.8917539 1.1201911 16711746
0.5740159 -0.6519874 0.7251803 16711746
0.5661469 -0.6493027 0.7033516 16711746
0.3497975 -0.3132200 0.3781153 16711746
1.1999261 -1.1746651 1.0806699 16711746
0.9766631 -1.1705246 0.3535281 16711746
0.9242798 -0.3220040 0.3126490 16711746
4.0789843 -2.4465923 1.0749553 16711746
-4.5539622 -3.8574486 8.8299961 16711746
41.2731247 -89.3224106 94.7401810 16711746
-11.0978031 -10.0340376 15.1993008 16711746
20.3678436 -38.4099846 12.3000269 16711746
