# .PCD v.7 - Point Cloud Data file format
VERSION .7
FIELDS x y z rgb
SIZE 4 4 4 4
TYPE F F F F
COUNT 1 1 1 1
WIDTH 210
HEIGHT 1
VIEWPOINT 0 0 0 1 0 0 0
POINTS 210
DATA ascii

 -0.1050442 0.0374708 1.4019964 16777215
 -0.0026202 0.0025523 0.0799601 16777215
1.7358656 -2.4643977 4.8796778 16711746
0.2328304 -0.2310314 0.5002181 16711746
0.4933868 -0.5067924 0.6667197 16711746
0.4723294 -0.3642705 0.5651416 16711746
9.9736242 -7.6396103 11.3935184 16711746
1.8364567 -0.2520188 1.0587053 16711746
0.6431186 -0.1790559 0.4933420 16711746
0.6582675 -0.1857567 0.4922630 16711746
0.4637108 -0.1732982 0.4112292 16711746
0.2827605 -0.0956528 0.3407282 16711746
0.4151358 -0.1627355 0.4541638 16711746
0.8564538 -0.3124956 0.6055304 16711746
8.8049011 -4.5540090 18.4401550 16711746
0.6432174 -0.2236112 0.9916596 16711746
0.5735290 -0.1617278 1.0976813 16711746
1.2336287 -0.9723315 2.3508995 16711746
0.3845595 -1.1191434 0.5908940 16711746
0.3298767 -0.4686101 0.8570108 16711746
1.6070623 -1.2893232 1.9496465 16711746
4.4379292 -8.4068594 5.6684008 16711746
-0.0547253 -0.5562365 0.6219629 16711746
0.2785057 -0.4831017 0.5814601 16711746
4.4508986 -5.6347399 3.8169022 16711746
0.3035389 -0.2922117 0.4871285 16711746
1.3627148 -0.6361817 0.4407512 16711746
0.7429737 -0.6360185 0.2733911 16711746
0.5309660 -0.3544778 0.4666970 16711746
1.7123377 -1.1717918 1.2911930 16711746
24.0305710 -11.8427715 5.1731873 16711746
0.5520913 -0.5303117 0.4306476 16711746
8.1320810 -7.9846539 5.2894621 16711746
0.3929161 -0.2646453 0.6889964 16711746
1.0510331 -0.7048905 2.1190064 16711746
9.6176596 -5.6191087 15.5475426 16711746
0.9172266 -0.0178697 0.7756708 16711746
0.1803929 -0.0032606 0.2525897 16711746
0.2022934 -0.0291608 0.2163903 16711746
0.2322565 -0.0085177 0.2355183 16711746
0.6393950 0.0128011 0.4185663 16711746
0.5507107 -0.1533728 0.6362346 16711746
0.3691797 -0.0546469 0.3508675 16711746
1.0144724 -3.4983556 6.4390874 16711746
0.2408265 -0.6849563 0.9755307 16711746
0.7784081 -1.6789910 4.7968593 16711746
0.6209725 -0.6458433 0.3934777 16711746
0.3527426 -0.4517764 0.3348922 16711746
0.3216225 -0.8200795 0.4827720 16711746
7.1329160 -11.5456276 4.1997576 16711746
2.7796676 -3.5387683 1.1916442 16711746
1.1071053 -0.4589030 0.5208080 16711746
0.9233670 -0.2438726 0.3510537 16711746
2.0740693 -1.6443946 1.5585535 16711746
19.3639793 -7.3659077 4.6234832 16711746
0.0835637 -0.7605723 0.5075417 16711746
0.0451090 -1.0925089 0.6851572 16711746
0.0486733 -0.7950107 0.3852514 16711746
-0.1594581 -0.9959514 0.4941676 16711746
0.0096776 -0.4479801 0.4649060 16711746
-0.1780404 -0.9450626 0.8343549 16711746
0.6523455 -0.8638152 0.4786847 16711746
7.9360042 -10.8755846 4.8300209 16711746
0.1347122 -0.3300270 0.4742216 16711746
1.1863716 -0.5711818 0.7678577 16711746
0.3879796 -1.0701739 0.7014830 16711746
0.0390132 -0.4866306 0.4541469 16711746
0.3248009 -0.4626482 0.2661282 16711746
0.2291089 -1.1037143 0.7179938 16711746
4.4112282 -7.3786750 5.6527448 16711746
0.2587102 -1.0297009 0.8075796 16711746
0.1513143 -0.6884227 0.5785456 16711746
0.1319874 -0.5810490 0.6224463 16711746
0.2440306 -0.1517209 0.3923067 16711746
0.4731538 -0.2994419 0.6589082 16711746
0.3699944 -0.2469355 0.5592757 16711746
0.6133481 -0.6596581 0.5849648 16711746
0.6704712 -0.7298635 0.3271839 16711746
4.1796546 -6.6527786 2.7384176 16711746
1.6465756 -5.5467091 6.9186616 16711746
0.3580795 -0.2750903 0.4296274 16711746
2.1649127 -1.7172239 1.4267637 16711746
3.9516466 -9.1348333 4.6095905 16711746
0.3612698 -0.8173461 0.4777591 16711746
0.6787112 -0.7616631 0.4121933 16711746
1.8089423 -1.2859703 0.5092210 16711746
2.1770277 -2.0407143 0.7156497 16711746
0.2981017 -0.3772020 0.5405520 16711746
1.3475133 -0.8005944 1.1716729 16711746
0.4797403 -0.3185676 0.4957964 16711746
0.6497061 -0.8637221 0.4972266 16711746
0.1988850 -1.1053417 0.7164276 16711746
0.3838002 -0.2887291 0.6038249 16711746
0.6791562 -0.4428746 0.5548777 16711746
2.1164818 -1.9591852 2.3063197 16711746
-0.0517810 -0.5993233 0.5944982 16711746
0.1729066 -0.4162900 0.6252660 16711746
0.1845370 -1.1172626 0.6868539 16711746
0.1060468 -0.5107992 0.3497150 16711746
3.7308881 -4.1760397 2.4981575 16711746
0.4817500 -0.1951636 0.5008249 16711746
1.9926037 -1.5922639 1.6702965 16711746
0.2613264 -0.5599120 0.3893798 16711746
4.3148060 -9.0533838 4.7604218 16711746
1.0384760 -0.3102731 0.3580355 16711746
4.7780433 -8.3024874 4.3180108 16711746
0.5199971 -1.0232060 0.6204388 16711746
0.6534700 -0.7525688 0.3000788 16711746
0.2544211 -0.5996196 0.5904005 16711746
2.4083226 -2.0544231 1.4746554 16711746
1.7273632 -1.1553303 1.1763312 16711746
0.1598638 -0.6098784 0.6100459 16711746
4.6721745 -8.3128929 5.3237801 16711746
0.4107982 -1.0420853 0.7172751 16711746
0.2718455 -0.4385314 0.4451379 16711746
0.9061027 -0.3823676 0.8010195 16711746
1.9459721 -1.5188752 0.3288520 16711746
1.9207100 -1.6253011 0.3938001 16711746
3.2113061 -3.5411041 3.3231447 16711746
0.3871520 -0.3810718 0.4810670 16711746
0.6977850 -0.6928710 0.3008198 16711746
0.5205029 -0.9807176 0.6648262 16711746
4.8486600 -8.2339506 4.6579070 16711746
2.7406671 -2.6308160 1.4584754 16711746
0.6813646 -0.6066402 0.3812067 16711746
1.5777799 -1.7031868 3.4781296 16711746
0.6535810 -0.7225907 0.5305012 16711746
0.3554214 -0.4157687 0.3419208 16711746
0.5738097 -0.7841290 0.6638955 16711746
1.3630210 -0.5652077 0.8084070 16711746
0.4290004 -0.6279848 0.5167589 16711746
1.9804969 -1.2510614 0.3067758 16711746
2.7834699 -2.9038396 2.9452765 16711746
1.1743960 -0.4849867 0.4553444 16711746
1.0953014 -0.5027062 0.7656005 16711746
16.0674076 -5.2688169 3.0262623 16711746
29.2846737 -16.1295757 3.8038912 16711746
0.3650028 -0.1936761 0.2234507 16711746
9.8456049 -9.0704145 14.5533390 16711746
0.3872760 -0.3149011 0.2684807 16711746
0.0982034 -0.6279796 0.6073008 16711746
23.3589439 -15.1764126 13.2534084 16711746
1.7218487 -1.1705878 1.2542263 16711746
22.9272747 -12.8719177 8.3461657 16711746
0.5099304 -0.2896029 0.6073570 16711746
1.3170375 -0.7255957 0.9841580 16711746
0.1325074 -0.3308056 0.4345909 16711746
8.0110159 -8.3199835 5.0330033 16711746
2.9217446 -2.8686366 1.7338009 16711746
0.6693123 -0.5436056 0.3817216 16711746
0.6685608 -0.5312107 0.3679478 16711746
0.2840391 -0.2798369 0.3244524 16711746
0.2944788 -0.7100271 0.5519251 16711746
0.2446619 -0.6659392 0.5778953 16711746
22.9238949 -20.2186985 17.1000328 16711746
0.6058181 -0.6058198 0.5724569 16711746
4.8230042 -6.9936934 4.5041060 16711746
0.6005344 -0.8808628 0.6101379 16711746
0.3811455 -0.6231391 0.5396303 16711746
0.3586479 -0.6534110 0.5460614 16711746
0.1975379 -0.9805785 0.8670354 16711746
1.3747909 -0.8157365 1.1421367 16711746
1.4783903 -0.9371055 1.2487289 16711746
0.6221412 -0.3984545 0.3471374 16711746
0.6161574 -0.8365198 0.5980524 16711746
0.6287010 -0.8427528 0.5728876 16711746
4.3119102 -7.8933096 5.8721480 16711746
0.5339409 -0.4646021 0.4214310 16711746
2.4429212 -2.2364681 1.0870523 16711746
3.2696383 -3.3864315 2.5231595 16711746
0.6300972 -0.7260422 0.5763726 16711746
0.2818161 -0.8168932 0.9182781 16711746
2.1156449 -1.4885488 0.9800135 16711746
0.1102355 -0.3391671 0.3547820 16711746
4.7946405 -7.1443553 4.7685008 16711746
27.3375034 -13.1334486 1.9506432 16711746
0.0653048 -0.6988776 0.5601968 16711746
0.3948996 -0.5352510 0.5282148 16711746
2.5820389 -3.6421864 5.0861168 16711746
4.9069414 -7.4558463 4.3315492 16711746
0.5883036 -0.9292843 0.6036921 16711746
0.5703702 -0.6649761 0.6474277 16711746
3.6457775 -4.1738539 3.5143859 16711746
0.0570801 -0.7180582 0.5409791 16711746
0.1098799 -1.0826200 0.7478603 16711746
0.0427755 -0.7251837 0.5274327 16711746
0.6786842 -0.6066530 0.4022822 16711746
0.6058621 -0.9534938 0.4453389 16711746
0.3160310 -0.8681660 0.4188857 16711746
2.7997658 -8.1746769 3.4721816 16711746
0.6779962 -1.4701120 0.7432176 16711746
0.4471769 -1.0981379 0.5518588 16711746
0.6510332 -0.3342396 0.2240326 16711746
1.7968432 -1.2534934 0.5673003 16711746
0.6629841 -0.4664858 0.3283782 16711746
0.6627288 -0.4821475 0.3146562 16711746
2.4514012 -2.3233473 2.3163218 16711746
0.4908007 -0.5539771 0.6988669 16711746
0.3734586 -0.4199860 0.5086224 16711746
0.5460880 -0.4311737 0.5302923 16711746
0.2615111 -0.5597888 0.5919243 16711746
0.1855559 -0.3599656 0.4011983 16711746
3.1503303 -6.5146546 6.6001081 16711746
8.9853601 -8.8827076 6.5008888 16711746
4.1264157 -5.0817556 3.9614446 16711746
0.9850156 -0.3212033 0.3998118 16711746
18.8520203 -16.0064240 21.7534599 16711746
-2.8731487 -3.4413109 3.6903014 16711746
19.6901665 -27.7485943 19.4079647 16711746
14.3733845 -13.2847528 19.7764130 16711746
