# .PCD v.7 - Point Cloud Data file format
VERSION .7
FIELDS x y z rgb
SIZE 4 4 4 4
TYPE F F F F
COUNT 1 1 1 1
WIDTH 64
HEIGHT 1
VIEWPOINT 0 0 0 1 0 0 0
POINTS 64
DATA ascii

 -0.0539857 0.0921384 2.4064617 16777215
 -0.0027749 0.0009166 0.0410114 16777215
0.4452145 -0.8670081 1.1766881 16711746
0.0320786 -0.5547962 0.9718339 16711746
0.0562308 0.0321599 -0.0650836 16711746
0.0613708 0.0299770 -0.0604086 16711746
-0.8442767 -1.0848273 2.0825582 16711746
1.8402478 1.5917665 -2.8008530 16711746
-0.0842072 -0.9810103 2.4473224 16711746
-0.2308367 -1.3234917 3.1187298 16711746
0.3114527 -0.4793180 1.0684952 16711746
-0.0058097 -0.3829795 0.8003700 16711746
0.2190602 -0.3293804 0.2034663 16711746
-0.7212753 -2.2576687 1.0802956 16711746
0.3958382 -1.0090935 1.1309963 16711746
0.7263969 -1.8988206 2.0630338 16711746
-0.1474718 -0.6358657 0.3572689 16711746
0.9007815 -1.7191694 2.2013552 16711746
-0.9533497 -2.8471963 1.5531341 16711746
-0.2723247 -1.3074409 0.8618974 16711746
0.3430090 -0.4431000 0.4302948 16711746
0.1256615 -0.2706123 0.3312771 16711746
0.3760390 -0.4339860 0.3828194 16711746
0.2633826 -0.7265324 0.2960565 16711746
-0.2398625 -1.6224076 1.3673092 16711746
-1.2409036 -3.1498604 1.5278212 16711746
-1.0624325 -2.1815441 1.3147001 16711746
-0.7308060 -1.3638417 0.6055529 16711746
-0.1468730 -0.5033299 0.2562717 16711746
-0.1568638 -0.8903725 0.5441265 16711746
-0.0381661 -0.8437809 0.3388544 16711746
-0.3527715 -1.1249126 1.0973880 16711746
-0.7603300 -1.1085680 0.7566828 16711746
-0.1152738 -0.4347608 0.4431588 16711746
0.4206847 -0.8243066 1.1832930 16711746
0.0347895 -0.3885042 0.5191482 16711746
0.2679109 -0.4354549 0.4919810 16711746
0.1454936 -1.4766976 0.5791069 16711746
0.1331837 -1.3822523 0.5195286 16711746
0.0831857 -0.3992768 0.4789251 16711746
-0.5291384 -0.5327321 0.5374724 16711746
0.3826443 -0.2789465 0.4853354 16711746
0.1733982 -0.2941442 0.3057064 16711746
-0.8397542 -3.1064951 1.4864964 16711746
-0.9666620 -2.7260447 1.3298185 16711746
0.7332792 -2.7780786 2.2436693 16711746
0.2279743 -0.9782988 1.0346895 16711746
-0.5953599 -2.9175134 1.4449837 16711746
0.1034030 0.0969109 -0.1599006 16711746
0.0525545 -1.8494489 1.2640506 16711746
0.1828058 -0.2328787 0.1984208 16711746
0.2302442 -0.4607947 0.4671676 16711746
0.1968845 -0.4598351 0.4656107 16711746
-0.4211198 -1.8153094 0.8574935 16711746
-0.8660668 -3.0132596 1.2520099 16711746
0.2166061 -0.2466980 0.3103722 16711746
0.2067130 -0.2426743 0.3191478 16711746
-30.0919361 -26.5073376 53.9276276 16711746
2.1581633 -78.4817734 51.9124031 16711746
1.5534403 -2.5008292 3.9328573 16711746
169.0980988 -448.0488281 227.6342621 16711746
23.3344612 -58.5708847 55.8723984 16711746
175.4649811 -806.5658569 561.9098511 16711746
2.0493238 -2.7154849 4.2528491 16711746
