# .PCD v.7 - Point Cloud Data file format
VERSION .7
FIELDS x y z rgb
SIZE 4 4 4 4
TYPE F F F F
COUNT 1 1 1 1
WIDTH 69
HEIGHT 1
VIEWPOINT 0 0 0 1 0 0 0
POINTS 69
DATA ascii

 -0.0557750 0.0921720 2.4727294 16777215
 0.0033670 -0.0029765 0.0622360 16777215
0.4173214 -0.1483332 0.2984260 16711746
1.7169083 -3.3244789 4.2132454 16711746
0.6851237 -1.5621712 1.9869692 16711746
1.0492376 -0.4116494 0.6654454 16711746
0.4422938 -0.2893187 0.5979787 16711746
1.9376228 -1.9875605 2.4615061 16711746
0.5066113 -0.3806354 0.5401075 16711746
2.9116437 -2.0967276 2.4721000 16711746
0.8005905 -0.6683950 0.9579400 16711746
1.1276467 -1.1181266 1.5066564 16711746
0.7008748 -0.5015574 0.7210370 16711746
0.5619789 -1.0320119 1.2615079 16711746
0.6492485 -1.3591312 1.5786886 16711746
0.6053858 -0.3033006 0.5886805 16711746
0.6819158 -0.2455737 0.5881293 16711746
0.3547837 -0.1647612 0.6939031 16711746
0.4827988 -0.1169169 0.6818683 16711746
0.4656236 -0.1336118 0.6367202 16711746
0.5358158 -0.3866673 0.9785565 16711746
0.4743089 -0.1908978 0.5830367 16711746
0.3268073 -0.2079523 0.6049473 16711746
0.7385710 -0.2609584 0.9418220 16711746
0.8192660 -0.2908326 0.8857129 16711746
0.8011364 -0.3001174 0.8629795 16711746
0.6440712 -0.1093502 0.6467012 16711746
0.8175124 -3.8016727 6.4776311 16711746
-0.3851864 -0.9170917 1.3908168 16711746
2.7980182 -2.3147032 2.4602866 16711746
0.7335917 -0.9143254 0.7517900 16711746
1.6573426 -3.5681419 3.2262907 16711746
0.0887343 -0.1001083 0.1376153 16711746
0.2371092 -1.7624091 1.9900838 16711746
0.6955742 -2.7245588 3.2341924 16711746
0.7172538 -0.4491998 0.8172374 16711746
0.8027813 -0.5686013 0.9522641 16711746
0.4078029 -0.3069896 0.5835015 16711746
0.5805530 -0.3205344 0.5786564 16711746
0.4178080 -0.2141612 0.5099025 16711746
0.3686995 -4.9106398 3.7358806 16711746
-0.4295734 -1.1127502 1.7986445 16711746
0.2084279 -1.0272918 1.4444165 16711746
0.7325765 -2.3346426 2.9481246 16711746
-0.3270632 -3.1415353 3.5236120 16711746
-0.3285802 -0.3125460 0.9674447 16711746
-0.0369591 -0.2866812 0.8206791 16711746
-0.0047017 -0.5608047 1.1341439 16711746
-0.0402454 -0.4410070 0.8630971 16711746
-0.1976368 -0.3886510 0.9513866 16711746
0.7856573 -2.7047029 2.8327055 16711746
0.6682218 -3.3063629 3.4224284 16711746
0.3116304 -0.6891590 0.5789857 16711746
0.9958741 -2.9440768 2.4205773 16711746
0.2610695 -0.9299409 0.7354509 16711746
0.7588484 -0.6812758 0.8787010 16711746
0.0568578 -0.0592016 0.1107390 16711746
0.1747270 -0.2021959 0.2284567 16711746
0.3656189 -0.2320381 0.4553201 16711746
0.3853256 -0.2201474 0.4680407 16711746
0.6758357 -0.3885339 0.7382535 16711746
-0.1013233 0.1148135 -0.0219007 16711746
0.2933806 -0.6199693 0.8704333 16711746
4.7658167 -9.4613647 10.3766394 16711746
48.2130051 -32.1946754 58.2062263 16711746
2.1488681 -3.3124602 4.2171116 16711746
20.1723099 -33.5598526 46.3660774 16711746
41.6846390 -81.7576523 59.4658699 16711746
37.8589058 -84.8780212 55.5733719 16711746
