# .PCD v.7 - Point Cloud Data file format
VERSION .7
FIELDS x y z rgb
SIZE 4 4 4 4
TYPE F F F F
COUNT 1 1 1 1
WIDTH 77
HEIGHT 1
VIEWPOINT 0 0 0 1 0 0 0
POINTS 77
DATA ascii

 -0.0323800 0.1080768 4.7030225 16777215
 0.0042008 -0.0000995 0.0544983 16777215
0.3686032 -0.1230443 0.5692692 16711746
0.4208219 -0.1001011 0.6024688 16711746
0.2990634 -0.2033989 0.6287543 16711746
0.6289675 -0.4019502 0.9253859 16711746
0.6126004 -0.2989997 0.7036654 16711746
0.6367069 -0.3857492 0.9516746 16711746
0.6636918 -0.2604151 0.7704037 16711746
0.4807061 -0.4012755 0.8803914 16711746
0.5268939 -0.4215597 0.8701628 16711746
2.7954984 -1.6613178 1.7906936 16711746
2.4023221 -1.5459058 1.6186657 16711746
0.6622900 -0.5215704 0.7564846 16711746
0.6023183 -0.5294441 0.7463974 16711746
0.6589918 -0.5297090 0.7435509 16711746
1.4946477 -1.3930928 1.1711149 16711746
0.5154276 -0.3692421 0.6012680 16711746
0.7769192 -0.5129089 0.7806230 16711746
0.7374504 -0.5126854 0.7761200 16711746
1.2536174 -0.2124018 0.5572310 16711746
0.6900199 -0.3468362 0.6399245 16711746
0.9133824 -0.3620995 0.6375394 16711746
1.4059488 -0.3251128 0.8357258 16711746
1.0457609 -0.3309532 0.7359172 16711746
1.0416207 -0.5639418 0.7147001 16711746
0.9511505 -0.5349055 0.7656204 16711746
3.7745519 -1.2748964 1.8240978 16711746
0.4911180 -0.1903012 0.6914104 16711746
0.7476225 -0.2272179 0.6699333 16711746
0.7472693 -0.2846120 0.7554190 16711746
0.8187287 -0.1506912 0.5385314 16711746
0.7551159 -0.2704813 0.7805468 16711746
0.1237408 -0.1600221 0.6063613 16711746
0.1168586 -0.1713450 0.5992347 16711746
1.4697840 -0.6449802 0.6532947 16711746
1.1056627 -0.3621257 0.6714477 16711746
0.8576887 -0.4215825 0.4862380 16711746
0.7621450 -0.5389022 0.7276693 16711746
2.5089197 -1.1899244 1.0373864 16711746
0.6322377 -0.5690113 0.6840462 16711746
0.8302492 -0.4265828 0.4729223 16711746
0.4507675 -0.5745586 0.4537869 16711746
0.8561207 -0.4668057 0.8922417 16711746
0.6660530 -0.5664365 0.6819795 16711746
0.7473315 -0.4818148 0.8334353 16711746
1.1122313 -0.4234825 0.4778830 16711746
0.7362993 -0.4454150 0.8936478 16711746
0.4229139 -0.4755146 0.8062032 16711746
0.7433971 -0.4618378 0.8675812 16711746
0.7950374 -0.4773375 0.8530694 16711746
2.1222699 -0.7173822 0.5541868 16711746
1.1269910 -0.5385792 0.8144066 16711746
22.7630978 -36.4962196 18.8141766 16711746
22.9444504 -50.8124123 59.2348518 16711746
-82.7604218 -70.9784775 103.6035843 16711746
35.9597855 -83.8266144 90.1203003 16711746
-40.5176125 -34.4910355 50.7097855 16711746
108.4495544 -124.2129898 106.2418594 16711746
31.1509018 -44.0308609 43.6904984 16711746
21.0960140 -63.8300858 53.4895401 16711746
27.0775776 -82.4563904 69.0358582 16711746
69.9335175 -86.8767319 112.0237732 16711746
-92.7180862 -82.6956482 106.9963379 16711746
28.4362335 -40.2685966 40.5994110 16711746
20.4071827 -48.4219589 50.4710083 16711746
29.6529179 -152.8784485 134.6841736 16711746
30.5918713 -110.8284760 104.0051498 16711746
61.0875854 -139.4252777 111.6551132 16711746
61.9579048 -107.6913300 83.2688828 16711746
0.4505995 -47.5230408 112.7997360 16711746
59.9802704 -135.1668854 122.4380341 16711746
51.3393402 -63.4011002 96.0661240 16711746
71.5696869 -71.1368713 81.5465164 16711746
57.8278885 -62.2585449 66.6074677 16711746
133.5845642 -112.0431290 92.8035278 16711746
169.7230072 -91.7607651 10.4699059 16711746
