# .PCD v.7 - Point Cloud Data file format
VERSION .7
FIELDS x y z rgb
SIZE 4 4 4 4
TYPE F F F F
COUNT 1 1 1 1
WIDTH 74
HEIGHT 1
VIEWPOINT 0 0 0 1 0 0 0
POINTS 74
DATA ascii

0.8379759 -0.8778294 0.2295121 16711746
0.3961017 -0.7939715 0.3850333 16711746
0.1891127 -0.8035458 0.6750889 16711746
-0.1762487 -0.8198906 0.8316641 16711746
-0.1913234 -0.6335814 0.6074374 16711746
-0.0699544 -0.5805768 0.4220891 16711746
-0.0871368 -0.8723190 0.5981617 16711746
1.5237058 -1.4867958 1.1643498 16711746
1.0917668 -1.9630059 1.3038654 16711746
0.2572570 -0.6193990 0.3601468 16711746
3.7813053 -2.7358754 2.5741222 16711746
0.7446947 -1.2124779 0.9534869 16711746
0.2779408 -0.5749350 0.2409398 16711746
0.2871872 -0.6738924 0.2832011 16711746
1.6477184 -1.5635703 1.0236104 16711746
0.8321254 -1.0108548 0.6073173 16711746
1.3011563 -1.2504206 1.7166768 16711746
0.5406536 -0.8314487 0.4058188 16711746
0.3869031 -0.8544322 0.3342390 16711746
0.3755346 -0.7038954 0.2856408 16711746
1.9284936 -2.5104365 1.9688969 16711746
25.6686668 -11.5380411 9.0754719 16711746
3.6670558 -2.0860145 1.4191647 16711746
0.0774081 -0.5595219 0.3435484 16711746
0.1116602 -0.5755019 0.3227231 16711746
-0.2519372 -0.5887834 0.6355828 16711746
0.0719262 -0.8010313 0.6540826 16711746
-0.0120387 -0.5030509 0.3857890 16711746
1.5838964 -2.0424082 1.9893019 16711746
1.6611072 -1.7781973 0.8028582 16711746
0.6687853 -0.7300437 0.3343639 16711746
0.5431698 -0.8082931 0.5022318 16711746
0.5734686 -0.7827135 0.4595863 16711746
1.0784265 -1.6295162 1.5296687 16711746
0.4902073 -0.7869641 0.7357950 16711746
0.1584422 -0.4772530 0.1842896 16711746
0.8491300 -1.1987522 1.7127401 16711746
0.9385454 -1.5007070 2.1189685 16711746
0.6777664 -0.9960070 0.7060812 16711746
0.5619507 -0.8995991 0.7547214 16711746
0.5096682 -1.0462788 0.6519097 16711746
0.7648192 -0.8789614 0.3603267 16711746
-0.0717525 -0.5745956 0.4309869 16711746
0.8251454 -0.9405746 0.2047431 16711746
0.3931693 -0.6347400 0.3513998 16711746
0.6946803 -1.2147503 0.6403154 16711746
0.6938666 -1.2343440 0.6315808 16711746
0.0561926 -0.6470932 0.4220306 16711746
0.0129276 -0.5630831 0.3786995 16711746
0.0723688 -0.4697851 0.3532706 16711746
0.0774146 -0.5150276 0.3788587 16711746
0.9169208 -1.5582119 1.5537372 16711746
0.1571167 -1.2533369 1.3759413 16711746
0.0623491 -1.4434659 1.5886077 16711746
0.2515226 -0.5622010 0.2788592 16711746
1.1713009 -1.0647860 0.4484196 16711746
0.3907375 -0.7484916 0.4100584 16711746
-0.0967444 -0.5177796 0.4426612 16711746
-0.0859731 -0.6214010 0.5194765 16711746
0.0841327 -0.7174913 0.6255044 16711746
-0.0060471 -0.7488110 0.5087547 16711746
0.2741420 -1.3985456 1.6491259 16711746
0.1670772 -0.8193856 0.9447713 16711746
0.2072350 -1.3210915 1.4929234 16711746
-0.0160956 -0.6313518 0.4232668 16711746
0.6473053 -0.6713123 0.2070018 16711746
26.4661255 -12.9811277 6.7777824 16711746
5.1028466 -3.1128032 1.5471195 16711746
0.0554623 -0.8255748 0.4803101 16711746
-0.0723560 -0.7307729 0.9124711 16711746
-0.3011128 -1.2134905 1.1223698 16711746
4.2577085 -7.0555921 10.1541080 16711746
7.0621610 -17.7955685 15.9329348 16711746
5.7034135 -9.5642395 12.3993950 16711746
