# .PCD v.7 - Point Cloud Data file format
VERSION .7
FIELDS x y z rgb
SIZE 4 4 4 4
TYPE F F F F
COUNT 1 1 1 1
WIDTH 206
HEIGHT 1
VIEWPOINT 0 0 0 1 0 0 0
POINTS 206
DATA ascii

 -0.0852486 0.1204898 2.8449275 16777215
 -0.0008776 0.0077005 0.1165472 16777215
0.0589800 -0.4389059 0.9356373 16711746
-0.0248274 -0.4883905 1.0516663 16711746
-0.0441056 -0.3137604 0.7892489 16711746
0.0351562 -0.2285337 0.6561561 16711746
0.5576068 -0.6256047 0.4326946 16711746
0.2045339 -0.5255942 0.3873368 16711746
0.6149331 -1.0841689 0.6588556 16711746
0.3388362 -1.0045660 0.4270195 16711746
0.6711256 -1.1628765 0.5051425 16711746
1.7034104 -1.5110481 1.3274783 16711746
5.9200950 -5.8189921 5.7970109 16711746
7.3367147 -5.2582560 5.2015123 16711746
0.4775148 -0.7748471 0.8909875 16711746
0.1787102 -0.5159926 0.5306931 16711746
0.2051653 -0.6758748 0.6587449 16711746
0.2033900 -0.8048862 0.6950442 16711746
0.3352881 -0.5889580 0.6190293 16711746
0.2162922 -0.4508729 0.4083642 16711746
-0.0658013 -0.3876418 0.4238085 16711746
1.3802009 -1.6664582 1.3796750 16711746
1.1347281 -1.4445359 1.2285666 16711746
3.0323977 -4.1281466 3.1622112 16711746
1.1076702 -2.7286189 2.0923693 16711746
0.3116831 -0.8077769 0.7126847 16711746
0.2194552 -0.8146629 0.4088297 16711746
-0.1476952 -0.4915072 0.3581023 16711746
-0.1530346 -0.4359346 0.3313820 16711746
-0.1887283 -0.2246008 0.4860953 16711746
-0.0300886 -0.6288660 0.3452851 16711746
0.0277216 -0.7103227 0.5051536 16711746
0.6760034 -0.8947865 0.6855325 16711746
4.3535752 -1.8278430 2.5291100 16711746
0.2166655 -0.5700095 0.7276136 16711746
0.0442275 -0.2480335 0.3456495 16711746
0.3937380 -0.7721964 1.1331793 16711746
1.5564723 -1.1693529 1.5389129 16711746
2.2113030 -2.0454457 1.9597038 16711746
0.3749678 -0.6265859 0.5413122 16711746
0.2811430 -0.5165365 0.6175915 16711746
0.4804775 -0.8283510 0.8750197 16711746
-0.2400119 -0.5757250 0.4475552 16711746
4.4157577 -3.3105001 5.4652562 16711746
0.4735622 -0.3810386 0.7288004 16711746
3.9864542 -3.2821107 5.1864729 16711746
-0.1786486 -0.2625746 0.4952891 16711746
1.8430134 -3.3003922 1.9865555 16711746
0.2718004 -0.5439744 0.4321017 16711746
0.5724782 -0.7095680 0.6088212 16711746
4.0762782 -4.1375227 2.6915829 16711746
3.7304711 -3.8691759 2.5671453 16711746
6.2162971 -6.5550075 4.0322962 16711746
0.6911796 -1.2584443 1.1058263 16711746
5.2679405 -6.0340071 5.3853240 16711746
3.2015078 -3.7559195 3.4627237 16711746
0.5337587 -0.6167165 0.6337949 16711746
1.7571735 -3.8675635 4.2993503 16711746
3.0117943 -6.4564552 6.9057660 16711746
1.7012969 -1.6692958 1.6327516 16711746
-0.1569792 -0.3561179 0.2706279 16711746
0.3997362 -0.7139625 0.5984178 16711746
0.0605470 -0.5031793 0.3541529 16711746
1.5302293 -0.9762986 0.7956143 16711746
0.5632862 -0.9194424 0.6003547 16711746
3.8634882 -4.2235708 6.6455364 16711746
0.4115258 -1.2500737 1.2658890 16711746
1.5951471 -0.8799610 1.4944414 16711746
-0.0848834 -0.4123313 0.3069181 16711746
-0.0923054 -0.4055483 0.2954077 16711746
-0.0773823 -0.2819056 0.2393095 16711746
-0.0613804 -0.5178431 0.3361765 16711746
0.0567514 -0.3552963 0.4640873 16711746
0.2181694 -0.6471078 0.6911198 16711746
4.2215166 -4.2964349 6.9071903 16711746
1.1238506 -1.1698389 1.8528608 16711746
0.5374731 -0.4676579 0.6761341 16711746
6.5675125 -5.5339775 7.7385092 16711746
0.4248070 -0.8158530 0.9685853 16711746
3.0510705 -6.5571737 8.4331999 16711746
0.6589270 -0.9742025 0.6372401 16711746
0.7155343 -0.9427127 0.6864368 16711746
5.4212594 -7.5653391 4.6882067 16711746
4.0729547 -5.6947441 3.3495533 16711746
3.2678754 -3.4907544 1.3419445 16711746
0.6466694 -0.6928028 0.3390330 16711746
0.1873864 -0.7091008 0.6128092 16711746
-0.0398917 -0.3444130 0.3978401 16711746
0.1854127 -0.5271966 0.5294913 16711746
0.2152574 -0.7036751 0.6547148 16711746
0.4795456 -1.1239198 1.4048516 16711746
-0.2348576 -0.2739396 0.3534142 16711746
0.0042722 -0.4346955 0.8415416 16711746
0.0475020 -0.3442836 0.6420144 16711746
0.2518141 -0.9254869 1.0964521 16711746
0.1151741 -0.4254626 0.6834942 16711746
0.0288067 -0.3059227 0.5198449 16711746
11.6035795 8.8444347 -19.3550797 16711746
1.4300476 -2.5925066 7.6323633 16711746
0.3593296 -1.9040805 4.6568575 16711746
-0.0541898 -0.2101520 0.7756913 16711746
0.3409964 -0.8939034 1.8136891 16711746
0.1728890 -0.7742071 1.4749049 16711746
-0.0571215 -0.3306113 0.7608961 16711746
0.1666435 -0.6013451 0.6539801 16711746
0.9079157 -1.2694888 1.0893570 16711746
0.4748639 -0.7086385 0.6519554 16711746
-0.0636587 -0.3100153 0.3164067 16711746
1.8474363 -2.8864057 1.2612019 16711746
-0.0172536 -1.1159509 0.5661740 16711746
0.5976822 -0.6890551 0.3975933 16711746
-0.0892878 -0.3959689 0.3452493 16711746
-0.1312278 -0.5482841 0.4375485 16711746
-0.1305835 -0.6042916 0.4499791 16711746
0.3111250 -0.6806493 0.7752382 16711746
0.9421839 -1.4536558 1.0548302 16711746
2.3266754 -3.7215085 2.5763779 16711746
3.6741829 -3.6904235 1.5447557 16711746
2.7748959 -2.9986753 1.2550422 16711746
1.5830612 -1.1334510 0.7828560 16711746
0.1493484 -0.7831256 0.9679410 16711746
-0.0263795 -0.2973200 0.2909879 16711746
0.3962015 -1.1335043 0.8007296 16711746
0.0578670 -1.0882771 0.6164700 16711746
0.0433388 -0.7118295 0.4207316 16711746
6.5510154 -6.3685832 7.3753986 16711746
3.8431108 -4.4274883 4.9330263 16711746
0.5119089 -0.7489020 1.0687178 16711746
6.3102450 -5.7861404 7.5427613 16711746
4.3099241 -5.2554698 6.6785307 16711746
5.9542537 -3.6798182 8.0452375 16711746
1.1703364 -0.8106962 1.8539634 16711746
0.1043200 -0.4537774 0.7580985 16711746
0.5361807 -0.9678223 1.5166810 16711746
0.1705876 -0.4109499 0.7436858 16711746
0.1849732 -0.4795979 0.9365124 16711746
0.0289844 -0.6321683 1.1732074 16711746
7.4253764 -7.2808490 3.8822131 16711746
0.1534207 -0.3862856 0.4187421 16711746
4.4105940 -3.9083397 2.9844236 16711746
0.5874784 -0.5270669 0.4841586 16711746
-0.1803454 -0.2502062 0.2875075 16711746
1.6331198 -1.3848038 0.6992655 16711746
0.7953829 -1.1032846 0.6556249 16711746
6.2296629 -8.7842875 4.2365718 16711746
0.4099850 -0.5361486 0.6112511 16711746
0.7136158 -0.9826828 1.0172274 16711746
2.4887755 -1.6828698 0.9051267 16711746
0.9944557 -0.6902159 0.4265821 16711746
6.8247747 -5.1133013 7.9809785 16711746
4.6184006 -3.7576737 5.5684538 16711746
0.7508042 -0.5304072 0.7129354 16711746
-0.1157832 -0.2859868 0.2347797 16711746
0.2639323 -0.4168149 0.2314850 16711746
0.4489048 -0.7840651 0.3473025 16711746
-0.1065543 -0.3463193 0.2792341 16711746
0.1435450 -0.4260207 0.6280908 16711746
0.8277587 -1.6187532 1.4589776 16711746
0.0075931 -0.6928912 0.4516683 16711746
-0.1946725 -0.1914614 0.2998685 16711746
-0.2335182 -0.3733153 0.3439689 16711746
0.2907778 -0.5512676 0.6067258 16711746
0.2414111 -0.4799189 0.5411481 16711746
0.9033390 -1.1116425 0.7085000 16711746
0.9490693 -1.1686275 0.7082676 16711746
0.5152085 -0.7743511 0.6463006 16711746
1.0867990 -2.3181057 2.9677973 16711746
0.2727785 -0.5623831 0.7856769 16711746
0.4107099 -0.4031045 0.3401291 16711746
-0.1402481 -0.5173824 0.4012422 16711746
-0.0016732 -0.6645653 0.4477209 16711746
0.4339729 -0.4710959 0.1966652 16711746
0.2512801 -0.6558695 0.5000270 16711746
-0.1469117 -0.8929268 0.8790405 16711746
0.3356884 -0.7397084 0.7738305 16711746
1.1077510 -2.4060440 2.1678112 16711746
-0.0638067 -0.4956071 0.3771031 16711746
-0.0753110 -0.4671675 0.3352114 16711746
-0.0722659 -0.4792219 0.3303776 16711746
-0.1268956 -0.6805073 0.4127745 16711746
-0.2379958 -0.5675347 0.4793081 16711746
-0.1772762 -0.2684853 0.2835929 16711746
0.0682435 -0.3300450 0.3940881 16711746
0.0233302 -0.4776405 0.6087644 16711746
0.3657332 -0.7167759 0.8130499 16711746
5.0827327 -5.2513342 5.5525990 16711746
0.6912463 -0.8120444 0.7224922 16711746
4.4733939 -5.3763280 3.7736065 16711746
0.2945003 -0.6220002 0.5685806 16711746
-0.1637728 -0.3882105 0.3251664 16711746
-0.1571317 -0.3701612 0.2894562 16711746
-0.2210020 -0.4359019 0.3177066 16711746
-0.1007496 -0.3648241 0.2624056 16711746
-0.1521062 -0.2270309 0.2100084 16711746
0.2363938 -1.3681586 0.5665417 16711746
0.2930704 -1.4742658 0.6359088 16711746
0.1608185 -0.7209940 0.3956967 16711746
-0.1281071 -0.7261064 0.3714044 16711746
0.0068195 -0.4772626 0.2908958 16711746
14.6858683 -4.3923326 6.2611856 16711746
925.5324097 -1491.5472412 1479.8208008 16711746
44.1587639 -45.3847733 70.5415115 16711746
21.6260948 -48.5230637 47.7289886 16711746
15.8491125 -81.5553970 97.0554123 16711746
29.9110737 -21.3689003 53.5640411 16711746
65.4028473 -48.0508385 71.7963028 16711746
