# .PCD v.7 - Point Cloud Data file format
VERSION .7
FIELDS x y z rgb
SIZE 4 4 4 4
TYPE F F F F
COUNT 1 1 1 1
WIDTH 80
HEIGHT 1
VIEWPOINT 0 0 0 1 0 0 0
POINTS 80
DATA ascii

0.8511393 -0.8600905 0.8725011 16711746
0.3735056 -0.5263041 0.6560395 16711746
0.3145722 -0.7221694 0.7149342 16711746
0.9808383 -0.5972493 1.0322431 16711746
0.5618958 -0.3717602 0.7220061 16711746
0.7106767 -0.4846881 0.9020597 16711746
1.9001155 -0.8701278 1.1320189 16711746
0.2065684 -0.5730098 0.7333280 16711746
0.1288484 -0.6356069 0.7068560 16711746
0.4632303 -0.4555889 0.8522934 16711746
0.4338068 -0.4446692 0.8290492 16711746
0.2668317 -0.5379535 0.6675441 16711746
-0.0270973 -0.1867067 0.5979977 16711746
0.0681800 -0.3099684 0.6941310 16711746
0.0891633 -0.3635679 0.9077569 16711746
0.1418712 -0.3227213 0.8182746 16711746
-0.0906942 -0.5105509 0.4209426 16711746
0.9653287 -0.7360532 1.1721243 16711746
0.0996728 -0.5971198 0.6912009 16711746
7.4793477 -2.7517338 5.0733104 16711746
1.4009374 -0.4177644 1.8303424 16711746
0.6004015 -0.1215196 0.8325418 16711746
0.2670482 -0.2603101 0.8898090 16711746
0.4628554 -0.2882256 1.1347133 16711746
0.1632994 -0.1618091 0.6806030 16711746
0.2509640 -0.2264578 0.8807957 16711746
0.1929364 -0.2438425 0.9453052 16711746
0.9948791 -0.3899469 1.1770164 16711746
0.5701601 -0.3466114 1.0421625 16711746
0.8971165 -0.4408591 1.3348038 16711746
0.3001175 -0.4112446 1.0479584 16711746
1.9313463 -0.5486100 1.8070718 16711746
1.3015940 -0.5125660 1.3643891 16711746
0.8338711 -0.7993799 0.9379995 16711746
0.1680276 -0.6927423 0.7115845 16711746
0.5964866 -0.8455466 0.8122470 16711746
1.9595829 -0.8701544 1.2433112 16711746
0.1827765 -0.6590952 0.8537709 16711746
0.1895980 -0.6186929 0.6182207 16711746
0.6269060 -0.3945796 0.7275310 16711746
0.8768328 -0.5574430 0.9744354 16711746
0.7002430 -0.5155253 0.8657219 16711746
0.9438247 -0.6794252 1.1949385 16711746
0.7531627 -0.5194675 1.1078060 16711746
0.5843781 -0.5069036 0.9486455 16711746
0.8961726 -0.4744465 1.0675359 16711746
1.8181961 -0.4551151 1.8509151 16711746
-0.2659929 -0.3732879 0.5644352 16711746
-0.1806553 -0.4155615 0.4962697 16711746
0.0258126 -0.4340611 0.7197870 16711746
0.1909645 -0.4737490 0.7870859 16711746
0.1669538 -0.5387855 0.9498098 16711746
0.1014410 -0.5777042 0.7469569 16711746
0.0795136 -0.5696610 0.6829525 16711746
0.0350869 -0.5911959 0.8008234 16711746
0.1521918 -0.4979455 0.6952617 16711746
-0.2678466 -0.2610297 0.5962898 16711746
0.0616595 -0.2478445 0.7251314 16711746
0.1342897 -0.2637934 0.9965431 16711746
0.7786867 -0.4435733 0.9885605 16711746
0.3554066 -0.6170415 0.9707847 16711746
0.3093024 -0.5790419 0.8980073 16711746
0.4359624 -0.4548308 0.8206320 16711746
0.3615211 -0.4870382 0.8797809 16711746
0.4608779 -0.4163189 0.8808020 16711746
0.7846530 -0.7853697 1.2140238 16711746
0.7270272 -0.6750385 0.9506916 16711746
1.6615832 -1.0878700 1.6763604 16711746
1.0392435 -0.8077016 1.1900971 16711746
17.3730335 -4.1652555 11.5004816 16711746
0.8600125 -0.3310986 1.3331369 16711746
0.5985808 -0.1896844 0.9526928 16711746
-0.8135602 -17.3742638 40.8088188 16711746
16.2020817 -58.6010361 52.9691505 16711746
65.0190430 -152.3817291 104.6845169 16711746
-0.3151821 -9.4904795 31.3668900 16711746
9.8652067 -29.1159267 44.9357414 16711746
22.8946075 -54.1106415 56.7117538 16711746
-0.0220467 -8.9884634 26.7135296 16711746
51.6678886 -91.8424149 52.3463974 16711746
