# .PCD v.7 - Point Cloud Data file format
VERSION .7
FIELDS x y z rgb
SIZE 4 4 4 4
TYPE F F F F
COUNT 1 1 1 1
WIDTH 146
HEIGHT 1
VIEWPOINT 0 0 0 1 0 0 0
POINTS 146
DATA ascii

 -0.0665528 0.0178640 1.0864573 16777215
 0.0093539 0.0071215 0.0350020 16777215
0.0470945 -0.9236813 0.5086325 16711746
0.1195935 -0.8169240 0.4210939 16711746
0.2315849 -0.8055086 0.5153303 16711746
-0.1453371 -0.9178980 0.5594119 16711746
0.0657636 -0.9360788 0.4138229 16711746
-0.4240033 -0.9593073 0.6857646 16711746
-0.3700975 -1.1431791 0.7687184 16711746
-0.2139021 -0.8519201 0.7967098 16711746
0.7079090 -0.7304000 0.4887403 16711746
0.5410672 -0.5926114 0.3980685 16711746
0.7430630 -0.6381614 0.2512764 16711746
-0.1486822 -0.9794626 1.3469270 16711746
0.8935552 -0.5307505 0.5350465 16711746
0.5324138 -0.7899551 0.6081548 16711746
0.3182372 -0.6205356 0.5764232 16711746
-0.4077042 -1.0833144 0.6899189 16711746
-0.4299996 -1.1020677 0.6734145 16711746
-0.0566233 -0.8999444 0.5604506 16711746
0.6477448 -0.6073525 1.0202408 16711746
0.8071898 -0.6983718 1.0770944 16711746
0.5647630 -0.4320088 0.8313711 16711746
0.8790398 -0.4398018 0.9563668 16711746
0.4025328 -0.6515085 0.9327028 16711746
0.4608395 -0.5298160 0.9972138 16711746
0.7535927 -0.6833029 0.8563362 16711746
0.5871230 -0.5116404 0.7654381 16711746
0.5333304 -0.5508885 0.7192402 16711746
0.4784850 -0.7102359 0.8016719 16711746
0.9823095 -0.3973728 0.5366575 16711746
0.7062115 -0.2829514 1.0150695 16711746
0.6473070 -0.2047721 0.9836541 16711746
0.4118219 -0.4492176 1.2543492 16711746
0.5302045 -0.3800572 1.1226248 16711746
0.6036989 -0.4140950 0.9667515 16711746
0.6810549 -0.4117982 0.9509413 16711746
0.7089234 -0.3499617 0.9250235 16711746
0.7319134 -0.3230197 1.0307442 16711746
0.8165488 -0.2674194 0.8987018 16711746
0.5292412 -0.4501968 1.0071156 16711746
0.5394326 -0.5850325 1.1987579 16711746
0.4443655 -0.4736702 1.2287356 16711746
1.0359532 -0.2800564 0.9350308 16711746
0.9402710 -0.3300574 0.9343644 16711746
-0.6391423 -0.8353973 0.9887291 16711746
0.0674019 -0.6774965 1.0677882 16711746
0.0806553 -0.6707200 0.7415951 16711746
0.0411092 -0.7848911 1.0353311 16711746
0.2370610 -0.8557850 0.5694690 16711746
0.5181059 -0.7848336 0.7417149 16711746
0.6401862 -0.6985947 0.4098301 16711746
0.3905336 -0.6647700 0.5953971 16711746
0.5621946 -0.7706759 0.5888072 16711746
0.2032509 -0.8384339 0.4000775 16711746
0.4668922 -0.8791474 0.5708638 16711746
-0.1010430 -0.9864489 0.5415168 16711746
0.1202145 -0.9101482 0.7061377 16711746
0.2042184 -0.9073063 0.7585573 16711746
1.2389752 -0.5501022 0.7535802 16711746
0.9632485 -0.4586326 0.6166844 16711746
0.6968804 -0.5598726 0.7012066 16711746
0.1579989 -0.9442624 0.4196031 16711746
0.6636786 -0.7330345 0.6114368 16711746
0.5316070 -0.7318578 0.6273561 16711746
0.5720821 -0.6055562 0.6420224 16711746
0.6693638 -0.4080669 0.5601087 16711746
-0.0034979 -0.9192153 0.5205050 16711746
0.6692982 -0.2753392 0.6092987 16711746
0.7100819 -0.4430586 0.8571525 16711746
-0.0480067 -0.7257340 0.6266348 16711746
0.6048908 -0.6438512 0.1739236 16711746
0.9271604 -0.4637221 0.5385183 16711746
0.0607064 -0.8404582 0.6109737 16711746
0.7115417 -0.5921715 0.5476741 16711746
0.2151597 -0.7809184 0.3060955 16711746
0.2305201 -0.8697565 0.3256692 16711746
0.7097755 -0.7303190 0.9053184 16711746
0.6578028 -0.7124051 0.8683658 16711746
0.0997290 -0.7877563 0.5097727 16711746
0.3264835 -0.7291434 0.2911423 16711746
-0.0317994 -0.8440664 0.5476987 16711746
0.7490671 -0.6879922 0.6308946 16711746
0.2417441 -0.8029886 0.2787068 16711746
0.2231201 -0.8001995 0.2778884 16711746
0.4608007 -0.6720423 0.5525923 16711746
-0.2073787 -0.8569853 0.5661588 16711746
-0.0510795 -0.9980810 0.5224426 16711746
0.9508572 -0.4228016 0.8571361 16711746
-0.3714004 -1.0374576 0.7487714 16711746
-0.5636601 -1.1454170 0.7608548 16711746
0.7164671 -0.6594248 0.4207763 16711746
0.6552643 -0.6541623 0.4237563 16711746
0.5093579 -0.7032371 0.2097293 16711746
0.2430743 -0.7295036 0.2397066 16711746
0.5805873 -0.5310472 0.7698955 16711746
0.8162135 -0.4865049 0.5465977 16711746
0.3316721 -0.7095786 0.3156238 16711746
-0.2898204 -0.8145461 0.6324428 16711746
0.1658942 -0.9753630 0.6381576 16711746
0.3927201 -0.8104182 0.4626972 16711746
0.5424246 -0.5511567 0.4151141 16711746
0.9075254 -0.4443578 0.4550654 16711746
0.6177936 -0.4199084 0.8175291 16711746
0.7160733 -0.5143467 0.9815924 16711746
-0.1715036 -0.7605193 0.5429919 16711746
0.4403861 -0.7710536 0.4871603 16711746
-0.0980852 -0.8175721 0.8893548 16711746
0.0397778 -0.4186237 1.3289633 16711746
-0.1986497 -0.6791443 1.2234378 16711746
-0.2830162 -0.5922311 1.2728970 16711746
0.5248415 -0.7749206 0.4792624 16711746
0.3512090 -0.7707465 0.3588287 16711746
0.4940762 -0.8302652 0.4446745 16711746
0.6691909 -0.7560219 0.2576491 16711746
1.0643889 -0.5673657 0.2134496 16711746
0.6795245 -0.6601980 0.6434879 16711746
0.8931271 -0.7399906 0.7400489 16711746
0.4414985 -0.6298943 0.6654437 16711746
0.7250057 -0.6769241 0.4123027 16711746
0.9882966 -0.5476911 0.5229772 16711746
0.8761752 -0.5789405 0.6319164 16711746
0.7976518 -0.3692927 0.4067572 16711746
1.0684651 -0.5147179 0.5206091 16711746
1.0220740 -0.4905338 0.3319795 16711746
-0.3221213 -1.0789526 0.6237365 16711746
0.1112218 -0.8026116 0.4396673 16711746
0.2227043 -0.7501608 0.3779609 16711746
1.1239277 -0.2948463 0.6009485 16711746
0.8836688 -0.6046364 0.2605889 16711746
0.3944985 -0.6947632 0.4774687 16711746
0.2674384 -0.7794042 0.2949836 16711746
0.3221287 -0.8907848 0.3246733 16711746
0.6149200 -0.7031476 0.6460646 16711746
0.6428152 -0.8267688 0.7495344 16711746
1.0202498 -0.5157557 0.2792199 16711746
0.4949460 -0.6743343 0.2447322 16711746
0.4168537 -0.6231489 0.2156225 16711746
0.5061769 -0.6717543 0.4378505 16711746
0.5259665 -0.7639435 0.5025662 16711746
0.4659242 -0.6138461 0.3920121 16711746
-0.7344528 -0.8512697 1.0638547 16711746
-0.0878954 -1.0209160 0.6123101 16711746
-0.0887548 -1.0321207 0.5947528 16711746
-0.1090343 -0.8732287 0.5111060 16711746
-0.4694018 -1.0568105 0.4773636 16711746
