# .PCD v.7 - Point Cloud Data file format
VERSION .7
FIELDS x y z rgb
SIZE 4 4 4 4
TYPE F F F F
COUNT 1 1 1 1
WIDTH 173
HEIGHT 1
VIEWPOINT 0 0 0 1 0 0 0
POINTS 173
DATA ascii

0.4125724 -0.6201760 0.6547959 16711746
1.1932597 -0.3902734 0.6395339 16711746
0.6278720 -0.3744562 0.7267182 16711746
-0.1595604 -1.0048109 0.4386935 16711746
-0.2332018 -1.0844245 0.4610925 16711746
-0.1717386 -0.9357150 0.3810358 16711746
0.3169937 -0.7352725 0.2876376 16711746
0.3190362 -0.7374147 0.2650115 16711746
0.3536689 -0.7327952 0.8250237 16711746
0.8711317 -0.3778512 0.6026575 16711746
0.4869685 -0.5692996 0.5810801 16711746
0.3352250 -0.7112746 0.3543277 16711746
-0.2817897 -1.1528254 0.5904263 16711746
0.0925185 -0.8372289 0.5852450 16711746
0.0611027 -0.8556597 0.5645713 16711746
0.3994920 -0.7368909 0.5632895 16711746
0.3516032 -0.6878946 0.6338444 16711746
0.7138667 -0.5448589 0.5034170 16711746
-0.1327489 -1.0812830 0.4614955 16711746
-0.0977060 -1.1664528 0.4892924 16711746
1.2116176 -0.2938199 0.3880454 16711746
-0.0541470 -0.9226547 0.7140752 16711746
0.1806172 -0.9806154 0.3721847 16711746
0.8477595 -0.5363427 0.4535400 16711746
0.5021418 -0.7001018 0.3768308 16711746
-0.0940009 -1.0790831 0.6234182 16711746
-0.2784035 -1.0569510 0.5381920 16711746
-0.2684122 -1.0594993 0.5051758 16711746
0.7012410 -0.4699443 0.6689726 16711746
0.4922162 -0.7168788 0.5223249 16711746
0.5202475 -0.7411938 0.6255165 16711746
0.4773360 -0.6975255 0.5694110 16711746
0.7222724 -0.4044960 0.4508824 16711746
-0.1320429 -1.0306464 0.8709466 16711746
0.1021637 -0.8370811 0.5483148 16711746
0.0868404 -0.9414809 0.6077509 16711746
0.0836511 -0.9347839 0.5865713 16711746
0.2947859 -0.7276396 0.7515321 16711746
0.5229003 -0.6299068 0.3472108 16711746
0.6700667 -0.5053972 0.8518208 16711746
0.6729966 -0.4599143 0.7792205 16711746
0.7067862 -0.5311447 0.8541394 16711746
0.4707471 -0.7825249 0.6087047 16711746
-1.0297779 -1.0836432 1.4309992 16711746
0.1731496 -0.8617041 0.5978092 16711746
0.1644535 -0.9544951 0.6597821 16711746
0.5707660 -0.7751530 0.7214572 16711746
0.5281563 -0.5740760 0.9835733 16711746
0.4532190 -0.5283774 0.8946071 16711746
0.4316274 -0.4983031 0.8092416 16711746
0.7873580 -0.4690873 0.4485235 16711746
-0.0410943 -0.9788175 0.4997546 16711746
0.8621241 -0.4780498 0.7318159 16711746
0.7834055 -0.4479450 0.6605894 16711746
0.6691073 -0.4203994 0.6169052 16711746
0.6703061 -0.6084589 0.5585253 16711746
-0.0595599 -0.9493527 0.3925237 16711746
0.3349914 -0.7764569 0.7070289 16711746
0.6203364 -0.4844840 0.8681791 16711746
0.5685531 -0.4801703 0.7788980 16711746
0.4544179 -0.4165629 0.8201283 16711746
0.7308809 -0.3347625 0.8306084 16711746
0.4885030 -0.5826004 0.8860005 16711746
0.3727635 -0.5722787 0.8927482 16711746
0.2962627 -0.5884901 1.0463300 16711746
0.6214450 -0.6355391 0.8045897 16711746
0.6063697 -0.6231251 0.8161487 16711746
0.6003291 -0.6751952 0.7873678 16711746
0.5715494 -0.5048956 0.7690690 16711746
0.5804199 -0.5989020 0.8358548 16711746
0.7009271 -0.5682156 0.8187392 16711746
0.4790267 -0.5917018 0.7454530 16711746
0.4006981 -0.6869141 0.8589045 16711746
1.0737306 -0.1602126 0.5564938 16711746
0.8101615 -0.3890498 0.8047242 16711746
0.7109118 -0.3240781 0.7446709 16711746
0.8760902 -0.2310694 0.6926823 16711746
1.2082584 -0.1874391 0.5167468 16711746
0.9366134 -0.3036462 0.5481748 16711746
0.6289067 -0.2990938 1.0626205 16711746
0.5553414 -0.3060021 1.0614244 16711746
0.6110508 -0.2042698 0.8763253 16711746
0.5680488 -0.2033187 0.9740701 16711746
0.2401957 -0.3004571 1.0688773 16711746
0.5894601 -0.3830785 0.9138450 16711746
0.7448862 -0.3443218 0.9332899 16711746
0.6369933 -0.2735940 0.8475454 16711746
0.2997347 -0.7732015 0.7156587 16711746
1.0063088 -0.5213661 0.5469401 16711746
-0.2143323 -1.0146737 0.9213480 16711746
-0.1054821 -1.0102706 0.5351809 16711746
0.6713017 -0.5375208 0.5252369 16711746
0.7685129 -0.4900315 0.9913990 16711746
0.6587406 -0.4599076 0.8885784 16711746
-0.1180598 -0.7711409 0.9752401 16711746
0.6739096 -0.4799142 0.8799683 16711746
0.3621848 -0.6651040 0.9923833 16711746
0.1673112 -0.9113998 0.3277720 16711746
1.1065383 -0.4993209 0.4038103 16711746
0.4676717 -0.6654536 0.7062503 16711746
-0.1211086 -0.8792216 0.7384347 16711746
0.5962144 -0.6811009 0.6361995 16711746
-0.9360146 -1.4439465 1.0272337 16711746
0.6663125 -0.6373693 0.6582414 16711746
0.7274024 -0.5068540 0.4285290 16711746
0.2513637 -0.6846428 0.5781359 16711746
-0.7685633 -0.9628282 1.5842582 16711746
0.2129848 -0.8602477 0.5312402 16711746
-0.1393752 -0.8703997 1.2054752 16711746
0.4331804 -0.7314402 0.5451275 16711746
0.3258165 -0.7082242 0.8823919 16711746
0.3020337 -0.8084010 0.9918100 16711746
-0.0903274 -0.9952767 0.4524094 16711746
0.5724353 -0.6134636 0.5966811 16711746
0.5299959 -0.6317967 0.5996309 16711746
-0.8407027 -1.3067172 0.8640942 16711746
-0.5364024 -1.1658975 0.7010079 16711746
0.9317029 -0.3547616 0.3313820 16711746
0.4899624 -0.8490768 0.5001987 16711746
0.8124248 -0.6706180 0.5768970 16711746
0.7426097 -0.4399770 0.7736803 16711746
0.7040563 -0.4472670 0.7780489 16711746
0.6988527 -0.4023238 0.7025914 16711746
-0.2910552 -1.0001210 1.3325511 16711746
0.6734009 -0.5849264 0.7104470 16711746
0.6862550 -0.6737834 0.4686572 16711746
0.4042697 -0.6851575 0.3258588 16711746
0.3214896 -0.6999629 0.9039927 16711746
0.0415502 -0.8532322 0.5893916 16711746
-0.1683176 -0.9779875 0.4479894 16711746
0.5296476 -0.6883480 0.5281703 16711746
0.6256984 -0.7560596 0.3346837 16711746
0.5300624 -0.6879439 0.3791458 16711746
0.6478286 -0.6326228 0.4062572 16711746
-0.1162515 -0.9457647 0.6236883 16711746
1.1845192 -0.3746703 0.4144543 16711746
1.0082918 -0.4233412 0.4183252 16711746
1.0846682 -0.4756222 0.4528645 16711746
1.1029364 -0.3444028 0.3630816 16711746
1.1432033 -0.3632748 0.4447808 16711746
0.9230658 -0.3858186 0.4822272 16711746
0.8849353 -0.4124524 0.4707987 16711746
0.7778721 -0.6673347 0.4311210 16711746
0.7509421 -0.5235784 0.3978013 16711746
0.9959975 -0.5429823 0.3926278 16711746
-0.5459980 -1.2751077 0.5991701 16711746
-0.5334478 -1.2484310 0.3813904 16711746
0.0903383 -0.9394882 0.5696427 16711746
-0.1507383 -0.9265156 0.5054727 16711746
0.1497666 -0.9088042 0.3326891 16711746
-1.2173429 -1.4657755 1.2097437 16711746
-0.5980884 -1.2350603 0.7895703 16711746
-0.3823164 -1.1872416 0.7539822 16711746
-0.6016808 -1.1016922 0.7902548 16711746
-1.0437374 -1.3595028 0.8338357 16711746
0.6964865 -0.2848885 0.9442225 16711746
0.2697338 -0.4796517 1.0598305 16711746
0.4918363 -0.3975779 1.0585396 16711746
0.8072583 -0.2756641 0.8675935 16711746
0.8870772 -0.1828964 0.6801256 16711746
0.7513415 -0.2014823 0.7893490 16711746
0.7155188 -0.2390437 0.8472037 16711746
-1.0783389 -1.1419506 1.2766665 16711746
-1.4161556 -1.3264740 1.4303238 16711746
0.2499475 -0.6457500 1.1996068 16711746
-0.0068417 -0.7242112 0.9077469 16711746
-0.3251903 -1.0334821 1.1293858 16711746
0.2031499 -0.4209466 1.2314683 16711746
-0.3434802 -0.7994223 1.4102250 16711746
0.5069702 -0.6402631 0.3367611 16711746
0.5874915 -0.5700285 0.6271464 16711746
0.5045652 -0.6904336 0.5496971 16711746
0.5058774 -0.8089719 0.5580519 16711746
