# .PCD v.7 - Point Cloud Data file format
VERSION .7
FIELDS x y z rgb
SIZE 4 4 4 4
TYPE F F F F
COUNT 1 1 1 1
WIDTH 107
HEIGHT 1
VIEWPOINT 0 0 0 1 0 0 0
POINTS 107
DATA ascii

0.5313439 -0.3040143 0.5687321 16711746
0.5620258 -0.3427657 0.6355076 16711746
-0.1149999 -0.3675862 1.1070057 16711746
-0.0770120 -0.3900406 1.0829291 16711746
0.0857136 -1.0408386 0.5297610 16711746
0.7982191 -0.8455291 0.6864285 16711746
-0.2052974 -1.0840982 0.8853424 16711746
0.7912324 -1.2920319 0.6632108 16711746
0.4499288 -0.7066473 0.6205822 16711746
0.5068051 -0.3277889 0.5269399 16711746
0.4030509 -0.1718107 0.4676107 16711746
0.1521412 -0.8497536 0.5074151 16711746
0.8465483 -0.7646464 0.7256960 16711746
0.3264888 -0.5633146 0.4589457 16711746
0.7813427 -1.3687015 0.6685916 16711746
0.2087936 -0.5498606 0.9474549 16711746
0.2682578 -0.8015128 0.6096720 16711746
0.5321436 -0.6128511 0.4904545 16711746
0.5345441 -0.7217572 0.5365456 16711746
0.4452560 -0.8396482 0.5847190 16711746
0.4057150 -1.2987508 1.0874959 16711746
0.4148114 -0.5797881 0.8569255 16711746
0.5286754 -0.1846717 0.8116835 16711746
0.4411458 -0.2339329 0.6466872 16711746
0.4230233 -0.1261016 0.5077634 16711746
0.4976003 -0.1545864 0.6448483 16711746
0.4568150 -0.1921597 0.6025378 16711746
0.3826047 -0.4357115 0.9063364 16711746
0.4192002 -0.3793094 0.9313691 16711746
0.4232020 -0.3836631 0.9745399 16711746
0.4277920 -0.0892713 0.3559857 16711746
0.5100695 -1.0486429 0.5934084 16711746
0.8326470 -1.5681098 0.7698389 16711746
0.8374751 -1.2996255 0.4026316 16711746
0.5363293 -0.9985551 0.3175657 16711746
0.7169349 -1.4328227 0.5957884 16711746
0.5987121 -0.5744221 0.5504382 16711746
-0.4237421 -1.2380618 1.3107167 16711746
-0.6827120 -1.0148009 0.9570335 16711746
-0.8261436 -0.9743425 0.9826744 16711746
0.1187173 -0.7835159 0.8351184 16711746
0.3997472 -0.6001538 0.6781029 16711746
-0.3394700 -1.5052587 0.9546941 16711746
0.6654624 -0.5429258 0.8048816 16711746
-0.5911534 -0.6889297 0.7300472 16711746
0.4828399 -0.7906889 0.5512999 16711746
0.3754528 -0.6600296 0.4646419 16711746
0.4596043 -0.5874886 0.5316460 16711746
0.7966260 -0.6361157 0.7463067 16711746
0.6761103 -0.4918741 0.3682744 16711746
0.5823976 -0.3484782 0.6759830 16711746
-0.1956396 -0.5626790 0.7571906 16711746
0.0657574 -0.4428993 0.8018709 16711746
0.1108204 -0.7105548 0.8018428 16711746
-0.4128013 -0.4738019 0.9536619 16711746
0.1808852 -0.3262568 0.9941106 16711746
-0.1605098 -0.3942951 1.0384750 16711746
-0.0194856 -0.2246728 0.6664680 16711746
-0.1244725 -0.2662745 0.9440976 16711746
-0.0290560 -0.2107614 0.6856185 16711746
0.5039193 -0.8502905 0.4969247 16711746
0.5401720 -0.8958145 0.9250600 16711746
0.6367944 -1.1448507 0.8049231 16711746
0.1551591 -1.6069123 0.7397878 16711746
-0.1952725 -1.3898244 0.8900399 16711746
0.5266818 -1.1125017 0.6469390 16711746
0.5184758 -0.4237344 0.6763893 16711746
0.4429038 -0.3905121 0.5818284 16711746
0.6167784 -0.3171154 0.4185858 16711746
0.6864113 -0.8282070 0.6708079 16711746
0.5255650 -0.3835325 0.5766037 16711746
0.4397238 -0.6059429 0.7979210 16711746
0.4256902 -0.5690700 0.7120315 16711746
0.6805070 -0.5513573 0.4940855 16711746
-0.1559872 -1.0605228 0.6399957 16711746
0.5216769 -0.8651006 0.8622050 16711746
0.3197867 -0.5575833 0.5437521 16711746
0.4355624 -0.3380145 0.6045137 16711746
0.6551396 -0.4672515 0.8795139 16711746
0.6548026 -0.6311312 0.8955281 16711746
0.7574438 -0.6493333 0.6979261 16711746
0.5211822 -0.3807939 0.6557639 16711746
-0.4753156 -0.7344115 0.7633233 16711746
0.1413431 -0.8536436 0.9373868 16711746
0.2528597 -1.1664211 1.1505427 16711746
0.5521717 -0.6857837 0.4011682 16711746
0.9115561 -1.1222986 0.6068421 16711746
0.4128182 -0.7409653 0.6934919 16711746
-0.3008850 -0.5044992 0.7659945 16711746
0.6015282 -1.1295285 0.5908059 16711746
-0.5819196 -0.7240860 0.8349256 16711746
-0.5504193 -0.6773342 0.7652469 16711746
-0.6996379 -0.8082985 1.0438032 16711746
0.7265382 -0.9908227 0.4031308 16711746
0.3786236 -0.4178897 0.8167481 16711746
0.4435197 -0.6780351 0.8222423 16711746
-0.9734861 -1.8692684 1.6637752 16711746
-0.8785890 -1.6662644 1.4236008 16711746
0.7654951 -0.9275087 0.5983750 16711746
0.6449884 -0.6121495 0.4133387 16711746
26.1298771 -39.1599007 55.4460106 16711746
36.4246368 -161.8489380 84.4353409 16711746
39.7282829 -44.1438141 71.1322174 16711746
33.9711838 -49.7235031 69.7661514 16711746
60.4440041 -133.4024200 156.5898895 16711746
0.8824441 -5.5259886 5.4945502 16711746
23.3657627 -60.9545403 75.1847382 16711746
