# .PCD v.7 - Point Cloud Data file format
VERSION .7
FIELDS x y z rgb
SIZE 4 4 4 4
TYPE F F F F
COUNT 1 1 1 1
WIDTH 83
HEIGHT 1
VIEWPOINT 0 0 0 1 0 0 0
POINTS 83
DATA ascii

 -0.0614827 0.0911980 2.3791564 16777215
 0.6894838 -0.2652135 0.3598943 16777215
0.4690107 -0.8030270 0.9936778 16711746
0.3221937 -0.9084634 0.9347733 16711746
-0.5012260 -0.5621302 0.6616586 16711746
0.3695912 -1.1744809 0.6767771 16711746
-0.3988815 -0.5635334 0.9776133 16711746
-0.2836455 -1.0335391 0.6198869 16711746
0.0317901 -0.9293168 0.9544386 16711746
-0.3061637 -0.9897218 0.6424675 16711746
-0.3129400 -0.9947814 0.6240830 16711746
-0.0653140 -1.2065436 0.6218551 16711746
-0.0044069 -1.1759647 0.6756524 16711746
-0.0750632 -1.1617376 0.6624404 16711746
-0.2737478 -0.9895536 0.6843125 16711746
-0.3514455 -0.9606625 0.5913950 16711746
-0.2187311 -1.1576351 0.5644957 16711746
0.0948343 -1.2521830 0.6324847 16711746
0.3634732 -0.8554318 1.0171794 16711746
-0.5142260 -0.4755415 0.6420086 16711746
-0.3113944 -0.6407191 1.0415752 16711746
-0.3263845 -0.6432098 1.0205413 16711746
-0.3754656 -0.5527586 1.0307474 16711746
-0.4138806 -0.5100336 0.9947488 16711746
-0.3445047 -0.5618029 1.0707881 16711746
-0.2755995 -0.7011700 1.0135535 16711746
-0.2692645 -0.7288235 1.0049106 16711746
-0.1631306 -0.7152715 1.1185975 16711746
0.1557240 -0.8217486 1.1273074 16711746
-0.0189073 -1.1857077 0.6614537 16711746
0.5873818 -0.8821425 0.7227521 16711746
-0.1212209 -1.2202022 0.5759655 16711746
-0.2333990 -1.0607615 0.6527644 16711746
-0.2368176 -1.0759606 0.6344672 16711746
-0.2661886 -1.1000886 0.5642163 16711746
0.0772880 -1.0277679 0.8441277 16711746
-0.2110233 -1.0855979 0.6599162 16711746
-0.0835542 -1.1062599 0.7162497 16711746
0.3743462 -0.8956026 0.9263898 16711746
-0.1593977 -0.9980991 0.7959616 16711746
-0.1499846 -1.1502745 0.6313773 16711746
0.3332772 -0.7481739 1.3042426 16711746
0.3021887 -0.7204029 1.4115245 16711746
-0.2136675 -0.6018029 1.1956515 16711746
0.0311013 -0.6761775 1.3253602 16711746
-0.3857994 -0.9169897 0.5665301 16711746
-0.3771906 -0.8982025 0.6250600 16711746
-0.0240551 -1.2414778 0.6019250 16711746
-0.0394726 -1.2537129 0.5831984 16711746
-0.2167827 -1.1310334 0.5840662 16711746
-0.3969618 -0.7609261 0.7617981 16711746
-0.4856437 -0.6357636 0.6414326 16711746
-0.2132192 -0.9675668 0.7754780 16711746
-0.2705061 -0.9114645 0.7884692 16711746
-0.0249457 -0.9290051 0.9480266 16711746
-0.1078976 -0.8665944 0.9715375 16711746
-0.0728909 -0.8788675 0.9762388 16711746
0.0020987 -0.9776994 0.8937058 16711746
-0.1819524 -1.1771257 0.5665846 16711746
-0.3806697 -0.4905663 1.0743361 16711746
-0.3421325 -0.9440331 0.6355059 16711746
-0.3749848 -0.9201710 0.5878432 16711746
0.1734848 -0.8184312 1.1477985 16711746
-0.2120747 -1.0889484 0.6353289 16711746
-0.1637553 -1.1330075 0.6291410 16711746
-0.1108270 -1.0630492 0.7480286 16711746
0.1891488 -1.2034003 0.6834349 16711746
0.3145635 -0.8822926 0.9925439 16711746
-0.4606209 -0.6966411 0.6722400 16711746
-0.1903665 -0.7308897 1.0793861 16711746
9.1128817 8.7696171 -20.3503036 16711746
7.3001871 8.5839758 -20.9691830 16711746
11.2438269 6.0905781 -20.8622055 16711746
-37.8795547 2.1708884 4.2771664 16711746
-0.3818822 -0.5190958 1.0473212 16711746
-0.3128004 -0.4771811 1.1980336 16711746
-0.3194307 -0.5087842 1.1703712 16711746
10.9099131 9.5150404 -19.2702827 16711746
-0.0257754 -0.4860149 1.5535493 16711746
0.1258407 -0.7036554 1.3467412 16711746
0.2727060 -0.7388220 1.3616302 16711746
0.4552193 -6.1467981 7.3963976 16711746
-7.7366996 -24.5853062 16.2146206 16711746
