# .PCD v.7 - Point Cloud Data file format
VERSION .7
FIELDS x y z rgb
SIZE 4 4 4 4
TYPE F F F F
COUNT 1 1 1 1
WIDTH 129
HEIGHT 1
VIEWPOINT 0 0 0 1 0 0 0
POINTS 129
DATA ascii

 -0.0424412 0.1059332 4.8629184 16777215
 -0.0024679 0.0241107 1.2053343 16777215
0.9141957 -0.3328755 1.4837625 16711746
0.3930569 -0.1502264 1.3397846 16711746
-0.0015154 -1.2248254 1.8655167 16711746
0.9683869 -0.7495233 2.3020051 16711746
14.3762188 -12.0718803 16.6177425 16711746
1.7774215 -2.8919291 5.2883697 16711746
1.6067199 -2.3591492 4.8639731 16711746
0.4201130 -0.3909354 1.8211766 16711746
0.7149072 -0.4516994 1.7312412 16711746
-0.3442940 -1.3824031 1.9130676 16711746
0.2676191 -0.9401523 1.7223837 16711746
0.1996578 -0.8230612 1.6191804 16711746
0.0608363 -0.9056044 1.4985678 16711746
-1.7296659 -7.6221266 7.7211590 16711746
-36.8935928 -42.3063278 39.6595154 16711746
-2.0722630 -2.5102029 3.6401577 16711746
0.1166656 -0.5369112 1.6555085 16711746
0.6271264 -0.7043190 1.4538435 16711746
1.1466004 -0.8776031 2.1687801 16711746
1.4887815 -1.2232109 2.5323935 16711746
5.2651806 -4.1523066 5.4946122 16711746
0.6619979 -0.3005990 1.4193006 16711746
0.6363377 -0.6742787 1.6599181 16711746
0.4389178 -0.4745929 1.5156630 16711746
12.4255667 30.2809143 -76.6517715 16711746
-50.3241425 -65.3304291 55.4208755 16711746
0.4918928 -2.6156662 3.2951117 16711746
0.1374016 -0.6702315 1.8048714 16711746
0.2191270 -0.7699471 1.7191879 16711746
-0.1170214 -2.2907329 2.6279607 16711746
0.2240648 -1.3478539 1.9105150 16711746
0.2293896 -0.6705419 1.4512390 16711746
0.5190842 -0.2875086 1.4231032 16711746
0.2636198 -0.4701507 1.4450262 16711746
-46.3988419 -56.2701416 50.9724464 16711746
0.1478067 -0.7424434 1.5473580 16711746
0.6068327 -1.2536297 1.5077997 16711746
0.5317432 -0.4635697 1.3862640 16711746
-1.2311268 -1.8016742 2.7482753 16711746
0.8741344 -0.6189903 1.8748339 16711746
0.8972697 -0.6274074 1.9086605 16711746
0.8396679 -0.7452055 1.5849370 16711746
0.4208634 -0.2556390 1.3617630 16711746
0.4174744 -0.2445975 1.3430371 16711746
0.4311629 -0.2691720 1.3634479 16711746
0.2856508 -0.2973037 1.4988120 16711746
0.5234160 -0.8034638 2.1689832 16711746
0.4457520 -1.9161196 2.5741208 16711746
0.2605734 -1.3671817 2.2237525 16711746
0.3619602 -0.5254334 1.4145885 16711746
0.8843677 -0.9520632 2.6968603 16711746
0.5052146 -0.6485743 2.0877347 16711746
0.1315201 -1.1350789 2.0863287 16711746
0.0774908 -0.8233245 1.8257264 16711746
0.4204042 -0.1153691 1.3878416 16711746
13.4010839 -16.3731480 30.8255310 16711746
0.4943989 -0.5882354 2.5218818 16711746
-0.0063249 -0.6943793 1.9493345 16711746
9.4904604 27.5492344 -74.7474670 16711746
0.6769765 -0.8332438 1.5056243 16711746
0.3425575 -0.3839509 1.3704247 16711746
0.5033066 -0.7843753 1.4019127 16711746
0.5927908 -0.8310611 1.6737913 16711746
0.5916359 -0.4752869 1.1877056 16711746
0.4908041 -0.3729901 1.4066700 16711746
0.2466430 -1.2217218 1.6457679 16711746
16.2156448 -14.6079655 19.0160599 16711746
0.3625154 -0.7292342 1.4193140 16711746
0.2919538 -0.4797692 1.4874647 16711746
0.1757981 -1.4703177 1.7192264 16711746
0.2408310 -0.6403224 1.4009188 16711746
0.6790614 -0.4321323 1.2293053 16711746
1.2346759 -1.2201771 2.1580770 16711746
0.7961110 -0.7124653 1.8329340 16711746
0.4694957 -0.5089962 1.6332439 16711746
0.4877536 -0.5852395 1.6407614 16711746
8.6972399 -14.6883898 14.6286011 16711746
0.5131288 -1.0022010 2.1083093 16711746
0.6657997 -0.4514391 1.5277311 16711746
0.5630744 -0.5116940 1.8750294 16711746
0.7822536 -0.4086635 1.2402589 16711746
0.4339030 -0.2774824 1.4031498 16711746
0.5320484 -0.4659184 1.3556541 16711746
0.4248837 -0.4353702 1.3724908 16711746
0.1512543 -1.1815245 1.6592268 16711746
0.5128550 -0.6684193 1.5053403 16711746
0.5284842 -0.7199461 1.5303915 16711746
0.4870431 -0.3654785 1.3553065 16711746
0.5532352 -0.6234230 1.5712278 16711746
0.0220989 -0.7075502 1.5707295 16711746
0.2266625 -0.9168795 1.5320580 16711746
0.3895864 -2.2002478 2.5818799 16711746
0.1575857 -0.9704791 1.7798052 16711746
-18.7530861 -28.7842178 13.4912252 16711746
0.2485711 -1.9054044 2.0133202 16711746
0.2054886 -1.2816701 1.6210624 16711746
0.1316151 -1.0539628 1.8931073 16711746
-0.1762492 -0.9988922 1.6805135 16711746
-0.1992899 -0.9965969 1.6753390 16711746
0.3730548 -0.6210701 1.4911441 16711746
0.5127829 -0.4210472 1.3744346 16711746
0.6905728 -0.5452269 1.3877975 16711746
0.3621644 -1.7855198 2.1641042 16711746
0.1737078 -0.9025130 1.6625240 16711746
0.5202839 -0.4629559 1.7665917 16711746
0.2168183 -1.0031261 1.6045648 16711746
0.4191930 -1.9778187 1.9627068 16711746
31.3597317 47.6822548 -86.7501297 16711746
0.5929077 -0.5945412 1.8997844 16711746
0.0613453 -0.7473520 1.5080822 16711746
0.0666566 -1.2804030 1.7333606 16711746
1.0753157 -0.6860514 1.7685434 16711746
0.4275486 -0.4346454 1.3522663 16711746
7.4665847 -9.9369860 8.9941654 16711746
-2.5688438 -4.2209044 8.2478552 16711746
59.0968819 -90.1763763 37.5475616 16711746
171.5923309 -247.2996979 239.7696381 16711746
16.5900307 -16.5131416 17.5117474 16711746
2.7120075 -12.8949747 9.5189629 16711746
82.6042862 -131.8903961 90.2992783 16711746
72.2583542 -92.5202255 82.1331177 16711746
-1.2912775 -2.9060380 6.8253884 16711746
55.5582924 -94.8460388 59.6238594 16711746
36.1279221 -56.0296059 43.5990067 16711746
43.6681786 -103.4878235 105.5811081 16711746
113.7875061 -140.6442108 102.7988052 16711746
86.6853104 -99.7722168 95.2551804 16711746
