# .PCD v.7 - Point Cloud Data file format
VERSION .7
FIELDS x y z rgb
SIZE 4 4 4 4
TYPE F F F F
COUNT 1 1 1 1
WIDTH 228
HEIGHT 1
VIEWPOINT 0 0 0 1 0 0 0
POINTS 228
DATA ascii

0.3109635 -0.8629690 0.4599302 16711746
0.5597097 -1.7486326 0.9324337 16711746
-0.1504672 -1.3964128 1.1457720 16711746
2.4435318 -0.7841898 0.6926781 16711746
0.6265307 -0.8636464 0.4815337 16711746
2.1395440 -1.1717952 1.0490297 16711746
2.1467712 -1.2020655 1.0166206 16711746
0.0434009 -0.7814639 0.4781739 16711746
0.7595555 -0.7768066 0.5302036 16711746
0.7571313 -0.8037280 0.5314200 16711746
0.1113796 -1.9152391 1.5367364 16711746
0.7607495 -1.9108053 1.1632919 16711746
-0.0585759 -0.7145343 0.5171314 16711746
0.8506504 -0.6908802 0.4511676 16711746
0.5065935 -0.5239080 0.1234837 16711746
-0.2515994 -1.4244307 0.8956675 16711746
0.4340518 -0.5549578 0.2953826 16711746
1.4130896 -1.8822138 1.8674021 16711746
0.4845551 -0.4683286 0.2029340 16711746
-0.1255594 -0.5761674 0.3030882 16711746
0.2575140 -0.4271368 0.2510702 16711746
0.4989937 -0.8845931 0.5302348 16711746
0.5350494 -0.8859538 0.4998167 16711746
0.5029327 -0.8915770 0.4986250 16711746
0.9296391 -0.7472043 0.7146535 16711746
2.0589015 -1.7324700 1.5522226 16711746
0.8360972 -0.7027546 0.5150849 16711746
1.8158637 -1.6302992 1.1991401 16711746
0.9336604 -0.4736165 0.4605363 16711746
0.9286523 -0.5372047 0.5092811 16711746
0.1730579 -0.8735892 0.3763273 16711746
0.0900229 -0.5462643 0.2355399 16711746
0.0816072 -0.4377284 0.1869344 16711746
0.3235342 -0.8817116 0.5342153 16711746
0.2852584 -0.8798342 0.5288763 16711746
-0.0725315 -1.4416435 1.4001358 16711746
2.0916047 -1.2723912 1.1585559 16711746
-0.1282557 -0.5820765 0.4872448 16711746
-0.1493180 -0.5249771 0.2948733 16711746
-0.3459389 -1.0180588 0.5593141 16711746
-0.1474516 -0.5238649 0.2837397 16711746
0.5165377 -0.4234755 0.1805260 16711746
0.5093812 -0.9231062 0.3738973 16711746
0.3306552 -0.6134594 0.2400938 16711746
0.5921843 -0.4039763 0.1384313 16711746
1.0502605 -2.0407166 2.1666369 16711746
1.7394120 -1.6935616 1.3621832 16711746
0.7212661 -0.7640113 0.5950944 16711746
0.6924777 -0.7872437 0.6800496 16711746
-0.1866232 -1.3953562 1.5385921 16711746
0.3056217 -0.5956774 0.2983233 16711746
0.5599877 -0.4547710 0.1222308 16711746
1.7169499 -2.0808654 1.7993894 16711746
0.6252880 -0.8125637 0.7057912 16711746
0.9422618 -0.5266860 0.3887281 16711746
1.0321602 -0.4445311 0.2968679 16711746
1.0201606 -0.4589434 0.2970777 16711746
0.9672779 -0.4498859 0.2920816 16711746
-0.0494845 -0.7011502 0.3853141 16711746
-0.0850714 -0.6555628 0.3577486 16711746
-0.0323486 -0.4646395 0.2501190 16711746
0.3990071 -0.8963289 0.4992511 16711746
0.3392062 -0.8925437 0.4929178 16711746
0.3776988 -0.8986552 0.4842703 16711746
0.9064407 -0.5449769 0.3973320 16711746
1.0105071 -0.4682258 0.1451039 16711746
-0.0425618 -0.4534885 0.1551190 16711746
0.0033956 -0.7558236 0.5001625 16711746
1.9638227 -1.4943811 1.5633759 16711746
-0.3218224 -2.1310461 2.0773032 16711746
-0.1323334 -1.4142443 1.3379124 16711746
0.1871455 -0.8305751 0.4101564 16711746
0.3353405 -0.5215611 0.2102838 16711746
0.2621879 -0.5401621 0.4836782 16711746
0.9122295 -2.0100355 1.8240495 16711746
0.1101974 -0.8254434 0.4388971 16711746
0.5833468 -1.9265813 1.2061061 16711746
0.1328047 -0.6136968 0.2115047 16711746
0.7171926 -1.9480438 1.4223075 16711746
0.0627289 -0.7934663 0.5332666 16711746
0.0433538 -0.7817457 0.5047597 16711746
2.6160517 -1.5153513 1.8736997 16711746
2.3010879 -1.0352461 0.7736622 16711746
2.0014925 -1.4401909 1.4148860 16711746
0.5446559 -0.8354339 0.7178808 16711746
0.5370079 -0.7940875 0.6585375 16711746
0.0195935 -0.5355936 0.2166729 16711746
0.0314970 -0.5530738 0.2079048 16711746
0.0064827 -0.5330727 0.2013480 16711746
-0.0460370 -0.6880780 0.4239490 16711746
0.0290415 -0.5303417 0.2417378 16711746
1.7132233 -1.7212967 1.7943826 16711746
1.6822819 -1.7412158 1.7836021 16711746
0.7991741 -1.8070234 1.0151844 16711746
0.2275738 -0.5743683 0.3325208 16711746
0.2203123 -0.5799197 0.1999483 16711746
0.2176478 -0.5800356 0.1969918 16711746
0.5434830 -0.8181002 0.6286190 16711746
0.2107862 -0.5946953 0.3278699 16711746
-0.3551331 -0.7642992 0.4561620 16711746
1.0181739 -0.5435756 0.1507033 16711746
2.2513649 -1.0526614 0.8316153 16711746
2.1589878 -1.1540613 0.8975192 16711746
0.2372048 -0.4408549 0.2271848 16711746
0.4727259 -0.7915885 0.3825876 16711746
0.2698049 -0.9217392 0.3436759 16711746
0.2226847 -1.0163842 0.3744702 16711746
0.6296968 -0.7876793 0.6293748 16711746
1.3199089 -1.8845432 1.4234920 16711746
0.4783546 -0.4830986 0.2305821 16711746
0.8107579 -0.7396446 0.4631664 16711746
0.7586164 -0.7256805 0.4225194 16711746
3.3127365 -1.4732616 1.9697303 16711746
0.3861897 -1.7149030 0.9151165 16711746
0.3464146 -0.6024128 0.2594939 16711746
0.8849485 -0.6509001 0.2845500 16711746
0.8599830 -0.7594823 0.4588876 16711746
0.5180339 -0.4879235 0.2801509 16711746
0.6179828 -0.8477461 0.5856150 16711746
0.6945512 -0.7907417 0.5891125 16711746
0.2555250 -0.8927240 0.6322115 16711746
2.4913919 -0.8694891 0.8709445 16711746
1.8662418 -1.5963401 1.5491569 16711746
1.0019567 -0.4802688 0.2971537 16711746
2.3124084 -0.8189372 0.5844271 16711746
0.8863537 -0.6347745 0.4326167 16711746
0.8825127 -0.6434233 0.4021139 16711746
0.7785465 -0.7105269 0.5895783 16711746
0.8100336 -0.7205423 0.5826070 16711746
-0.1702573 -0.4464438 0.1605844 16711746
-0.1557439 -0.3443712 0.1194610 16711746
-0.1611442 -0.4396342 0.1869285 16711746
0.0148178 -0.5034878 0.2827139 16711746
-0.0151925 -0.7401608 0.3547796 16711746
0.0283237 -0.7715400 0.4438505 16711746
-0.0119082 -0.7395150 0.4322821 16711746
0.3442101 -1.8697244 1.1482929 16711746
-0.0853872 -0.3779763 0.1905226 16711746
-0.3181293 -1.0841054 0.6618100 16711746
0.0794366 -0.5728452 0.2336413 16711746
0.1068724 -0.5979677 0.2179617 16711746
-0.0700422 -0.6246324 0.2279645 16711746
-0.0571813 -0.4410976 0.1976296 16711746
-0.0296530 -0.4826137 0.2064390 16711746
-0.3698458 -0.5558872 0.4019600 16711746
-0.3016310 -0.4204577 0.2763648 16711746
-0.3922960 -0.9167972 0.6622217 16711746
-0.3399993 -1.2206843 1.0504973 16711746
-0.0983206 -1.4463513 0.9930514 16711746
-0.0793117 -1.4499613 1.1440053 16711746
-0.2872194 -1.2300647 0.9214051 16711746
-0.4758433 -1.2842067 0.9319305 16711746
0.9046510 -0.5229062 0.3475320 16711746
2.0817986 -1.2815183 0.8569911 16711746
0.6318701 -0.8068199 0.7191113 16711746
2.3572643 -1.3012320 1.3606896 16711746
2.1382308 -1.1785109 1.1980089 16711746
1.2721813 -1.9648128 1.3815218 16711746
0.5568693 -0.7771923 0.3993478 16711746
0.5643576 -0.8331735 0.4344566 16711746
0.4300456 -0.8903935 0.5266718 16711746
0.2277866 -0.6092873 0.2642057 16711746
0.2226495 -0.6132563 0.2539975 16711746
0.9055735 -0.5053051 0.2970121 16711746
-0.2831300 -1.2948421 0.7220668 16711746
0.5093096 -0.4140845 0.1194654 16711746
1.8200065 -1.6378917 1.6096643 16711746
0.2717291 -0.8578526 0.5513964 16711746
0.6479977 -1.9094143 1.1777251 16711746
0.2529125 -0.8981382 0.3976723 16711746
0.2373264 -0.5788811 0.2226358 16711746
0.1761800 -0.4877238 0.1957200 16711746
0.2354597 -0.5794559 0.2098722 16711746
0.4070696 -0.8566206 0.5925753 16711746
0.4055201 -0.8772133 0.5898220 16711746
0.0129772 -0.4992588 0.2596925 16711746
0.0195298 -0.5255741 0.2645028 16711746
-0.0033941 -0.4923351 0.2588641 16711746
0.9635489 -0.4967818 0.3606051 16711746
0.9326524 -0.4820532 0.3139096 16711746
2.6152356 -0.7984056 0.8943374 16711746
2.5919547 -0.8357345 0.9361414 16711746
1.7082871 -1.7234154 1.7509502 16711746
0.1957185 -0.6281140 0.2166529 16711746
2.5727701 -0.9321880 1.1500502 16711746
0.6207662 -0.7904202 0.3587847 16711746
-0.0573101 -0.4240364 0.2424927 16711746
1.9765713 -1.4507893 1.0852954 16711746
0.0458768 -0.5214297 0.2633390 16711746
0.2237452 -1.7021301 0.8165733 16711746
-0.1032720 -0.6060984 0.3025898 16711746
-0.2379229 -1.3205192 0.6324359 16711746
0.6789452 -0.7564942 0.3552464 16711746
0.8153222 -0.7315685 0.4856899 16711746
0.7984642 -0.7506833 0.4779239 16711746
0.7151655 -0.8020620 0.5594033 16711746
0.7103660 -0.8106454 0.5333204 16711746
0.6640190 -0.8327199 0.5469113 16711746
0.2127330 -0.8277411 0.3548230 16711746
0.1486217 -0.6002807 0.2451197 16711746
0.8590453 -0.6730908 0.5045857 16711746
0.5453380 -0.4299820 0.2986848 16711746
0.0836849 -1.7727058 1.2155162 16711746
0.7630625 -0.7704356 0.5482519 16711746
0.5241644 -0.7205376 0.2830506 16711746
0.3220753 -0.5879314 0.3139223 16711746
0.4985773 -0.4516300 0.1983374 16711746
-0.1009575 -1.4255425 1.5010350 16711746
0.9032046 -0.6131534 0.3303745 16711746
-0.0389001 -0.4678598 0.2071201 16711746
1.1857703 -1.9497763 1.7895025 16711746
-0.3013264 -1.2403175 1.0023603 16711746
0.9247880 -1.8030797 1.3199832 16711746
0.4820290 -0.8685736 0.6120639 16711746
0.9788033 -1.7513635 1.3699713 16711746
0.4047000 -0.8265608 0.6320179 16711746
0.3992068 -0.7977901 0.6720788 16711746
0.0043478 -0.5102578 0.2333527 16711746
0.4105860 -0.9416872 0.3415390 16711746
-0.2357043 -1.3632685 1.3598214 16711746
2.1375897 -1.3165252 1.1403424 16711746
0.2670411 -0.9083256 0.3788387 16711746
1.7777678 -1.6668394 1.4033166 16711746
1.8456894 -1.8313427 1.5099311 16711746
0.1341962 -1.6182704 1.1108416 16711746
0.7666223 -2.9381626 3.7831700 16711746
0.6579147 -0.5490727 0.7755369 16711746
0.8359508 -11.5648184 7.1727185 16711746
