# .PCD v.7 - Point Cloud Data file format
VERSION .7
FIELDS x y z rgb
SIZE 4 4 4 4
TYPE F F F F
COUNT 1 1 1 1
WIDTH 57
HEIGHT 1
VIEWPOINT 0 0 0 1 0 0 0
POINTS 57
DATA ascii

 -0.0654493 0.1025795 2.5654621 16777215
 0.0031953 0.0051625 0.0690426 16777215
0.5884980 -0.3059958 0.4711502 16711746
0.6378655 -0.5349258 0.6589942 16711746
0.9766160 -0.5910844 1.0527180 16711746
1.8071878 -1.9201630 1.5590253 16711746
17.2147636 -5.0820808 3.4567943 16711746
0.9930026 -0.6821961 0.7672437 16711746
1.1778955 -0.5879472 0.7138448 16711746
0.8532993 -0.4360345 0.5341926 16711746
0.6267902 -0.4116686 0.5143427 16711746
1.5958074 -1.0107687 0.4056046 16711746
0.7192916 -0.3267921 0.5124378 16711746
0.3368811 -0.2842065 0.4908667 16711746
0.6058495 -0.4532370 0.7326273 16711746
0.9501257 -0.5392595 0.9883132 16711746
0.5839704 -0.3231003 0.5880941 16711746
0.9852329 -0.6072076 1.0314388 16711746
3.5460892 -1.6203290 0.8521269 16711746
7.4390740 -5.7462506 4.7152042 16711746
2.0530453 -0.8777717 0.9848686 16711746
0.4491779 -0.1344983 0.4825945 16711746
0.3731119 0.0624736 0.2682603 16711746
0.6649260 -0.1904498 0.6286850 16711746
0.5254064 -0.0858502 0.4903604 16711746
1.0290169 -0.7656879 0.8564072 16711746
0.6195203 -0.4087088 0.5909649 16711746
1.6461897 -0.3268969 0.9871997 16711746
1.6943288 -0.2275011 0.4191429 16711746
1.7538108 -0.2669899 0.4284448 16711746
0.9156496 -0.3130198 0.4758862 16711746
1.2233554 -0.3706556 1.6026490 16711746
0.7127527 -0.3030512 1.1184503 16711746
0.5226648 -0.3138306 0.7666217 16711746
0.7892689 -0.3129739 0.8090291 16711746
0.7223966 -0.2648402 0.9296031 16711746
0.6378492 -0.1697834 0.6679854 16711746
0.7533683 -0.2936979 0.9465774 16711746
0.7458181 -0.2805634 0.5081521 16711746
0.9357757 -0.5330696 1.1303312 16711746
1.1839367 -0.5129908 0.2397747 16711746
1.3609701 -0.5339127 0.4346437 16711746
3.6334875 -1.5012832 0.9918874 16711746
0.5682819 -0.2909222 0.5729948 16711746
0.9224235 -0.4959441 0.8291571 16711746
0.5527897 -0.3425813 0.7420434 16711746
0.9823154 -0.6074964 1.1108432 16711746
0.4304845 -0.2254324 0.5043790 16711746
0.8811563 -0.8132868 1.0161821 16711746
8.7434635 -9.9316111 4.6024728 16711746
64.4857559 -171.7479401 92.8962479 16711746
37.1249657 -76.0596237 52.9719810 16711746
47.6531563 -88.4722137 46.9267654 16711746
4.5085711 -16.7441998 42.6242599 16711746
47.3388557 -183.9262390 113.6014633 16711746
0.2373136 -10.5805979 8.8033094 16711746
-4.1765547 -3.5159335 7.0326915 16711746
