# .PCD v.7 - Point Cloud Data file format
VERSION .7
FIELDS x y z rgb
SIZE 4 4 4 4
TYPE F F F F
COUNT 1 1 1 1
WIDTH 172
HEIGHT 1
VIEWPOINT 0 0 0 1 0 0 0
POINTS 172
DATA ascii

 -0.0421473 0.0646403 2.2019100 16777215
 -0.0010545 0.0038144 0.0482617 16777215
0.4697540 -0.6722997 0.4346103 16711746
1.4448096 -3.7154496 2.2047491 16711746
0.4735046 -0.2919579 0.1351546 16711746
0.4184749 -0.2373305 0.1363994 16711746
0.5621210 -0.3332566 0.1801046 16711746
0.7856616 -3.2659090 2.2370749 16711746
0.3300141 -1.6319612 1.1241922 16711746
0.3079262 -1.6381096 1.0972252 16711746
1.6397752 -1.6767426 1.6130768 16711746
0.8936999 -0.9432376 0.8930240 16711746
0.5128093 -1.2319982 0.5753503 16711746
0.3459403 -0.9150718 0.4337076 16711746
0.6405482 -1.4830625 1.1576785 16711746
0.2927527 -0.6010735 0.3764370 16711746
0.3411920 -0.6123674 0.2353172 16711746
0.4895075 -0.4030245 0.1830102 16711746
0.5841097 -0.4441083 0.2174055 16711746
1.3682368 -1.7143981 1.6243989 16711746
0.4028219 -0.2958389 0.3442975 16711746
0.7487240 -0.6648159 0.7248269 16711746
0.7438300 -0.7263907 0.7021147 16711746
0.3744619 -0.5409967 0.4860887 16711746
0.6087404 -0.7757195 0.5122780 16711746
0.4654806 -0.3454926 0.3498702 16711746
0.5029424 -0.3047382 0.2812185 16711746
0.5808628 -0.2832817 1.1086887 16711746
0.6299585 -0.1851242 0.9882593 16711746
0.8867148 -0.2040425 1.2109545 16711746
1.0957733 -0.8287698 2.4499292 16711746
1.0709642 -0.7535622 2.7149470 16711746
1.6512806 -1.1106311 2.5907793 16711746
0.7522805 -0.5333412 1.0992852 16711746
0.7920343 -0.3819575 0.9522101 16711746
0.9579788 -0.5457575 1.1825209 16711746
0.6404677 -0.3785320 0.9961235 16711746
1.1088433 -0.4050466 1.3649317 16711746
1.0680848 -0.4221822 1.2557729 16711746
1.4558072 -0.6180538 1.8000720 16711746
0.6728866 -0.2676446 0.3994530 16711746
0.6920797 -0.2889887 0.4062435 16711746
0.7915030 -0.4477631 0.7629265 16711746
0.3432736 -0.4675223 0.1919511 16711746
0.4283736 -0.6206430 0.2363417 16711746
0.4549379 -0.4737413 0.2112537 16711746
0.4911861 -0.5126467 0.2118028 16711746
0.7346853 -1.4215715 0.5978744 16711746
0.4733956 -0.9236227 0.3898141 16711746
0.5631283 -0.6673246 0.3731328 16711746
1.8714130 -1.1735456 2.0141344 16711746
0.9110265 -1.6891404 1.0424970 16711746
0.5506687 -0.2758141 0.2934006 16711746
0.4710892 -0.4375345 0.1979562 16711746
0.4580330 -0.5231835 0.1967219 16711746
0.4620783 -0.4304464 0.1739303 16711746
0.4397567 -0.4388660 0.1869606 16711746
0.5026678 -1.0055832 0.5204022 16711746
0.7383966 -1.5043951 0.7176552 16711746
0.5172240 -0.4243848 0.5123291 16711746
0.5375004 -0.4745461 0.5789442 16711746
0.5900911 -0.7100731 0.4917382 16711746
0.5960423 -1.9150124 1.0702780 16711746
0.5218284 -0.2491430 0.1140525 16711746
0.0943600 -2.0428774 0.7767896 16711746
0.5631868 -0.2362337 0.3753066 16711746
0.5603428 -0.5050924 0.1868039 16711746
1.2783072 -1.9149500 1.3328398 16711746
0.8568507 -0.7870178 0.9059464 16711746
0.7981651 -0.7457641 0.8389366 16711746
0.5189402 -0.5334162 0.5138133 16711746
0.5614728 -0.5958992 0.5517055 16711746
0.8282846 -0.8062911 0.8575103 16711746
0.9304609 -0.9819931 1.0627021 16711746
0.9230160 -0.9816777 1.0006409 16711746
0.4644911 -0.2594986 0.1677838 16711746
0.4578845 -0.2811577 0.2823086 16711746
0.4690248 -0.3061002 0.3057314 16711746
0.4764366 -0.6898968 0.5546792 16711746
0.5452888 -1.1181387 0.6065814 16711746
0.6897369 -0.4031669 0.4573476 16711746
0.5037808 -1.2582054 0.5447980 16711746
0.8583799 -2.0472724 0.8083436 16711746
0.2683930 -1.9908874 1.1618558 16711746
0.4036905 -0.4271361 0.2934934 16711746
0.5582704 -0.6996319 0.3218438 16711746
0.7152387 -0.9491028 0.9535507 16711746
0.4592730 -0.6146436 0.3916339 16711746
0.6539661 -1.1761881 0.5430101 16711746
2.0708094 -2.3565414 4.2272577 16711746
0.7148764 -0.3839985 0.3669148 16711746
1.9395072 -3.1919997 2.7021565 16711746
0.5167542 -0.5575452 0.1410229 16711746
0.4833702 -1.9830859 0.7455372 16711746
0.7433929 -0.4842329 0.4673811 16711746
0.8996355 -1.3312303 1.6092405 16711746
0.1225376 -1.1587844 0.5478751 16711746
0.6233232 -0.2035812 0.1684109 16711746
1.0124995 -0.6311669 1.2815202 16711746
0.6406501 -0.4139216 0.8309434 16711746
2.1369362 -2.5119133 4.2202826 16711746
0.5349200 -0.3626664 0.3131745 16711746
0.6868501 -0.4842257 0.3727849 16711746
0.3168333 -1.8089006 1.5990947 16711746
0.5383715 -0.2489950 0.3190925 16711746
0.3053949 -1.9157703 1.3446923 16711746
0.8267547 -1.1555129 1.2995162 16711746
0.9067923 -0.5415879 1.0533099 16711746
0.8033278 -1.3278128 0.7992124 16711746
0.3062088 -0.5059152 0.3167964 16711746
0.8026403 -1.0722760 1.4471471 16711746
0.9119524 -1.3382527 1.8181189 16711746
0.2526015 -0.7684439 0.5994782 16711746
0.7533988 -2.7828619 2.0139048 16711746
0.5351791 -0.4373114 0.1790702 16711746
0.6818972 -0.7646698 0.4458404 16711746
0.5604624 -0.9265360 0.4222201 16711746
0.5808297 -0.4541309 0.3478153 16711746
0.5744383 -0.4463445 0.3295202 16711746
0.6782427 -0.5293152 0.6947087 16711746
1.4010203 -1.1927754 1.4747995 16711746
0.7019556 -0.5731668 0.7087769 16711746
2.2184963 -3.9037817 2.4816234 16711746
0.9645441 -1.1246637 0.8469128 16711746
0.7483352 -0.8183738 0.6975209 16711746
0.8761232 -1.0125554 0.8357120 16711746
0.6015984 -0.5212569 0.9038930 16711746
0.7311636 -0.3583288 0.7986192 16711746
0.8034129 -0.4417523 0.8659213 16711746
1.4788793 -1.6085641 2.7284217 16711746
0.4937837 -0.3454279 0.5365691 16711746
0.6607048 -0.4994944 0.6703056 16711746
1.0415162 -1.7094845 1.9792597 16711746
0.3422928 -0.4177242 0.5352721 16711746
0.6976932 -0.8176211 1.1035627 16711746
0.8697883 -0.1855397 0.4674693 16711746
0.7762218 -0.2970367 0.6227194 16711746
0.4511226 -0.1594170 0.3943822 16711746
0.6855606 -0.3222013 0.6778457 16711746
0.5432360 -0.1409401 0.2454555 16711746
0.4740348 -0.1699489 0.2410078 16711746
0.5411917 -0.2151622 0.3025201 16711746
0.8735151 -0.4350110 0.6810731 16711746
0.6300541 -0.2237359 0.3711776 16711746
2.4314680 -0.9981092 3.6981332 16711746
0.9465083 -0.3994919 1.6067859 16711746
0.4096609 -0.4990149 0.9900309 16711746
1.3774122 -1.2743734 2.8791473 16711746
0.4612601 -0.0881359 0.4875638 16711746
0.7579707 -0.1910889 0.8681559 16711746
0.7188010 -0.0570637 0.7386691 16711746
0.7008729 -0.0363586 0.4497263 16711746
1.0092763 -0.2714210 0.9362088 16711746
0.6253487 -0.2330108 0.6724523 16711746
0.5418486 -0.1752826 0.4937811 16711746
0.8774450 -0.3409857 0.8650491 16711746
0.6770394 -0.0784046 0.5782410 16711746
0.4410532 -0.5845932 0.2858616 16711746
0.6525744 -0.9400520 0.5644870 16711746
0.4480254 -0.5801814 0.3267978 16711746
6.9179330 -8.3115387 6.3259778 16711746
38.7406425 -72.8519745 81.4765549 16711746
50.2895355 -40.2531128 51.5686378 16711746
22.6435490 -28.1781559 47.5814514 16711746
-26.8126736 -23.2110081 31.5745087 16711746
39.3614540 -67.6010971 47.3018570 16711746
0.5254852 -1.6230470 4.5781040 16711746
44.8878098 -28.5478439 48.9788094 16711746
16.9445438 -15.9790106 10.5528297 16711746
17.9677124 -22.3111115 37.7144508 16711746
16.2071533 -26.3280087 29.3579464 16711746
40.0285416 -63.3234367 53.3400154 16711746
