# .PCD v.7 - Point Cloud Data file format
VERSION .7
FIELDS x y z rgb
SIZE 4 4 4 4
TYPE F F F F
COUNT 1 1 1 1
WIDTH 216
HEIGHT 1
VIEWPOINT 0 0 0 1 0 0 0
POINTS 216
DATA ascii

 0.0194604 -0.0538501 0.3118599 16777215
 0.0039219 -0.0045649 0.0007688 16777215
-0.3088844 -0.3531244 0.4277214 16711746
-0.3593763 -0.4870592 0.5408859 16711746
0.0480804 -1.2107061 0.8764758 16711746
0.3758081 -0.9475169 0.5623841 16711746
0.6808668 -0.8205781 1.2132218 16711746
0.9847898 -0.7861918 1.2837945 16711746
0.5667903 -0.4653716 0.7619175 16711746
-0.0487665 -0.9083138 0.7537417 16711746
-0.0711245 -0.9059933 0.7410672 16711746
1.1521666 -1.2477456 0.8240525 16711746
0.0087121 -0.6194181 0.5839946 16711746
0.2991435 -0.7393687 0.7918465 16711746
0.3490107 -0.4540269 0.8170544 16711746
0.3366919 -1.1439217 0.4579422 16711746
0.3059447 -1.1335714 0.4405025 16711746
0.8549610 -0.5797724 1.2253342 16711746
0.6475006 -0.4569384 0.7384419 16711746
0.9728485 -0.8395367 1.1785992 16711746
0.2145638 -0.4062719 0.5220464 16711746
0.3952969 -0.7175081 0.8742229 16711746
0.3971568 -0.6675629 0.9773600 16711746
0.4951933 -0.3382467 0.5782087 16711746
0.8904002 -0.6429074 1.1015711 16711746
0.5698448 -0.4089064 0.6694332 16711746
0.6235142 -0.8904965 1.0665478 16711746
0.7223864 -0.8991257 1.0435052 16711746
-0.1660002 -0.2258279 0.5892158 16711746
-0.0198167 -0.4982117 0.5571268 16711746
-0.0639435 -0.8376272 0.9133103 16711746
0.7132303 -1.2269542 0.6499838 16711746
0.6896859 -1.2353278 0.6777168 16711746
0.6675447 -1.2276320 0.6508158 16711746
0.6470244 -0.4206094 0.7864459 16711746
1.1921859 -0.7390364 1.3483329 16711746
0.6093184 -0.4141810 0.8062195 16711746
-0.0726822 -0.9189081 0.6810085 16711746
0.6279941 -0.6642859 0.6456458 16711746
0.0687741 -0.9123713 0.8312241 16711746
-0.0782240 -0.7598256 0.4658214 16711746
0.2759314 -0.5907475 0.6361072 16711746
1.1294183 -0.6717706 1.4395567 16711746
0.7905130 -0.5875044 0.6974054 16711746
0.8851950 -0.9153756 0.7887413 16711746
-0.2603334 -0.9735600 0.9009039 16711746
1.2074801 -0.8454511 1.0701939 16711746
1.1731565 -0.8495237 1.0772324 16711746
-0.2329919 -1.1699162 0.7480758 16711746
0.3728191 -0.9560295 0.7760651 16711746
0.1869236 -0.5423337 0.2972917 16711746
0.3924392 -1.2797682 0.6994436 16711746
0.1492400 -0.9412107 0.7692401 16711746
-0.4809908 -0.4626394 0.4694889 16711746
-0.4589450 -0.4734960 0.4774593 16711746
0.9875845 -1.2579669 1.0864948 16711746
0.4393743 -0.5910265 0.4861024 16711746
0.6108152 -0.6760809 0.6134022 16711746
0.8099787 -0.9276464 0.8394672 16711746
-0.0918489 -0.2273037 0.5086074 16711746
0.4531876 -0.9551232 0.7901806 16711746
-0.1414856 -0.2587374 0.6165025 16711746
-0.1066617 -0.2156341 0.4992290 16711746
0.1207667 -0.9494175 0.6851143 16711746
0.0936769 -0.9460406 0.6888538 16711746
-0.0040040 -0.7704424 0.4040806 16711746
0.4466396 -0.9549479 0.6439172 16711746
0.0130159 -0.9382123 0.6571207 16711746
-0.6583881 -0.5263979 0.5470438 16711746
0.5374561 -0.5446292 0.6187456 16711746
0.0539974 -0.7623577 0.6023824 16711746
0.0683895 -0.6470958 0.4946092 16711746
0.9253469 -0.9100174 0.8930728 16711746
-0.4292628 -0.8063138 0.5601777 16711746
0.2552004 -0.5617295 0.6967801 16711746
-0.6525618 -0.5509666 0.5596771 16711746
-0.5222950 -0.4524997 0.4451583 16711746
0.7953059 -0.8874635 1.0729839 16711746
0.4780539 -0.5517850 0.6442997 16711746
0.5739276 -0.8435135 1.1588191 16711746
0.2946074 -0.4730816 0.6321083 16711746
0.9484158 -0.8585954 0.5954569 16711746
0.5356859 -0.9453750 0.8615882 16711746
0.2466343 -0.6303216 0.4984530 16711746
0.3317021 -0.9557104 0.7685015 16711746
0.9690086 -0.9003225 0.7919768 16711746
0.6381580 -0.9450880 0.8249540 16711746
1.0089813 -0.7565041 1.3302057 16711746
0.5729889 -0.4456842 0.7841489 16711746
0.0855783 -0.6408867 0.5222855 16711746
1.0039370 -0.4987831 0.6266961 16711746
0.6350917 -0.6725383 0.4844006 16711746
1.1693841 -1.2512478 0.8565780 16711746
0.8697419 -0.8302519 0.6607451 16711746
0.9468811 -0.8806389 0.6607769 16711746
0.4587691 -0.7186515 0.5744740 16711746
0.6214793 -0.9475339 0.8026305 16711746
-0.1334888 -0.9185344 0.5207434 16711746
0.7248079 -0.8745731 1.1103461 16711746
-0.1287792 -1.0962334 1.1877450 16711746
-0.1552828 -0.8213229 0.8710877 16711746
0.0895959 -0.8896593 0.9053658 16711746
0.5576946 -0.5128508 0.6874982 16711746
0.5399014 -0.5248019 0.6720021 16711746
1.0448445 -1.2321079 1.2044510 16711746
0.3879279 -0.4610322 0.4807231 16711746
0.2829149 -0.5088596 0.5556235 16711746
0.3406983 -0.5925976 0.6066909 16711746
0.6881389 -0.9342982 0.6777796 16711746
1.0105488 -1.2647841 1.0196885 16711746
0.9995864 -1.2667245 0.9891028 16711746
0.7444649 -0.6385208 0.5175005 16711746
0.0345929 -0.5016455 0.3182975 16711746
0.0909193 -0.9476339 0.5631127 16711746
-0.2177991 -0.9000914 0.4744061 16711746
0.0783081 -0.8892742 0.3367054 16711746
-0.3991073 -0.5111040 0.4461292 16711746
-0.3236024 -0.9916940 0.6718802 16711746
0.0122427 -0.9049167 0.8151094 16711746
0.0675080 -0.7059511 0.7668078 16711746
-0.0277025 -0.8918110 0.8229495 16711746
-0.1175312 -0.9171543 0.6239789 16711746
-0.2038579 -0.8793678 0.6881656 16711746
0.3194496 -0.2186134 0.9005415 16711746
0.0357424 -0.9282448 0.4527907 16711746
0.0086731 -0.9248129 0.4435674 16711746
0.0075705 -1.1575708 0.5359259 16711746
-0.0951870 -0.5638997 0.6485505 16711746
-0.0777754 -0.5751404 0.6399691 16711746
-0.1090325 -0.6522368 0.7230871 16711746
0.4019432 -0.9580555 0.6545136 16711746
0.2462919 -0.6331494 0.4476597 16711746
0.2199247 -0.4533803 0.4143680 16711746
0.5974611 -1.2428983 1.1046499 16711746
0.5582765 -1.2413754 1.0975916 16711746
-0.3084847 -1.1567719 0.6891613 16711746
-0.1954293 -0.7308327 0.4223793 16711746
0.4874916 -1.2292875 0.6668022 16711746
0.5604491 -0.9267350 0.5555338 16711746
0.3460954 -0.7383334 0.5833794 16711746
0.4000284 -0.3919397 0.7362722 16711746
0.4052657 -0.4519567 0.8138234 16711746
-0.2122283 -0.8716729 0.7032795 16711746
0.2772653 -1.1789815 0.5402862 16711746
0.4217196 -0.9125794 0.4560798 16711746
0.3915938 -0.9246165 0.4796291 16711746
0.6002266 -0.9394000 0.6355683 16711746
0.5633598 -0.9414841 0.6218629 16711746
-0.0355059 -0.5856929 0.6375073 16711746
0.3102796 -0.5183455 0.5065328 16711746
-0.1512756 -0.9153460 0.5342764 16711746
0.2904952 -0.6096370 0.3400393 16711746
0.5234496 -1.2247533 0.6461483 16711746
0.5547588 -0.5314792 0.6443213 16711746
0.8999682 -0.8773728 1.0875037 16711746
0.9351339 -0.8840575 1.0544133 16711746
0.0710667 -1.1982263 0.5393828 16711746
0.5803039 -0.5309358 0.8835340 16711746
1.3220845 -0.7055189 1.3870723 16711746
1.1738203 -0.6960739 1.4105145 16711746
0.3294109 -0.4902235 0.7839542 16711746
0.3503232 -0.7872224 1.1863106 16711746
0.4518578 -0.4534097 0.8056763 16711746
0.3252963 -0.4435534 0.6760790 16711746
0.2149225 -0.3792019 0.7391475 16711746
1.2280455 -0.8365570 1.0981902 16711746
1.0065024 -0.8479882 1.1511860 16711746
0.4927069 -0.5069355 0.7285445 16711746
0.8379926 -0.3250161 0.8005640 16711746
1.4057000 -0.8024853 1.1113725 16711746
0.8662707 -0.4052877 1.5729196 16711746
0.5840603 -0.2416457 0.9020117 16711746
0.6370983 -0.2041379 0.9287481 16711746
0.5391501 -0.1841107 0.9420555 16711746
0.8635550 -0.5401253 1.7596723 16711746
0.3306451 -0.2929771 0.8964204 16711746
1.0436668 -0.6340112 1.4733559 16711746
0.7562042 -0.3222161 0.8348342 16711746
0.5090863 -0.2690462 0.8378122 16711746
0.5685180 -0.3000211 0.8878033 16711746
0.4599190 -0.3312371 0.8858824 16711746
0.3056256 -0.3964026 0.8576760 16711746
0.4635606 -0.3874130 0.8566280 16711746
0.3567495 -0.5039134 1.3956032 16711746
0.2472196 -0.3474424 0.8749607 16711746
0.4033636 -0.3104306 0.8947384 16711746
0.3536036 -0.3600042 0.8764836 16711746
-0.3939424 -0.4299274 0.4978135 16711746
-0.0738468 -0.5816630 0.8333059 16711746
-0.1977972 -0.6437632 1.0243976 16711746
-0.0774359 -0.3957329 0.6275770 16711746
-0.0110760 -0.4875333 0.5751016 16711746
-0.0156894 -0.6856584 0.7916849 16711746
-0.0662410 -0.3456664 0.4771233 16711746
-0.3098158 -0.2427500 0.6221921 16711746
0.1226922 -0.2549578 0.7707779 16711746
0.1157544 -0.2148797 0.7719927 16711746
-0.1430002 -0.2211837 0.6098071 16711746
-0.1587187 -0.2153592 0.5938095 16711746
-0.1598647 -0.1617880 0.5756709 16711746
-0.1636557 -0.2522676 0.8351894 16711746
-0.1004603 -0.1924484 0.6397141 16711746
-0.1164828 -0.3878966 0.7592387 16711746
-0.2160762 -0.3006044 0.7035244 16711746
-0.0948947 -0.2911258 0.6523813 16711746
0.7770948 -1.0203431 0.3030477 16711746
0.3078232 -1.0979574 1.4326471 16711746
6.0748386 -5.4839659 5.3802953 16711746
-0.2873252 -0.3007659 0.5817351 16711746
1.6198471 -2.2736642 4.0855656 16711746
3.0386009 -5.4421382 4.9539690 16711746
-0.5057186 -3.4997370 4.0498028 16711746
-0.3547499 -12.7874918 6.7306695 16711746
1.0855205 -14.2734108 11.3238525 16711746
2.6812840 -5.7130537 6.0688581 16711746
0.8701258 -1.0599622 0.9574675 16711746
