# .PCD v.7 - Point Cloud Data file format
VERSION .7
FIELDS x y z rgb
SIZE 4 4 4 4
TYPE F F F F
COUNT 1 1 1 1
WIDTH 145
HEIGHT 1
VIEWPOINT 0 0 0 1 0 0 0
POINTS 145
DATA ascii

 -0.0429543 0.0705193 2.2366953 16777215
 0.0096579 0.0041415 0.0293374 16777215
0.5750548 -0.7994555 0.3878677 16711746
0.5215696 -0.9128184 0.6931363 16711746
0.5343171 -0.9165431 0.6849722 16711746
0.6246971 -0.7591838 0.3874206 16711746
0.4637643 -0.7786425 0.5130389 16711746
0.9041045 -0.7760401 0.4263502 16711746
0.3880396 -0.5212554 0.3664661 16711746
0.0864190 -1.4883897 0.6110064 16711746
0.5205886 -0.5816428 0.3716865 16711746
0.7113650 -0.4417994 0.3844198 16711746
0.6193308 -0.3314402 0.2817525 16711746
0.0416129 -0.6555552 0.5287234 16711746
0.6129994 -1.0952893 0.4532344 16711746
0.5428966 -0.5365592 0.3787448 16711746
0.4900512 -0.4356226 0.3076570 16711746
0.5680863 -0.7098320 0.4978189 16711746
0.5729768 -1.0470041 0.5516884 16711746
0.4900195 -1.0223120 0.6261101 16711746
1.4053499 -1.7008524 0.7727821 16711746
0.6660469 -0.3768114 0.6430823 16711746
-0.1846099 -0.9162610 0.7487090 16711746
1.1349607 -0.4105530 0.2019818 16711746
0.8690943 -0.6350214 0.9891413 16711746
0.4058680 -0.7675707 0.5547959 16711746
0.5442753 -0.1055781 0.4220042 16711746
0.5786146 -0.1146275 0.5762504 16711746
0.6578909 -0.1826190 0.6541020 16711746
-0.4202223 -0.8004967 0.9278158 16711746
0.1303362 -0.8702722 1.0392160 16711746
0.0855123 -0.6350198 0.6962395 16711746
-0.0263930 -0.6484529 0.6941233 16711746
-0.0810046 -0.8059409 0.8537652 16711746
-0.0614103 -0.7936352 1.0290203 16711746
-0.1456058 -0.6005799 1.1096653 16711746
0.7408053 -0.9442446 0.4106503 16711746
0.4614875 -0.6823331 0.3001595 16711746
0.5656635 -0.4356046 0.7481182 16711746
0.5135730 -0.3707300 0.7416233 16711746
0.4434957 -0.5298976 0.7836971 16711746
0.3333666 -0.3118455 0.6106536 16711746
0.6458019 -0.4427954 0.6508555 16711746
0.3905065 -0.6128286 0.8105975 16711746
1.4894065 -0.1242781 0.6080323 16711746
0.6305813 -0.3031351 0.6026065 16711746
0.7660908 -0.2337265 0.4199612 16711746
0.3696617 -0.2680208 1.1024237 16711746
0.4888382 -0.2063044 0.6047547 16711746
0.7552726 -0.2233782 0.6444113 16711746
0.5455544 -0.5767412 0.3450130 16711746
0.7228930 -0.3639877 0.3413703 16711746
-0.0807271 -0.9199956 0.7023365 16711746
-0.0833283 -0.7713993 0.6075375 16711746
0.6806723 -1.4095081 0.5612850 16711746
0.4622398 -1.0790958 0.4305874 16711746
0.6206741 -0.4060970 0.3004302 16711746
0.7534148 -0.5060442 0.3399547 16711746
-0.2876927 -1.2871618 0.6550179 16711746
-0.3012099 -1.2641180 0.6289525 16711746
0.0960729 -0.9395534 0.4129986 16711746
0.1057805 -1.1758442 0.4822942 16711746
0.9575198 -0.4828239 0.3797936 16711746
0.1974680 -0.6296289 0.6778515 16711746
-0.1703835 -1.3402344 0.9328995 16711746
0.4384536 -0.6305823 0.7954355 16711746
0.8949825 -0.5313724 0.4802607 16711746
0.8796803 -0.2273417 0.1629333 16711746
0.7486714 -1.3163357 0.7349121 16711746
1.1433513 -0.4003105 0.0848267 16711746
0.6335636 -0.5416303 0.6981204 16711746
0.6306936 -0.5791734 0.7075032 16711746
0.4900669 -0.3929618 0.3228065 16711746
0.2715722 -0.8989390 0.4804833 16711746
0.4139481 -0.5131220 0.7908043 16711746
0.0172955 -1.4677520 0.5859939 16711746
0.8100003 -0.2401289 0.3915583 16711746
0.7922491 -0.2508343 0.4149128 16711746
0.5366324 -1.0629896 0.5544031 16711746
0.6371126 -1.4327971 0.4741998 16711746
1.1734415 -1.2442874 0.3341013 16711746
0.1890309 -0.6902514 0.8597551 16711746
0.8986354 -0.4018621 -0.0206308 16711746
0.5403914 -0.3410546 0.2452368 16711746
0.5072011 -0.6410721 0.3154039 16711746
0.6069169 -0.9147209 0.6486390 16711746
0.4507942 -0.6077355 0.2094305 16711746
0.7249671 -0.5663963 0.6886598 16711746
-0.0329082 -1.0298243 0.6287352 16711746
1.1025915 -0.4519857 0.1254515 16711746
0.3671387 -1.1224411 0.5590268 16711746
0.6789218 -0.7244039 0.6804898 16711746
0.6986695 -0.7633606 0.6847275 16711746
0.6801817 -1.3944058 0.6258506 16711746
0.7104917 -0.3675326 0.3644947 16711746
0.7408198 -0.4068720 0.3732121 16711746
0.4866444 -0.8154432 0.7508130 16711746
0.6103859 -0.9593730 0.2687694 16711746
0.7696445 -0.4767479 0.1570294 16711746
0.4400418 -0.4232865 0.3687591 16711746
0.4602062 -0.6387177 0.4008752 16711746
0.5161909 -0.7195874 0.5238007 16711746
0.4518734 -0.4466278 0.3513144 16711746
0.4110591 -0.6040298 0.4573911 16711746
0.5655751 -0.3521498 0.3596880 16711746
1.1581843 -0.4669046 0.5625165 16711746
1.0427614 -0.4929628 0.2122366 16711746
0.9449997 -0.7090818 0.4036315 16711746
-0.3390704 -1.2289811 0.6717405 16711746
0.1477962 -1.1160054 0.6281130 16711746
0.1262485 -0.8757958 0.7684454 16711746
0.1948767 -0.7034489 1.0254215 16711746
1.4346926 -1.5933768 0.3974134 16711746
0.3644986 -0.4674706 0.2950195 16711746
0.6794474 -0.3267262 0.3767562 16711746
0.6556229 -0.9739186 0.4922099 16711746
1.1373453 -0.4832370 0.6101137 16711746
0.6568298 -0.2670737 0.3420518 16711746
-0.0839670 -1.1236957 0.5656332 16711746
0.4184273 -1.1553620 0.4606725 16711746
0.7983018 -1.3796023 0.4786658 16711746
-0.0571384 -0.9945374 0.7490576 16711746
0.7704256 -1.2776945 0.7752341 16711746
0.0258541 -1.4490112 0.5036821 16711746
-0.1553956 -0.7998724 0.7259390 16711746
-0.0087282 -0.8567029 0.8424774 16711746
0.1997806 -1.0451314 0.7092751 16711746
-0.2127247 -0.9155695 0.7188727 16711746
0.7861483 -1.3812040 0.4983496 16711746
0.2156032 -1.3530511 0.9590449 16711746
25.9393234 -38.6508713 52.2340202 16711746
43.6258774 -23.3306561 45.2863922 16711746
41.4155998 -26.9343510 45.2671814 16711746
51.7457085 -31.5439548 55.2698441 16711746
20.2792282 -28.2870541 36.8504372 16711746
34.5699234 -28.1200066 35.5289078 16711746
157.8481293 -415.9871826 301.5303040 16711746
-0.9831833 -69.6661148 65.1096268 16711746
2.3630726 -2.6649129 4.3233228 16711746
306.4263611 -1396.2668457 1139.9254150 16711746
183.4951019 -493.4927063 264.0968933 16711746
26.4197407 -39.1096306 54.8930893 16711746
30.6512470 -64.5660019 54.7743073 16711746
29.0562553 -52.2464561 45.5746689 16711746
47.6421814 -148.7619476 98.7924194 16711746
