# .PCD v.7 - Point Cloud Data file format
VERSION .7
FIELDS x y z rgb
SIZE 4 4 4 4
TYPE F F F F
COUNT 1 1 1 1
WIDTH 150
HEIGHT 1
VIEWPOINT 0 0 0 1 0 0 0
POINTS 150
DATA ascii

 -0.1416055 0.0617337 1.6795821 16777215
 0.0049559 0.0132174 0.0393347 16777215
1.0909157 -0.8034759 0.5308558 16711746
0.4298976 -0.8396407 0.5223653 16711746
0.3889065 -0.6478350 0.4690896 16711746
0.5381563 -0.8532354 0.5968455 16711746
0.7242653 -0.8469595 0.3745154 16711746
0.7050899 -0.8328853 0.3463998 16711746
0.4137965 -0.7869992 0.3524616 16711746
0.6260927 -0.9581625 0.8497378 16711746
1.3331740 -0.8352295 0.5056360 16711746
1.9832481 -1.3184766 0.7379856 16711746
0.4841243 -0.6887934 0.3488146 16711746
-0.0472880 -0.6219963 0.4915351 16711746
1.1526169 -0.9938794 0.9127692 16711746
1.7595911 -1.1032739 0.5934628 16711746
-0.3213009 -0.6429736 0.7905716 16711746
-0.6986535 -0.5063990 0.6748058 16711746
0.0831501 -0.7409332 1.1274614 16711746
0.1543393 -0.6146739 1.0315794 16711746
0.1323235 -0.5687457 0.9889808 16711746
0.2158433 -0.7629403 0.9610113 16711746
0.0079806 -0.4819142 1.0284679 16711746
0.1763123 -0.5140310 1.1318097 16711746
0.4441806 -0.6483410 0.4191241 16711746
0.4336466 -0.7037553 0.2450039 16711746
0.4563977 -0.6941115 0.3329106 16711746
0.3058350 -0.7567179 0.3002310 16711746
0.3096230 -0.6842418 0.3219425 16711746
1.3502854 -1.4418001 1.3349284 16711746
0.2240176 -0.6856489 0.5833794 16711746
1.3218706 -0.9460610 0.3140973 16711746
0.4856443 -0.7979357 0.4213091 16711746
0.4440990 -0.6871218 0.3472035 16711746
0.3861764 -0.6578298 0.4014828 16711746
0.3998838 -0.7400157 0.4517027 16711746
-0.3553599 -0.5140263 0.6873286 16711746
1.4775625 -1.2132879 0.7069241 16711746
0.4920819 -0.8006690 0.3486649 16711746
0.3956526 -0.6287684 0.2601740 16711746
0.1765904 -0.8459728 0.8071415 16711746
0.1672089 -0.7497606 0.6884071 16711746
0.4258598 -0.7246761 0.2939665 16711746
0.1606486 -0.7140515 0.5360608 16711746
0.4799914 -0.8483051 0.5948126 16711746
1.0142986 -1.0199026 0.4705683 16711746
1.0409800 -1.0403589 0.4495390 16711746
0.8285524 -0.8718732 0.3508419 16711746
0.1980276 -0.6060645 0.2891864 16711746
0.1735997 -0.5871333 0.2749031 16711746
0.3931309 -0.8168596 0.9350423 16711746
0.3486427 -0.8231091 0.9275463 16711746
0.0109791 -0.5862030 0.4005178 16711746
0.0080152 -0.5527057 0.3239987 16711746
0.1069793 -0.6397290 0.7897390 16711746
0.5739623 -1.0158352 1.1120524 16711746
0.7731132 -0.6367171 1.0415243 16711746
0.5416256 -0.7808532 0.6125622 16711746
0.5706863 -0.8300682 0.6291169 16711746
0.3221420 -0.6520946 0.4627894 16711746
0.4062255 -0.7792925 0.7423938 16711746
-0.5074570 -0.4593747 0.4844706 16711746
0.9709328 -0.8534669 0.7191005 16711746
6.1841636 -2.1514292 2.1418262 16711746
-0.0866259 -0.5464247 0.2524688 16711746
0.2775505 -0.6870013 0.3839120 16711746
0.2690161 -0.6500517 0.3445612 16711746
-0.4830488 -0.4729383 0.4510045 16711746
2.3858564 -1.2362862 0.9910846 16711746
2.8080468 -1.4869331 1.1122081 16711746
2.0915594 -1.4677386 1.4477884 16711746
-0.2458332 -0.5417216 0.3669786 16711746
0.5537469 -0.7007145 0.2922020 16711746
0.7410000 -0.7148196 0.3213575 16711746
0.2814366 -0.7658636 0.3495288 16711746
0.9661161 -0.8979408 0.3339460 16711746
0.9005212 -0.8910254 0.3316999 16711746
0.9526845 -0.7578014 0.3342734 16711746
0.5017958 -0.9475390 1.1426198 16711746
0.5508924 -0.7982929 0.6613868 16711746
0.4975255 -0.7948538 0.6609460 16711746
1.1522132 -1.0184236 0.7938536 16711746
0.3870718 -0.6763676 1.2413644 16711746
1.0593797 -0.7393399 1.0322833 16711746
0.6299421 -0.8085938 1.2242072 16711746
0.8846357 -0.9265751 1.3500624 16711746
0.5435426 -0.5943560 1.4582446 16711746
0.2756932 -0.7391526 0.4272726 16711746
0.9486389 -0.9530530 0.6154982 16711746
2.8512914 -1.6816149 1.3652067 16711746
0.7775043 -0.7529998 0.2574914 16711746
1.0616957 -1.0942812 0.3738651 16711746
0.2925860 -0.7491482 0.3186359 16711746
-0.4136929 -0.4683749 0.5396573 16711746
-0.4008023 -0.4766155 0.5255060 16711746
0.2195167 -0.7543598 0.4612926 16711746
0.0622572 -0.6729212 0.8259767 16711746
0.2079634 -0.7454342 0.8960083 16711746
1.1009340 -0.7711737 0.2699725 16711746
1.0223304 -0.7570380 0.2940830 16711746
1.4608239 -1.0237372 0.5464169 16711746
0.4392308 -0.8874584 1.1670089 16711746
-0.0904732 -0.5785787 0.3069315 16711746
-0.0768106 -0.6085594 0.2750373 16711746
0.5018715 -0.6100236 0.3174821 16711746
0.4176447 -0.6398515 0.2159663 16711746
1.8126817 -1.2064866 0.4237886 16711746
0.6446289 -0.7636552 0.4976550 16711746
0.6981685 -0.9020868 0.5586215 16711746
-0.2624086 -0.4791911 0.4188549 16711746
0.3738589 -0.7710453 0.3793493 16711746
0.3237197 -0.6823007 0.3336765 16711746
0.0488783 -0.5827646 0.3184529 16711746
0.8512107 -1.0068791 0.9558397 16711746
0.0233625 -0.5575332 0.3071156 16711746
1.7758726 -0.8167284 1.2486829 16711746
0.1649907 -0.7037439 0.4797303 16711746
-0.0276773 -0.4142784 1.2527692 16711746
0.6443698 -0.8114101 0.7281274 16711746
0.5090014 -0.6823903 0.5883583 16711746
-0.1415698 -0.5727038 0.5692202 16711746
1.5120558 -0.9610698 0.7942254 16711746
1.1190147 -1.1155078 1.1711560 16711746
1.2921056 -0.9132761 1.1091139 16711746
0.6760478 -0.8245044 0.9554026 16711746
0.4273304 -0.6422260 0.6802973 16711746
0.5725979 -0.7434187 0.5203595 16711746
0.2331063 -0.6207638 0.4599598 16711746
-0.0256332 -0.5972356 0.2693530 16711746
-0.4359956 -0.4822203 0.4398040 16711746
-0.3352106 -0.5625256 0.4131879 16711746
-0.3856449 -0.5004361 0.4462669 16711746
0.2303721 -0.6714537 0.7640305 16711746
0.1870968 -0.7962782 0.8557058 16711746
0.1028455 -0.6802599 0.5856116 16711746
0.2024949 -0.6740074 0.5976705 16711746
-0.0809499 -0.6056144 0.2673208 16711746
-0.0759017 -0.5734671 0.2459849 16711746
0.2522776 -0.6925452 0.5751853 16711746
0.0244720 -0.6141645 0.2896321 16711746
0.0039891 -0.6451191 0.3038512 16711746
0.2195279 -0.6505943 0.3979298 16711746
0.2229855 -0.6424300 0.3513129 16711746
0.8953533 -0.7901549 1.2682420 16711746
0.3709325 -0.8042555 1.1983492 16711746
0.3907246 -0.8379902 1.1855816 16711746
0.2735953 -0.8912420 1.0435112 16711746
1.0387006 -0.7628769 0.3256398 16711746
0.7571229 -0.8162226 0.7325636 16711746
0.7527785 -0.8688975 0.7668996 16711746
