# .PCD v.7 - Point Cloud Data file format
VERSION .7
FIELDS x y z rgb
SIZE 4 4 4 4
TYPE F F F F
COUNT 1 1 1 1
WIDTH 93
HEIGHT 1
VIEWPOINT 0 0 0 1 0 0 0
POINTS 93
DATA ascii

 -0.0280877 0.1101780 5.0452642 16777215
 -0.0039625 0.0053024 0.0850035 16777215
0.6899677 -0.2651737 0.2628310 16711746
0.9020123 -0.3359158 0.2459821 16711746
1.6095908 -1.7489730 1.2682546 16711746
0.8541232 -0.9381657 0.6826385 16711746
0.7616758 -0.9391145 0.3086292 16711746
0.5171626 -0.5686158 0.1893972 16711746
0.4653478 -0.5320786 0.1752571 16711746
0.4677822 -0.2880452 0.1614190 16711746
0.6356894 -0.8708788 0.4874705 16711746
0.7253734 -0.4716232 0.5183589 16711746
0.7403522 -0.5001462 0.5217338 16711746
0.4804617 -0.3846992 0.2260382 16711746
0.5861693 -0.5014429 0.2629541 16711746
0.6234624 -1.0089025 0.6961256 16711746
0.8019753 -0.6328671 0.3578090 16711746
0.6290964 -0.4864203 0.2795096 16711746
0.7521848 -0.2264273 0.5596324 16711746
0.7925230 -0.5658849 0.6175939 16711746
0.8189884 -0.4487118 0.5860299 16711746
2.3730645 -1.5096058 1.8604826 16711746
1.9179500 -0.6004184 1.5778575 16711746
0.4725713 -0.8139244 0.3766137 16711746
0.4437521 -0.9698358 0.4992282 16711746
0.3769112 -1.1114603 0.6495910 16711746
0.4709262 -0.6182855 0.2090320 16711746
2.3606565 -1.8959019 2.1064219 16711746
1.2507552 -1.0892183 1.2423415 16711746
0.4466609 -0.8827217 0.5613252 16711746
0.4370006 -0.5865331 0.3059665 16711746
1.1514405 -1.8315247 1.0639133 16711746
0.6095814 -0.9584649 0.4964235 16711746
0.0422735 -1.5851728 0.6661996 16711746
0.6299154 -0.5992549 0.2839308 16711746
0.4349159 -0.5101038 0.2399317 16711746
0.5131869 -0.2444825 0.0904263 16711746
0.0732993 -1.4843953 0.6490420 16711746
0.7538695 -0.3004362 0.5174232 16711746
0.5052898 -0.4724662 0.2251619 16711746
0.5033284 -0.4750290 0.2179061 16711746
0.7298465 -0.7743800 0.2848231 16711746
0.3983554 -0.6638651 0.4632256 16711746
0.5643411 -0.4849260 0.2810391 16711746
0.7240925 -1.8489351 1.4730500 16711746
0.9212208 -0.8375952 1.0688142 16711746
0.9378182 -0.8739339 1.0676804 16711746
1.0888346 -2.1639953 2.0899482 16711746
0.4296377 -0.9926565 0.3299427 16711746
1.9584150 -1.3900619 1.9020786 16711746
0.4560021 -0.4120309 0.1439922 16711746
0.5833361 -0.2671910 0.1094177 16711746
1.2224646 -0.9713547 0.9572873 16711746
0.9123862 -0.8377524 0.8541845 16711746
0.6342033 -1.0008488 0.5991664 16711746
0.7915386 -0.2302710 0.2461791 16711746
0.8186886 -1.2591389 0.5917992 16711746
0.4756693 -0.4393611 0.1388193 16711746
1.4750772 -1.1423202 1.7451329 16711746
1.4018897 -0.8336155 1.3101546 16711746
1.3398193 -0.9990349 1.5106517 16711746
1.1335135 -0.9456559 1.0398093 16711746
0.8216939 -0.1249109 0.3939787 16711746
1.1440663 -0.5892653 1.0146548 16711746
0.7198634 -0.9045388 0.3671463 16711746
0.8790177 -1.1728954 0.7096172 16711746
0.6276864 -0.6231423 0.5539533 16711746
0.5808830 -0.4331137 0.2543971 16711746
0.6969526 -0.4275663 0.3707597 16711746
0.9509865 -0.4020100 0.5992469 16711746
1.3191745 -0.9141105 1.1334028 16711746
1.4186183 -1.0314233 1.2252166 16711746
1.4092726 -1.7732658 1.3461498 16711746
1.0876023 -0.9885393 1.2841011 16711746
0.7700024 -1.0512528 0.7717867 16711746
0.5169616 -0.4680895 0.2628746 16711746
1.1081915 -0.7701135 1.0568818 16711746
1.1204506 -0.7897188 1.0580746 16711746
0.5202721 -0.4095269 0.1500468 16711746
0.4442152 -0.3965609 0.2016088 16711746
8.5482340 -26.3377647 25.8116703 16711746
53.2624664 -173.9824677 120.3103180 16711746
79.8510132 -137.7733612 98.9969482 16711746
46.4451866 -146.0751190 96.1491241 16711746
33.7859840 -100.4771500 75.3755722 16711746
-24.2605267 -154.3837433 102.0131378 16711746
-1.8016572 -50.2705841 107.6805038 16711746
55.2950058 -175.9103546 114.7915192 16711746
483.4212341 -535.1398315 515.7536621 16711746
86.1099319 -209.0109558 203.6607513 16711746
111.3230820 -138.9904633 115.7448578 16711746
42.5885773 -114.9128342 105.3759384 16711746
-2.6483865 -3.0118911 8.3790693 16711746
