# .PCD v.7 - Point Cloud Data file format
VERSION .7
FIELDS x y z rgb
SIZE 4 4 4 4
TYPE F F F F
COUNT 1 1 1 1
WIDTH 110
HEIGHT 1
VIEWPOINT 0 0 0 1 0 0 0
POINTS 110
DATA ascii

 0.0219066 -0.0508433 0.2761980 16777215
 -0.0005114 0.0024929 0.0110107 16777215
0.7540274 -0.7498783 0.8125845 16711746
0.7714137 -0.3960479 0.6557026 16711746
0.7761104 -0.5030735 0.2680948 16711746
0.6356258 -0.3991914 0.2022426 16711746
0.5515333 -1.0069617 0.3174953 16711746
0.7340861 -0.4020904 0.2555999 16711746
0.6493865 -0.4905633 0.4100403 16711746
1.1735847 -0.8981344 0.7214885 16711746
0.4332414 -1.3295491 0.7097416 16711746
0.7845806 -0.5954606 0.6766355 16711746
0.7656692 -0.4108351 0.4077042 16711746
0.4031687 -1.3671206 0.6508261 16711746
0.9353941 -0.5148295 0.1025647 16711746
0.6891295 -0.9660076 0.8616945 16711746
0.7936573 -0.7531070 0.6718995 16711746
0.7112472 -0.8291957 0.7117142 16711746
0.8487675 -1.0667682 0.8622969 16711746
0.7151137 -0.4184445 0.7800022 16711746
0.7777317 -1.3649200 0.7975422 16711746
1.0035182 -0.8266397 0.1215854 16711746
0.6797676 -0.7575106 1.0379030 16711746
0.7414906 -0.8277209 1.0896238 16711746
0.5978680 -0.7794331 0.3995756 16711746
1.1451887 -0.8173144 0.8135432 16711746
0.6567363 -0.4302975 0.9009198 16711746
0.5691288 -0.4248520 0.6516955 16711746
0.5236406 -1.0711571 0.4620097 16711746
0.7208094 -1.2617656 0.6043336 16711746
0.7184132 -0.2827011 0.5659451 16711746
0.4207757 -1.3076193 0.5864416 16711746
0.8315501 -0.9879658 0.9010035 16711746
0.7667342 -1.0300959 0.8292919 16711746
0.9721813 -0.4087180 0.3172196 16711746
0.4292359 -1.3216383 0.8866003 16711746
0.4290933 -1.0388635 0.8636768 16711746
0.6174810 -0.4507616 0.1110510 16711746
0.6606255 -0.7871262 0.2555641 16711746
0.6524701 -0.5891733 0.1335245 16711746
0.7773331 -0.3583006 0.1937518 16711746
0.7327013 -1.2133290 1.0318351 16711746
0.6105914 -0.5031988 0.2296011 16711746
0.7724493 -0.3763700 0.3778357 16711746
0.7342593 -1.0771145 0.3553169 16711746
0.7348835 -1.0659890 0.3262621 16711746
0.4565717 -1.1706063 0.4547222 16711746
0.7853085 -0.9228158 0.7261252 16711746
0.7514232 -0.3848655 0.0814860 16711746
0.8347360 -0.7175322 0.5181112 16711746
0.7574424 -0.3211704 0.4513341 16711746
0.9765606 -0.3989339 0.5285848 16711746
1.0000226 -0.6623300 0.5434713 16711746
0.6771886 -0.4590740 0.3596159 16711746
1.1782033 -0.6976049 0.5923278 16711746
0.4307346 -1.2714444 0.5504550 16711746
0.9755752 -0.5316553 0.2231998 16711746
0.8932429 -0.9285172 0.3661882 16711746
0.9865977 -0.6257663 0.8025449 16711746
0.6511835 -0.4313407 0.5464904 16711746
0.8495380 -0.4431171 0.4986161 16711746
0.8397892 -0.4807404 0.5194106 16711746
1.1460938 -0.6658863 0.6957015 16711746
0.9979730 -0.6531022 0.2391942 16711746
0.7768608 -0.2536837 0.2008391 16711746
0.4131401 -0.7525064 0.3461130 16711746
0.7782801 -1.4909058 0.7869080 16711746
0.7157810 -1.3000591 0.6797257 16711746
0.7100883 -1.4553748 0.7399454 16711746
0.7696137 -0.5812929 0.2750741 16711746
0.7647910 -1.3220993 0.8833352 16711746
0.5161991 -0.6561484 0.3127113 16711746
0.7699646 -0.3786015 0.1559179 16711746
0.7592548 -0.4940794 0.4251132 16711746
0.7505373 -0.6121497 0.4524267 16711746
0.7766430 -0.3057804 0.1965817 16711746
0.7176149 -0.9680530 1.2247458 16711746
1.1042465 -0.2399280 0.6516277 16711746
0.8794423 -0.1657349 0.4454916 16711746
0.7435402 -0.4014722 0.7143273 16711746
1.0684152 -0.3749545 0.8049543 16711746
0.9620830 -0.2819365 0.5688295 16711746
0.7750533 -0.5034516 0.6799372 16711746
0.8411750 -0.3395407 0.5137936 16711746
0.8263444 -0.2879125 0.5338902 16711746
1.1173533 -0.4356830 0.6864468 16711746
0.5314540 -0.2650513 1.0089016 16711746
0.6096244 -0.3496557 0.9228024 16711746
0.6850913 -0.1103087 0.6496855 16711746
0.7061800 -1.5644618 0.7848916 16711746
0.5010668 -0.9747577 0.3215777 16711746
0.7744808 -0.4065555 0.1756169 16711746
1.2557098 -0.7746761 0.3222963 16711746
0.6136049 -0.4126276 0.0672068 16711746
0.7967477 -0.8008135 0.6645033 16711746
1.1898888 -0.4513519 0.4420424 16711746
0.9221269 -0.3748262 0.3342090 16711746
0.8334225 -0.5505680 0.5339524 16711746
0.7611670 -0.4568803 0.4226701 16711746
1.1301135 -0.7252203 0.8132140 16711746
0.7905120 -0.5743949 0.6553715 16711746
0.8433773 -0.4375470 0.5119142 16711746
0.9321498 -0.4181081 0.2659229 16711746
0.7809137 -0.4336321 0.2524767 16711746
0.9779449 -0.4540837 0.3078045 16711746
-0.0034083 -1.6479141 0.7170784 16711746
0.3339498 -1.6964262 0.7099216 16711746
0.1450396 -1.1296941 0.7839398 16711746
-0.1899480 -0.7942162 0.7086022 16711746
0.4953672 -4.5137281 4.9451885 16711746
