# .PCD v.7 - Point Cloud Data file format
VERSION .7
FIELDS x y z rgb
SIZE 4 4 4 4
TYPE F F F F
COUNT 1 1 1 1
WIDTH 60
HEIGHT 1
VIEWPOINT 0 0 0 1 0 0 0
POINTS 60
DATA ascii

 -0.0323950 0.1044551 4.5428858 16777215
 0.0054210 0.0004065 0.0645443 16777215
0.9642398 0.0011313 0.8030887 16711746
0.7071663 -0.0340784 0.6058393 16711746
1.1437910 -0.0595553 0.6791938 16711746
0.8815049 -0.0532346 0.5168373 16711746
0.8262695 -0.2274084 0.6477798 16711746
0.9238233 -0.1418778 0.6989121 16711746
0.8961794 -0.8178434 0.7690225 16711746
1.0826027 -0.7637761 0.8056466 16711746
1.0368479 -0.2853525 0.2417301 16711746
0.5931152 -0.3427906 0.9089616 16711746
0.8028361 -0.3070853 0.9348336 16711746
0.3665968 -0.3891969 0.8734192 16711746
0.4763227 -0.3841340 0.8809772 16711746
0.4701638 -0.4045201 0.8695207 16711746
0.3381636 -0.3542595 0.8848549 16711746
0.9033532 0.0147888 0.5660485 16711746
0.7549420 -0.0396199 0.5892174 16711746
3.0398214 -1.4375256 1.2603669 16711746
3.4274621 -1.7026398 0.7157256 16711746
1.6707062 -0.6515462 0.7035623 16711746
2.9141734 -2.2614331 2.8541160 16711746
2.5209515 -1.4330565 1.0667366 16711746
0.7817867 -0.4961813 0.7358599 16711746
0.7555872 -0.5042344 0.7364894 16711746
1.0538243 -0.8518636 0.5516483 16711746
2.8963215 -1.6876571 0.2945670 16711746
0.6911713 -0.4222353 0.8431894 16711746
0.5852594 -0.4272116 0.8508288 16711746
1.3452735 -0.7640983 0.5539882 16711746
0.8671508 -0.5494743 0.5239975 16711746
0.6276360 -0.5185809 0.7634106 16711746
0.9221711 -0.8680567 0.6307193 16711746
3.2580690 -1.7454644 0.3627171 16711746
0.5001421 -0.5164354 0.7920600 16711746
0.7282420 -0.4854361 0.7704369 16711746
0.6914349 -0.4862109 0.7805070 16711746
0.7162891 -0.4317502 0.8301958 16711746
0.8503167 -0.3847907 0.8506954 16711746
0.5922086 -0.3231205 0.6461487 16711746
0.5490801 -0.4866289 0.8088446 16711746
1.3545270 -0.3071886 0.6746549 16711746
8.7427187 -1.2165747 3.8989522 16711746
1.3948259 -0.0502898 0.4602431 16711746
0.8271604 -0.3016455 0.5221856 16711746
0.8117758 -0.2450655 0.6339901 16711746
0.7266433 -0.5094979 0.7415182 16711746
0.4436069 -0.4810443 0.5404916 16711746
1.0296531 -0.4493923 0.6189383 16711746
0.4411617 -0.4741150 0.8288319 16711746
1.8507521 -0.4706590 1.1057884 16711746
1.2301867 -0.4131762 0.4889255 16711746
1.2037195 -0.3834853 0.6206589 16711746
0.7117733 -0.1470741 0.7524814 16711746
0.6722683 -0.2126951 1.0020833 16711746
0.2362310 -0.1501641 0.6346710 16711746
0.6020499 -0.3744427 0.8877665 16711746
0.6061447 -0.3141766 0.9280424 16711746
0.7465495 -0.3403001 0.9088126 16711746
