# .PCD v.7 - Point Cloud Data file format
VERSION .7
FIELDS x y z rgb
SIZE 4 4 4 4
TYPE F F F F
COUNT 1 1 1 1
WIDTH 54
HEIGHT 1
VIEWPOINT 0 0 0 1 0 0 0
POINTS 54
DATA ascii

 -0.0746673 0.1049407 2.6105666 16777215
 -0.0028527 -0.0013515 0.1405469 16777215
2.9107749 -1.3583393 1.3521872 16711746
1.5938286 -0.8073173 0.8422360 16711746
0.8326902 -0.6401278 1.1320345 16711746
0.8131396 -0.4022346 0.7947518 16711746
0.7026615 -0.3224697 0.7870675 16711746
0.3586341 -0.4828922 0.8347749 16711746
1.2717507 -0.9749713 1.8901043 16711746
8.2877979 -7.5446548 9.3738327 16711746
0.4455241 -0.3924297 0.5563896 16711746
0.9766589 -0.5924120 0.8984786 16711746
0.4329918 -0.5667974 0.9017316 16711746
0.6489716 -0.5210146 0.8556364 16711746
0.6919574 -0.5927976 0.9384945 16711746
1.9330194 -0.9724760 0.9550780 16711746
0.5018265 -0.3551559 0.7556633 16711746
0.3355099 -0.1888385 0.5052111 16711746
0.4907720 -0.3089964 0.6381348 16711746
1.2754040 -0.8865331 1.4942932 16711746
0.7950198 -0.8134933 0.9822137 16711746
0.6894589 -0.6627823 0.8046598 16711746
1.5119916 -0.4653676 0.9190334 16711746
0.8058529 -0.6271957 0.8703524 16711746
0.3925281 -0.1014920 0.6445388 16711746
0.3128324 -0.1114501 0.6127900 16711746
0.3157749 -0.0977211 0.5391614 16711746
0.2085958 -0.1840659 0.6454329 16711746
0.3388968 -0.1446147 0.8012295 16711746
0.4641986 -0.2432655 0.6891969 16711746
0.3815718 -0.1435859 0.5966998 16711746
0.4656038 -0.1424885 0.6270319 16711746
0.3697180 -0.1026151 0.4880086 16711746
0.2824864 -0.3288591 0.7718732 16711746
0.3679001 -0.2675952 0.7226778 16711746
0.5474120 -0.4414315 0.6604763 16711746
2.2209725 -2.0452800 1.8413697 16711746
0.4569241 -0.1865939 0.4871565 16711746
3.5182614 -2.8034556 2.4387431 16711746
13.5243912 -13.7912521 9.6023388 16711746
0.9960095 -0.5217319 0.6868417 16711746
0.7555711 -0.4850898 0.9475390 16711746
5.2549357 -6.8514538 6.2119560 16711746
7.6430311 -2.7799277 1.5363095 16711746
8.3168182 -12.6330652 11.1553354 16711746
1.4522315 -0.6769959 0.7819502 16711746
0.2238955 -0.2031677 0.5462077 16711746
0.3152942 -0.2757295 0.8423882 16711746
0.2978598 -0.1789764 0.6634218 16711746
0.6784652 -0.0620258 0.4912831 16711746
0.4243966 -0.1282454 0.4994920 16711746
0.5233115 -0.1267311 0.5813705 16711746
1.2950073 -0.6995759 0.8500021 16711746
1.2209475 -0.9380373 1.4831862 16711746
