# .PCD v.7 - Point Cloud Data file format
VERSION .7
FIELDS x y z rgb
SIZE 4 4 4 4
TYPE F F F F
COUNT 1 1 1 1
WIDTH 167
HEIGHT 1
VIEWPOINT 0 0 0 1 0 0 0
POINTS 167
DATA ascii

 -0.0238526 0.0474916 1.7894971 16777215
 -0.0013811 0.0118425 0.0410861 16777215
0.5651785 -0.8876528 0.4600466 16711746
0.5038239 -0.8272209 0.4108987 16711746
0.7094200 -0.7024286 0.6053451 16711746
0.6192449 -0.6766125 0.5848943 16711746
-0.0192440 -1.3911101 0.6786758 16711746
0.7267952 -0.6163476 0.5505087 16711746
0.6410135 -0.6185094 0.5206084 16711746
0.1566372 -1.0270615 0.8515490 16711746
0.5695875 -0.7641567 0.6335236 16711746
0.6355252 -0.9311996 0.5744678 16711746
0.5635138 -0.8797334 0.5623995 16711746
0.8929452 -0.3204556 0.3882819 16711746
0.3568665 -0.9682475 0.3505204 16711746
0.3739842 -0.9444927 0.3334507 16711746
0.7335400 -0.3492878 0.6220012 16711746
0.7969081 -0.1666738 0.5660579 16711746
0.8820034 -0.2218587 0.4563234 16711746
0.7181010 -0.2976854 0.5096464 16711746
0.5903342 -0.3112140 0.8116733 16711746
0.6366041 -0.2562478 0.7454388 16711746
0.5712623 -0.2562703 0.8142661 16711746
0.5329049 -0.3089411 0.8830919 16711746
0.4132271 -0.4602459 0.9534126 16711746
0.3714519 -0.4170351 0.9882960 16711746
0.7516773 0.0017089 0.5985827 16711746
0.7745991 -0.1502482 0.5893108 16711746
0.7214408 -0.0994450 0.6346768 16711746
0.6705469 -0.1459176 0.6859920 16711746
0.7727416 -0.6124235 0.4209838 16711746
0.2143570 -1.3137672 0.6499410 16711746
0.1349608 -1.0968078 0.5356079 16711746
0.8789312 -0.1953482 0.3361503 16711746
0.7945298 -0.3894542 -0.0402156 16711746
0.7580059 -0.5455559 0.5121810 16711746
0.0769459 -1.1950063 0.5974774 16711746
0.1000225 -1.1666131 0.5572325 16711746
0.0765649 -1.3113666 0.8009576 16711746
0.9395337 -0.3968894 0.4572117 16711746
0.7345399 -0.5072418 0.3642320 16711746
0.5425988 -0.5512151 0.3699738 16711746
0.8097710 -0.4677413 0.4442835 16711746
0.2026036 -1.1157736 0.5856872 16711746
0.7320868 -0.5249211 0.3520291 16711746
0.2114693 -1.3584081 0.5094088 16711746
0.2668985 -1.0101678 0.3853073 16711746
0.2758410 -0.9831400 0.3365248 16711746
0.2420470 -1.0322013 0.8719965 16711746
0.3296718 -1.1991031 0.7915460 16711746
0.3396055 -0.3601928 0.9978026 16711746
-0.3303251 -1.7670063 1.1901730 16711746
0.1732070 -1.1191626 0.7118726 16711746
0.2227418 -1.2385150 0.7393020 16711746
0.7386342 -0.2270196 0.6299290 16711746
0.7550784 -0.2349325 0.6131442 16711746
0.7382910 -0.2466821 0.6314749 16711746
0.3940393 -0.9372408 0.3623659 16711746
0.8287526 -0.5875000 0.5143597 16711746
0.6144736 -0.4839838 0.4698108 16711746
0.7448723 -0.6059334 0.5631726 16711746
-0.1353874 -1.6956067 1.0902652 16711746
0.8330092 -0.3663898 0.4607198 16711746
0.3625330 -0.8059989 0.2786816 16711746
0.8570077 -0.3881294 0.6065955 16711746
0.0425976 -1.4497372 0.7782102 16711746
-0.0812633 -1.1958359 1.2642797 16711746
0.4540788 -0.9545032 0.5803032 16711746
0.6253667 -0.7107055 0.5478556 16711746
0.6914850 -0.5833249 0.6845843 16711746
0.6754813 -0.6050577 0.7134820 16711746
0.6696995 -0.6429027 0.7196020 16711746
0.8179590 -0.4365281 0.4479304 16711746
0.6795887 -0.5071116 0.7147990 16711746
0.2688312 -1.2011521 0.5046878 16711746
0.1743431 -1.0379034 0.4206191 16711746
0.6433200 -0.6327760 0.8015774 16711746
0.6538256 -0.6249004 0.7552679 16711746
0.6204866 -0.6504514 0.7958384 16711746
0.6270797 -0.4847158 0.8152847 16711746
0.7555110 -0.6232727 0.4631947 16711746
0.6704423 -0.6123837 0.4404584 16711746
0.4988524 -0.8912998 0.7783787 16711746
0.6039139 -0.6338357 0.6386648 16711746
0.8190334 -0.4294949 0.4502048 16711746
0.6635697 -0.4715129 0.5713837 16711746
0.3071849 -0.9268757 0.4108714 16711746
0.6827704 -0.4760296 0.2013671 16711746
0.8648198 -0.2908558 0.4488204 16711746
0.8628578 -0.3179695 0.4776314 16711746
0.8473560 -0.3288406 0.4565692 16711746
0.4888101 -0.7761973 0.6256351 16711746
0.5866407 -0.4566329 0.5352849 16711746
0.6335925 -0.5210009 0.6115592 16711746
0.8990332 -0.3418964 0.2147652 16711746
0.6773193 -0.6348611 0.7045869 16711746
0.1665372 -1.1805222 0.6443182 16711746
0.6569607 -0.4661124 0.7677136 16711746
0.7119673 -0.3431128 0.6668672 16711746
0.6263531 -0.3609812 0.7802539 16711746
0.6511456 -0.5452045 0.7637296 16711746
0.8917877 -0.1313848 0.4779825 16711746
0.8396840 -0.3305314 0.6680639 16711746
0.8611910 -0.3102938 0.6208216 16711746
0.5647063 -0.6335229 0.4849635 16711746
0.6994595 -0.7465271 0.5469723 16711746
0.7106440 -0.4994801 0.1910109 16711746
0.7927843 -0.4918818 0.3916221 16711746
0.7962390 -0.4991873 0.3724042 16711746
-0.0230992 -1.1693994 1.1629165 16711746
0.6138351 -0.6681583 0.8346926 16711746
0.5515370 -0.7739998 0.7125069 16711746
0.2052700 -1.1458648 0.8824859 16711746
0.5927784 -0.5981304 0.1512420 16711746
0.6024933 -0.5741646 0.1302045 16711746
0.8467211 -0.4753296 0.1980922 16711746
0.1220410 -1.2011111 1.0867583 16711746
0.2484185 -1.1134239 0.8003331 16711746
0.3209862 -1.2131103 0.8327129 16711746
0.5342443 -0.9245263 0.6406686 16711746
0.7759393 -0.4540826 0.5592026 16711746
0.3861653 -0.9237119 0.4171903 16711746
0.3679916 -0.9516999 0.4104163 16711746
0.3677397 -0.7906466 0.3438451 16711746
0.6655170 -0.3526562 0.7376832 16711746
0.1055739 -1.1625646 1.1176877 16711746
0.6857188 -0.4049312 0.7050810 16711746
0.6895323 -0.3807596 0.3411368 16711746
0.8579416 -0.4404799 0.3636213 16711746
0.8094981 -0.3650758 0.1307573 16711746
0.0366121 -1.1083369 1.2786615 16711746
0.3670062 -0.9638076 0.4496548 16711746
0.5467325 -0.7058011 0.2036297 16711746
0.3681918 -0.7922724 0.2449718 16711746
0.7379097 -0.3754743 0.1517791 16711746
0.7023387 -0.6237772 0.6524109 16711746
0.5869840 -0.7579768 0.5834841 16711746
0.6601163 -0.6121294 0.4715990 16711746
0.6639575 -0.6171945 0.4557161 16711746
1.0119874 -0.2274965 0.2067694 16711746
0.9386556 -0.2134912 0.1850334 16711746
0.8193980 -0.4942139 0.4031813 16711746
0.7687927 -0.4927276 0.5593852 16711746
0.4856936 -1.0812472 0.7039082 16711746
0.9180766 -0.2937333 0.1857172 16711746
-0.2158800 -1.6173027 0.6630397 16711746
0.5586968 -0.6207852 0.1802088 16711746
0.1762694 -1.1988723 0.5328472 16711746
0.1595408 -1.2355824 0.5497239 16711746
0.4675772 -0.9211352 0.4430060 16711746
0.3802247 -0.7783141 0.3622912 16711746
0.4568632 -0.9010314 0.5471766 16711746
0.5636969 -0.8915319 0.5479896 16711746
0.6355750 -0.9503424 0.5498168 16711746
0.1967811 -1.1681266 0.4181075 16711746
-0.2252322 -1.7142799 1.3376245 16711746
0.2697400 -1.0550287 0.7841415 16711746
0.3049856 -1.1045648 0.4884721 16711746
0.2938084 -1.1356794 0.4875115 16711746
0.2844678 -0.9574414 0.4847260 16711746
0.8723877 -0.3934672 0.3728524 16711746
0.4608296 -0.9377200 0.5233573 16711746
0.4771633 -0.9090682 0.4845479 16711746
0.3529193 -0.9952858 0.3753603 16711746
0.3192767 -1.0671017 0.4020680 16711746
0.5854278 -0.8901852 0.4319411 16711746
0.9099587 -0.5371251 0.4197800 16711746
