# .PCD v.7 - Point Cloud Data file format
VERSION .7
FIELDS x y z rgb
SIZE 4 4 4 4
TYPE F F F F
COUNT 1 1 1 1
WIDTH 236
HEIGHT 1
VIEWPOINT 0 0 0 1 0 0 0
POINTS 236
DATA ascii

 -0.0341451 0.1077565 4.4962950 16777215
 0.0032853 0.0177646 0.4964182 16777215
0.2109644 -1.7414231 3.5859692 16711746
4.7406960 -11.9652729 22.5972824 16711746
0.2323464 -2.7094064 5.7020950 16711746
-0.1704537 -10.4087038 19.5052452 16711746
-0.2116042 -10.7240686 24.2430668 16711746
0.2905740 -0.5417752 0.7335219 16711746
0.9220416 -1.4276097 1.2298256 16711746
0.3127016 -0.4805667 0.5987360 16711746
0.3419058 -0.4889331 0.6629820 16711746
0.3532532 -0.4900936 0.6394058 16711746
4.8176374 -6.7067747 8.9388103 16711746
0.0393729 -0.5511209 0.7265028 16711746
-0.0355831 -0.6081539 0.7325406 16711746
-0.0612844 -0.6654803 0.7574941 16711746
0.3157829 -1.1017712 1.3504528 16711746
-0.0140478 -0.8987369 1.1148719 16711746
-0.0604533 -0.7741296 1.0325924 16711746
0.0969595 -0.6031640 0.6990622 16711746
-0.3525633 -0.7492498 1.0848361 16711746
1.1358200 -0.5514465 0.5583110 16711746
0.2222006 -0.6993816 0.8353536 16711746
1.8587861 -14.4420204 20.7376957 16711746
0.9095289 -5.9092250 8.4749441 16711746
-0.1154741 -0.6438208 0.7980773 16711746
0.3069406 -0.4975146 0.6703802 16711746
0.3247609 -0.4965862 0.6480340 16711746
5.3605676 -7.7569966 9.3424826 16711746
0.8617534 -1.2444825 1.8964361 16711746
0.4771515 -0.7361689 0.7898863 16711746
0.3912885 -0.5695344 0.7055722 16711746
0.9687913 -1.7620038 2.2494943 16711746
0.9071186 -1.8057007 2.2276661 16711746
0.2236860 -0.5852584 0.7835697 16711746
0.2527685 -0.6953509 0.8352683 16711746
0.2691323 -0.6999248 0.8160217 16711746
0.2314895 -0.5942504 0.7491357 16711746
0.3262637 -0.7047119 0.7722715 16711746
0.2843362 -0.6579300 0.7461432 16711746
0.8120285 -0.8847592 1.1409231 16711746
1.5762601 -9.7083540 15.5312834 16711746
4.7620606 -12.8934689 22.3831558 16711746
3.7960458 -11.0517187 17.3867378 16711746
1.3874507 -3.6542971 4.9992766 16711746
23.7919102 21.3381310 -38.7517548 16711746
2.0164247 -13.2335186 35.1101723 16711746
2.9091074 -13.6984968 35.0400620 16711746
1.8815877 -10.9337006 36.8456879 16711746
1.5168787 -11.5904894 32.7281456 16711746
-2.0344789 -11.0397682 35.5956192 16711746
-2.3208396 -3.2150950 5.3584495 16711746
0.8133903 -1.1526314 1.5732193 16711746
0.0750093 -0.6406549 0.8022712 16711746
5.4773722 -5.3861046 6.4075670 16711746
6.5749817 -9.8497152 14.2691431 16711746
0.3696170 -1.3930844 1.8214067 16711746
0.5758108 -0.6272449 0.6802429 16711746
-0.0316660 -0.7553434 0.7563856 16711746
-0.0140511 -0.6122761 0.6987422 16711746
0.5783663 -0.6437294 0.8990043 16711746
0.7086538 -0.8382863 0.9890038 16711746
-0.3323201 -1.0492319 1.0417184 16711746
0.9085586 -2.4263833 2.6771488 16711746
0.4361916 -1.2382751 1.5698689 16711746
0.3396688 -1.0575396 1.3826823 16711746
0.4152380 -1.5130717 1.7612828 16711746
0.3470085 -1.2864974 1.5514126 16711746
0.9324082 -1.6519783 2.2880864 16711746
0.6079953 -1.2636272 1.8769369 16711746
0.5882249 -0.6487466 0.7411929 16711746
0.5686063 -0.7162592 0.7666060 16711746
0.3592901 -0.4810629 0.6713827 16711746
-1.0282905 -1.3539761 1.9318973 16711746
0.2505422 -0.5424621 0.7528915 16711746
0.2891195 -0.6962793 0.8174006 16711746
0.7109781 -0.7059667 0.6363161 16711746
1.2192194 -0.6633065 0.7525293 16711746
0.9421029 -0.5509399 0.7151799 16711746
0.9900290 -1.0702655 1.2335024 16711746
0.5536591 -0.5572060 0.7078235 16711746
0.9043347 -2.1619279 2.7277827 16711746
0.5043276 -1.3149226 1.8562443 16711746
-0.0446246 -0.7507064 0.7556402 16711746
0.0482454 -0.6412154 0.7346885 16711746
0.0385002 -0.8488092 0.8145725 16711746
0.0343067 -0.5947641 0.7115560 16711746
0.9109818 -2.1314874 2.0191007 16711746
9.8803415 -14.7346926 24.1230946 16711746
1.8411078 -1.5832835 3.3711672 16711746
1.9565212 -2.2839587 3.4934361 16711746
3.8730240 -3.8009195 5.2593412 16711746
7.1836090 -8.0245581 15.1023493 16711746
-1.1349567 -2.0015798 3.2045624 16711746
-1.5434359 -2.8651733 5.2462053 16711746
-0.4350058 -1.1152622 1.7528527 16711746
1.5587541 -13.5432072 20.6588383 16711746
2.2694573 -6.3419762 9.8584471 16711746
0.7100531 -0.8000380 1.0343287 16711746
0.4537678 -0.6036321 0.8885203 16711746
0.2584981 -0.6017990 0.8639182 16711746
1.1885779 -0.5765120 0.8800092 16711746
0.9813306 -0.7679061 0.9113728 16711746
0.0365955 -0.6172868 0.8614383 16711746
0.0447558 -0.5489665 0.6733438 16711746
-0.1215685 -0.6635828 0.7809894 16711746
-1.0580738 -1.5337470 1.7935995 16711746
-0.8947484 -1.1089375 1.4305176 16711746
-1.2603084 -1.4441673 1.9005868 16711746
-0.2634355 -0.6600624 0.9432423 16711746
1.4541970 -1.1809748 1.5357896 16711746
0.0696771 -0.6017811 0.7297120 16711746
0.5633057 -0.8993257 1.2188045 16711746
0.9018357 -0.8009311 0.9279423 16711746
0.9127034 -0.6465341 0.8048807 16711746
0.6055856 -0.8021750 1.0776886 16711746
0.9450912 -1.9482337 2.7558229 16711746
0.5607064 -2.1129792 2.7233288 16711746
-0.0765408 -0.8766318 1.1373833 16711746
-0.3137470 -0.7939173 0.9715355 16711746
0.4393227 -0.6234875 0.7574086 16711746
0.3327968 -0.4816460 0.6989827 16711746
4.6244230 -7.5900578 8.6200705 16711746
0.5772544 -0.5335023 0.6210964 16711746
0.5927832 -0.5630897 0.6194280 16711746
0.0944534 -0.6384336 0.8194057 16711746
0.5007496 -0.7377427 1.0077497 16711746
0.7799282 -0.6668298 0.9019893 16711746
3.5589952 -3.3039365 5.0380979 16711746
1.4554019 -0.7299897 0.9257507 16711746
1.4635612 -0.7523944 0.9059858 16711746
0.3081894 -0.7113788 0.7553632 16711746
0.2394998 -0.5639458 0.6858860 16711746
0.7394713 -0.6810970 0.9126343 16711746
0.9038098 -1.4865077 1.7970991 16711746
0.5684714 -1.0270708 1.3682927 16711746
0.3991492 -0.4785493 0.6247611 16711746
-0.2935000 -0.8123310 1.0026290 16711746
0.2951891 -0.5675161 0.7849270 16711746
4.6300144 -3.8168325 6.0797143 16711746
0.6228493 -0.7560617 0.9379165 16711746
0.8391611 -1.1415722 1.2021912 16711746
0.0653213 -0.5966948 0.7880097 16711746
0.0316413 -0.5469729 0.7589474 16711746
0.0589009 -0.5984045 0.7742035 16711746
0.0528555 -0.7626181 0.9361818 16711746
1.4926339 -1.1605706 1.5535885 16711746
0.7446418 -0.5022683 0.5769137 16711746
0.7175080 -0.5113173 0.6007372 16711746
0.8382150 -2.3146379 3.0156870 16711746
0.5994416 -1.6687090 2.2592638 16711746
1.1974405 -0.8250163 0.9371556 16711746
0.0408317 -0.5693316 0.8694372 16711746
-0.0334678 -1.0009906 1.1118805 16711746
0.4580617 -0.9321809 1.2259697 16711746
1.0805330 -0.5414633 0.7607812 16711746
0.3312465 -0.5887520 0.6872902 16711746
0.3250961 -0.5919485 0.6736529 16711746
1.6060801 -1.0059162 1.7193413 16711746
0.6299994 -3.1837394 4.2933125 16711746
-1.0164880 -0.9990177 1.5185546 16711746
0.9581566 -0.6156890 0.6016931 16711746
0.5958949 -0.7056253 0.8628966 16711746
0.4638456 -0.5265709 0.7419302 16711746
3.5632339 -5.5097833 7.6224132 16711746
-0.9979125 -1.0907530 1.4642297 16711746
0.2952253 -0.6517141 0.7609980 16711746
0.6915715 -0.5243576 0.6026710 16711746
0.4138860 -1.2436883 1.1570221 16711746
0.2569540 -0.8332603 0.9577509 16711746
0.4229069 -0.6800622 0.7850322 16711746
1.4447088 -1.4339464 2.2374823 16711746
0.6692897 -0.9569697 1.1102742 16711746
1.0905339 -0.5806929 0.3866527 16711746
0.3126053 -0.5601830 0.7892035 16711746
-0.4657316 -0.6907609 0.9679144 16711746
-0.6632438 -0.9002545 1.1318768 16711746
0.3874980 -1.1632605 1.6197394 16711746
0.2148622 -0.8869748 1.1115302 16711746
0.2388800 -1.1276906 1.3355678 16711746
0.3293360 -0.8569613 1.1168910 16711746
-0.1807385 -0.8863012 1.1886753 16711746
0.9287578 -1.6881611 2.2756305 16711746
0.5207054 -0.8181709 0.8995316 16711746
0.3930058 -0.6721311 0.8198330 16711746
0.7933002 -0.6244237 0.7599185 16711746
0.7081631 -0.5789140 0.7549257 16711746
0.6501333 -0.5145006 0.6913210 16711746
0.7639042 -0.6566572 0.7293282 16711746
0.3856941 -0.6193182 0.6528517 16711746
1.4396188 -1.4626844 1.9008409 16711746
0.4028551 -0.7153608 0.6602615 16711746
0.2905553 -0.5938954 0.7020949 16711746
0.8569567 -0.6246169 0.6990179 16711746
1.0020056 -1.0096910 1.2809577 16711746
0.9580320 -0.8333270 1.1279199 16711746
0.5595928 -0.7484832 1.1405760 16711746
0.8809301 -1.2694064 1.4921267 16711746
0.9751557 -1.1035968 1.5877084 16711746
0.6265317 -0.7683646 0.9221444 16711746
0.5089668 -0.6895378 0.8759884 16711746
0.0249546 -0.5475049 0.7383890 16711746
0.0633249 -0.5220343 0.7154033 16711746
0.2053036 -0.5680352 0.6665165 16711746
0.2851865 -0.5543013 0.8161943 16711746
0.3716935 -0.8779778 1.0784169 16711746
0.3058581 -0.7939948 1.0073543 16711746
0.6778852 -0.6502888 0.8177757 16711746
0.5345753 -0.5148479 0.8064644 16711746
0.7678311 -0.8156402 0.9875260 16711746
6.1523395 -6.4079781 7.0729852 16711746
0.2647139 -0.6303914 0.9404034 16711746
0.8300917 -1.4527293 2.3245642 16711746
0.2184236 -0.6025709 0.7110961 16711746
0.7110910 -0.6858794 0.7114880 16711746
0.6205570 -0.6566466 0.7034041 16711746
-0.0043576 -0.7232473 1.0177578 16711746
1.4259157 -1.5549244 2.2021663 16711746
32.6170692 28.8918056 -36.8585739 16711746
0.4596720 -0.8268130 0.9092941 16711746
0.2991349 -0.5509545 0.8140685 16711746
1.0057077 -0.5988156 0.5726174 16711746
0.6959128 -0.5828233 0.8885418 16711746
1.4960356 -1.3259273 1.3999715 16711746
0.2496174 -0.5655947 0.8147653 16711746
-1.0132701 -1.0287881 1.5095544 16711746
-0.0689684 -0.5565147 0.7019379 16711746
-0.0975521 -0.6372268 0.7277249 16711746
-1.0176300 -1.0516524 1.4570241 16711746
34.4333305 -44.6639290 46.7335815 16711746
30.3714142 -67.7151337 61.6242485 16711746
58.6417847 -125.5270844 65.4679260 16711746
52.0594177 -48.7798424 96.9586029 16711746
44.2864189 -134.6338806 77.2968292 16711746
2.4493325 -959.7597656 776.8539429 16711746
135.0196686 -184.2983398 165.1368103 16711746
