# .PCD v.7 - Point Cloud Data file format
VERSION .7
FIELDS x y z rgb
SIZE 4 4 4 4
TYPE F F F F
COUNT 1 1 1 1
WIDTH 127
HEIGHT 1
VIEWPOINT 0 0 0 1 0 0 0
POINTS 127
DATA ascii

0.1376447 -0.5053074 0.9015560 16711746
-0.0594327 -0.8732426 1.5161659 16711746
-0.0519452 -0.5016592 0.8719253 16711746
0.0022672 -0.0882592 0.1527221 16711746
0.2685024 -1.4101543 1.5548029 16711746
0.0236356 -0.1380057 0.2033887 16711746
-0.0007151 -0.0647551 0.1020260 16711746
1.9612291 1.1136502 -2.9702253 16711746
1.9536572 1.2440240 -2.8748894 16711746
-0.0283022 -0.0600786 0.2109061 16711746
0.2627764 -1.0110974 1.9982135 16711746
0.1068257 -0.9943759 1.8139169 16711746
-0.0325909 -0.1045225 0.2240967 16711746
0.0082825 -0.6453994 1.2511787 16711746
-0.1101532 -0.6144933 1.2255623 16711746
-0.0303227 -0.1049071 0.2463158 16711746
-0.4303266 -1.5797789 0.8992146 16711746
-0.0668259 -0.2014019 0.1268260 16711746
-0.0309774 -0.1653270 0.1034793 16711746
-0.0867844 -1.5740952 0.8237470 16711746
0.3954492 -1.7892787 0.7038143 16711746
0.4111297 -1.0879055 1.0177056 16711746
0.2713351 -0.8430248 0.5324574 16711746
-0.0295980 -0.1358094 0.0795499 16711746
-0.0299344 -0.1453673 0.0809663 16711746
-0.4513142 -1.9079387 0.8609374 16711746
0.3092506 -0.7102334 0.4497337 16711746
0.0546269 -0.0645639 0.0293668 16711746
0.4800279 -0.6169156 0.5583878 16711746
-0.3772540 -1.5796829 1.3920770 16711746
0.5890659 -0.7397098 0.3523189 16711746
0.5400991 -0.7418633 0.5611230 16711746
-0.0002767 -0.0537818 0.1452401 16711746
0.5472680 -0.6714740 0.3857830 16711746
0.0423067 -0.1299046 0.0855771 16711746
0.6124700 -2.1121643 0.7302062 16711746
0.9316995 -1.7830787 0.6808734 16711746
1.2556713 -1.2159022 1.0545435 16711746
0.6240300 -1.1724404 1.2315036 16711746
0.4611408 -1.0734060 1.0955808 16711746
0.3793116 -0.9388633 0.7270520 16711746
-0.0443615 -0.0907314 0.0635064 16711746
-0.0460516 -0.0947075 0.0588261 16711746
-0.0252988 -0.0756398 0.0452567 16711746
-0.0277047 -0.0371569 0.0295436 16711746
0.2664237 -1.5303838 0.6442142 16711746
-0.4704024 -2.1184850 0.7752771 16711746
-0.0043810 -0.1149384 0.0585259 16711746
-0.6244748 -1.2897028 0.8422240 16711746
-0.0336545 -0.0450355 0.0424313 16711746
0.0072123 -0.0584778 0.0653482 16711746
-0.0098206 -0.3023335 0.3332978 16711746
-0.0187987 -0.0754181 0.0755798 16711746
0.2868980 -1.5300246 1.1553652 16711746
0.4758643 -0.9673110 0.8732577 16711746
-0.0235961 -0.0887480 0.0563715 16711746
-0.0271831 -0.0951380 0.0572823 16711746
-0.0150125 -0.0438527 0.0340069 16711746
-0.0338162 -0.1979383 0.1007651 16711746
0.0048757 -0.0680143 0.0830056 16711746
0.2097709 -0.7982985 0.7471882 16711746
0.9488542 -1.1176424 1.7325726 16711746
0.4934468 -0.4774490 0.6068342 16711746
0.6458005 -1.4776908 1.6128348 16711746
0.7873181 -1.3418727 1.7776303 16711746
1.0827953 -0.8402358 1.8670720 16711746
0.0979206 -0.7438127 1.0912945 16711746
0.5760399 -1.2729124 1.9162537 16711746
0.0551524 -0.1795198 0.2957121 16711746
-0.6591492 -1.3792521 0.8093812 16711746
-0.0684265 -1.6684976 0.8486843 16711746
0.8264301 -1.3939834 1.0225461 16711746
-0.0362916 -0.0441569 0.0795959 16711746
-0.0332347 -0.0288982 0.0421764 16711746
0.0244636 -0.0771006 0.0773496 16711746
-0.0712625 -0.1016678 0.0760580 16711746
0.3039409 -0.7698020 0.9577807 16711746
0.3625714 -0.8067515 0.7586503 16711746
0.0548966 -0.1304614 0.1345354 16711746
-0.0330593 -0.0405341 0.0421172 16711746
0.7356457 -0.7223480 0.5545068 16711746
0.6094422 -1.2417859 0.8966697 16711746
0.4188035 -1.6505138 1.5875393 16711746
0.3734124 -0.9891138 1.0051806 16711746
0.8648525 -1.5763364 0.9050738 16711746
0.1380409 -0.2043401 0.2114377 16711746
0.8820938 -1.3717748 1.3293191 16711746
-0.0435070 -0.0867565 0.0520295 16711746
0.0075407 -0.1211852 0.0744163 16711746
0.5530133 -1.9166942 1.2297032 16711746
-0.0076432 -0.0471274 0.0429813 16711746
0.9997547 -1.5649759 1.2800323 16711746
0.7646756 -1.2865872 1.0360806 16711746
0.1366520 -1.2669622 1.4316281 16711746
0.0024337 -1.7956831 0.8734387 16711746
0.0133960 -1.1822572 0.5410928 16711746
-0.0142120 -0.0504005 0.0477135 16711746
0.1067004 -0.5265450 0.4999813 16711746
0.9735997 -1.6818689 1.1686685 16711746
-0.0242640 -0.0828976 0.0632944 16711746
-0.1840237 -0.6169372 0.3805661 16711746
0.1838341 -0.7404543 0.9253445 16711746
0.9694608 -0.7532358 0.8991777 16711746
0.5013753 -1.4747741 1.7631763 16711746
0.1171944 -0.0967842 0.1334350 16711746
0.0388555 -0.0685041 0.0364877 16711746
0.8093680 -0.7312617 1.2186146 16711746
0.6692295 -1.5290984 1.3406652 16711746
-0.0228370 -0.0484682 0.0346934 16711746
0.1172764 -0.2232677 0.1743111 16711746
-0.0255905 -0.0689316 0.0473364 16711746
-0.2778415 -0.7855322 0.4034209 16711746
-0.0606939 -0.1479144 0.0879078 16711746
0.1979201 -0.6673503 0.7514097 16711746
-0.1324349 -1.4194890 0.5494951 16711746
-0.0278043 -1.7069806 0.9788824 16711746
1.0735288 -1.5738244 1.0823867 16711746
1.0076743 -1.6517794 0.9651744 16711746
0.4127116 -0.9962438 1.3676232 16711746
-0.0136800 -0.0697726 0.0727703 16711746
0.1608594 -0.8064352 0.6004671 16711746
0.0481219 -0.1729154 0.1552060 16711746
0.2089882 -0.8792869 0.7119467 16711746
0.0442460 -0.1627585 0.1500922 16711746
0.1890703 -0.8095232 0.6869553 16711746
0.0398199 -0.0980030 0.0813585 16711746
0.3685448 -1.1592772 0.9061227 16711746
