# .PCD v.7 - Point Cloud Data file format
VERSION .7
FIELDS x y z rgb
SIZE 4 4 4 4
TYPE F F F F
COUNT 1 1 1 1
WIDTH 76
HEIGHT 1
VIEWPOINT 0 0 0 1 0 0 0
POINTS 76
DATA ascii

0.4655844 -0.2978567 0.5813928 16711746
0.5475547 -0.3685677 0.6735280 16711746
0.9390109 -0.6911631 0.6802884 16711746
1.0230892 -1.5558656 0.9421184 16711746
0.9394521 -1.7483318 2.0029657 16711746
0.5133618 -0.9081389 1.0599486 16711746
0.5259007 -1.3224192 1.1916957 16711746
0.9459115 -2.2584500 2.2147260 16711746
0.7016726 -1.2708309 1.2943830 16711746
0.6133834 -0.4971587 0.7839280 16711746
0.6658411 -0.5123398 0.7034056 16711746
0.6352321 -0.5067975 0.6603130 16711746
0.6213554 -0.5512960 0.6762731 16711746
0.5161242 -0.3637764 0.6059374 16711746
0.6749244 -0.5000355 0.7067561 16711746
0.4577462 -1.1232436 0.9697656 16711746
0.7576921 -0.5420583 0.6982167 16711746
0.5377693 -0.2090546 0.5196123 16711746
0.4443125 -0.1594802 0.6509237 16711746
0.4526648 -0.0977302 0.5406944 16711746
0.4033451 -0.1195973 0.5392859 16711746
0.5373243 -0.1952459 0.8681821 16711746
0.4378309 -0.2529801 0.7617924 16711746
0.4972419 -0.2533727 0.6317163 16711746
0.8703818 -1.3640381 0.7838577 16711746
0.6478321 -0.2102585 0.5114236 16711746
1.2892768 -3.0971386 2.3381059 16711746
1.4461992 -1.3236816 1.6564949 16711746
0.5407919 -0.5105960 0.6779447 16711746
1.0235176 -0.5141779 0.7254322 16711746
0.8550289 -0.4286569 0.6373410 16711746
1.3381408 -0.6825762 0.6762964 16711746
1.2623485 -0.4170420 0.4406710 16711746
0.4406429 -0.1988015 0.6385348 16711746
0.4338756 -0.2230651 0.6164738 16711746
0.5117320 -0.3440377 0.8025977 16711746
0.4167971 -0.3543434 0.8255876 16711746
0.7240562 -0.5380486 1.0571761 16711746
1.4649410 -2.8584356 3.0342143 16711746
-0.2315177 -0.7200578 1.7744571 16711746
-0.2071749 -0.7839865 1.6181056 16711746
-0.1290421 -0.6355712 1.4393651 16711746
0.4932117 -0.2927134 0.6633093 16711746
0.3757458 -0.6025777 0.9002149 16711746
0.3753553 -0.5709516 0.8514238 16711746
0.3188645 -0.4530148 0.8501027 16711746
0.5189068 -0.2794055 0.5307527 16711746
0.4795403 -0.3126655 0.6428122 16711746
0.6075112 -0.3174285 0.6131470 16711746
0.7507107 -0.5761105 0.7099394 16711746
0.5813169 -0.4604520 0.5613140 16711746
0.8965733 -0.2972535 0.3239154 16711746
0.9572316 -0.6632475 0.7012244 16711746
0.9754052 -1.9787575 1.8194112 16711746
0.4491785 -0.8366963 1.0572103 16711746
0.8819063 -0.4052236 0.3483986 16711746
1.2776519 -1.0108342 0.9253201 16711746
0.7485418 -0.6175100 0.6182942 16711746
0.8883142 -1.1030557 0.8531585 16711746
0.8131496 -0.7609425 1.0713882 16711746
0.6379804 -0.3680764 0.7206693 16711746
0.8832497 -0.9430872 0.7687923 16711746
2.1045072 -2.4363010 1.6532291 16711746
1.9888134 -2.3863604 1.5646093 16711746
1.4303989 -0.4814549 0.3699238 16711746
-1.6436710 -4.1760635 7.0085325 16711746
61.0649109 -158.6840820 148.7980499 16711746
23.3110580 -24.8916397 23.5144310 16711746
553.2783203 -1447.3503418 1136.2912598 16711746
101.5643845 -106.1762619 112.4667587 16711746
137.3841858 -156.8922424 80.8761749 16711746
28.3316040 -60.9134178 61.8284111 16711746
77.3581467 -87.6111145 84.3784027 16711746
115.2454758 -105.7322540 107.4310303 16711746
64.0331421 -142.1131897 132.8722229 16711746
5.7011757 -5.4268737 9.8627281 16711746
