# .PCD v.7 - Point Cloud Data file format
VERSION .7
FIELDS x y z rgb
SIZE 4 4 4 4
TYPE F F F F
COUNT 1 1 1 1
WIDTH 205
HEIGHT 1
VIEWPOINT 0 0 0 1 0 0 0
POINTS 205
DATA ascii

 -0.1263004 0.0565566 1.6265140 16777215
 -0.0028082 0.0043276 0.0222369 16777215
0.5142647 -1.0891464 0.7921228 16711746
0.6393203 -0.3312630 0.0616555 16711746
0.8334813 -0.6275572 1.0051386 16711746
0.6002645 -0.4292619 0.2423792 16711746
0.6556814 -0.4179848 0.0869865 16711746
0.6436852 -0.3560782 0.0565893 16711746
0.6269717 -0.3354077 0.0426508 16711746
0.6483632 -0.3787043 0.0564819 16711746
0.7440668 -0.6266474 0.3926783 16711746
0.6094559 -0.5357658 0.3272465 16711746
0.5214503 -0.4338976 0.2065920 16711746
1.4000458 -0.8913536 1.3140177 16711746
0.8189490 -0.5583975 0.7794421 16711746
0.7605667 -0.5624730 0.7836269 16711746
0.9542389 -1.0629597 1.7661992 16711746
0.9216685 -0.9548060 1.7016042 16711746
0.5257401 -0.5918312 0.7072704 16711746
1.2566741 -0.8713209 1.1654465 16711746
0.7970838 -0.7237997 0.8583284 16711746
0.8915514 -0.8240122 1.2593095 16711746
0.7946199 -0.4905188 0.7677239 16711746
0.5149034 -1.1999612 1.4873054 16711746
0.9022743 -0.1599542 0.5951352 16711746
0.8226889 -0.0718930 0.4051066 16711746
1.1654956 -0.5212442 1.0260744 16711746
1.0085942 -0.3212386 0.6895981 16711746
0.9453775 -0.2180750 0.6545644 16711746
1.0330062 -0.3249990 0.8389118 16711746
1.0368721 -0.3972041 0.5212389 16711746
0.7438398 -0.7605667 0.3142890 16711746
0.7960871 -0.7274464 0.7680205 16711746
0.5909723 -0.5572898 0.5859480 16711746
0.5922608 -0.5345550 0.5567771 16711746
0.8783745 -1.1468523 0.9245745 16711746
0.7619933 -0.3571927 0.4429584 16711746
0.6475440 -0.1680518 0.3054834 16711746
0.6971628 -0.1773003 0.3202724 16711746
0.9247334 -1.6147369 0.7876590 16711746
0.8822395 -1.3901918 0.6579077 16711746
0.8921723 -0.4387091 0.2190673 16711746
0.5192487 -0.2532487 0.1300760 16711746
1.3073869 -1.3417743 1.2881809 16711746
1.0938953 -0.6677548 0.7431580 16711746
0.8252872 -0.9624698 0.6117773 16711746
0.5625125 -1.1678286 1.1521219 16711746
0.8554701 -0.7022351 1.1114618 16711746
0.8294659 -0.6029655 0.8956035 16711746
0.5106607 -0.7638153 1.5048273 16711746
0.5162048 -0.8202613 1.5578554 16711746
0.4571711 -1.3731169 0.5843752 16711746
0.8622023 -0.6635984 0.4877837 16711746
0.7727876 -0.3753398 0.3660875 16711746
0.7739219 -0.3767669 0.3539206 16711746
0.6901448 -0.3582389 0.3447579 16711746
1.0010201 -1.1897866 1.3130798 16711746
1.0412776 -1.3449315 1.4729096 16711746
0.5452763 -0.4180021 0.4221411 16711746
0.7519661 -0.5624537 0.5419536 16711746
0.8621197 -1.1066793 0.7723207 16711746
0.4950393 -0.3107602 0.2882077 16711746
0.7017372 -0.4158249 0.3514391 16711746
0.8010787 -0.9088593 0.4937511 16711746
0.8268760 -1.0227050 0.5650675 16711746
0.8420983 -0.6180745 0.7254711 16711746
0.7702888 -0.6121134 0.7015124 16711746
0.4374339 -1.3912122 0.5201468 16711746
0.9104883 -1.3530388 0.9379030 16711746
0.9068322 -1.3594476 0.8813227 16711746
0.4324685 -0.6633819 0.4046187 16711746
0.7202564 -0.4853888 0.3895773 16711746
1.1515951 -0.8605157 0.6690652 16711746
0.7026244 -0.4328299 0.3390467 16711746
0.7770674 -0.7065005 0.5327760 16711746
0.9173986 -0.8801498 0.4609376 16711746
0.7021685 -0.4584586 0.3138859 16711746
1.0723534 -0.7592425 0.4959993 16711746
0.6014612 -0.3887490 0.2518302 16711746
0.7108046 -0.5043069 0.3202544 16711746
0.7759750 -0.8552235 0.3997593 16711746
0.8301286 -1.0198771 0.5896416 16711746
0.6802764 -0.3878111 0.2615073 16711746
0.8059036 -0.4802225 0.3249767 16711746
0.7844909 -0.7176403 0.5892686 16711746
0.8012527 -0.7667807 1.2906643 16711746
0.7764003 -0.4466581 0.7924861 16711746
0.7361469 -0.3541928 0.8333549 16711746
0.7999489 -0.4160035 0.8455566 16711746
0.7656221 -0.4364680 0.9146904 16711746
0.8824693 -0.2652814 0.4598902 16711746
0.6994885 -0.3373401 0.4666161 16711746
0.7024837 -0.3528519 0.4615075 16711746
0.5264962 -0.2437416 0.4272662 16711746
0.7744867 -0.4243997 0.6750113 16711746
0.5507162 -0.1774367 0.3362263 16711746
0.6654292 -0.2496567 1.2181768 16711746
0.6196396 -0.1407213 0.9663246 16711746
0.3971768 -0.5696996 1.6876754 16711746
0.8414084 -0.5448335 1.2138251 16711746
0.7029223 -0.2752104 0.8043578 16711746
0.7323770 -0.3989873 1.2604123 16711746
0.4840376 -0.2289779 0.6692296 16711746
0.7572893 0.0698981 0.5400695 16711746
0.6022933 -0.0633704 0.6534928 16711746
0.5967693 -0.0039061 0.3276545 16711746
0.8845769 -1.2058557 0.8739783 16711746
0.9154246 -1.3554448 1.0082368 16711746
0.5755991 -0.2389568 0.3009895 16711746
0.7604432 -0.3482003 0.4101460 16711746
0.9470967 -0.4314272 0.4906563 16711746
0.8247132 -0.5729604 0.3163288 16711746
0.7353531 -0.5227217 0.4502102 16711746
1.0448399 -1.3514389 1.1988847 16711746
0.9062089 -1.2679226 1.1179304 16711746
0.7329434 -0.4679459 0.5446048 16711746
1.1630443 -0.7788931 0.8721428 16711746
0.4832808 -1.2567747 1.1002527 16711746
0.8515649 -0.6746597 0.9652187 16711746
0.7776855 -0.7058281 1.4760619 16711746
0.7480650 -0.6634205 0.3850774 16711746
0.7537735 -0.6900685 0.3947815 16711746
0.6543351 -0.1976174 0.3086987 16711746
0.7914904 -0.4242284 0.9957436 16711746
0.6510444 -0.4017476 0.0545272 16711746
0.6541834 -0.4322287 0.0599638 16711746
0.4187985 -0.8225168 0.5189301 16711746
0.5233799 -0.8006022 0.3865102 16711746
0.8469288 -1.2242781 0.5530148 16711746
0.4901280 -1.3304852 0.9161181 16711746
0.6845484 -0.3701046 0.2985309 16711746
1.2303761 -0.7205609 0.5329927 16711746
0.7514108 -0.3637168 0.0280070 16711746
0.8140920 -0.4025187 0.0441259 16711746
0.7418375 -0.7362924 0.3171986 16711746
0.7762237 -0.7626631 0.4626202 16711746
0.5413212 -0.5878419 0.3591146 16711746
0.5128658 -1.1101110 0.7836165 16711746
0.7134247 -0.6315889 0.2597955 16711746
0.8633884 -0.3149483 0.3119114 16711746
0.6498880 -0.2259104 0.2056487 16711746
0.4705747 -1.4489214 0.7802373 16711746
0.8130521 -0.8711482 0.6237844 16711746
0.9577286 -1.0154393 0.6833927 16711746
0.8386256 -0.9965681 0.6910140 16711746
0.7202689 -0.4190090 0.5095606 16711746
0.9151427 -0.8924013 1.2060384 16711746
0.7421808 -0.7718611 0.3038703 16711746
0.8351917 -0.9953915 0.6581813 16711746
0.7506760 -0.5720559 0.5067673 16711746
0.8787424 -0.7221811 0.4969922 16711746
0.7679065 -0.6513433 0.5357267 16711746
1.2396668 -1.0209172 0.7909747 16711746
0.4767177 -1.1078073 1.1616230 16711746
0.7496849 -0.5419110 0.5671918 16711746
0.7948355 -0.7191692 0.7842162 16711746
0.0294177 -1.2588689 1.2956983 16711746
0.5470797 -0.1282573 0.2736538 16711746
0.5332316 -0.8147849 0.4744222 16711746
0.9250436 -1.5088536 0.8766488 16711746
0.9369686 -1.6005466 0.8901792 16711746
0.2722355 -0.7453319 0.9498579 16711746
0.3803112 -1.5458771 0.8942094 16711746
1.1797061 -0.4522927 1.2863327 16711746
0.6587228 -0.1353372 0.4809881 16711746
0.4245084 -1.0880425 1.8519037 16711746
0.6491446 -0.7538167 0.3256321 16711746
0.8151165 -1.0397270 0.4874098 16711746
0.4933661 -0.7047520 0.2262198 16711746
0.4525104 -0.8140973 0.3716152 16711746
0.6784472 -1.0300071 0.3831109 16711746
0.6002615 -0.3242669 0.0245762 16711746
0.6574231 -0.4942504 0.0888896 16711746
0.6614377 -0.5891055 0.0920548 16711746
1.3140700 -1.1094919 0.9966791 16711746
0.8703002 -1.1650655 0.7700424 16711746
0.8502555 -1.0011982 0.8488632 16711746
0.8268141 -0.9210286 0.6893800 16711746
0.3006195 -0.8131444 0.5923924 16711746
0.8988079 -0.3769585 0.3763322 16711746
0.6499203 -0.2316772 0.1952798 16711746
0.9827074 -0.3112507 0.3957281 16711746
1.0027286 -0.3392757 0.3638306 16711746
0.8375231 -0.2432615 0.3029734 16711746
0.8367409 -0.2593324 0.2669353 16711746
0.6701319 -0.3373177 0.2475293 16711746
0.8873162 -0.4079862 0.2677551 16711746
0.6508729 -0.2537075 0.1705238 16711746
0.9511870 -0.5687127 0.2987363 16711746
0.7531493 -0.6166753 0.4600595 16711746
0.7019139 -0.4444936 0.3243551 16711746
0.6872215 -0.3344390 0.3557193 16711746
0.6818453 -0.3985233 0.2612862 16711746
0.8740184 -0.8271289 1.8483347 16711746
0.7031412 -0.5664601 0.2520548 16711746
0.5249108 -0.9474972 0.5572140 16711746
0.5200945 -0.9965896 0.5720450 16711746
0.7672141 -0.5965307 0.7112334 16711746
0.6487485 -1.0891501 1.1106561 16711746
0.5888258 -0.4911210 0.7611130 16711746
0.5507886 -0.4866521 0.7352335 16711746
0.7208648 -0.7493111 0.6787816 16711746
0.7251849 -0.5439826 0.3607014 16711746
0.7406328 -0.6008248 0.3958379 16711746
0.5137926 -1.0768391 0.8231500 16711746
