# .PCD v.7 - Point Cloud Data file format
VERSION .7
FIELDS x y z rgb
SIZE 4 4 4 4
TYPE F F F F
COUNT 1 1 1 1
WIDTH 47
HEIGHT 1
VIEWPOINT 0 0 0 1 0 0 0
POINTS 47
DATA ascii

1.8388306 -0.4258573 1.1151466 16711746
0.0777566 -0.0238434 0.1395390 16711746
0.0185781 -0.0137425 0.0649676 16711746
0.1000419 -0.0534560 0.1468601 16711746
0.1708715 -0.0788484 0.2213023 16711746
0.1766766 -0.0658736 0.2251845 16711746
0.1586993 -0.1131181 0.3004178 16711746
1.8971976 -0.0843024 1.0502028 16711746
1.0393349 -0.1666662 0.8368739 16711746
0.1899198 -0.0476470 0.1921700 16711746
-0.3214416 -0.6768314 0.9990593 16711746
-0.0358216 -0.0774748 0.1232767 16711746
0.4689254 -0.4455598 0.8388820 16711746
0.9678353 -0.9923428 1.7671653 16711746
1.2561233 -0.8335123 1.5209385 16711746
0.8612571 -1.7727638 2.1094086 16711746
0.2829112 -1.5854887 2.0283859 16711746
1.0854112 1.3331885 -2.6411259 16711746
0.2175249 -0.6512349 0.6472417 16711746
0.0013639 -0.1240090 0.1565647 16711746
1.1539717 -0.6656297 1.1741778 16711746
0.8230001 -0.8950338 1.3690965 16711746
0.3574876 -0.5929208 0.9187942 16711746
0.5480933 -0.4746335 0.8625100 16711746
0.0906763 -0.1257200 0.1885049 16711746
0.6861144 -0.5658920 1.2394116 16711746
0.7737709 -0.6823845 1.4291832 16711746
0.6493942 -0.5936743 1.2138991 16711746
1.8109777 -1.2921540 1.7664024 16711746
1.2413706 -0.6809337 1.4735547 16711746
-0.0030408 -0.0668257 0.1804695 16711746
-0.0019563 -0.0119697 0.0547492 16711746
2.2309883 -0.9062929 1.3053548 16711746
0.0101677 -2.2800214 2.2403743 16711746
0.1942182 -0.9556546 1.3802497 16711746
0.3175347 -1.2320393 1.9680973 16711746
0.0918428 -1.8725111 2.3748436 16711746
0.0174173 -0.0245504 0.0876974 16711746
-0.0013601 -0.0044912 0.0418851 16711746
-0.0007758 -0.0070879 0.0486032 16711746
0.7100533 -0.9365922 2.1191163 16711746
-0.0019751 -0.0137016 0.0549780 16711746
-0.2348721 -1.5588402 1.4838969 16711746
0.5020881 -1.5933887 1.1539924 16711746
0.1672466 -0.0104712 0.1904541 16711746
0.0795644 -0.0211153 0.1275095 16711746
-0.7190618 -14.2824059 16.3178749 16711746
