# .PCD v.7 - Point Cloud Data file format
VERSION .7
FIELDS x y z rgb
SIZE 4 4 4 4
TYPE F F F F
COUNT 1 1 1 1
WIDTH 64
HEIGHT 1
VIEWPOINT 0 0 0 1 0 0 0
POINTS 64
DATA ascii

 -0.1099035 0.0437510 1.4393098 16777215
 0.0061499 -0.0018511 0.0186555 16777215
-0.8627448 -0.6321832 0.7920865 16711746
0.1694092 -1.0042316 1.0682148 16711746
-0.7190413 -0.7308514 0.7581856 16711746
0.3230053 -0.4778405 0.7510710 16711746
0.3734331 -0.4536115 0.8465252 16711746
-0.2868687 -2.0999491 1.4766016 16711746
0.1773874 -0.3147911 0.4870978 16711746
-0.1113446 -0.2858272 0.8250801 16711746
-0.1996184 -0.3743787 1.0708783 16711746
-0.1599614 -0.4128077 1.1123508 16711746
-0.0891179 -2.1739347 1.5281030 16711746
-1.3343182 -1.8543708 1.6982160 16711746
-1.1631823 -2.0394113 1.7157025 16711746
-0.3855326 -1.0430334 1.0341344 16711746
-0.4249552 -2.0602715 1.4690833 16711746
-0.3852099 -0.4763145 0.8541035 16711746
0.3527166 -0.4414931 0.9178712 16711746
0.6644032 -0.3322389 1.1353868 16711746
0.3852344 -0.4077387 1.0148871 16711746
0.3521960 -0.2800389 0.8091236 16711746
0.3763809 -0.4007673 1.0336753 16711746
-0.3424062 -0.5467613 0.9385936 16711746
-0.7552120 -0.8758233 1.1712896 16711746
-0.4460858 -0.4965469 0.6235786 16711746
-0.7005961 -1.1170800 1.4336606 16711746
0.0175055 -0.4940275 0.8050554 16711746
0.0522034 -0.5841110 1.0749141 16711746
0.1525962 -0.4652035 0.8856652 16711746
0.1580835 -0.6071435 1.0620522 16711746
-0.4066478 -1.1936758 1.9158082 16711746
-0.1114904 -0.4875680 0.7531124 16711746
-0.1539259 -0.6863979 1.2750274 16711746
-0.0546395 -0.5763045 0.9855415 16711746
0.1397572 -1.0303892 1.4375210 16711746
0.2064513 -1.0419245 1.4602647 16711746
-0.4861607 -1.0412192 1.3899447 16711746
-0.4400079 -0.2971880 1.0365911 16711746
0.1256239 -0.3387347 1.0580814 16711746
-0.2021465 -0.3332113 0.9115814 16711746
-0.1373143 -0.3809282 1.1798656 16711746
-0.1151338 -0.2765352 0.8273801 16711746
-0.1655923 -0.2259448 0.8425469 16711746
-0.0916265 -0.2630212 0.8733723 16711746
0.0127211 -0.4054071 0.9315380 16711746
-0.0792020 -0.3187398 0.6425173 16711746
-0.1327128 -0.3014828 0.7785239 16711746
-0.5569080 -0.4108277 0.8308408 16711746
-1.0885725 -2.0521731 1.6626818 16711746
-0.0975113 -1.0899901 0.8652186 16711746
-0.7165940 -0.7663525 0.8751099 16711746
-1.2759612 -2.0429878 1.8241028 16711746
-1.2025030 -1.9152452 1.6331937 16711746
0.3874750 -0.3385612 0.5495927 16711746
-0.4607031 -0.3635773 0.6830360 16711746
-0.5043673 -0.4643112 0.8325371 16711746
-0.4772906 -0.5389839 0.9484448 16711746
-0.3952686 -1.9303496 1.2663504 16711746
-1.4129865 -1.8734397 1.7927613 16711746
0.0775744 -0.6389146 0.6364359 16711746
-0.3875110 -2.2249401 1.7007589 16711746
-0.3784094 -2.1522689 1.5872060 16711746
-0.4626666 -0.6038669 1.1084296 16711746
