# .PCD v.7 - Point Cloud Data file format
VERSION .7
FIELDS x y z rgb
SIZE 4 4 4 4
TYPE F F F F
COUNT 1 1 1 1
WIDTH 227
HEIGHT 1
VIEWPOINT 0 0 0 1 0 0 0
POINTS 227
DATA ascii

 -0.0438143 0.0666236 2.1375203 16777215
 0.0210883 -0.3379968 0.1923729 16777215
-0.2507826 -0.4196517 0.7973267 16711746
-0.2021578 -0.4012811 1.0394336 16711746
0.6330050 -0.3302954 1.3199574 16711746
0.2626816 -0.6414911 1.4425371 16711746
0.3211077 -0.6881292 1.5477790 16711746
0.0611144 -0.5861575 1.3242188 16711746
0.7501796 0.3066884 1.9506264 16711746
0.5946236 -0.1690417 1.8477731 16711746
0.0919956 -0.5806007 1.0514613 16711746
0.5871210 -0.4790770 2.2661562 16711746
0.3968895 -0.4347487 1.5503711 16711746
0.3450497 -0.4308745 1.2864079 16711746
-0.2639487 -0.3281727 0.9507774 16711746
0.6542257 -0.4067766 1.7020700 16711746
-0.2268653 -0.4319322 0.8738133 16711746
0.2351401 0.4587041 1.5836840 16711746
0.6971492 0.5176563 2.1015015 16711746
0.5383217 0.1979287 1.4917946 16711746
0.2731518 0.2104853 1.5783950 16711746
0.6147383 0.6505849 2.4216409 16711746
0.3410752 0.4904687 1.9144979 16711746
-0.4905876 -0.1503196 0.9251396 16711746
-0.4202282 -0.1867686 0.7967589 16711746
-0.5129665 -0.2212148 1.1742134 16711746
-0.4147712 -0.2479458 1.0045803 16711746
-0.5114190 -0.2529145 0.7843003 16711746
-0.4907016 -0.2584388 0.8035320 16711746
-0.1377824 -0.1524345 0.9910116 16711746
-0.1023067 -0.3601827 0.7244560 16711746
-0.1723815 -0.3764380 0.9200215 16711746
-0.2205966 -0.0055668 0.9819232 16711746
0.8412100 -0.3426960 1.6829035 16711746
-0.3618579 -0.3350476 1.0375110 16711746
0.1945010 -0.1983562 1.5643524 16711746
0.4646655 -0.2325288 1.7290920 16711746
0.4030532 -0.2447612 1.6864645 16711746
0.4426429 -0.2760373 1.6547978 16711746
0.2927402 -0.6066442 1.5569276 16711746
0.1247901 -0.4882675 1.2586948 16711746
0.0698535 -0.4427778 0.9830683 16711746
0.1021314 -0.5329521 1.5287511 16711746
-0.1134167 -0.1773023 1.2401012 16711746
-0.2295493 -0.5125027 0.9084366 16711746
0.5814459 -0.4669178 1.8270448 16711746
-0.1928959 -0.4407088 0.9236410 16711746
0.2839891 -0.4652985 1.4008219 16711746
0.2525183 -0.4656014 1.3492098 16711746
-0.6699116 0.2871655 -0.5092136 16711746
0.7725795 -0.5567232 2.1212628 16711746
-0.1371866 -0.4457437 1.2337717 16711746
-0.2792075 -0.4721674 0.8386146 16711746
-0.5302342 -0.2988376 0.6976876 16711746
-0.5165607 -0.3686220 0.7744850 16711746
0.3376163 -0.3827656 1.2842540 16711746
0.1853749 -0.0690791 1.3226845 16711746
0.2638501 0.0048940 1.6909349 16711746
1.0576850 -0.5560009 1.8752465 16711746
-0.2285160 -0.3419443 0.8185378 16711746
-0.2104208 -0.3488116 0.8545603 16711746
0.2373489 -0.6048565 1.4403051 16711746
-0.7190455 0.7303690 0.6095824 16711746
-0.3844128 -0.1296563 0.8484276 16711746
0.5180190 -0.5671732 1.4580503 16711746
-0.3114785 -0.0051199 1.0733374 16711746
-0.2451675 -0.0489347 0.9760511 16711746
-0.0408007 -0.1428100 0.9831675 16711746
-0.0837314 0.0572111 1.3071569 16711746
-0.2491852 -0.0468203 1.2656935 16711746
-0.2724013 -0.0142694 1.2142915 16711746
-0.2785901 -0.0424158 1.2082305 16711746
-0.1974039 -0.0762454 1.3832370 16711746
-0.2096346 -0.1215839 1.3440441 16711746
-0.2219444 -0.2183771 0.9737076 16711746
-0.3922633 -0.1482936 0.8351520 16711746
-0.3756603 -0.1151050 0.8761505 16711746
-0.7910895 0.3684192 -0.5297355 16711746
-0.6419877 0.2797337 -0.5114694 16711746
-0.0628094 0.3070939 1.5200578 16711746
-0.1299537 0.2221213 1.3968048 16711746
-0.0756523 0.2933415 1.4393182 16711746
0.8422367 0.5611020 2.3614028 16711746
0.5373532 -0.6559936 1.4695516 16711746
-0.0032911 -0.4961302 0.9045274 16711746
-0.0372373 -0.4328558 1.5187572 16711746
0.5196928 -0.4286586 1.4524007 16711746
0.7380782 -0.4872161 1.7691095 16711746
0.4389192 -0.4284742 1.2477959 16711746
0.6283826 -0.3804232 1.9430970 16711746
0.5377972 -0.3607997 1.7565199 16711746
0.0702167 -0.3475893 0.9413552 16711746
0.2340684 -0.0979685 1.6724175 16711746
-0.0811475 -0.1338729 1.0634694 16711746
0.3839842 -0.5910707 1.2504125 16711746
0.3500939 -0.3090728 1.8029290 16711746
0.2702737 -0.3877751 1.6524146 16711746
0.4373729 -0.2261655 1.6394663 16711746
0.5444605 -0.1951248 2.2114649 16711746
-0.1775793 -0.4476196 1.0680705 16711746
0.0661405 -0.2141765 1.2979889 16711746
0.0044217 -0.1950508 1.4950390 16711746
0.6291793 -0.5946594 1.3861707 16711746
0.7591416 -0.6948232 1.7162225 16711746
0.5519737 -0.5437904 1.4848526 16711746
0.7365335 -0.7419438 2.0054359 16711746
-0.1690812 -0.1890665 1.1208537 16711746
-0.1021594 -0.1676795 1.2657535 16711746
0.8892701 -0.8128753 2.2030411 16711746
0.4012315 -0.5521159 1.1323912 16711746
-0.2779042 -0.0729588 1.2170103 16711746
0.0613572 -0.3593362 1.2552357 16711746
0.3991030 -0.3685085 1.5948449 16711746
-0.2372078 -0.5406326 0.9872473 16711746
-0.1620094 -0.5043662 0.7808850 16711746
0.8466552 0.0012803 2.2169697 16711746
0.9476774 -0.8375573 1.9357922 16711746
0.8017429 0.1392521 1.7319158 16711746
-0.3874270 -0.1453352 0.8562205 16711746
-0.4647262 -0.1420199 0.9437972 16711746
0.6073189 0.2149230 1.4997157 16711746
-0.0575734 -0.4073416 1.1664901 16711746
-0.1446003 -0.4775803 1.1689910 16711746
-0.1632551 -0.4699326 1.0977125 16711746
0.7679048 -0.7655715 1.2852861 16711746
0.4704527 -0.7424131 1.8914710 16711746
-0.2040052 -0.4528233 0.8273915 16711746
-0.0905013 -0.2423212 1.2698649 16711746
-0.1351258 -0.2257635 1.4598169 16711746
-0.4136936 -0.3852524 0.7632015 16711746
-0.4014817 -0.3899137 0.7033044 16711746
0.1702694 -0.0608028 1.4947331 16711746
0.1856887 -0.1142065 1.3000226 16711746
-0.1241221 -0.3604317 0.8256760 16711746
0.8441238 0.1966344 2.0835156 16711746
0.5007342 0.1882071 1.6522285 16711746
0.2181671 0.0579389 1.5810775 16711746
0.1911755 0.0077016 1.5042588 16711746
0.3949547 0.0097615 1.3708669 16711746
0.2654112 -0.0044910 1.3719342 16711746
0.2301418 0.2565758 1.8788180 16711746
0.2225240 0.0207601 1.1416740 16711746
0.3458821 0.3259379 2.0995998 16711746
0.8349144 0.1972512 2.1778510 16711746
0.7910519 0.0552953 1.7772893 16711746
0.4449557 0.0268710 2.4346662 16711746
0.5744995 0.6077786 1.7483360 16711746
0.2987163 0.5331233 1.7692614 16711746
-0.2037106 -0.5797994 1.2125646 16711746
-0.2096511 -0.4499182 0.8032267 16711746
-0.1940687 -0.4807073 0.9229977 16711746
-0.0847822 -0.5221225 0.8668663 16711746
-0.2931440 -0.3028747 0.7176885 16711746
-0.3331400 -0.3232226 0.8145387 16711746
-0.5224119 -0.3714617 0.7454905 16711746
-0.5140919 -0.3847707 0.7184979 16711746
-0.4371473 -0.4322564 0.8933983 16711746
-0.2801474 -0.3928755 0.7609691 16711746
-0.4832422 -0.4053844 0.7637517 16711746
-0.1372754 -0.3440629 1.0532506 16711746
-0.3441202 -0.3620095 1.0626371 16711746
-0.2199966 -0.3236285 1.0382549 16711746
-0.1682206 -0.3044503 1.0137364 16711746
-0.3263581 -0.4494363 0.7985789 16711746
-0.1333711 -0.4730799 0.7307401 16711746
-0.2114300 -0.5840016 1.1344510 16711746
0.2206259 -0.6687581 1.3347191 16711746
0.1651184 -0.6302322 1.2284949 16711746
0.7442726 -0.0466997 2.5226731 16711746
0.7618175 -0.4186379 1.6067137 16711746
0.4910326 -0.5479215 1.6798315 16711746
0.3266093 -0.7433592 1.5343339 16711746
0.2473769 -0.6589281 1.1575096 16711746
-0.1766693 -0.4627813 1.0479571 16711746
-0.1920195 -0.4650214 0.9696540 16711746
-0.3064304 0.0516312 1.0435598 16711746
-0.6431556 0.8766811 0.6430756 16711746
-0.6510032 0.8538584 0.6367210 16711746
-0.0852030 0.0984476 1.2599555 16711746
0.0077110 0.0887406 1.1607149 16711746
-0.2290197 0.1063762 1.2149438 16711746
0.4331517 -0.6824704 1.2649263 16711746
0.8678514 -0.9214911 1.7824959 16711746
0.1586042 -0.6449680 1.2011304 16711746
0.3280981 -0.6971645 1.2913092 16711746
1.2137256 -0.9465702 1.6620797 16711746
0.2682757 -0.2967782 1.4030757 16711746
0.4494191 -0.1236534 2.0117579 16711746
0.2879209 -0.2316030 1.4662042 16711746
-0.1972153 -0.5831203 1.0164878 16711746
1.3233030 -0.3219235 2.1745408 16711746
0.0547413 -0.5071654 1.0865312 16711746
0.9843521 -0.6355810 1.5371073 16711746
-0.0548260 -0.2449567 0.9441665 16711746
1.5860234 -0.8510553 1.7700915 16711746
0.2525876 -0.2606806 1.6754761 16711746
0.3384589 -0.4549437 1.2723438 16711746
-0.2936531 0.0211609 1.1096543 16711746
0.0895581 -0.4782625 0.9725783 16711746
0.4468566 -0.0027740 1.6882855 16711746
-0.2998746 -0.2991783 0.9797083 16711746
-0.0444355 -0.3781683 1.0247184 16711746
0.4782717 -0.2715534 1.4801213 16711746
0.8178787 -0.3452125 1.9515322 16711746
-0.3148024 -0.4242968 0.9504873 16711746
1.3472708 -0.2313583 2.1727138 16711746
0.2070395 -0.2265486 1.5892051 16711746
0.2342532 -0.6614982 1.3701823 16711746
0.2341107 -0.6185572 1.1628693 16711746
-0.2312074 -0.3936004 0.8719630 16711746
-0.1943091 -0.4196443 1.0416292 16711746
-0.1950239 -0.4310494 1.0199376 16711746
0.7141920 -0.8936120 1.8720956 16711746
0.4815979 -0.6736745 1.1661303 16711746
0.6948923 -0.5202677 1.5054021 16711746
0.8433610 0.2569906 2.0307090 16711746
0.4657320 -0.9539300 2.5515385 16711746
0.8655148 -0.5155380 3.0854549 16711746
0.8738278 -0.5168834 3.1129324 16711746
0.8496891 -0.5196486 3.0502076 16711746
2.5503860 -1.1950098 1.9206564 16711746
2.6760039 -1.1799145 1.9564708 16711746
0.6703895 -1.1322744 2.5035014 16711746
0.6638584 -1.1928859 2.4882212 16711746
2.5556488 -1.2013587 1.9259545 16711746
0.8532799 -0.5234936 3.0706224 16711746
0.7087178 -0.3650921 2.4106820 16711746
