# .PCD v.7 - Point Cloud Data file format
VERSION .7
FIELDS x y z rgb
SIZE 4 4 4 4
TYPE F F F F
COUNT 1 1 1 1
WIDTH 116
HEIGHT 1
VIEWPOINT 0 0 0 1 0 0 0
POINTS 116
DATA ascii

 -0.0436724 0.1166883 5.1565866 16777215
 0.0115304 0.0074211 0.0522875 16777215
0.1848702 -0.4201337 0.5572520 16711746
0.1085290 -0.5479274 0.5873184 16711746
1.1883205 -1.0593380 0.6910793 16711746
0.2808135 -1.0215373 0.7629165 16711746
1.2728552 -0.9878644 0.6369522 16711746
0.2412400 -0.5176294 0.6105523 16711746
0.3521231 -0.6891070 0.6949487 16711746
0.6336632 -0.6107605 0.7057863 16711746
0.5087104 -0.5178031 0.5892205 16711746
0.4809106 -0.5261221 0.5985783 16711746
0.3105587 -1.0027757 0.7916675 16711746
0.7969229 -0.4672569 0.6337920 16711746
0.7853451 -0.4824492 0.6468272 16711746
0.4716230 -0.4930951 0.6004907 16711746
0.0755025 -1.0042604 0.7266461 16711746
0.0613975 -1.0142268 0.7092506 16711746
0.9391823 -1.2836194 0.6084313 16711746
0.7008407 -0.5569935 0.6846687 16711746
0.9151883 -0.7065525 0.6424637 16711746
0.9900625 -0.6832075 0.7142557 16711746
0.7135558 -0.5590178 0.5339127 16711746
0.4991010 -0.4893666 0.6094404 16711746
0.7863740 -0.4923329 0.6121625 16711746
1.0135146 -0.5965663 0.6061906 16711746
0.5066533 -0.2956431 0.7686996 16711746
0.4712810 -0.2366093 0.8031901 16711746
0.7250296 -0.4128819 0.8312753 16711746
-0.0314705 -0.6718638 0.5541826 16711746
0.3618529 -1.0194107 0.5872487 16711746
0.2109746 -0.9768475 0.6854062 16711746
0.3062970 -0.9266236 0.6446493 16711746
0.1833542 -0.7719384 0.5598055 16711746
0.7636503 -0.3806242 0.8305153 16711746
0.8018455 -0.3751931 0.7466595 16711746
0.7307886 -0.3691941 0.8865284 16711746
0.0749263 -0.3933188 0.5446903 16711746
0.0367484 -0.3554592 0.5411249 16711746
0.1147945 -0.6466428 0.7200015 16711746
0.1131245 -0.4253374 0.5418628 16711746
0.0756989 -0.4953566 0.6086644 16711746
0.2112514 -0.9584568 0.7173157 16711746
0.2088463 -0.9687595 0.6991920 16711746
0.0994499 -0.9120208 0.6221429 16711746
0.4454148 -0.5657939 0.6019866 16711746
0.9780609 -0.6230092 0.5395754 16711746
0.5728710 -0.4218782 0.6245720 16711746
1.0232046 -0.5416428 0.5377979 16711746
0.2768207 -0.5124862 0.6427067 16711746
0.3737634 -1.3935064 1.0876167 16711746
0.2672659 -0.9523579 0.7394136 16711746
0.6822864 -0.5904700 0.6872450 16711746
0.6291346 -0.5986505 0.7595764 16711746
0.7480035 -0.5076724 0.7164580 16711746
0.7535602 -0.5264658 0.6789714 16711746
0.6440143 -0.3346747 0.5969356 16711746
0.8073193 -0.4143372 0.6901783 16711746
0.6070986 -0.6772896 0.6726568 16711746
1.2219800 -1.0474479 0.7297988 16711746
0.6471482 -0.6370037 0.5354958 16711746
0.7392809 -0.9181352 0.6151215 16711746
-0.1322009 -0.4882198 0.4816060 16711746
0.1564023 -0.5858777 0.5721162 16711746
0.1529588 -0.7364705 0.6586938 16711746
0.2124949 -0.6916295 0.6748270 16711746
0.2220120 -0.7344373 0.6791416 16711746
42.6753159 -172.7981415 126.9233398 16711746
30.3850307 -338.1731873 456.7277222 16711746
258.4071350 -187.9300385 185.5708160 16711746
76.1086884 -227.3887024 154.0865784 16711746
169.0837708 -182.3482056 240.8600616 16711746
173.0623779 -99.8465958 131.6489258 16711746
147.7707062 -130.0532684 136.7120056 16711746
113.4844666 -451.7941589 356.1846313 16711746
581.2953491 -1034.8610840 1160.3812256 16711746
198.9168701 -100.9369659 205.9155884 16711746
115.8535080 -325.3158264 320.7196655 16711746
133.5964050 -321.8657227 300.8417358 16711746
187.7359772 -199.2596741 235.5880432 16711746
155.6132660 -363.2206421 285.5046082 16711746
145.8066254 -92.4726105 142.7137146 16711746
217.7081146 -235.3208160 221.5671997 16711746
218.2496338 -248.9629517 221.6822968 16711746
241.0886230 -165.5372925 198.4956818 16711746
146.5227814 -280.3277588 278.8103333 16711746
34.7232323 -87.1949234 74.4981003 16711746
67.6247330 -457.3116760 434.7463684 16711746
82.5765076 -604.4443970 444.1423950 16711746
43.1122475 -72.8406830 55.6253891 16711746
34.2890511 -124.4192810 90.9815903 16711746
203.1560364 -292.1733704 133.3644714 16711746
35.5089684 -76.4025726 67.3886566 16711746
107.5724945 -258.8283997 305.4743042 16711746
117.3703156 -143.8181305 115.5023270 16711746
22.3259239 -53.8967514 63.6490784 16711746
53.1817284 -133.5592651 147.2166138 16711746
73.6986237 -182.9278870 156.1506195 16711746
50.7759285 -157.9951935 106.6646194 16711746
126.7997513 -66.5098953 132.0562286 16711746
126.4947815 -98.4620972 21.6084232 16711746
162.5861359 -234.8800812 107.0480728 16711746
42.6959915 -109.0466690 118.7973328 16711746
78.5906525 -104.5142441 67.7108154 16711746
60.2250481 -211.8180237 153.3061981 16711746
27.6956539 -83.3409119 56.1764297 16711746
97.4606247 -130.0150299 84.1203384 16711746
68.7405777 -96.8258820 88.6619720 16711746
63.5111694 -151.0825348 146.7716522 16711746
62.2852821 -63.3655243 62.6411552 16711746
43.1401787 -77.1952133 50.1850548 16711746
70.4090652 -151.7754517 161.7585602 16711746
715.2614136 -1329.6308594 1213.0620117 16711746
809.4207764 -1721.9924316 1605.2893066 16711746
63.7878113 -234.0564270 141.3802795 16711746
151.5735626 -80.0007629 121.0074310 16711746
