# .PCD v.7 - Point Cloud Data file format
VERSION .7
FIELDS x y z rgb
SIZE 4 4 4 4
TYPE F F F F
COUNT 1 1 1 1
WIDTH 204
HEIGHT 1
VIEWPOINT 0 0 0 1 0 0 0
POINTS 204
DATA ascii

-0.1336678 -0.5090681 0.4592035 16711746
0.1173013 -0.9370835 0.5812525 16711746
0.6541389 -1.5137849 0.9906553 16711746
0.6886849 -1.5836384 0.9828386 16711746
1.2776642 -2.3220034 1.6247858 16711746
0.6643410 -1.3147490 0.8735300 16711746
0.9508295 -1.8063211 1.4286884 16711746
2.4883182 -2.9056883 1.3086556 16711746
-0.2197349 -0.6824070 0.3639815 16711746
-0.1270747 -0.6983910 0.3705696 16711746
-0.1110381 -0.7137364 0.3579559 16711746
0.1070445 -0.9411196 1.0072863 16711746
0.1054213 -0.9481842 0.9927644 16711746
-0.1332334 -0.7919315 0.6636240 16711746
-0.1372360 -0.7845295 0.6317823 16711746
-0.0683727 -0.8129096 0.3587475 16711746
0.6209587 -1.1616679 1.3785677 16711746
0.1949162 -0.8495737 0.9948433 16711746
0.0867791 -0.5272998 0.6120670 16711746
0.1030703 -0.7219681 0.8741151 16711746
-0.2078950 -0.7115046 0.3689520 16711746
-0.1482465 -0.6431028 0.3236361 16711746
-0.0108267 -0.8928633 0.5783377 16711746
1.0475206 -1.7582895 1.7551382 16711746
-0.0118183 -0.8742265 0.6077335 16711746
0.0065243 -0.7478923 0.5030053 16711746
-0.0658492 -0.9215528 0.8145285 16711746
-0.0843564 -0.3086689 0.7690654 16711746
-0.2117574 -0.6831463 0.4031879 16711746
-0.2116951 -0.6603099 0.3738973 16711746
0.2245880 -0.9160335 1.0047195 16711746
0.2025995 -0.8962839 0.9603280 16711746
0.1305938 -0.8072557 0.8538102 16711746
-0.0930160 -0.7297584 0.3590636 16711746
-0.1999590 -0.4722336 0.5321482 16711746
-0.2409359 -0.4421838 0.4479238 16711746
-0.2556838 -0.3841543 0.4611882 16711746
-0.2985750 -0.4527705 0.5344566 16711746
-0.3478658 -0.3357215 0.3288153 16711746
-0.2886293 -0.2888428 0.3645039 16711746
-0.3107908 -0.3429666 0.3950106 16711746
0.0409556 -0.6066979 0.8241747 16711746
0.0293825 -0.5862428 0.8136021 16711746
0.0727981 -0.4845715 0.7832510 16711746
-0.1157809 -0.4145467 0.6057968 16711746
-0.1929091 -0.4535537 0.5808833 16711746
-0.0736657 -0.7462558 1.0060704 16711746
-0.0859695 -0.6477636 1.0772586 16711746
-0.0686979 -0.5364679 0.8435703 16711746
-0.0897906 -0.4200629 0.6490220 16711746
0.0374337 -0.6904852 0.7222528 16711746
0.0265326 -0.6137512 0.7779150 16711746
0.0262780 -0.7640549 0.9318503 16711746
0.1380181 -0.7363358 0.9568253 16711746
0.2118280 -0.6277022 0.7550496 16711746
0.1812677 -0.8213484 0.9871784 16711746
-0.1547247 -0.5425204 0.5843121 16711746
-0.1679706 -0.5099891 0.5848605 16711746
0.0868184 -0.5219564 1.0131345 16711746
0.0033257 -0.4488544 0.8712326 16711746
-0.0120636 -0.4578074 0.8106698 16711746
0.2163047 -0.6610603 1.2392961 16711746
-0.1408483 -0.3340871 0.6144900 16711746
-0.1224028 -0.3511944 0.6218293 16711746
-0.0885744 -0.4796749 0.8634240 16711746
1.9040684 -2.8605189 1.6719290 16711746
0.8662391 -1.5510840 0.5376199 16711746
1.0808533 -2.1073880 0.6715781 16711746
1.0379726 -2.3983421 0.7536137 16711746
1.1212727 -2.1032414 0.8205408 16711746
0.4118929 -1.1989909 0.7447025 16711746
1.2102327 -1.9865456 1.2323707 16711746
0.9375712 -1.2147241 2.0928185 16711746
-0.1945621 -0.2959124 0.7309509 16711746
0.1246346 -0.7552124 0.5982082 16711746
0.1857132 -0.9889509 0.7671177 16711746
-0.0397591 -0.7541988 0.7018254 16711746
-0.1030582 -0.3162990 0.6903253 16711746
1.1575770 -1.5681766 1.6760327 16711746
0.1691333 -0.9726356 0.7337217 16711746
0.2950316 -1.4300472 1.0460347 16711746
-0.1848175 -0.4180776 0.4439191 16711746
-0.1827723 -0.4260837 0.4353733 16711746
0.4650625 -1.3476540 0.6420146 16711746
-0.0994179 -0.3319682 0.6886880 16711746
1.7620394 -2.4713335 1.1729877 16711746
0.4418182 -0.7905988 1.3381182 16711746
0.4478292 -0.8114260 1.3253225 16711746
-0.2557721 -0.3684549 0.4755033 16711746
0.2742966 -1.1466048 0.8297537 16711746
-0.1187086 -0.7215455 0.4120882 16711746
-0.1351642 -0.6772307 0.3780927 16711746
-0.1191274 -0.7106133 0.3835766 16711746
0.0433079 -0.8597433 0.3746389 16711746
0.1840041 -0.8591342 0.6034704 16711746
0.2894193 -1.0073286 0.6833609 16711746
-0.1735639 -0.5820693 0.4437512 16711746
0.7303687 -1.6741266 1.6080264 16711746
0.7782499 -1.8487086 0.8137863 16711746
0.0654059 -0.8917561 0.9154265 16711746
0.1522403 -1.0430931 1.0430185 16711746
0.0917773 -1.2075299 1.1994390 16711746
0.0205980 -1.0374414 0.4222192 16711746
2.7178702 -2.6869857 1.3816898 16711746
1.6710334 -2.1500611 2.0984116 16711746
-0.0799411 -0.7404005 0.5464867 16711746
0.2995019 -0.9780514 0.7695149 16711746
0.0611653 -0.8800684 0.4190200 16711746
0.0011403 -0.9396480 0.4665344 16711746
0.1907329 -1.0972469 0.5498734 16711746
0.1155395 -0.7948353 0.4753834 16711746
0.2075935 -1.0036715 0.3204672 16711746
0.2009292 -1.4308169 0.5546495 16711746
-0.2854787 -0.4000396 0.3839366 16711746
-0.3175460 -0.3847777 0.3162521 16711746
-0.3634861 -0.4160361 0.3580685 16711746
-0.2208696 -0.6561600 0.4119142 16711746
-0.2652104 -0.4566884 0.3433187 16711746
-0.2914696 -0.4348495 0.3279001 16711746
-0.2453931 -0.4871963 0.3761674 16711746
-0.1367480 -0.6211196 0.5226046 16711746
-0.0904738 -0.6891880 0.6035585 16711746
-0.0267746 -0.7993502 0.6620738 16711746
-0.1787766 -0.5502530 0.4908967 16711746
0.0516500 -0.7058440 0.4568363 16711746
0.2115960 -0.7905077 0.5176008 16711746
0.2094903 -1.6049048 1.2241547 16711746
-0.2139445 -0.8838477 0.6026162 16711746
-0.2051301 -0.6917644 0.4214410 16711746
-0.0578244 -0.7902204 0.5530985 16711746
0.1604882 -0.7506588 0.7153236 16711746
-0.1455809 -0.6327147 0.4634196 16711746
0.9412245 -1.5290457 1.7434382 16711746
0.9099409 -1.5269914 1.6901425 16711746
-0.1127186 -0.7183000 0.3326851 16711746
-0.0276707 -0.8948712 0.4027490 16711746
0.8761778 -1.9441869 0.9859738 16711746
0.3694576 -1.2614477 0.9891916 16711746
0.2970561 -1.1594537 0.8920316 16711746
3.2165453 -3.4381316 1.9656004 16711746
0.0917693 -0.9386836 0.3955318 16711746
0.1344062 -1.2713555 0.5083414 16711746
-0.1795810 -0.5928147 0.3550928 16711746
-0.1641826 -0.6237441 0.3567935 16711746
-0.1899882 -0.7380245 0.4099931 16711746
-0.2026438 -0.7143641 0.3893485 16711746
-0.1823407 -0.7596579 0.4097109 16711746
-0.0453306 -0.6533388 0.5024250 16711746
1.3289016 -1.6580739 2.5558853 16711746
1.0881839 -1.3033339 2.3602958 16711746
0.3650582 -0.8052728 0.8727622 16711746
0.3300489 -0.8957163 0.9670497 16711746
0.4616939 -0.9438049 1.2349621 16711746
0.5610904 -0.9072951 1.1663330 16711746
0.4706996 -0.5338381 1.6182693 16711746
0.3064612 -0.4657863 1.2891440 16711746
0.9773377 -0.8359185 2.5541029 16711746
1.2700667 -1.0463780 2.9958735 16711746
0.2856762 -0.4053937 1.2921262 16711746
1.1263433 -1.2109889 2.5289924 16711746
0.9296633 -1.2306246 2.7152610 16711746
-0.2510931 -0.3269658 0.5270858 16711746
-0.2559086 -0.3587002 0.5194145 16711746
-0.3099309 -0.2658975 0.3490862 16711746
-0.3063408 -0.2889354 0.4271607 16711746
-0.3045879 -0.3550566 0.3943712 16711746
-0.2973150 -0.3768511 0.3842655 16711746
0.0072738 -0.5606178 0.5714115 16711746
0.6251328 -1.6232249 0.6871057 16711746
0.9553080 -1.4107207 1.9262440 16711746
-0.0558919 -0.7825052 0.5760141 16711746
-0.0174625 -0.8662084 0.6187819 16711746
-0.0691449 -0.9559422 0.6857933 16711746
-0.0095278 -0.7425656 0.4423221 16711746
0.1347532 -1.2478067 0.5524991 16711746
-0.3051566 -0.3818637 0.3595906 16711746
0.5111955 -1.1617931 0.7005566 16711746
-0.0528377 -0.8591100 0.4022443 16711746
0.9704900 -1.4587486 0.9461003 16711746
1.5126913 -2.2050059 1.6579845 16711746
-0.0118551 -0.6831809 0.5778531 16711746
0.0027721 -0.8627267 0.6938546 16711746
0.6200554 -1.2444140 1.2825851 16711746
-0.2805375 -0.5312832 0.4314180 16711746
-0.3044925 -0.5162779 0.3974396 16711746
0.1938337 -0.7845669 0.7522625 16711746
0.1234230 -1.0123616 0.9718717 16711746
0.0704069 -0.9235296 0.8882864 16711746
1.5005919 -2.0910265 1.7887763 16711746
0.6516548 -1.8573296 1.0539891 16711746
0.2945572 -1.0701599 0.5746332 16711746
-0.0303403 -0.8559355 0.5566462 16711746
-0.0369409 -0.8414573 0.5215176 16711746
-0.0667833 -0.9941840 0.6223967 16711746
1.0815985 -1.6750737 1.9505019 16711746
0.9938375 -1.8858094 1.4334393 16711746
0.1715631 -0.7625765 1.0216330 16711746
0.4609895 -1.5849689 0.7666090 16711746
0.4011890 -1.2625087 0.5711074 16711746
0.1887022 -0.7381217 1.0930780 16711746
0.1714178 -0.7236030 1.0596058 16711746
2.5095122 -4.1735506 6.1193910 16711746
9.9507275 -4.9230208 3.0492194 16711746
32.7681122 -46.9707756 21.1511211 16711746
