# .PCD v.7 - Point Cloud Data file format
VERSION .7
FIELDS x y z rgb
SIZE 4 4 4 4
TYPE F F F F
COUNT 1 1 1 1
WIDTH 81
HEIGHT 1
VIEWPOINT 0 0 0 1 0 0 0
POINTS 81
DATA ascii

 -0.0343823 0.1077533 4.7588968 16777215
 0.0035427 -0.0030120 0.1769235 16777215
0.5362865 -0.2080272 0.6074027 16711746
0.5140634 -0.2321081 0.6404727 16711746
0.6462346 -0.1255673 0.5477697 16711746
4.1285930 -2.5846598 3.2138910 16711746
0.6123765 -0.3542428 0.6600703 16711746
1.0070781 -0.5777798 0.9083850 16711746
0.6355811 -0.2985164 0.5678552 16711746
0.5762116 -0.1992133 0.9751245 16711746
0.5508822 -0.3318135 0.9490474 16711746
0.6769108 -1.7777388 2.1124980 16711746
7.4555287 -4.5559840 3.7751076 16711746
1.1723529 -0.5433571 0.6035970 16711746
0.9504327 -0.3864594 0.5187505 16711746
1.2759913 -0.5048583 0.5831694 16711746
0.2164786 -0.2160883 0.2779143 16711746
6.3369246 -4.1938190 2.8801036 16711746
0.7502509 -1.0132918 1.6057913 16711746
0.5873015 -0.3781528 0.6669247 16711746
2.2563462 -2.0033324 2.5890546 16711746
0.6173090 -0.6583915 0.9314254 16711746
1.0634894 -0.8621693 1.0965557 16711746
0.4033489 -0.3782225 0.7060432 16711746
1.1717849 -0.3057930 0.7057526 16711746
1.0956936 -0.5060255 0.9420533 16711746
0.6627330 -0.3499607 0.7154875 16711746
0.5939450 -0.1604030 0.5119374 16711746
0.7110985 -0.2762517 0.6155509 16711746
1.8422831 -2.1622057 2.0917289 16711746
2.1140087 -2.3090115 2.4705539 16711746
1.7383161 -1.2320912 1.6130241 16711746
1.2914680 -0.9281819 0.8746858 16711746
7.0461931 -4.7047596 3.6286855 16711746
1.0526825 -0.3631803 0.6833082 16711746
1.6220936 -0.7538839 1.0211095 16711746
0.8419221 -0.4310494 0.6203315 16711746
0.5673331 -0.4139426 0.6880931 16711746
0.5011516 -0.3180854 0.8382136 16711746
0.4126024 -0.1653946 0.6127316 16711746
0.4105969 -0.2125238 0.6448466 16711746
0.5628489 -0.3216703 0.9776561 16711746
0.4036928 -0.1764389 0.6562616 16711746
0.2855057 -0.3282684 0.8124863 16711746
0.2909167 -0.3222356 0.8168473 16711746
0.5847796 -0.1756261 0.6885720 16711746
0.7996265 -0.2629157 0.8050146 16711746
0.3365335 -1.1621038 1.8391927 16711746
0.0195089 -5.1377802 6.4696259 16711746
-0.3340799 -0.8613778 2.3567204 16711746
-0.1081785 -0.4748625 1.4269860 16711746
-0.0815945 -0.3506150 1.3904506 16711746
0.1958324 -0.4169800 1.0283598 16711746
0.1770243 -0.4300175 1.0668617 16711746
-0.0159598 -0.3929218 1.1213033 16711746
1.1710638 -0.5038258 0.5137882 16711746
8.2080650 -5.7548046 5.0826230 16711746
1.0201094 -0.9733106 0.9218204 16711746
0.9460129 -0.6486371 0.8981031 16711746
1.0103077 -0.7500799 1.0052568 16711746
0.7529464 -0.5188473 0.9019972 16711746
0.8620846 -0.3041720 0.4627171 16711746
0.7300496 -0.9714274 1.5002381 16711746
0.9123563 -0.6352788 1.0033144 16711746
1.0956541 -0.7313237 1.0826058 16711746
1.5928036 -1.4995917 1.8136261 16711746
0.8805916 -1.2361085 1.6855799 16711746
0.4775189 -0.3905879 0.9104542 16711746
0.4771655 -0.3065231 0.7395189 16711746
0.4210229 -0.4463136 0.8911433 16711746
0.2728883 -0.3116865 0.6565092 16711746
0.0006243 -0.5192231 1.3236940 16711746
-0.0717152 -0.4410596 1.1276469 16711746
1.4948254 -1.8952124 1.6404020 16711746
1.6399131 -0.4709544 0.4210577 16711746
8.9647436 -5.4880257 5.6124406 16711746
2.0854278 -2.1763504 2.4066164 16711746
1.0610526 -1.4589466 1.1336806 16711746
0.8729156 -1.2282385 0.9331076 16711746
0.8822441 -0.4912139 1.0217048 16711746
0.5063807 -0.3111423 0.6776978 16711746
