# .PCD v.7 - Point Cloud Data file format
VERSION .7
FIELDS x y z rgb
SIZE 4 4 4 4
TYPE F F F F
COUNT 1 1 1 1
WIDTH 183
HEIGHT 1
VIEWPOINT 0 0 0 1 0 0 0
POINTS 183
DATA ascii

-0.4195923 -1.8198245 0.9118553 16711746
-0.1673101 -0.7496104 0.3796843 16711746
0.6141673 -0.4422548 0.5744609 16711746
0.2218838 -1.5318595 1.7442714 16711746
0.1302747 -1.3696444 1.5562061 16711746
0.4812680 -0.8262696 0.4420589 16711746
0.5198454 -0.7395570 0.2818520 16711746
0.4877634 -0.7339922 0.2845204 16711746
0.4683270 -0.6587242 0.5675395 16711746
-2.0820723 -1.7669226 1.8096898 16711746
0.3317935 -0.5003663 0.5386429 16711746
-0.2369545 -1.8150498 0.8360002 16711746
0.4537650 -0.6722776 0.3031242 16711746
1.0697442 -1.4825989 0.6070724 16711746
0.1322494 -0.7008901 0.5396127 16711746
0.9656418 -0.5455444 0.3269949 16711746
0.3989374 -0.5224600 0.5442564 16711746
0.5355839 -0.5362002 0.6108293 16711746
0.8602789 -0.3447722 0.5644422 16711746
0.4246811 -0.3092569 0.5200292 16711746
-0.4608423 -1.7949228 0.7101095 16711746
0.2601328 -0.5388965 0.5093239 16711746
0.5758351 -1.1315272 1.3911351 16711746
0.3859690 -0.8584471 0.4244721 16711746
0.5240328 -1.6939665 1.0426245 16711746
0.3350100 -0.5377691 0.2754974 16711746
0.5148904 -0.4576263 0.7546207 16711746
1.2749860 -0.3514043 0.5310952 16711746
-0.9718605 -1.6412346 1.3321645 16711746
0.6609466 -0.9903046 0.8768251 16711746
0.4101055 -0.6350008 0.3527694 16711746
0.7103832 -0.5815780 0.3924030 16711746
0.8345709 -0.5703632 0.5240591 16711746
0.5400868 -0.3870001 0.3528985 16711746
0.3728185 -1.0988005 1.1308388 16711746
-0.8309890 -2.0487235 0.9622821 16711746
0.3734304 -0.8919485 0.3867694 16711746
1.9645984 -1.9566156 2.3510058 16711746
0.3955370 -0.9083933 0.7441040 16711746
0.1625765 -1.0315295 0.4103163 16711746
1.8790793 -0.7443436 0.6965753 16711746
0.9216876 -0.5231084 0.4889883 16711746
1.1772538 -0.5141761 0.2510425 16711746
1.4102644 -0.5859202 0.2703114 16711746
-0.2756358 -0.7438823 0.4053994 16711746
0.7440611 -0.3217773 0.3354081 16711746
0.2466114 -0.8222812 0.9123902 16711746
0.5212267 -1.1255037 0.7339437 16711746
0.4736350 -0.7752502 0.2906931 16711746
1.0014528 -1.6234659 0.5383859 16711746
0.0142449 -0.6544654 0.3454586 16711746
0.3074051 -0.7484105 0.7164708 16711746
-0.2475366 -1.2098790 0.6242211 16711746
0.4454247 -0.6425098 0.3960696 16711746
0.8020159 -0.3030598 0.5887135 16711746
0.6727320 -0.4789173 0.2102224 16711746
0.4022758 -0.4892644 0.5632956 16711746
-7.0156374 -7.9129224 13.2475328 16711746
-8.6346922 -10.7323103 16.8918400 16711746
-0.2356737 -1.3678459 0.5001892 16711746
-0.0792758 -1.0492407 0.7057904 16711746
0.7971619 -0.3641170 0.6072434 16711746
-0.0927591 -1.0877570 0.4087122 16711746
0.1907925 -0.3648500 0.3881334 16711746
0.4363804 -0.7414241 0.5289314 16711746
0.0815062 -0.5637592 0.7762074 16711746
0.1289170 -1.6769954 2.1329195 16711746
0.2956950 -0.6300268 0.7050374 16711746
1.3338226 -0.9195470 0.5698485 16711746
1.3838006 -0.8611476 0.7231809 16711746
1.4011029 -0.8069173 0.6339873 16711746
0.6782256 -0.4159066 0.3529595 16711746
-0.7991363 -1.5548971 0.8042011 16711746
-0.1733292 -0.9358811 0.4186367 16711746
0.5023873 -0.9149981 0.3775783 16711746
-0.2782718 -1.1633096 0.9413849 16711746
-0.2232044 -0.9047227 0.7194330 16711746
0.9779218 -1.1033241 1.0190027 16711746
1.0206017 -0.8644567 0.5046980 16711746
0.8074225 -0.7057039 0.3965479 16711746
1.4302326 -0.8064665 0.3412157 16711746
0.1555454 -0.4970310 0.4824117 16711746
-0.3344738 -1.0467529 0.5005319 16711746
1.8249552 -4.5515018 4.9204588 16711746
0.4939620 -0.5253500 0.5577953 16711746
0.3611809 -0.3939751 0.4105332 16711746
0.3916101 -1.1036521 0.6872677 16711746
0.2382826 -0.0767194 0.3722652 16711746
2.1696074 -2.8116255 7.8135972 16711746
0.1797672 -0.1176621 0.4003461 16711746
0.3879906 -0.2441702 0.6399918 16711746
0.6093582 -0.5059044 1.0816869 16711746
0.4074006 -0.3023306 0.7938450 16711746
0.5255288 -0.2197750 0.7425768 16711746
-0.6655567 -1.0146302 1.4889798 16711746
-0.5060634 -0.8352286 0.9333800 16711746
-0.7812945 -1.6069888 1.9885836 16711746
-0.4409293 -0.7884039 0.9787861 16711746
-0.0078541 -0.4699355 0.7523654 16711746
0.1230401 -0.4341026 0.8006601 16711746
0.1003737 -0.3977267 0.6856353 16711746
-6.9075270 -8.0141811 13.6934834 16711746
-5.4365430 -5.9613123 11.1014071 16711746
-0.2222578 -3.6190276 6.6127319 16711746
1.4603535 -3.0736711 7.1476846 16711746
0.4636964 -0.6865222 0.2299581 16711746
0.8467487 -0.9080553 0.3470757 16711746
0.5334713 -0.6750846 0.2473840 16711746
0.5662912 -1.0424428 0.3640042 16711746
0.4357216 -0.8796836 0.3025692 16711746
0.9001822 -0.6066713 0.3497016 16711746
-0.4414623 -1.1530735 0.8078083 16711746
0.3829514 -0.9445087 0.7508059 16711746
1.0782297 -0.8110573 0.9327926 16711746
0.6558317 -0.5062973 0.5726328 16711746
0.1821460 -0.7977248 0.3422467 16711746
-4.9190197 -5.0470953 9.6228619 16711746
1.4423457 -0.7738906 0.5279810 16711746
0.9612414 -0.5443401 0.3508696 16711746
1.2117563 -0.4294686 0.3891479 16711746
0.8953339 -0.8048490 1.0479106 16711746
0.6969494 -0.6752466 0.8642736 16711746
0.7894081 -0.9148172 0.4323372 16711746
0.7471809 -0.9224417 0.4069369 16711746
0.3866474 -1.1517837 0.5795479 16711746
0.3627636 -0.8335503 0.4494593 16711746
1.0948136 -0.8356370 0.5498996 16711746
0.5626526 -0.4846089 0.5670587 16711746
0.3853718 -0.7034766 0.5270886 16711746
0.5317100 -1.0515029 0.7788805 16711746
0.3981250 -0.7421999 0.5277383 16711746
0.5205148 -1.0749661 0.7611571 16711746
0.6357485 -1.1073372 0.8178259 16711746
0.7718418 -0.7267313 0.2991534 16711746
0.8428709 -0.6716197 0.3812596 16711746
0.9763919 -0.8635811 0.3005905 16711746
0.6592095 -0.9100363 0.8495634 16711746
0.9892655 -0.8608866 0.9217016 16711746
0.3037049 -0.7971291 0.7110803 16711746
0.6564066 -0.9463814 0.8854424 16711746
0.5874878 -1.7159936 1.2190468 16711746
0.7988066 -0.2463654 0.3400741 16711746
1.1184642 -0.3829719 0.5092518 16711746
0.7867782 -0.5734444 0.5422812 16711746
0.9355692 -0.5623263 0.3916855 16711746
-0.2392522 -0.7766711 0.4363007 16711746
-0.3374638 -1.4824296 0.7968224 16711746
-0.1853581 -1.1073811 0.5389164 16711746
0.2069581 -1.0657489 0.4327285 16711746
-0.0258131 -0.7543003 0.3505840 16711746
-0.4959720 -0.7605515 0.6585332 16711746
-0.3539656 -0.9189586 0.8769129 16711746
0.3908305 -1.9249607 1.7569029 16711746
-0.4734574 -2.2256136 1.8291214 16711746
0.2666588 -0.8957840 0.6707620 16711746
0.3844548 -1.4501013 1.0887113 16711746
0.6504771 -0.9131424 0.4338992 16711746
0.6920983 -0.9232965 0.4090520 16711746
0.3088368 -0.4172615 0.5154884 16711746
0.5949408 -0.7567264 0.8743839 16711746
0.3928326 -0.6893831 0.3297423 16711746
0.3568254 -0.8618444 0.3901691 16711746
-0.4445794 -1.7829151 0.8075159 16711746
-0.2518131 -0.9075977 0.4248502 16711746
-0.2774088 -1.2086030 0.5383613 16711746
0.3602169 -1.9197519 1.6974847 16711746
0.2244267 -1.1400970 0.9881723 16711746
0.4133179 -0.3689483 0.6444574 16711746
0.3995285 -0.2170373 0.4442974 16711746
0.4498191 -0.3266379 0.6752518 16711746
0.4898320 -0.2538781 0.5406971 16711746
0.7638556 -0.8337076 1.4378113 16711746
0.5956453 -0.7000121 0.8750492 16711746
0.6237149 -0.6213637 0.8346227 16711746
0.2250585 -0.4961218 0.6416619 16711746
0.7162413 -0.2758174 0.6100021 16711746
1.4246109 -0.4202382 1.0215228 16711746
0.5185432 -0.2304985 0.5844548 16711746
0.7964543 -0.2181964 0.3677187 16711746
3.7911277 -6.9090724 11.3534040 16711746
3.4507353 -10.1371784 6.2079296 16711746
0.5405957 -1.0249898 1.5116602 16711746
43.0888252 -81.6706238 49.4290390 16711746
