# .PCD v.7 - Point Cloud Data file format
VERSION .7
FIELDS x y z rgb
SIZE 4 4 4 4
TYPE F F F F
COUNT 1 1 1 1
WIDTH 113
HEIGHT 1
VIEWPOINT 0 0 0 1 0 0 0
POINTS 113
DATA ascii

0.3342039 -0.1368276 0.5747143 16711746
0.4766491 -0.1345693 0.6477328 16711746
0.4521599 -0.1490766 0.6915473 16711746
0.2895069 -0.3057111 0.8516542 16711746
0.2702835 -0.2210605 0.6571251 16711746
0.6121207 -0.2978255 0.7746570 16711746
0.5898602 -0.2849749 0.6838775 16711746
0.4984542 -0.2682150 0.7969369 16711746
0.3185607 -0.5483491 0.5813618 16711746
0.5793153 -0.8456051 0.8990335 16711746
-0.5665934 -0.9742923 0.5189930 16711746
-0.0859484 -1.1747966 0.7085038 16711746
0.3060808 -1.5219101 0.5379212 16711746
-0.9017183 -0.8867435 0.9457180 16711746
-0.4369659 -0.5359975 0.6095975 16711746
-0.6668982 -0.7714958 0.8117380 16711746
0.1468801 -0.5024281 0.5556360 16711746
-0.1748011 -1.4246007 0.9976642 16711746
0.8054680 -0.9530835 0.7726160 16711746
0.5659491 -0.5282102 0.6893473 16711746
1.2610208 -1.2326981 1.4595150 16711746
0.5132820 -2.2300966 1.2048230 16711746
-0.8359403 -0.9310712 1.0097164 16711746
1.0099837 -1.2841514 1.7862760 16711746
1.0920353 -1.4914490 1.1191717 16711746
0.3632660 -0.5404513 0.3333458 16711746
0.6144933 -0.9038572 1.1676440 16711746
0.4355617 -0.6999712 0.7842113 16711746
-0.2828576 -1.0027938 0.9912341 16711746
-0.0722400 -0.8485964 0.5956755 16711746
0.4462378 -0.5442425 0.8329663 16711746
0.3820939 -2.0577528 0.8359014 16711746
0.3977948 -0.4477838 0.7700183 16711746
0.0817648 -1.0818253 0.5939865 16711746
0.3969684 -1.4029651 1.0910838 16711746
0.0681546 -1.5263708 0.5733988 16711746
0.0928403 -1.2524142 0.5892852 16711746
-0.8613023 -1.2407610 1.1544808 16711746
-0.5028568 -0.6819077 0.6528676 16711746
-0.2568847 -0.4092274 0.6098309 16711746
0.7556360 -0.5070345 0.7918200 16711746
0.6084634 -0.3759020 0.7427930 16711746
0.4407694 -0.2566208 0.6848077 16711746
0.4448954 -0.1741076 0.5932393 16711746
0.4828563 -0.2026827 0.6414329 16711746
0.6575161 -0.0634425 0.6701049 16711746
0.7202237 -0.1053491 0.8073236 16711746
0.7229467 -0.2172643 0.6527718 16711746
-0.2570220 -0.6032889 0.7840760 16711746
-0.2339987 -0.5748191 0.7103441 16711746
0.0945732 -0.2865645 0.5463588 16711746
0.5707092 -0.8679284 0.6470084 16711746
0.7125196 -0.6954003 0.5882571 16711746
0.1827367 -1.8787776 0.7380288 16711746
0.7678728 -0.5110260 0.7456554 16711746
-0.6478786 -0.6106698 0.7379590 16711746
1.0404021 -0.4766232 0.7061462 16711746
1.2585213 -0.6544353 0.8820364 16711746
0.6410533 -2.3916166 1.8763374 16711746
0.1820370 -0.7986522 0.6760100 16711746
-0.0033789 -0.4928598 0.6367756 16711746
-0.0711738 -0.2806031 0.7428177 16711746
-0.0458534 -0.2052090 0.5859522 16711746
0.1055577 -0.2869933 0.6021913 16711746
-0.0411551 -0.2722021 0.6668476 16711746
-0.0054618 -0.3174999 0.7300737 16711746
0.4637530 -0.8234257 0.7831240 16711746
0.8557937 -1.0788383 0.9999845 16711746
1.0235325 -1.6046088 1.3128362 16711746
0.5590774 -0.9906926 0.8550929 16711746
0.4495325 -0.4030645 0.5721313 16711746
-0.0828114 -0.2322291 0.6061312 16711746
0.5711681 -0.2939138 0.6463909 16711746
0.1475715 -1.3506901 1.1280487 16711746
0.6469031 -0.5588129 0.7533345 16711746
-0.5651757 -0.7932103 0.8093112 16711746
0.2474561 -1.3214750 0.9564816 16711746
0.5849407 -0.3631368 0.7542207 16711746
0.4431349 -0.3326574 0.6492357 16711746
0.6609291 -0.5592028 0.6708875 16711746
0.8819643 -1.3447394 1.4797364 16711746
1.1370387 -0.4935873 0.8946084 16711746
0.8494705 -0.4251545 0.7691393 16711746
0.6202150 -0.3191485 0.5707443 16711746
1.8029916 -1.0390403 1.1226979 16711746
1.4103689 -1.1116418 1.3796544 16711746
0.3645241 -0.5028139 0.7603089 16711746
0.0948022 -0.7661604 0.6302075 16711746
0.1327815 -0.4243579 0.4485491 16711746
0.1049841 -0.9222460 0.8433178 16711746
0.1337987 -1.1740386 1.0385562 16711746
0.0921423 -1.3188510 1.1401180 16711746
-0.3214238 -1.7172645 1.5751390 16711746
0.1904853 -0.9238276 0.6661061 16711746
0.3903760 -1.2859591 1.0806900 16711746
0.1913523 -1.2710925 0.7268069 16711746
1.3336903 -1.3027996 1.4209189 16711746
0.7679168 -0.7541428 0.4264227 16711746
0.5811103 -0.7409379 0.5666183 16711746
-0.0820198 -0.7322878 0.5760514 16711746
1.4280717 -1.5611323 1.4233546 16711746
0.5999287 -0.7257059 0.6694033 16711746
0.4438788 -0.3972585 0.5315130 16711746
0.6784384 -0.5717975 0.7124709 16711746
47.1241417 -83.7628860 115.8155975 16711746
3.8834136 -19.2069473 11.5106630 16711746
100.6784744 -198.4071045 63.7279282 16711746
98.9826431 -117.9043274 88.6644440 16711746
100.6537704 -142.1278992 139.4267731 16711746
36.5200577 -118.5521317 106.2415543 16711746
13.5699968 -141.5318451 103.4547806 16711746
194.2942352 -229.7472076 108.9713898 16711746
34.2869835 -108.0040970 97.2702713 16711746
