# .PCD v.7 - Point Cloud Data file format
VERSION .7
FIELDS x y z rgb
SIZE 4 4 4 4
TYPE F F F F
COUNT 1 1 1 1
WIDTH 252
HEIGHT 1
VIEWPOINT 0 0 0 1 0 0 0
POINTS 252
DATA ascii

 -0.0656958 0.0183941 1.1150748 16777215
 -0.0047353 0.0056737 0.0390096 16777215
0.5991235 -0.3900348 0.1679575 16711746
-0.7605585 -3.1854651 2.7266104 16711746
-0.3923228 -1.6844429 1.4256817 16711746
0.4962657 -1.1027983 0.5104916 16711746
0.4741914 -1.1403410 0.5236951 16711746
0.6493090 -1.3864766 0.5990281 16711746
-0.1174429 -2.0587318 1.7509519 16711746
0.8067433 -0.3589741 0.1920708 16711746
0.3502623 -1.2128698 0.6372615 16711746
0.3513865 -1.2188581 0.6048678 16711746
0.4424647 -0.6061867 0.2937978 16711746
-1.5473316 -4.7508578 2.8725791 16711746
-1.5595922 -4.9054894 2.9082303 16711746
0.7497128 -0.5335604 0.2588830 16711746
0.6343848 -0.7842630 0.5527728 16711746
0.4719047 -0.3585537 0.6514973 16711746
0.4444973 -0.3808853 0.6829002 16711746
0.4597371 -0.3840751 0.6675168 16711746
0.5626040 -0.3260048 0.1799801 16711746
0.5914036 -1.1285120 1.5885705 16711746
0.4822601 -0.9797388 0.3575684 16711746
0.4031753 -0.7431139 0.3131591 16711746
0.6144385 -0.3000311 0.2926707 16711746
0.6553015 -0.3338332 0.3337426 16711746
0.7501348 -0.5230118 0.2182533 16711746
-0.0589924 -2.0589952 1.4815692 16711746
0.0207699 -1.1281347 1.2391037 16711746
0.2774019 -1.3811264 1.1863990 16711746
0.5998230 -0.5603347 0.4543301 16711746
0.4480482 -0.7613424 0.3890624 16711746
0.5260101 -0.5534477 0.5759973 16711746
0.5138329 -0.5629113 0.5899789 16711746
-0.6981937 -3.1342139 1.9527988 16711746
-0.4090299 -1.7882296 1.0734257 16711746
0.6888354 -0.3233049 0.1244739 16711746
0.4787347 -0.9649590 0.9556603 16711746
0.6695914 -0.2612266 0.4338751 16711746
-0.1013031 -2.0946758 0.8223926 16711746
0.6909505 -0.4360365 0.6662346 16711746
-1.2866197 -4.4726067 7.7265344 16711746
-0.3283392 -1.7140272 2.8588653 16711746
0.5315305 -0.2735994 0.4218367 16711746
0.4677218 -0.7274377 0.5723715 16711746
0.1025966 -3.6641529 2.5933201 16711746
0.2657018 -1.5699698 0.9282381 16711746
-1.3742390 -4.5280519 2.8978193 16711746
0.6613222 -2.1034606 0.7462533 16711746
0.4089332 -1.2452238 0.4120921 16711746
0.5128269 -0.6396148 0.4271033 16711746
0.3233181 -0.6475545 0.5237311 16711746
0.4666096 -0.6240582 0.5517433 16711746
0.4601693 -0.3995046 0.6688381 16711746
0.5491052 -0.5190171 0.8575588 16711746
0.5776008 -0.5641845 0.8273427 16711746
0.5411971 -0.3448331 0.6143022 16711746
0.6458125 -0.4407624 0.7774613 16711746
0.5487252 -0.3353862 0.5706748 16711746
0.5119480 -0.2561382 0.5713456 16711746
0.2438713 -0.4494417 0.7020929 16711746
0.4870961 -0.5327865 0.9431494 16711746
0.2862960 -0.3855349 0.6888865 16711746
0.5109044 -0.5246146 0.9091775 16711746
0.5917750 -0.6618490 0.8131651 16711746
0.8208882 -0.9761042 1.0462637 16711746
0.5543153 -0.4352009 0.5637299 16711746
0.5634139 -0.4288263 0.4887413 16711746
0.5825709 -0.5896534 0.8233569 16711746
0.6021271 -0.6364993 0.7980983 16711746
0.6743180 -0.4482429 0.6881898 16711746
0.5254428 -0.4255502 0.5982257 16711746
0.3556262 -0.6390661 0.7855088 16711746
0.4882677 -0.1924036 0.4593388 16711746
0.7231375 -0.2391377 0.3681966 16711746
0.6943269 -0.2229744 0.4039139 16711746
0.6335163 -0.1612227 0.3162019 16711746
0.6710920 -0.2216941 0.3649406 16711746
0.6391754 -0.3631403 0.4652732 16711746
0.5586671 -0.2487314 0.3392557 16711746
0.6110147 -0.3299695 0.5028996 16711746
0.5252414 -0.2569836 0.3917289 16711746
0.4348775 -0.1854293 0.6354271 16711746
0.3017501 -0.4661847 1.1690857 16711746
0.4287374 -0.3027065 0.9254547 16711746
0.2855703 -0.3064447 0.8181397 16711746
0.1447882 -0.8549373 0.5746692 16711746
-0.2103736 -1.5611408 1.0657973 16711746
0.5181561 -1.1980979 0.6293061 16711746
0.4538277 -0.3827037 0.9336673 16711746
0.4462186 -0.4278947 0.9618554 16711746
0.5096862 -0.6380352 0.1968341 16711746
0.4502111 -0.3565237 0.6730507 16711746
0.4747028 -0.2487820 0.3160719 16711746
0.6745380 -0.5251915 0.0808122 16711746
0.8484279 -0.6599729 0.1180245 16711746
0.7104129 -0.5743734 0.0990073 16711746
0.3905952 -0.8794184 0.5559035 16711746
0.3220958 -1.3327531 1.1022598 16711746
-0.5404424 -2.9817836 1.1451786 16711746
0.7278929 -0.5922025 0.2524523 16711746
0.3273301 -0.8503214 0.3328225 16711746
0.6243113 -1.8073785 0.7102979 16711746
0.6145027 -1.8375808 0.6879170 16711746
0.7776641 -0.9223542 0.9260508 16711746
0.5216668 -1.0338626 0.5845274 16711746
0.4849846 -1.0925653 0.6237808 16711746
0.6128436 -0.6004590 0.1508777 16711746
0.7733425 -0.7615305 0.1591524 16711746
0.6236882 -1.0638263 0.3506578 16711746
0.4223355 -0.7895918 0.2726340 16711746
0.6521550 -0.6227879 0.7258337 16711746
0.8355876 -0.3254822 0.1910633 16711746
0.6587045 -0.7191527 0.1865486 16711746
0.5954832 -0.6258882 0.1557488 16711746
-1.8205557 -5.7209506 2.0780480 16711746
-0.6574187 -2.2037625 0.8938123 16711746
0.7265119 -0.5819407 0.2221761 16711746
0.8164624 -1.1628915 0.7123359 16711746
0.4829040 -0.2618157 0.2901278 16711746
0.6470816 -0.3416955 0.3540228 16711746
0.8212702 -0.4746249 0.4743705 16711746
0.2819836 -1.4381058 0.7717746 16711746
-0.8004081 -3.4940422 1.5761123 16711746
0.4993715 -2.1723170 0.7515535 16711746
-0.0180146 -0.9615789 0.8533243 16711746
-0.3194197 -2.4675136 1.9527632 16711746
-0.3590184 -4.7211838 4.6037593 16711746
-0.3549975 -2.6435823 2.4741476 16711746
-0.0101191 -2.0296741 1.2341987 16711746
0.3600194 -1.3153396 1.0079371 16711746
-0.3941707 -1.8527348 1.2704515 16711746
-0.2733528 -1.6295509 1.1400747 16711746
0.5356246 -0.3129947 0.3492585 16711746
0.6455764 -0.7234070 0.7234166 16711746
-0.1206794 -4.1060128 2.0309944 16711746
0.1875251 -3.3982673 2.3100364 16711746
-0.2531715 -1.6231328 1.3504555 16711746
-0.0498029 -2.0403988 0.8928064 16711746
0.3225671 -0.5541668 0.5395859 16711746
0.3518436 -1.2277050 0.4454278 16711746
0.6458278 -0.8016630 0.6999162 16711746
0.1085899 -0.9109091 0.5226064 16711746
0.6535392 -0.2990028 0.3668445 16711746
0.6981719 -0.5775418 0.5339655 16711746
0.4693322 -0.4171037 0.4063692 16711746
-0.3668145 -1.7671784 0.8674406 16711746
0.7956171 -0.3838019 0.1751857 16711746
0.8165352 -0.3802326 0.1534590 16711746
0.5928487 -1.8984501 0.7188816 16711746
-1.3563514 -4.4656992 2.4963803 16711746
0.6290752 -0.4223358 0.1895788 16711746
0.5595740 -0.5570555 0.5252372 16711746
0.1480882 -1.7087520 1.2050731 16711746
0.7633933 -0.4449655 0.4143795 16711746
0.8362300 -1.4179347 0.9460965 16711746
0.5595783 -0.9344428 0.6107509 16711746
0.8069479 -1.1164927 0.7869741 16711746
-0.4589608 -2.8055160 1.3114966 16711746
-0.6858541 -3.2728574 1.5351382 16711746
-0.4847433 -5.3313622 2.6517074 16711746
0.3614244 -0.9506060 0.4609023 16711746
-0.1622911 -1.4807760 0.8882523 16711746
-0.4466842 -2.8258171 1.5721279 16711746
-0.4297155 -5.1242876 2.6358576 16711746
0.8314280 -0.2820454 0.2309008 16711746
0.4160196 -0.6692061 0.6918006 16711746
0.3957003 -0.6422918 0.6593341 16711746
0.5678688 -0.6021181 0.4852563 16711746
0.4875483 -0.7924680 0.4296358 16711746
0.4431959 -0.6832778 0.3617839 16711746
0.3354653 -0.3329171 1.0529990 16711746
0.3919443 -0.5389032 1.7174554 16711746
0.4065380 -0.2419490 0.9166204 16711746
0.5028667 -0.4061487 0.8834289 16711746
0.5887080 -0.2690077 0.7150643 16711746
0.4512346 -0.2633764 0.6496589 16711746
0.5202084 -0.2509083 0.5850571 16711746
0.4889381 -0.2964824 0.8549337 16711746
0.4083947 -0.2720663 0.6696988 16711746
0.4386132 -0.2179856 0.6452914 16711746
0.3681490 -0.6294277 1.1385299 16711746
0.4338848 -0.4533425 0.9877143 16711746
0.3826993 -0.3595455 0.7415724 16711746
0.4417780 -0.3633388 0.9396681 16711746
0.5008463 -0.1549460 0.5715942 16711746
0.5285415 -0.1737231 0.5565036 16711746
-0.2233315 -3.5962226 5.8071265 16711746
0.2007550 -1.8949057 2.9269671 16711746
-0.1670377 -1.3371718 1.9231719 16711746
0.0559697 -1.2013758 2.9883919 16711746
0.7569185 -0.3877861 0.2240743 16711746
0.5590495 -0.4637700 0.4811605 16711746
0.2679191 -0.9909227 0.4728079 16711746
0.4436974 -1.4823275 0.6634617 16711746
0.4575429 -0.6817552 0.7056403 16711746
-0.5482309 -5.1349773 5.2397771 16711746
0.7048153 -1.5827426 0.5908400 16711746
0.5854268 -0.5356446 0.8129427 16711746
0.4829555 -0.4332137 0.6460922 16711746
0.4555833 -0.5113789 0.3089789 16711746
0.4520048 -0.6816251 0.6310326 16711746
0.6228482 -0.7867450 0.1774075 16711746
0.6404837 -0.7946641 0.2391825 16711746
0.5129480 -0.6102684 0.1614221 16711746
0.3173676 -1.0037249 0.4383189 16711746
0.7256727 -0.5757412 0.2042923 16711746
0.6018133 -0.8000703 0.6285260 16711746
0.5088620 -0.6864772 0.5296402 16711746
0.5417404 -0.2956947 0.3474130 16711746
0.1897722 -1.4657092 0.8483952 16711746
0.0074835 -1.8864697 1.0997789 16711746
0.2745683 -1.4854894 1.0724286 16711746
0.0666383 -1.6195096 1.5953761 16711746
-0.2048591 -2.5119872 1.4209610 16711746
0.6476560 -0.3278909 0.1855527 16711746
0.6830901 -0.3466759 0.1773488 16711746
-1.3489715 -3.0072498 1.7915406 16711746
-0.2129808 -2.3689983 1.5531623 16711746
0.7043715 -0.2973916 0.1135957 16711746
0.1510311 -1.5178928 1.1766144 16711746
0.5097986 -0.2919263 0.5756056 16711746
0.4924452 -0.3043375 0.5940481 16711746
0.5191136 -0.2938696 0.5658997 16711746
0.8394672 -0.2305415 0.2308669 16711746
0.7167652 -0.5388334 0.5065216 16711746
0.7217167 -0.5353498 0.4949340 16711746
0.6207258 -0.7282144 0.7628651 16711746
0.5965961 -0.7508632 0.7982155 16711746
0.0938781 -1.0457509 1.8634799 16711746
-0.8482879 -4.4049911 8.0847158 16711746
-0.9484671 -4.3360038 8.3852940 16711746
0.5758868 -0.9442954 0.5257843 16711746
0.7318470 -1.4844183 0.6973655 16711746
0.4873322 -1.1068966 0.5699229 16711746
0.4364699 -1.1660862 0.6827506 16711746
0.6523945 -1.9997668 1.1837149 16711746
0.4049054 -0.6415339 0.2223957 16711746
0.7050689 -0.6363015 0.2226186 16711746
0.6506836 -0.5462652 0.1280981 16711746
0.6530960 -0.6155594 0.6153671 16711746
0.5364484 -0.6022882 0.4097800 16711746
0.5300437 -0.6511559 0.5187011 16711746
0.6805466 -0.6807923 0.5114127 16711746
0.5404709 -0.9810144 0.6083580 16711746
0.5508191 -0.3378958 0.3836110 16711746
0.6511951 -0.2964207 0.2248331 16711746
-2.2620480 -6.2473741 3.2532105 16711746
0.0200656 -1.2851312 0.6464213 16711746
0.0958832 -1.7762461 0.8088556 16711746
0.1619318 -1.7398309 1.0371717 16711746
0.0061289 -1.9076627 1.0350173 16711746
