# .PCD v.7 - Point Cloud Data file format
VERSION .7
FIELDS x y z rgb
SIZE 4 4 4 4
TYPE F F F F
COUNT 1 1 1 1
WIDTH 1178
HEIGHT 1
VIEWPOINT 0 0 0 1 0 0 0
POINTS 1178
DATA ascii
1.9065933 -19.9300137 13.2132120 16711746
2.9646480 -24.1690426 18.4179401 16711746
3.9324245 -28.0146065 21.8877163 16711746
47.1629639 -33.9818077 21.6461449 16711746
11.6139660 -11.6321096 11.2932711 16711746
7.1860561 -18.6504974 12.3390465 16711746
-4.4193807 -12.5701914 35.0160294 16711746
20.6116581 -13.0874939 24.9764366 16711746
14.0697966 -34.9714584 41.3999023 16711746
72.9502258 -40.4342918 22.6075153 16711746
9.5659580 -9.3671188 10.0687180 16711746
20.0094109 -26.1415501 23.1620045 16711746
2.1019421 -5.4528465 5.7123971 16711746
6.2932382 -59.1854897 52.7482796 16711746
17.9938812 -11.8130007 16.5122395 16711746
14.0601912 -32.3652382 24.7195759 16711746
-7.2791224 -23.3260269 17.5130711 16711746
-20.2245159 -55.7926483 38.5255470 16711746
2.1892149 -16.9348793 15.6559057 16711746
-0.1690499 -15.8431530 18.9444199 16711746
2.3498929 -17.3639374 19.3845348 16711746
2.9293206 -46.7370377 25.7022915 16711746
1.3782721 -9.9326544 8.6468601 16711746
5.0506020 -18.2821522 14.6962519 16711746
-8.4793272 -37.5809250 30.4878254 16711746
-7.1610122 -31.0827255 21.9433556 16711746
32.8306503 -22.7572918 13.5097303 16711746
29.7322273 -14.1792583 11.7037859 16711746
46.4388695 -35.4374809 11.8204336 16711746
-5.4071879 -21.4680462 33.7733421 16711746
11.2981615 -2.4429476 10.2833958 16711746
20.7577419 -7.1710010 19.3600216 16711746
25.2253075 -12.2086172 30.2395077 16711746
23.7619629 -12.4561958 15.4319334 16711746
21.4152660 -9.3993797 17.8726864 16711746
9.5741596 -17.3784313 22.0410309 16711746
19.5840244 -32.1244469 29.8088264 16711746
9.7516155 -20.2598553 15.4509010 16711746
-4.3261924 -35.2162743 22.0998726 16711746
20.9667873 -14.0894222 25.4561806 16711746
19.2998199 -27.0481453 21.2658539 16711746
8.7194376 -12.9833269 12.2494993 16711746
2.3983634 -20.6540146 22.5349140 16711746
0.9385948 -17.9852448 10.4388018 16711746
2.4840989 -17.5235672 22.8546429 16711746
9.9199524 -4.9268565 12.0687151 16711746
7.9354138 -11.0263939 16.6763325 16711746
11.2301435 -18.2527046 26.0498524 16711746
19.9707508 -14.1090012 22.4448338 16711746
3.5258744 -26.3333778 19.0163097 16711746
21.7628498 -40.9783325 43.4998131 16711746
11.4771481 -23.9982243 14.3527861 16711746
18.9883881 -26.9399872 23.2475395 16711746
16.9615574 -24.7255726 20.8445053 16711746
7.1551671 -36.9293556 28.3089409 16711746
6.2149596 -15.2652082 17.3806973 16711746
15.4183321 -22.7612972 17.3272591 16711746
30.5738583 -14.6272306 19.0945358 16711746
21.9461250 -18.5569801 11.9691238 16711746
7.6077442 -13.1460543 12.6854353 16711746
20.9676361 -28.0598946 11.0828981 16711746
5.2960153 -11.5376616 11.2363977 16711746
29.5303040 -45.4342041 21.9796200 16711746
-1.1478994 -27.5480728 21.7714252 16711746
21.1384773 -23.6643257 14.7849197 16711746
2.7923334 -21.6811333 27.1127529 16711746
15.6466417 -29.5481815 45.8545380 16711746
42.3507347 -14.9582157 22.5190563 16711746
26.6391277 -16.6037331 24.1346226 16711746
14.2517023 -12.8402786 25.6730919 16711746
17.7889595 -11.1755657 22.0754337 16711746
12.6216106 -29.4533691 18.0653038 16711746
12.8899441 -11.3506250 16.9401932 16711746
13.0860233 -8.1604500 17.0344658 16711746
0.5852721 -16.6428242 16.8797722 16711746
-2.3311503 -13.2088623 10.1416082 16711746
-0.3864754 -13.1937656 13.5718250 16711746
3.7016804 -20.0281429 17.2270660 16711746
-16.1330223 -31.0872040 25.8466644 16711746
35.5039902 -19.9496593 19.9051018 16711746
12.5999126 -28.6193962 22.2307758 16711746
0.2863779 -8.9521551 21.9169655 16711746
-3.6681726 -11.0361538 31.1225796 16711746
-3.1453269 -10.4707661 27.5069752 16711746
-6.8080773 -12.8716993 34.7508965 16711746
7.4540334 -32.5608749 44.1182709 16711746
8.7842398 -16.0379581 26.8091698 16711746
-6.6005764 -32.2400093 44.0545197 16711746
15.0196133 -17.2919369 31.7594604 16711746
14.3328457 -6.1578097 17.0353813 16711746
13.3116322 -8.3674345 25.8289204 16711746
0.0524369 -18.0871468 19.4596901 16711746
0.2927574 -27.0651169 28.6885872 16711746
-8.7532549 -23.5873203 18.7217789 16711746
-2.2306058 -9.8674593 19.3537598 16711746
9.3923044 -7.6179280 12.5142288 16711746
8.8566723 -9.0617971 10.7756910 16711746
9.5179901 -10.9617653 13.7286568 16711746
7.8638377 -11.1150150 13.0678740 16711746
9.9532108 -16.7157993 10.1461544 16711746
8.1197252 -11.1202526 13.0633631 16711746
15.9131536 -6.4514861 26.9535580 16711746
8.0989418 -8.0770855 17.9329300 16711746
6.8304496 -5.3297696 11.5667267 16711746
9.9329729 -6.2164593 6.9917269 16711746
10.0018253 -7.4015284 9.8273830 16711746
10.4097538 -14.6495466 14.5695686 16711746
-12.1984367 -21.2034912 20.9168510 16711746
8.1689558 -11.5090647 17.1194897 16711746
32.0464706 -20.1291046 32.9566383 16711746
-15.0629387 -21.4438171 34.7612762 16711746
-12.7552385 -24.9599953 27.3076077 16711746
7.1622014 -10.3767433 21.2366314 16711746
11.6164045 -5.7356644 16.4844913 16711746
11.7102098 -9.5306854 14.5503139 16711746
5.4413638 -27.2274361 18.1953468 16711746
10.6675644 -4.8068681 12.8533182 16711746
-19.0286751 -24.8757458 27.8029842 16711746
11.3764029 -7.3066449 16.1218491 16711746
24.1001968 -10.1841516 13.8676052 16711746
11.1900301 -8.7214851 15.6992130 16711746
-10.8653383 -16.1616611 18.5898571 16711746
-32.4530640 -24.3086777 57.8096771 16711746
1.4973280 -16.8199577 11.9280415 16711746
26.4956093 -9.2080574 15.4639654 16711746
15.6167259 -29.7397766 15.6299639 16711746
24.3098030 -38.2614212 45.8633156 16711746
29.5331993 -15.2105188 12.1842909 16711746
17.1865635 -28.6440830 18.3574219 16711746
6.6533270 -27.8066216 17.4825516 16711746
27.2954826 -16.8069420 13.7476358 16711746
11.2393227 -15.5693817 14.9578524 16711746
21.9826050 -13.9883595 13.8219013 16711746
7.5983653 -7.8892560 18.8035641 16711746
32.6348305 -15.1006708 15.3754349 16711746
0.2552145 -22.7364063 22.9198704 16711746
20.4778118 -35.3131828 22.5506229 16711746
-5.9548717 -25.7423248 19.9592037 16711746
14.9518194 -9.3818064 10.4847450 16711746
5.1181498 -7.3637519 8.1419973 16711746
16.2309742 -9.0115976 17.4233017 16711746
15.2665110 -9.0450411 16.2396851 16711746
9.1457386 -5.2133508 16.1438332 16711746
7.8310099 -7.5612359 22.4522972 16711746
12.7271051 -7.7854571 13.5763569 16711746
11.4398813 -4.5621309 16.9694004 16711746
1.5007509 -3.2551370 5.6667743 16711746
2.0708861 -5.2680445 6.7442837 16711746
11.8274317 -28.8867359 25.5526581 16711746
7.4503036 -6.0219851 13.3306847 16711746
4.7423787 -16.9593849 17.1590710 16711746
14.7766047 -6.8478665 8.7664299 16711746
9.6477375 -5.1792021 13.4181862 16711746
2.2317219 -19.1217022 20.6588879 16711746
10.1630764 -4.7222257 14.2216148 16711746
13.5517626 -9.9350367 17.4197865 16711746
-0.3218564 -2.4001563 5.7423244 16711746
3.7664809 -2.6094046 6.4380383 16711746
8.7227430 -6.4761667 13.2064228 16711746
12.1265774 -3.4854891 7.5360923 16711746
9.2060013 -4.5176153 17.2088451 16711746
1.3037591 -1.9292893 5.6740355 16711746
5.1702046 -8.6489325 13.1217289 16711746
8.3929491 -3.1530461 13.9277401 16711746
6.3248925 -15.7403173 18.9550095 16711746
5.6672149 -3.5012388 9.3234653 16711746
7.7346869 -3.8070114 10.1565304 16711746
9.6200647 -3.5877514 15.3193169 16711746
1.2760695 -5.0453777 7.8476624 16711746
4.8804884 -3.7956643 7.4431410 16711746
4.5300093 -2.9488316 7.2872615 16711746
3.1848791 -1.6704212 6.3545761 16711746
5.5580225 -3.0782461 8.0607338 16711746
5.2488360 -4.2711563 9.5550528 16711746
7.2817221 -4.5568523 10.1983452 16711746
5.8259177 -3.8182554 8.5814276 16711746
4.8173203 -4.2735319 7.6937394 16711746
4.3709073 -1.8726172 6.4333925 16711746
5.2460318 -3.0646195 8.5306158 16711746
5.2729511 -3.4773903 8.5879049 16711746
4.1114912 -3.0787108 6.8621373 16711746
0.6252856 -0.8264716 4.4562993 16711746
0.8190802 -1.2975843 4.6835785 16711746
8.3010387 -3.9868762 10.6567764 16711746
8.1845760 -8.0185385 14.0675840 16711746
6.2417040 -4.2838335 8.7419510 16711746
3.9232318 -1.7352066 6.9396935 16711746
1.5051140 -1.5026820 7.8200669 16711746
3.9648259 -2.6256759 7.4438710 16711746
3.7077565 -1.7675714 6.8702240 16711746
6.1865230 -4.0200124 8.4521475 16711746
6.7839231 -6.7068639 11.2026844 16711746
6.9141879 -5.6331182 9.9752159 16711746
7.1671519 -5.2900538 10.0568361 16711746
0.7419947 -1.0612218 5.5713592 16711746
1.7462015 -1.0755626 5.1080542 16711746
1.6214583 -2.1972079 7.1971407 16711746
0.7914720 -1.1141814 5.6451163 16711746
1.8795552 -2.1546593 7.6150508 16711746
6.3528633 -3.3269553 10.6887693 16711746
1.0628182 -1.3059359 5.3107643 16711746
0.2641105 -0.7643681 4.7714896 16711746
6.1768374 -3.2379048 10.5855169 16711746
4.4283886 -2.7882850 7.4845982 16711746
5.7122464 -2.9458439 10.0173111 16711746
1.6606808 -1.8719052 5.7072721 16711746
1.3441552 -0.9330216 4.5940299 16711746
1.4162617 -1.7041392 5.1688604 16711746
-0.5089686 -2.1403368 5.3552613 16711746
12.4271612 -4.6583118 18.7385292 16711746
1.6496708 -1.3198788 5.5120482 16711746
1.0384814 -0.8719900 5.1709852 16711746
9.9797935 -4.5394788 15.3626575 16711746
2.4147952 -1.9141994 6.1754613 16711746
4.0481892 -2.0057502 8.2903347 16711746
4.5823212 -2.3026061 7.6472149 16711746
-2.9697022 -4.7897997 11.4030619 16711746
11.6092882 -11.8313322 16.2955303 16711746
5.8038287 -2.5043764 7.4548106 16711746
12.0839825 -5.6198430 17.3986931 16711746
2.1120758 -5.4813700 10.2336197 16711746
1.9330273 -10.0389519 13.7801466 16711746
-0.8376644 -7.5740042 11.8400602 16711746
0.3761226 -5.4393649 14.0571680 16711746
1.2572069 -7.4412394 10.2451811 16711746
4.0063620 -2.3179414 7.5025167 16711746
5.7713227 -2.2087171 9.3324528 16711746
5.0202866 -3.3086896 10.8214283 16711746
8.6735878 -1.6611478 11.4455957 16711746
1.9438040 -9.1237907 12.8738041 16711746
6.7073708 -5.8474493 10.8485022 16711746
6.5102463 -5.0973225 9.8215494 16711746
5.4013925 -1.5571030 10.4038801 16711746
5.8145547 -1.2965239 8.2337236 16711746
6.0620837 -5.9321384 12.1180372 16711746
9.3896608 -3.4926312 15.1510506 16711746
4.5928416 -4.8704982 15.0353899 16711746
5.1884532 -2.6390109 9.4513512 16711746
8.3900442 -3.7803926 13.5174265 16711746
2.9645913 -12.9639540 15.9348707 16711746
5.9467301 -1.1455728 12.5189381 16711746
1.6490957 -5.1478810 9.4950237 16711746
2.5193298 -7.6522036 11.5340338 16711746
10.3525238 -3.6514859 11.4434748 16711746
-2.0270817 -4.4833632 8.5224428 16711746
0.7445593 -4.6062565 8.7923307 16711746
3.2379539 -3.1694319 6.5677810 16711746
-1.3511978 -3.3002896 7.0020189 16711746
-0.0670954 -3.6174731 7.0568919 16711746
1.5335147 -6.3883324 8.5716057 16711746
2.4522862 -7.5751710 11.0393744 16711746
1.7193030 -3.2198687 6.4811449 16711746
0.4558040 -2.0523574 5.8686724 16711746
6.5810213 -1.8875694 11.5926781 16711746
7.2362165 -2.0975516 12.3012953 16711746
3.3044562 -1.5300062 6.5780268 16711746
4.2903686 -1.5763911 8.1695766 16711746
7.0473270 -2.9677644 11.4155045 16711746
5.4508286 -2.8928099 9.3843021 16711746
1.7364018 -1.5640705 4.9997458 16711746
2.0316339 -2.8329577 6.5424819 16711746
3.4346199 -2.4178908 7.2186279 16711746
0.4880704 -2.4006166 6.4615474 16711746
1.4438897 -1.7714722 5.8937168 16711746
1.0296799 -1.4013672 6.6478753 16711746
0.6194107 -2.5474365 5.7208009 16711746
0.0225511 -1.2237941 5.7559376 16711746
1.6548637 -2.5928895 5.8036103 16711746
0.2986364 -3.2351594 7.0320153 16711746
4.5055819 -1.8036432 6.4633355 16711746
0.5462779 -2.4506228 6.0240932 16711746
-0.1479174 -0.5355564 4.9666047 16711746
0.1794579 -0.2475236 5.0996628 16711746
3.6987727 -3.1883574 7.3530140 16711746
3.5845029 -2.0247478 9.0691652 16711746
9.1152620 -1.2165961 15.4089937 16711746
11.0474758 -11.1029873 15.7555780 16711746
12.8051901 -2.6781080 19.1124649 16711746
0.9877881 -2.1749005 6.9915824 16711746
-0.2809905 -0.6471866 5.1165628 16711746
9.8671331 -3.2949874 15.3725281 16711746
0.3458890 -0.2442275 5.4849095 16711746
4.3143072 -1.9790667 6.2718725 16711746
-0.7157677 -1.9862416 5.9553914 16711746
-2.8919795 -4.8469071 8.2055664 16711746
-0.2478350 -1.6553988 5.8101583 16711746
-0.9989213 -2.7402389 6.4998965 16711746
3.6577554 -3.7476606 6.1085806 16711746
0.3540975 -0.2874450 5.4569478 16711746
1.9661527 -1.8732210 6.6184421 16711746
6.4200263 -5.0911331 9.8481731 16711746
5.7990537 -2.6440063 8.7471180 16711746
-0.0855488 -1.4002436 5.3569036 16711746
2.7584302 -1.6705747 6.5237293 16711746
-0.9567285 -0.9187356 6.6921263 16711746
3.8981695 -6.5694380 7.1910057 16711746
2.4671888 -2.4256537 6.2636938 16711746
3.0622642 -2.4644361 7.0159888 16711746
5.2990890 -3.8399003 7.5887060 16711746
4.8783708 -5.3548827 6.7350664 16711746
5.4026070 -3.4532077 6.9272828 16711746
6.6625333 -7.4752393 8.4757547 16711746
9.5063725 -6.4035411 11.9246416 16711746
3.1465101 -2.6878386 5.8778868 16711746
3.2917166 -2.8676827 5.9479332 16711746
5.7897229 -3.9171348 9.1723585 16711746
3.0092270 -2.5805690 5.7977238 16711746
0.5030647 -1.1756138 5.3019657 16711746
1.9979221 -0.6879042 5.1131372 16711746
10.7798138 -4.5835094 15.9639807 16711746
0.8394338 -1.4684974 5.3778515 16711746
4.9504695 -5.2172399 9.3585758 16711746
1.9259886 -1.6074617 6.0978427 16711746
2.3452430 -1.6450168 5.9572873 16711746
0.9549327 -1.6972829 5.6128354 16711746
2.6440916 -1.4539222 7.2334633 16711746
2.7465293 -2.4418995 5.4274426 16711746
2.0812905 -2.0184700 5.6778307 16711746
1.6991173 -1.8415385 5.5073481 16711746
1.5151272 -2.1836743 5.4047923 16711746
1.8208729 -1.8714684 5.3763094 16711746
2.2764111 -1.5498461 6.4573016 16711746
2.6785822 -2.0144796 6.9267974 16711746
1.9996407 -1.6659625 6.1684322 16711746
1.5429738 -2.4430766 5.7402773 16711746
1.9461378 -1.6448278 6.1655655 16711746
2.2327759 -1.4336461 5.6238446 16711746
0.5794922 -1.7901974 6.0382953 16711746
1.4906378 -1.4662750 5.3768253 16711746
5.2645788 -1.8734462 7.6459932 16711746
1.8692485 -1.3217999 6.8181715 16711746
2.5238008 -1.6211052 6.9487271 16711746
1.1603404 -2.6865590 6.5320735 16711746
1.2632797 -2.6493683 6.4422593 16711746
0.5323869 -1.7711399 5.8398294 16711746
2.1179004 -2.3693123 7.8003311 16711746
1.3811247 -1.2883530 6.2191048 16711746
1.7672205 -1.3045708 5.2291312 16711746
1.0849218 -1.8914050 5.6139092 16711746
1.2285079 -1.3505605 5.2803121 16711746
2.9075484 -2.2783673 8.0103130 16711746
0.2338771 -1.7553976 5.8269982 16711746
2.7042592 -1.9895597 6.3274083 16711746
0.7553784 -1.6983856 5.6718049 16711746
1.8570132 -1.2146734 5.9739981 16711746
2.0903795 -1.4984421 5.8010888 16711746
-0.2935298 -0.6713554 5.2941275 16711746
3.7542243 -2.1496646 7.2264628 16711746
2.5330799 -2.6394458 7.1907058 16711746
-0.1907294 -1.7162768 6.1220870 16711746
-0.1384822 -0.7822926 5.7180910 16711746
0.7693284 -2.2716825 5.9464140 16711746
1.5206246 -1.5574383 5.7418466 16711746
2.4281702 -2.5700691 6.0871906 16711746
1.9571874 -1.9417621 5.9715366 16711746
2.5499861 -2.2179182 6.8841023 16711746
1.2512577 -2.0719371 6.4600134 16711746
-0.1785167 -1.6665962 7.2759457 16711746
-0.2375069 -1.8027290 7.6115980 16711746
6.2997255 -1.1463929 12.1702318 16711746
4.1197605 -1.5058118 9.2288609 16711746
8.9113264 -9.5522804 11.4818649 16711746
10.1097002 -20.4365387 27.1247196 16711746
0.5063909 -0.1219270 4.9861097 16711746
4.9178805 -3.6942985 8.9050941 16711746
-0.1487361 -6.2332726 8.2682772 16711746
-0.1874119 -2.5343599 6.4882007 16711746
0.9503289 -1.2006211 5.8720217 16711746
-0.4185998 -4.1618142 7.9405360 16711746
0.2428929 -1.8391030 6.0201616 16711746
2.2434447 -1.0482883 6.1391449 16711746
1.4291292 -1.3686005 5.6850324 16711746
3.6685045 -1.3435152 8.8139763 16711746
2.8976395 -0.9318587 7.7741246 16711746
2.5286283 -2.8932633 7.2943549 16711746
-0.4244934 -6.2558689 8.0615406 16711746
1.7739439 -1.9400564 6.4485998 16711746
0.9891137 -1.5801765 6.0501637 16711746
1.4916915 -1.1950618 5.6006331 16711746
2.3834343 -1.2286481 6.5209975 16711746
0.7559851 -1.0372617 5.7728324 16711746
1.1450589 -2.2934942 6.1722374 16711746
2.5493181 -1.4448018 7.2340755 16711746
1.2372687 -1.7436513 6.1556587 16711746
-0.0794123 -2.5196133 6.2956891 16711746
2.6766436 -1.6409000 6.4618158 16711746
0.4697218 -0.8444703 6.5647483 16711746
1.9654206 -1.7593933 6.6559601 16711746
1.3630219 -0.9099485 5.3572769 16711746
0.5955610 -1.5783886 6.6394219 16711746
1.3125701 -1.1697155 6.2524142 16711746
1.9194632 -1.9295915 6.2676468 16711746
1.1943099 -0.6786404 5.2953811 16711746
1.5197253 -1.9966959 5.6807532 16711746
0.7927694 -1.2780648 5.7971640 16711746
0.5016716 -1.2990406 6.3906050 16711746
0.6540096 -1.5374767 6.5643544 16711746
1.5365242 -0.8404788 6.8831563 16711746
1.4975404 -3.0277240 7.7510829 16711746
1.1219611 -0.3673488 5.1692233 16711746
1.5299159 -1.6772864 5.8006234 16711746
1.7256864 -1.3204576 6.1057129 16711746
1.7526084 -0.6274005 6.2895689 16711746
1.2404529 -1.0878851 6.2312527 16711746
2.6334994 -2.2725182 6.7854552 16711746
0.8475894 -0.2793995 5.8786182 16711746
1.3188721 -1.8113127 6.4852524 16711746
1.1999496 -0.7264323 5.6021223 16711746
2.4763582 -1.7510989 7.1086073 16711746
1.9853985 -1.3094860 6.5162234 16711746
0.9468368 -1.1051428 5.8464084 16711746
0.7921910 -1.3648701 5.7951283 16711746
0.9048873 -0.6938927 5.6856699 16711746
0.1850200 -0.2560307 5.7243757 16711746
3.5736628 -0.7802110 7.8701468 16711746
4.1563697 -1.4753391 7.2467132 16711746
0.0701787 -1.4858583 6.2161207 16711746
0.2446721 -1.1211870 5.6790490 16711746
0.1668822 -0.7693880 5.4831252 16711746
-0.6629550 -0.4850424 6.1210113 16711746
0.1453781 -0.1312782 5.3206277 16711746
0.3596288 -1.8486269 5.9819775 16711746
-0.9302550 -0.6923681 6.6296525 16711746
1.8208560 -1.0632271 6.7995558 16711746
1.5191759 -0.9461170 6.4869576 16711746
1.9474115 -1.4564761 6.3060541 16711746
0.5055252 -1.6231056 6.5316191 16711746
1.7118076 -0.4889490 6.2941651 16711746
1.5694261 -1.2976267 6.3033028 16711746
0.1757092 -0.7472861 5.7697940 16711746
2.0652678 -0.8592916 6.5577559 16711746
0.4619522 -4.3556910 8.4410372 16711746
0.8881458 -1.4340414 5.6605592 16711746
0.1757056 -1.2144318 5.8858652 16711746
0.2853044 -1.3991492 6.5812664 16711746
0.8370633 -1.3424369 5.6233387 16711746
0.4142425 -1.9551321 7.0978975 16711746
-0.1068791 -0.6835785 7.0784683 16711746
0.3266027 -1.2278795 6.2148237 16711746
0.3154598 -1.5416740 5.9788847 16711746
0.2370285 -0.3458377 5.9408069 16711746
0.0921594 -0.9277863 5.8529005 16711746
0.8490697 -0.4966947 5.3004990 16711746
0.8387194 -1.4030908 5.6384516 16711746
-0.2026785 -0.5332164 5.9969416 16711746
0.0777935 -1.4935265 6.5760865 16711746
-0.1067897 -1.4653333 6.5612898 16711746
0.2025817 -1.0040492 5.6750674 16711746
1.3743974 -0.8483431 6.0089493 16711746
1.1485800 -0.7666687 5.4197474 16711746
1.2272205 -1.2794791 5.8833542 16711746
0.1231391 -0.1367801 5.5296211 16711746
1.3321599 -0.5116917 6.7473192 16711746
-0.1497581 -1.9437183 6.3721728 16711746
0.0626090 -1.6794581 6.0081730 16711746
0.8055063 -0.8179552 5.4841118 16711746
0.0583862 -1.6964991 6.0147958 16711746
0.8596188 -0.8653129 5.2839046 16711746
0.2612702 -1.2186843 6.1729403 16711746
0.2730375 -1.3997976 5.7213268 16711746
0.9868929 -0.8587013 5.8601093 16711746
0.8688716 -0.9095410 5.5340705 16711746
0.3498216 -1.4940466 6.2752848 16711746
1.6071191 -0.7969979 6.4044952 16711746
1.2669574 -1.1312555 5.9615459 16711746
-0.2919018 -1.1410971 8.2145243 16711746
0.7654427 -2.0708785 6.3776526 16711746
0.2901032 -0.9282604 5.7154245 16711746
0.3532916 -1.6954468 5.8586521 16711746
0.4882904 -1.4642967 5.8501387 16711746
0.9429147 -0.5531381 5.3242831 16711746
0.7428145 -0.8808150 5.3536744 16711746
2.6158943 -1.2681932 7.3258929 16711746
1.5338198 -1.0025222 6.2893686 16711746
-0.2187017 -0.7877333 5.6619787 16711746
-0.0329682 -2.0065901 6.2238102 16711746
0.9170602 -0.5980910 5.6772189 16711746
1.6986674 -1.4316131 6.2897296 16711746
-0.2122739 -0.8833914 5.6898327 16711746
0.2644183 -1.2999676 6.2345934 16711746
-0.0575507 -1.1687407 5.7525301 16711746
0.3146309 -1.4742507 6.1595631 16711746
-0.3583114 -1.0448052 5.8741021 16711746
1.0928675 -0.7020181 5.3831463 16711746
0.8147728 -1.4581449 6.0085206 16711746
0.7928678 -1.2460525 5.9005599 16711746
-0.0876531 -0.5908789 7.3209181 16711746
-0.2557099 -0.7159007 7.5236216 16711746
0.0368655 -1.6423823 6.2491035 16711746
0.8063398 -1.4220173 5.8292360 16711746
0.4816645 -1.0254899 6.1529889 16711746
0.0361243 -1.4782540 6.7561364 16711746
0.7226232 -2.0455639 6.5811129 16711746
1.6098970 -1.4103408 6.7802434 16711746
0.6003267 -0.3249118 5.2061205 16711746
0.2189624 -1.0415431 5.6426716 16711746
-0.1109010 -2.0097082 9.7755337 16711746
1.4844776 -0.6441691 5.8863878 16711746
1.0432217 -0.4744087 5.6365047 16711746
-0.2518184 -1.2561686 5.9827447 16711746
-0.1439430 -1.5831267 6.1501522 16711746
-0.0454724 -0.9500846 6.3497238 16711746
0.4367133 -1.3694702 6.6568389 16711746
-0.1930615 -1.2166641 5.7374997 16711746
0.1211485 -0.6256270 5.5865860 16711746
1.3791120 -0.3513452 5.6379275 16711746
0.8287427 -0.4450631 5.5766754 16711746
-0.2442370 -1.0340483 8.0154123 16711746
-0.8988489 -0.6302634 6.3896623 16711746
2.5313871 -0.7798138 7.1024289 16711746
1.3175786 -1.0070652 5.8750463 16711746
1.2737486 -1.2733809 6.1440582 16711746
2.1378157 -0.5696263 6.2444444 16711746
1.1491506 -1.1421009 5.7940059 16711746
0.6769467 -0.0176844 5.3286076 16711746
2.5012810 -0.9921190 7.5589681 16711746
0.3892710 -0.3705942 5.3836260 16711746
4.5323181 -2.0395074 9.9698009 16711746
13.5003986 -24.6395588 18.4745731 16711746
0.6643037 -0.8771759 5.6511164 16711746
1.0938208 -0.8549947 5.7213120 16711746
-0.0570663 -2.2293589 6.5484519 16711746
0.2195871 -1.0849689 6.0640769 16711746
-0.7071528 -1.2431278 6.2657247 16711746
0.2491210 -1.4341072 6.2428117 16711746
1.5492859 -0.8953732 6.2196684 16711746
2.4898162 -1.2406949 7.2733445 16711746
0.8073426 -0.8411659 5.6575928 16711746
1.8906875 -1.7373599 6.1876984 16711746
-0.4000675 -1.9751214 6.3068166 16711746
0.2900876 0.0021034 5.3085933 16711746
2.1317456 -2.3918867 6.4267440 16711746
-0.0995535 -1.9434879 6.1330948 16711746
0.5088611 -1.8090308 6.0487275 16711746
2.6722600 -0.3413424 8.1063242 16711746
-0.0415403 -1.6155255 5.9969120 16711746
1.3666118 0.0792557 5.6198330 16711746
0.9012580 -1.3899101 6.0844922 16711746
-0.0055539 -3.0132456 7.2954559 16711746
-0.0320986 0.1205117 5.1924834 16711746
-0.9355823 -1.1079040 6.7221584 16711746
5.0551410 -2.4416866 6.5449324 16711746
-0.6554522 -2.1337276 6.4241724 16711746
-0.6351435 -2.0066149 6.3508592 16711746
4.0956445 -5.8870597 7.0859566 16711746
5.5900445 -1.1031710 11.3415451 16711746
-0.7031904 -2.7799239 6.9256043 16711746
5.1606369 -1.6801035 7.0261869 16711746
2.5749643 -2.9782357 6.2768884 16711746
-0.5238080 -2.0131054 6.4453411 16711746
-2.0479734 -4.9714575 7.8734465 16711746
-0.4451059 -2.2441278 6.4831433 16711746
2.5590756 -2.8033834 7.6054158 16711746
2.9288352 -4.0370226 7.5144320 16711746
5.3307724 -0.4576459 6.9203377 16711746
-1.8266519 -3.0217862 7.7683372 16711746
-0.4116848 -1.2163088 5.9586058 16711746
0.6571787 -0.5975355 5.4344206 16711746
5.2031612 -2.0186563 9.3362999 16711746
5.1227374 -1.2689903 10.9989719 16711746
3.8287694 -2.7795589 10.0776196 16711746
-0.1118163 0.0567927 5.4641700 16711746
2.3488033 -1.5850562 7.3851027 16711746
11.3458900 -5.3651772 9.4040451 16711746
1.0315549 -1.7452706 6.1189342 16711746
0.0029589 -4.6242952 8.5706224 16711746
12.3172522 -3.4335210 18.2214508 16711746
1.1966001 -0.6920091 6.3279114 16711746
0.4550884 -0.2662735 5.4966326 16711746
2.0022688 -1.1092675 7.3913393 16711746
5.4011703 -1.4028733 11.0803766 16711746
1.3897518 -0.9812468 6.6513624 16711746
1.1654140 -0.8090617 6.5274234 16711746
0.9773236 -0.6505783 6.2851810 16711746
1.4214691 -1.1837639 6.5902543 16711746
2.4242721 -1.3998019 8.9086313 16711746
1.5253609 -1.1058115 6.8083458 16711746
2.2010946 -1.2795738 7.2984581 16711746
2.2986898 -1.0737535 7.5702252 16711746
2.1126282 -1.4657556 8.0046177 16711746
1.0851924 -0.8706446 6.2952018 16711746
1.1155959 -0.9181255 5.5981021 16711746
0.9885336 -1.2127616 6.0789132 16711746
1.2277887 -0.6461520 5.9886150 16711746
1.6355340 -0.9620130 6.2046533 16711746
1.6523041 -1.2304151 6.6233716 16711746
2.0163798 -1.5851789 7.2543111 16711746
2.2531893 -1.1341476 7.6515903 16711746
1.3988563 -0.9170697 6.0876417 16711746
1.3229021 -1.2107118 6.1924095 16711746
1.7096640 -0.2005056 7.3174009 16711746
1.8144366 -1.4377320 8.6573000 16711746
2.1140635 -1.2805458 7.1269054 16711746
1.7014359 -1.3271970 6.7274957 16711746
11.3272734 -4.7720175 14.2498922 16711746
1.8688031 -1.2505606 6.4266639 16711746
4.4312191 -0.5937346 8.5576792 16711746
-0.6646214 -1.7613678 6.5925760 16711746
-0.6327332 -1.6044128 6.5006094 16711746
1.3655436 -2.1271591 6.4263239 16711746
3.3448789 -4.2954969 8.4858894 16711746
0.6779099 -0.7069110 6.2760220 16711746
-0.6914757 -1.7864022 6.8268223 16711746
-0.4708258 0.0267586 6.4308567 16711746
1.6279410 -1.3302538 6.5522151 16711746
1.3213609 -0.7118179 5.9042249 16711746
-0.3677231 -1.0328057 6.2538319 16711746
-0.9486439 -1.5848229 6.6917100 16711746
6.1496387 -5.2286110 11.0833168 16711746
0.5575437 -0.4984005 6.6571860 16711746
3.3176043 -0.7655097 9.0128679 16711746
3.4430485 -1.3252960 8.9603853 16711746
7.0756001 -4.5809083 15.1406603 16711746
7.3803353 -2.9595318 13.3481035 16711746
1.5604137 -0.1380180 7.1911659 16711746
-0.4937478 -1.1332557 6.2821822 16711746
-0.8181913 -0.8200824 6.2654672 16711746
-0.8714254 -0.9401209 6.3159318 16711746
-0.3583555 -0.0244952 6.2650380 16711746
-0.6829158 -1.3163627 6.4848456 16711746
1.3815449 -1.4375511 6.5330582 16711746
1.2666863 -1.1806008 6.4056420 16711746
2.5907378 -1.9327973 6.8198724 16711746
0.5627238 -0.7864813 5.9257183 16711746
1.1709143 -1.5654789 6.6373868 16711746
2.2468669 -1.4532439 7.3277144 16711746
2.9213805 -1.5379087 7.6785512 16711746
2.6344707 -2.4647057 7.6766763 16711746
1.7439084 -1.4530603 6.6930928 16711746
1.8215749 -1.5023446 6.8689642 16711746
0.5374498 -0.6851730 6.4783249 16711746
5.3309054 -4.7265882 7.9863982 16711746
2.6879117 -2.2824056 6.7169089 16711746
0.8454242 -0.3454938 5.7560997 16711746
3.7317746 -3.1252038 8.9803734 16711746
3.8630996 -2.5240083 9.3337116 16711746
2.1085124 -1.5931340 6.4953966 16711746
-1.1619155 -1.5114099 6.7131038 16711746
4.8169699 -4.9454007 6.7564621 16711746
2.2828050 -1.1536049 7.2094822 16711746
4.0410624 -2.7171328 8.8998833 16711746
2.8179939 -2.2985153 8.1245937 16711746
2.1697452 -2.0293858 6.9804044 16711746
2.4618850 -4.6298566 7.9198699 16711746
4.5825858 -4.7085414 6.7306881 16711746
3.3451917 -3.5081074 7.8357964 16711746
3.7657702 -4.4811721 9.2509165 16711746
3.8253984 -3.9028780 8.4587822 16711746
4.0558352 -2.4460804 8.2521515 16711746
0.9217705 -0.9034240 6.0142183 16711746
4.7634068 -2.8339555 8.6405182 16711746
6.1508818 -5.5274520 7.6424417 16711746
1.7048026 -3.2748470 7.2348022 16711746
0.6445267 -1.9891756 8.8734818 16711746
3.8866103 -1.7698940 9.4048243 16711746
1.5146589 -2.7609453 6.9965358 16711746
0.4309349 -2.7691653 8.6261549 16711746
8.7320890 -8.7551355 8.2333155 16711746
-0.2200323 0.1901382 5.7336421 16711746
0.8686363 -1.3678421 6.4420238 16711746
0.8142989 -1.3706191 7.7721477 16711746
1.3532398 -2.0948863 6.7851887 16711746
-0.7070503 -0.2716539 6.3642077 16711746
0.2169951 -0.2719191 6.2169428 16711746
-0.1554405 -1.0870210 6.2979426 16711746
9.3692608 -11.5277433 12.8942757 16711746
0.6430959 -0.6849178 6.5033512 16711746
0.4278370 -1.1804230 7.1278601 16711746
1.7060145 -2.3891113 6.5532417 16711746
0.8761197 -1.4095556 6.4079909 16711746
0.7318704 -0.9927118 6.2846313 16711746
-0.0734188 -0.0405826 6.1829200 16711746
1.3256702 -1.6926349 6.9861078 16711746
2.2139914 -2.5061791 8.7265520 16711746
0.2665434 -0.5345509 6.8042812 16711746
1.0055023 -1.3554682 6.2454262 16711746
0.5977689 -1.1777486 7.1139302 16711746
0.9930438 -0.8727455 6.6248636 16711746
1.4003105 -1.0977290 7.0083804 16711746
0.0981884 0.0453895 6.1657281 16711746
4.4610448 -4.4221129 11.3867302 16711746
-0.7529530 -1.4343315 6.5775762 16711746
2.3097734 -1.9845059 8.2360916 16711746
0.8086188 -0.9147513 6.3599334 16711746
0.9146090 -1.4645683 6.5774102 16711746
1.0976382 -1.8958017 8.1254740 16711746
1.4555880 -1.5634385 6.8416700 16711746
1.9974791 -1.6319412 6.8771987 16711746
2.3066866 -1.1776421 7.6430001 16711746
1.7184157 -1.6382941 7.2432284 16711746
0.5576025 -1.4706398 7.6568327 16711746
0.7320402 -1.7069112 7.4562325 16711746
1.1511922 -0.6252253 6.5656209 16711746
0.9146189 -0.8916200 6.4949307 16711746
5.5611019 -2.0652740 12.1961803 16711746
0.4551703 -0.7890734 6.9562149 16711746
1.2986262 -0.7539892 7.1949883 16711746
0.8807994 -1.9747655 7.7470069 16711746
1.0180861 -1.1160184 6.8666677 16711746
0.3013092 -0.4820430 6.2952933 16711746
25.9899826 -22.3461952 30.7540112 16711746
0.7666650 -1.4491593 7.9046755 16711746
2.8265424 -0.8898534 8.7640505 16711746
1.7988105 -1.1499097 7.8854141 16711746
3.5865207 -2.3326969 9.3294621 16711746
0.3050493 -1.3637904 6.9061947 16711746
1.5247625 -1.1440443 7.0675907 16711746
2.4216743 -2.0880556 8.3429165 16711746
1.1209792 -0.8016897 7.6924882 16711746
0.3360302 -1.3996797 6.8359466 16711746
4.3070049 -2.4264567 10.6413059 16711746
1.4323189 -0.7429706 7.3672638 16711746
1.8994337 -0.9713770 8.0040121 16711746
6.4036608 -3.8637047 12.2731800 16711746
1.2037234 -0.8461674 7.1129990 16711746
5.5655832 -2.0675523 9.4706039 16711746
0.3672420 -1.6342568 7.2563028 16711746
0.3173165 -1.3522377 6.8063793 16711746
0.8332961 -0.6842324 6.3238835 16711746
0.1841207 -0.4008085 6.5009694 16711746
0.1053637 -0.6751695 6.7075553 16711746
0.2106790 -1.2578276 7.2130513 16711746
0.8530520 -2.2617903 7.7107072 16711746
0.0412825 -1.3905144 7.3305926 16711746
0.5615820 -1.2705832 6.9797277 16711746
-0.9971530 -0.5757911 6.8120384 16711746
0.0192798 -0.9815134 6.5206165 16711746
0.3681924 -0.3322562 6.4339299 16711746
0.2629647 -1.4861019 7.4296126 16711746
0.0665377 -1.6206340 7.5386615 16711746
1.4351766 -1.0299199 6.7131829 16711746
1.0732485 -1.0955069 6.6279764 16711746
1.6265210 -2.1722338 7.0178070 16711746
2.5543711 -1.7666063 7.6601067 16711746
-0.9784870 -0.5106775 6.7258821 16711746
1.9703509 -1.8630649 7.3295512 16711746
2.1746783 -1.6698784 8.0628920 16711746
0.6522896 -0.5730746 6.7172542 16711746
1.0501481 -0.5608367 6.4901886 16711746
1.1319519 -1.8634140 7.2639699 16711746
-0.4442436 -3.4410496 7.9809799 16711746
1.1414286 -1.1263845 6.6403852 16711746
-0.0954356 -0.6436968 6.4617934 16711746
0.2148028 -1.2931981 6.8989053 16711746
1.5360754 -1.8076003 7.1666870 16711746
1.1806159 -1.5640023 7.3089299 16711746
3.1255126 -1.5843629 9.1202774 16711746
1.2372783 -1.2283874 6.8668504 16711746
1.2800609 -1.4951859 6.6629829 16711746
1.5850947 -0.9898806 7.6240072 16711746
1.3009501 -0.9104958 6.9960990 16711746
1.1047972 -1.5913758 6.6357388 16711746
0.3669115 -1.1442140 6.8319578 16711746
1.0243430 -1.0593829 6.5865359 16711746
0.4580688 -0.2486066 6.1505141 16711746
0.9264781 -0.6938721 6.0744829 16711746
-0.0954862 -0.6195923 6.6891847 16711746
0.2936321 -0.8756505 6.7100539 16711746
0.2203308 -1.0729587 6.8080945 16711746
0.0790908 -0.5510930 6.2212205 16711746
0.0787286 -0.8545082 6.8934450 16711746
0.1376264 -1.6896567 7.3333874 16711746
0.3851427 -0.4175152 6.2765965 16711746
-0.0259201 -1.3146623 7.4165430 16711746
2.4640117 -2.3245187 7.7657828 16711746
2.1093462 -1.5288658 7.9047060 16711746
1.5154427 -1.7551229 7.0552540 16711746
2.4482203 -2.0856919 8.1598225 16711746
2.7268114 -1.5637838 8.6776590 16711746
3.3793459 -1.1577082 9.7941666 16711746
1.4940621 -1.6220844 6.8145308 16711746
1.5685495 -1.9902362 7.2105060 16711746
0.1450350 -1.3154770 7.1519318 16711746
9.1378183 -3.5111098 16.1658897 16711746
0.2137420 -1.0801642 6.8204327 16711746
0.2704816 -2.0553324 7.5313301 16711746
-0.2107854 -2.7415061 7.8713565 16711746
0.3687306 -1.5744835 7.1829877 16711746
1.3468903 -1.3465223 6.9581027 16711746
-0.0342824 -1.1098249 6.9438214 16711746
0.0963922 -0.8007181 6.7862148 16711746
1.3966689 -1.6197349 6.6990070 16711746
0.0440714 -0.9745703 6.8120370 16711746
0.3393395 -0.0864015 6.2822771 16711746
1.9422588 -0.4357791 6.7267642 16711746
82.8471985 -39.4501457 91.8072510 16711746
0.4878295 -0.2196589 6.4914370 16711746
4.0173020 -3.6758502 9.9279280 16711746
5.2986088 -2.8826418 11.4718466 16711746
2.4499691 -1.8616127 7.9114838 16711746
-0.3632301 -1.4970452 7.0690532 16711746
0.3565881 -2.7709682 8.1380701 16711746
-0.3508466 -1.0242462 6.5294228 16711746
0.3816702 -1.5324874 6.9519954 16711746
-0.2252219 -1.1802201 6.5333428 16711746
2.4705296 -1.7259450 8.3615408 16711746
-0.2512350 -1.4645991 6.6738291 16711746
1.0462127 -0.7491170 6.5997009 16711746
0.8609229 -1.3807966 6.4340954 16711746
1.1265092 -0.9079080 6.3996382 16711746
1.3704872 -1.2716019 7.0496030 16711746
2.0672994 -1.4928342 7.8658648 16711746
1.6477091 -0.9960210 6.6264644 16711746
1.1995792 -1.5788410 6.6975789 16711746
2.6716418 -2.3485475 8.4752865 16711746
2.9237647 -2.9058228 12.1520882 16711746
9.7016039 -85.2483902 80.2868576 16711746
59.9978905 -34.5320740 67.8661575 16711746
2.2400227 -0.6974739 7.6583247 16711746
1.3951167 -1.1647322 6.9381795 16711746
2.3689051 -2.0215712 8.0904446 16711746
0.3451637 -0.9155605 7.5349870 16711746
1.2289302 -1.1879311 7.0767298 16711746
7.3663960 -2.2413471 14.4359465 16711746
1.0611860 -0.9068499 6.4203205 16711746
0.5797417 -1.5593332 8.2863121 16711746
14.6051159 -16.8237991 18.1013317 16711746
94.2705231 -75.7292328 95.9132996 16711746
6.0907602 -2.8120105 12.8153772 16711746
2.3201711 -1.2725563 8.3085756 16711746
2.2579188 -2.0031211 8.1111517 16711746
2.9927051 -1.6513590 8.3439007 16711746
5.2887440 -1.4305985 8.2377033 16711746
2.0496750 -0.6185357 7.5411601 16711746
4.1188354 -2.8414636 9.8914547 16711746
2.9233611 -1.4618810 10.5381231 16711746
4.5324998 -3.0776150 10.2600708 16711746
4.2188330 -10.1803789 11.7316780 16711746
-0.5749839 -4.3274312 8.9361620 16711746
5.2565951 -2.0026777 9.1070919 16711746
3.9677091 -2.0355082 12.0567331 16711746
4.2970471 -2.0939460 9.6318521 16711746
0.1746406 -0.1713664 6.4471154 16711746
0.5050626 -0.3826584 6.5239182 16711746
0.2303377 -2.8002551 7.5259814 16711746
0.6162780 -0.4575424 6.6463737 16711746
0.2836738 -3.1268191 7.6611242 16711746
1.0461088 -1.0703757 6.9571867 16711746
4.9165516 -4.4292598 10.4436035 16711746
3.9066839 -1.7300317 8.3760777 16711746
3.1532087 -5.5172939 12.5209885 16711746
0.4705516 -8.2911272 11.7277184 16711746
2.6314390 -2.7375963 8.0708160 16711746
0.1265317 -2.1459668 7.2237263 16711746
1.1416038 -2.1425803 6.8732142 16711746
0.4350621 -0.3843227 6.4885607 16711746
0.6327348 -5.3846459 8.6377678 16711746
0.6846650 -0.8778002 6.8765306 16711746
1.6129346 -5.1322937 8.7725334 16711746
0.5223551 -3.0185909 7.7859802 16711746
0.4007371 -0.3786496 6.5850816 16711746
0.9870716 -0.5083728 6.7715249 16711746
3.1336973 -2.9482837 8.1224566 16711746
0.6328044 -0.4204347 6.4782233 16711746
0.4641551 -0.6132675 6.6935740 16711746
0.8799049 -0.4385107 6.7085824 16711746
0.4535569 -0.3862965 7.0286551 16711746
0.8998529 -1.9822518 6.7905717 16711746
0.8349916 -1.2519082 6.9922557 16711746
1.6293315 -2.0310924 7.6339636 16711746
0.5893121 -3.1561894 9.1490431 16711746
0.8908858 -0.8623589 6.9189668 16711746
2.6276731 -2.2005002 8.6954069 16711746
-0.7948166 -3.5210323 8.3115931 16711746
0.2392047 -3.0864706 7.6093159 16711746
0.9984816 -1.1638982 6.9596457 16711746
5.3739824 -1.8418860 11.9952793 16711746
5.1637888 -2.6095119 11.1019144 16711746
0.3452654 -0.1061511 6.3533816 16711746
0.1596765 -0.1460756 6.4436355 16711746
1.0291284 -0.5045765 7.4312048 16711746
-0.6527185 -0.7215163 6.8558049 16711746
3.0270159 -2.5404871 8.6442146 16711746
1.2322513 -0.8746923 6.6900859 16711746
0.8281434 -0.5654536 6.6458693 16711746
4.8164492 -2.7615793 11.2456093 16711746
0.4541531 -0.5707697 6.5459514 16711746
1.3399088 -1.1128675 7.0740409 16711746
1.4053293 -1.1699392 7.1080031 16711746
1.6124170 -1.6286005 7.6596532 16711746
4.5974178 -3.7473190 8.3144646 16711746
1.4070175 -1.5771190 7.5300393 16711746
1.7040355 -2.0025508 7.8420262 16711746
3.6972828 -2.8577189 7.9448357 16711746
1.7209492 -2.2370982 7.7680116 16711746
1.4106541 -1.9701222 7.2841840 16711746
2.2605104 -1.2200639 7.7813344 16711746
0.9625978 -0.7430886 6.8543282 16711746
1.8552607 -1.0119443 7.5090957 16711746
10.5878410 -8.9937639 21.0487823 16711746
12.2241259 -4.0501671 20.0855961 16711746
-0.1528406 -0.1494209 6.5444021 16711746
2.4083567 -2.0799794 7.3922119 16711746
1.1612353 -0.9071242 8.3434534 16711746
1.6789812 -0.8309136 8.1792402 16711746
2.9668391 -1.6286401 8.7948637 16711746
2.0497506 -1.1594259 9.5792112 16711746
2.3213630 -0.6873270 8.3313789 16711746
1.4092965 -1.0743078 8.5736876 16711746
2.6147404 -1.4439178 8.5370054 16711746
2.1613312 -1.3168811 8.7521315 16711746
4.9283285 -3.1858232 7.6764650 16711746
4.4373593 -3.0510333 7.5819273 16711746
2.1288097 -3.7351811 8.8809042 16711746
6.8714118 -3.6943586 7.7175012 16711746
1.8823054 -1.4124008 7.5522237 16711746
4.4678135 -3.5959017 7.4639955 16711746
4.5219536 -4.7097535 8.4341497 16711746
0.9522924 -1.0769665 7.8916903 16711746
4.2753019 -1.8882643 6.8246570 16711746
1.6317375 -1.8266399 7.9208536 16711746
1.5450437 -2.9555364 8.1489697 16711746
9.2806416 -6.7848368 12.3360586 16711746
2.2656004 -1.4707687 9.6922264 16711746
5.8304110 -1.8378810 9.9570379 16711746
9.7162304 -4.8384681 15.3840075 16711746
3.1255407 -1.7774967 9.6705484 16711746
2.0156276 -0.8546476 8.7371254 16711746
1.9474494 -2.2637825 9.4150381 16711746
1.6043109 -0.6465664 8.2701416 16711746
3.1183751 -1.6917659 9.9958763 16711746
1.4830928 -1.4818896 8.8020821 16711746
1.8735402 -3.0033236 8.0218916 16711746
1.7438692 -1.4342190 8.0463686 16711746
3.8036990 -5.2250328 8.1803570 16711746
1.9143881 -3.8106515 8.2414808 16711746
1.1253229 -0.8815063 8.3030968 16711746
2.6395695 -0.6506656 9.4728613 16711746
1.7479761 -1.1522899 8.2847748 16711746
1.7214026 -0.6204934 8.3297844 16711746
1.6729341 -0.4624359 8.2915573 16711746
1.4370083 -2.2273633 8.2415648 16711746
2.1941495 -1.4694748 8.7229462 16711746
2.4088871 -0.9038073 9.7072468 16711746
14.3036852 -27.4726143 31.6563301 16711746
3.6195085 -4.5927315 8.7409849 16711746
3.9296732 -4.1525602 9.5264997 16711746
3.4499032 -1.9857908 9.9777565 16711746
3.1749907 -2.8734391 8.7015829 16711746
2.9452355 -1.0116866 9.6979856 16711746
4.6318722 -5.9555326 9.1417656 16711746
3.1685994 -2.3494194 9.2454119 16711746
1.6008829 -2.6871881 7.9333758 16711746
2.0520027 -1.2021540 8.4585361 16711746
2.0366063 -2.5538135 7.7530074 16711746
1.3724276 -1.0883260 7.3377709 16711746
2.4687848 -2.0138237 8.0707092 16711746
1.6865889 -1.1537926 7.5741439 16711746
2.8655844 -2.7162235 8.8069735 16711746
1.3305460 -1.2615194 7.7165842 16711746
3.3545308 -3.3714399 9.1176357 16711746
0.7060851 -5.0243611 10.2970934 16711746
-0.0815460 -0.3719460 6.7096272 16711746
1.7169633 -1.8373538 7.5841060 16711746
2.2252469 -1.9853513 8.0638580 16711746
2.0399220 -1.8631536 7.4653597 16711746
1.1069841 -1.6091436 7.3077750 16711746
2.1073332 -1.9258075 7.7294040 16711746
0.3174982 -3.6506019 8.3930426 16711746
2.1436145 -2.1448369 7.5990529 16711746
-0.0816238 -2.3913941 7.7316589 16711746
2.8394077 -3.4894233 8.9691124 16711746
3.7115679 -3.2856181 9.4243631 16711746
0.7373264 -2.9565120 7.9543610 16711746
0.4005691 -2.6300137 7.8003616 16711746
1.9492199 -1.7092148 7.6124554 16711746
1.0912020 -1.6700528 7.2151818 16711746
2.7521455 -24.6479015 26.1316261 16711746
3.3548615 -2.8800938 9.0819960 16711746
3.0315535 -1.8438240 9.3080769 16711746
-0.8461691 -21.5337162 21.4852104 16711746
0.0533028 0.0303439 6.7222137 16711746
3.0143688 -0.9704124 9.8300238 16711746
2.2323964 -0.5205609 9.0599194 16711746
2.9320228 -1.3809233 9.8285542 16711746
3.3460376 -1.0752614 10.1879435 16711746
1.2548497 -1.9985480 7.4994583 16711746
1.3064464 -2.0733085 7.5365543 16711746
3.1442237 -0.7455454 9.9721060 16711746
4.7552795 -4.3579764 10.7234907 16711746
0.1804960 -2.2060797 7.7869196 16711746
-0.7456353 -3.1486084 8.1984615 16711746
1.6945590 -1.3606007 7.0986218 16711746
0.9314995 -1.6839236 9.1254616 16711746
0.5247287 -0.9550487 7.7085524 16711746
1.2811210 -2.9321151 9.7818756 16711746
2.2811260 -0.8324482 6.8087187 16711746
2.6105158 -0.9327476 9.4557304 16711746
4.2637653 -1.1682887 11.3457937 16711746
2.6762989 -1.4644402 9.1253119 16711746
5.9384565 -46.9837685 46.0246277 16711746
-4.0067124 -3.8424206 13.2592201 16711746
0.8546606 -0.6871529 7.2937827 16711746
1.7071115 -5.7284994 10.4694767 16711746
9.0021954 -3.3078101 17.3094482 16711746
4.7207317 -2.9273198 14.4225864 16711746
-0.3632708 -0.0957707 7.1909366 16711746
-0.3840487 -0.1765899 7.1355314 16711746
-0.1208343 -0.5059838 7.1636286 16711746
5.9618340 -2.3252292 13.3557262 16711746
10.6345959 -3.6542494 12.0887423 16711746
4.3792300 -2.5612235 11.1092587 16711746
0.2941084 -1.0611405 7.8542142 16711746
8.7310181 -4.0312915 11.2366438 16711746
-2.8275852 -5.9086781 20.0350475 16711746
15.4012918 -4.6825223 25.0454578 16711746
21.6669922 -40.5392799 21.4408169 16711746
6.7045856 -2.3981090 12.8746014 16711746
-0.0204032 0.2213779 6.8097100 16711746
0.0118252 0.2600293 6.8774920 16711746
2.9578962 -3.2012656 9.5283833 16711746
1.0949104 -0.2736673 8.1520586 16711746
8.6940498 -3.1156654 16.8385849 16711746
1.9863087 -1.1903722 9.0262337 16711746
3.2916605 -3.6496778 9.9462976 16711746
2.0402386 -2.6032593 8.7079668 16711746
0.9471569 -1.6680902 8.2515564 16711746
2.6239245 -2.1378167 8.3445606 16711746
3.7172673 -2.6371710 9.1147966 16711746
3.2365251 -4.0427222 9.7249594 16711746
2.0661106 -2.7853854 9.5356636 16711746
2.5817604 -2.1138754 9.1704912 16711746
4.8837814 -2.4175160 9.4820633 16711746
1.6051636 -2.1779249 8.9807348 16711746
7.5197601 -3.3665364 9.9351797 16711746
5.0627451 -4.5056839 11.1876307 16711746
9.5855961 -5.9924927 10.5277081 16711746
4.9638057 -3.2339458 8.8489838 16711746
5.3385406 -2.8993301 8.7413054 16711746
2.8144710 -1.9236870 9.5486155 16711746
4.7030663 -2.9332969 9.1887770 16711746
5.9075303 -2.9403753 10.0240498 16711746
2.2759147 -2.8251803 8.9752645 16711746
0.9111095 -1.8037293 8.8528738 16711746
5.3861690 -3.9365158 10.1778831 16711746
0.9062418 -1.6010717 8.5083809 16711746
1.2204622 -1.3718538 7.7053041 16711746
5.9651399 -2.7746992 8.3582830 16711746
7.2245536 -3.1336539 8.7434902 16711746
6.0397243 -3.0004363 10.0977831 16711746
5.3743806 -2.1511667 8.8404303 16711746
2.0271070 -2.3782828 8.5287542 16711746
1.4591621 -2.6883311 8.8782454 16711746
2.8486190 -2.8086789 8.3596573 16711746
4.3537025 -2.1007736 9.1721249 16711746
7.0112691 -3.5220993 9.9432917 16711746
3.1577961 -3.4329445 9.6250086 16711746
2.3186319 -1.8135027 8.1520605 16711746
4.4556398 -3.1180875 7.7428780 16711746
3.9401553 -3.1595821 9.0447149 16711746
4.7924767 -2.4954698 7.6726356 16711746
0.6665432 -0.5545832 7.4745183 16711746
3.1485627 -1.6201401 8.1812820 16711746
3.9314945 -3.6972506 9.9610748 16711746
2.3200541 -2.2446282 9.3718901 16711746
2.0173151 -1.3435109 8.1417198 16711746
2.8125062 -3.2488821 9.0789204 16711746
3.1212008 -3.1185431 9.7679472 16711746
2.2908237 -2.1145837 8.8520727 16711746
4.8970652 -3.4030704 9.5668650 16711746
6.8081264 -4.0590696 9.5716848 16711746
5.0227966 -2.2983317 8.9989157 16711746
4.8720202 -1.7528690 8.8512564 16711746
11.5017109 -3.7004044 10.4210100 16711746
7.3573732 -1.1873292 9.1519995 16711746
0.8379631 -1.8350458 7.4574037 16711746
-0.3664469 -1.7043296 7.6464930 16711746
-0.1440503 -2.0350595 8.1298761 16711746
7.1131368 -18.9881783 14.7779064 16711746
3.7020822 -0.9076107 11.3029938 16711746
6.2225575 -2.7536139 13.9462528 16711746
-0.1711952 -2.1971238 8.2319613 16711746
0.8968592 -1.5874714 8.4983196 16711746
4.2102742 -3.2406089 11.6223326 16711746
2.4926896 -1.9386848 9.6692095 16711746
1.3415347 -2.1216049 8.3255968 16711746
0.9713452 -1.6844896 8.5908785 16711746
4.4285388 -3.1856081 11.0564003 16711746
2.1642494 -2.1187251 9.0121193 16711746
1.7246938 -3.0702610 9.1480618 16711746
1.5587685 -2.9236300 9.2100668 16711746
2.4699376 -2.3278968 9.5290270 16711746
2.3144674 -1.6394932 8.7470036 16711746
3.0178001 -2.8856938 9.4927053 16711746
2.8045499 -1.7830132 9.7864914 16711746
1.7775071 -3.1483436 9.2261019 16711746
0.9312178 -1.2846756 8.4675159 16711746
3.3039649 -1.3318011 8.2262907 16711746
1.8040484 -1.4969358 8.9474249 16711746
4.3988967 -3.8390958 11.3370714 16711746
1.4613307 -2.6226990 9.1180897 16711746
2.5994265 -3.4400694 10.3045692 16711746
5.4419999 -3.6692648 10.4158812 16711746
1.3794564 -1.2628549 8.2648067 16711746
1.7388840 -4.2250676 10.0504398 16711746
4.6042519 -3.5694206 10.8136730 16711746
2.1486282 -3.6264668 8.8457537 16711746
2.7914479 -0.6991377 8.0076237 16711746
3.7164476 -2.6090801 10.4589634 16711746
3.5910139 -1.8746339 10.6334143 16711746
0.6140279 -1.0247052 7.8317218 16711746
1.9949312 -4.1173916 10.4291763 16711746
2.0131376 -2.2606964 8.2772741 16711746
2.9079266 -2.8520353 8.9947958 16711746
0.9367878 -1.9837064 8.7439365 16711746
0.7490080 -1.4810387 8.5256720 16711746
0.6748627 -1.3269327 8.4789762 16711746
1.7162141 -2.2189364 9.1329260 16711746
0.7489290 -1.5550587 8.8263474 16711746
1.7295564 -3.2219002 11.9793644 16711746
2.8030877 -1.4684638 10.0829268 16711746
12.1064501 -6.3112450 14.1061068 16711746
8.9683456 -2.6641357 9.5853128 16711746
-0.7400244 -4.9388361 9.6186705 16711746
6.2365813 -1.7576394 10.2895527 16711746
8.1807795 -4.2190681 13.5571737 16711746
4.3690224 -4.3596931 10.3367739 16711746
3.1004400 -3.1956801 8.8034735 16711746
-2.4366744 -2.3237276 10.4268198 16711746
-3.2379394 -3.1911461 11.6268873 16711746
2.5942273 -1.4465487 7.9620385 16711746
7.3899183 -35.6952095 48.0715103 16711746
4.2036376 -4.9583197 9.9071102 16711746
1.7451146 -1.2548496 7.9252930 16711746
1.3548573 -1.2314018 8.3927975 16711746
9.9454432 -5.4189363 17.5804043 16711746
3.4987159 -4.1029553 10.1404285 16711746
4.9764786 -3.3737414 8.6221399 16711746
2.2006054 -1.4853984 9.1541567 16711746
1.1272442 -2.1207221 8.2097521 16711746
2.2640672 -2.0117509 9.3727484 16711746
2.6976478 -3.0399110 9.4552069 16711746
3.7214494 -2.4870093 9.4042339 16711746
3.6646724 -2.6611731 10.1539383 16711746
0.2425611 -1.0441387 8.0891209 16711746
6.8924580 -2.7345757 12.8440857 16711746
3.4027843 -3.6834612 9.6678133 16711746
1.9071161 -2.1132960 7.8352828 16711746
73.9197235 -78.2020950 75.0227280 16711746
0.5218265 -0.9004498 7.2917824 16711746
0.3714657 0.1515868 7.1383705 16711746
-0.7988676 -2.3354120 8.1491098 16711746
-1.2207282 -0.9840360 8.9389009 16711746
0.4557671 -4.6099854 10.2829332 16711746
2.5493479 -2.5011072 8.1448479 16711746
1.5957581 -2.3802047 8.0900812 16711746
-0.0377557 -2.8571892 9.2742825 16711746
-3.5165658 -2.7711730 12.4936075 16711746
1.3908794 -0.9036602 7.6980910 16711746
1.2293288 -1.2054769 7.6302433 16711746
8.2302542 -15.7494793 15.8676214 16711746
2.7512584 -2.1361203 9.9457235 16711746
4.4492683 -0.1387344 11.5472145 16711746
5.2112346 -1.2119929 13.0763416 16711746
-0.2525967 -2.5933700 8.7521572 16711746
0.3851404 -1.8068068 8.0139942 16711746
-3.1109047 -1.8286440 11.6942644 16711746
62.5729637 -68.7282867 60.5918198 16711746
5.5192876 -14.5278835 12.8762503 16711746
0.4133271 -1.4645532 9.0623665 16711746
0.2070183 -0.7046524 8.3072453 16711746
5.2216101 -2.1600909 13.6482372 16711746
0.3880679 0.0727637 7.5381937 16711746
0.6318940 -1.1039022 7.7506542 16711746
2.0583723 -1.2801787 9.4092350 16711746
-3.1761913 -3.1485517 12.1285248 16711746
0.2453695 -1.4543349 8.3464947 16711746
1.6489933 -1.3645755 8.7706900 16711746
0.2377144 -0.7073947 7.7941732 16711746
3.3625875 -2.3854566 10.5894785 16711746
5.8272338 -2.3861895 14.2910032 16711746
5.5282969 -3.1182585 13.2070904 16711746
1.1295191 -1.2976060 7.6466107 16711746
0.0667963 -1.0595096 8.1802454 16711746
1.1332506 -1.4240159 8.0843315 16711746
2.7737131 -2.2324879 10.0351286 16711746
1.6534435 -1.4897072 8.7946482 16711746
1.3411028 -1.7170044 7.9421368 16711746
