# .PCD v.7 - Point Cloud Data file format
VERSION .7
FIELDS x y z rgb
SIZE 4 4 4 4
TYPE F F F F
COUNT 1 1 1 1
WIDTH 240
HEIGHT 1
VIEWPOINT 0 0 0 1 0 0 0
POINTS 240
DATA ascii

 0.0312825 -0.0650807 0.2003772 16777215
 0.0022033 0.0037802 0.0065858 16777215
2.3069248 -1.5425620 0.2904290 16711746
1.8975211 -1.1531321 0.5724742 16711746
1.1566219 -0.8704945 0.4620852 16711746
0.4694221 -0.8351333 0.6175690 16711746
0.5011167 -0.8007863 0.7548926 16711746
0.9294732 -1.3704153 1.2372303 16711746
-0.0255836 -0.6680912 0.4384568 16711746
1.0752451 -1.1486968 0.4352325 16711746
0.4275261 -0.8441520 0.5519829 16711746
0.3797098 -0.8189494 0.5146382 16711746
-0.0550240 -0.8724248 0.5935724 16711746
0.2888010 -0.5170370 0.2669799 16711746
0.4313375 -0.8777481 0.4435613 16711746
0.6546641 -0.8944358 0.3182022 16711746
0.1779195 -1.1108631 0.5989646 16711746
0.1054565 -0.7538920 0.3875830 16711746
0.0954700 -0.7438171 0.3783295 16711746
0.5667237 -0.7994612 0.6909568 16711746
-0.1967240 -0.6330185 0.6000105 16711746
0.5701406 -0.9951240 0.5604540 16711746
0.4904796 -0.9367686 0.5189578 16711746
-0.1054029 -0.6244513 0.4189447 16711746
0.2250159 -0.8223506 0.5524767 16711746
0.2747784 -0.9368207 0.6067824 16711746
0.5083667 -0.8016758 1.1272174 16711746
0.2870040 -0.7743856 0.3502339 16711746
0.3389651 -0.8899882 0.3749143 16711746
0.2346342 -0.7322888 0.3194249 16711746
1.7449597 -0.9254026 0.8022180 16711746
-0.0077221 -0.7264799 0.7985631 16711746
0.2355577 -0.8666317 0.6140888 16711746
0.1715786 -0.5060272 0.3433335 16711746
0.3728101 -0.8573837 0.3644207 16711746
0.3104118 -1.2040027 0.9823120 16711746
0.3974575 -0.8370252 0.5169590 16711746
0.3023699 -0.6515282 0.3769295 16711746
0.3515023 -1.2486135 1.0333692 16711746
0.7806628 -0.9883447 0.9163231 16711746
0.3868454 -0.7924692 0.6263844 16711746
1.0396571 -1.1327035 1.0853299 16711746
0.6679646 -0.8588274 0.4508621 16711746
0.5980533 -1.3487539 0.5112498 16711746
0.6533376 -1.0476302 0.6143823 16711746
0.0051984 -0.8686657 0.5849417 16711746
-0.0177392 -0.6185575 0.4143735 16711746
0.0194460 -0.9007846 0.5868042 16711746
-0.0173989 -0.7680854 0.4881544 16711746
0.1316264 -0.8126451 0.4722531 16711746
0.0853628 -0.7586623 0.4459286 16711746
2.0852530 -1.3568904 1.2445887 16711746
0.3202732 -0.6139855 0.4571544 16711746
0.3286721 -0.8793585 0.7535796 16711746
1.1907728 -0.9586763 0.8867924 16711746
1.2574295 -1.0067358 0.8987232 16711746
0.6223299 -1.2079408 1.0462799 16711746
0.2685163 -0.9372823 0.3791800 16711746
0.2298519 -0.7671788 0.2986979 16711746
0.1569307 -0.6408874 0.2547185 16711746
0.0691838 -0.7425184 0.4320380 16711746
0.0403176 -0.6613412 0.3812593 16711746
0.0624498 -0.6914561 0.3862649 16711746
0.2970888 -0.6509340 0.3090147 16711746
0.2700646 -0.6348068 0.2974368 16711746
0.9153271 -0.9320650 0.9935011 16711746
2.0383856 -1.3893991 1.1799868 16711746
1.8005112 -1.2758634 1.0929281 16711746
0.8489482 -1.1648539 0.7409295 16711746
0.5786646 -0.7486599 0.4686751 16711746
0.5677657 -0.7723677 0.4683541 16711746
0.3265068 -0.8275363 0.9766262 16711746
0.2637079 -0.6138682 0.9004664 16711746
0.2604635 -0.5355059 1.3041022 16711746
0.0256278 -0.7139906 0.8673922 16711746
-0.0032672 -0.6329948 0.8503874 16711746
-0.0474670 -0.5966006 0.7866655 16711746
-0.0372289 -0.2928112 0.9105449 16711746
0.3728846 -0.5564706 0.2861832 16711746
0.7447428 -0.9271241 0.4235726 16711746
0.7323921 -1.0844843 0.6121369 16711746
1.0074344 -1.0116564 0.6068752 16711746
0.2121567 -0.6692987 0.3969894 16711746
0.4516557 -0.7502943 0.3462377 16711746
1.3839080 -1.2242842 0.7044881 16711746
0.7080565 -0.6860578 0.3781159 16711746
1.3980643 -0.9637228 0.4982454 16711746
1.0354887 -0.8784259 0.8314206 16711746
1.0894611 -1.0809381 1.1707273 16711746
0.8287440 -1.1768904 0.7858346 16711746
1.0370865 -0.7957607 0.4852292 16711746
1.4494833 -1.1113632 0.8743883 16711746
-0.2161555 -0.5646335 0.2190164 16711746
-0.2342144 -0.6452897 0.2346215 16711746
-0.0080670 -0.6520164 0.3847277 16711746
0.1162764 -0.9649875 0.6117472 16711746
0.0989290 -0.7638160 0.4699274 16711746
-0.0568789 -0.7173347 0.4350166 16711746
0.0019795 -0.6396702 0.2956997 16711746
-0.1287659 -0.6256865 0.2333747 16711746
-0.0259222 -0.6000884 0.2919798 16711746
-0.3135418 -0.6536516 0.6001390 16711746
-0.3457762 -0.5415428 0.5658924 16711746
-0.3842970 -0.4805231 0.4952216 16711746
-0.3582765 -0.5556051 0.5270470 16711746
-0.1832294 -0.7173170 0.7570491 16711746
-0.0723383 -0.6760060 0.7010806 16711746
0.0079408 -0.8374076 0.6249698 16711746
0.0753158 -0.7152065 0.4854080 16711746
0.1823166 -0.7912523 0.5994707 16711746
0.1243262 -0.9418777 0.6579953 16711746
0.0058348 -0.8929587 0.7191265 16711746
-0.1110670 -0.6512428 0.5174716 16711746
0.8866857 -1.0527775 1.4891422 16711746
0.2651115 -0.8027896 0.2944051 16711746
0.9504696 -0.8080980 0.4078406 16711746
1.7312440 -1.4964027 0.6692675 16711746
1.7727448 -1.0284696 0.6994635 16711746
1.6264575 -0.9949042 0.6460237 16711746
0.6718072 -1.0141250 1.2387629 16711746
1.9672757 -1.4115713 0.1622841 16711746
1.7185441 -1.2794248 0.1886792 16711746
1.2638373 -0.9991440 0.1670567 16711746
1.1330131 -0.9814833 0.1912236 16711746
1.4555134 -1.4159774 0.4709543 16711746
-0.0051759 -0.5000190 0.2424611 16711746
1.6517520 -1.0005312 0.6149784 16711746
-0.1007981 -0.6494901 0.3879612 16711746
-0.0733638 -0.6795361 0.5819930 16711746
1.9269897 -0.9435742 0.1765812 16711746
0.3079970 -0.7763292 0.3914490 16711746
0.0149089 -0.8441824 0.7735287 16711746
0.1104281 -0.8346661 0.3677339 16711746
0.2900757 -0.7434829 0.4146007 16711746
0.3203470 -0.7620713 0.5012202 16711746
0.4057070 -1.0700001 0.6973906 16711746
0.2289117 -0.7595882 0.3235256 16711746
0.1568597 -0.6606044 0.2921444 16711746
-0.1380001 -0.7237451 0.2874934 16711746
0.1492258 -0.6449681 0.3130532 16711746
0.5798031 -0.7487673 0.5119696 16711746
0.6443564 -0.7580405 0.5614254 16711746
1.3555255 -0.8530199 0.1034436 16711746
2.0196149 -1.3410673 0.1514972 16711746
0.0875721 -0.9381370 0.8628303 16711746
0.8473224 -0.6481665 0.2151745 16711746
1.1145346 -0.9103360 0.3225260 16711746
1.1839134 -0.9693684 0.3150775 16711746
1.0321161 -1.0579234 0.5350720 16711746
0.1957346 -0.6845847 0.3361639 16711746
0.2252931 -0.9085671 0.4264705 16711746
0.4081219 -1.1833471 0.5400195 16711746
0.4029899 -0.7305590 0.2442722 16711746
0.4333798 -0.7534500 0.2419242 16711746
0.3450829 -1.0085188 0.7672036 16711746
0.1781934 -0.5148693 0.3795574 16711746
0.2496651 -0.8635757 0.6420344 16711746
1.0245695 -1.2715749 0.7718493 16711746
1.8400347 -1.7362359 0.3630083 16711746
0.8794899 -0.8504450 0.1978555 16711746
0.0908241 -0.7045537 0.5280938 16711746
0.0714868 -0.6892205 0.5091873 16711746
0.0274719 -0.6461702 0.4743831 16711746
0.4833648 -0.6462007 0.1875527 16711746
0.6626342 -0.9119127 0.2801057 16711746
0.4660139 -0.8586593 0.5876281 16711746
0.1181210 -0.6267264 0.6391192 16711746
0.1340656 -0.9432404 0.9540660 16711746
1.1285176 -1.1584769 0.5049428 16711746
0.9412875 -0.8517240 0.1984100 16711746
0.5006521 -0.9562024 0.4346880 16711746
-0.3613749 -0.4864727 0.2202799 16711746
0.4711989 -1.0126089 0.3779351 16711746
0.1644645 -1.0267526 0.8132731 16711746
0.0623446 -0.7557226 0.3888758 16711746
0.0451422 -0.6825493 0.3517098 16711746
-0.0780505 -0.6344546 0.3623632 16711746
-0.1026610 -0.6498123 0.3783574 16711746
-0.0671836 -0.8021195 0.4547106 16711746
3.4492648 -1.8505403 0.6043205 16711746
0.6649500 -0.7447699 0.6458464 16711746
0.9541353 -1.1618910 0.9656529 16711746
0.0992130 -0.6142151 0.2337590 16711746
0.1666676 -0.9877943 0.8492332 16711746
0.1292928 -0.9338655 0.8128616 16711746
0.5935041 -0.9094291 0.7694312 16711746
1.2148235 -0.9447575 0.9158703 16711746
1.3839672 -0.9973391 0.4215584 16711746
-0.1592369 -0.8277202 0.7495120 16711746
-0.0970697 -0.5704264 0.4991594 16711746
-0.0220237 -0.9095393 0.6406828 16711746
0.0144419 -0.6489912 0.4439059 16711746
-0.0050136 -0.8475223 0.5813897 16711746
0.3387973 -0.4766000 0.8232634 16711746
-0.2639707 -0.3099214 0.5513101 16711746
-0.0658922 -0.6198804 0.7428550 16711746
-0.1111032 -0.7154980 0.5945002 16711746
-0.1644266 -0.8542671 0.7114067 16711746
1.5384710 -1.8446467 1.7287614 16711746
1.4039569 -1.2284988 1.2560918 16711746
2.1823623 -1.1428496 0.7502321 16711746
-0.0308361 -0.8850037 0.4519081 16711746
0.0882839 -0.7638021 0.2938215 16711746
0.0846876 -0.5718264 0.2106340 16711746
0.2547014 -0.7230736 0.3846515 16711746
0.3719926 -1.1121299 0.5713067 16711746
1.0296630 -1.2402385 0.9815848 16711746
0.8876927 -1.1519709 0.8943000 16711746
0.1106753 -0.5885751 0.3442172 16711746
0.0067820 -0.7223750 0.7195063 16711746
0.3786109 -0.5540920 0.3611140 16711746
0.6499261 -1.0127496 0.6542765 16711746
0.7485902 -1.0977913 0.6859114 16711746
0.6419926 -1.0221293 0.6316736 16711746
0.6095330 -0.7725466 0.5645219 16711746
1.2256989 -0.9504603 1.0201946 16711746
0.6106058 -1.1076295 1.1022819 16711746
0.0851369 -0.9009561 0.8813947 16711746
0.0707464 -0.6531241 0.6231006 16711746
0.9984763 -1.1110088 0.3887933 16711746
0.5824217 -0.6880155 0.2390808 16711746
-0.0686513 -0.5950566 0.6589655 16711746
-0.3246080 -0.6112617 0.2506362 16711746
0.2780308 -0.7415731 0.4641323 16711746
0.2464615 -0.7830794 0.7082367 16711746
0.6955804 -1.1148968 0.5809122 16711746
0.0842327 -1.0209750 0.6244432 16711746
0.0450208 -0.6994133 0.4411047 16711746
-0.1684359 -0.9478886 0.6162169 16711746
-0.0637295 -0.4548915 0.2931049 16711746
-0.0902951 -0.6025831 0.3815706 16711746
0.0984221 -0.5975273 0.2951465 16711746
0.0947308 -0.6276590 0.3046347 16711746
0.0839014 -0.6197299 0.2940826 16711746
-0.0393980 -0.7688715 0.4059546 16711746
-0.0708830 -0.7148306 0.3805072 16711746
4.4496980 -3.1532345 2.9804387 16711746
7.1716762 -42.8790245 24.5189743 16711746
1.1149811 -1.4479898 2.5309901 16711746
2.0925508 -6.1207151 4.7500591 16711746
