# .PCD v.7 - Point Cloud Data file format
VERSION .7
FIELDS x y z rgb
SIZE 4 4 4 4
TYPE F F F F
COUNT 1 1 1 1
WIDTH 86
HEIGHT 1
VIEWPOINT 0 0 0 1 0 0 0
POINTS 86
DATA ascii

9.2198019 -5.1136189 2.8982131 16711746
1.1341082 -1.1304868 0.8062255 16711746
3.0608754 -3.1853702 2.1184101 16711746
0.4200474 -0.9615263 0.4772911 16711746
0.4618508 -0.9900652 0.4497620 16711746
0.4494983 -0.9222994 0.4832718 16711746
0.4171219 -0.9413124 0.4879909 16711746
1.3750407 -1.1873850 0.6688163 16711746
0.0660143 -0.7319298 0.4029210 16711746
0.6844010 -0.7653331 0.3682369 16711746
0.6924405 -0.8650708 0.4129966 16711746
0.3660647 -0.6245860 0.4042783 16711746
0.4654746 -0.8470752 0.5035631 16711746
0.0857587 -0.8228365 0.6485806 16711746
0.0442250 -0.7305579 0.3970733 16711746
2.3921089 -1.2267722 0.7660292 16711746
2.7892065 -1.5266306 0.9771197 16711746
3.0692925 -1.5687160 0.8710936 16711746
0.2178197 -0.8021489 0.4045483 16711746
0.3272308 -0.9242126 0.5265861 16711746
0.3928055 -0.7098885 0.4072086 16711746
0.6084406 -0.4418708 0.5916035 16711746
0.5749487 -0.4913294 0.7342374 16711746
4.9116344 -5.7575111 2.0047169 16711746
0.8777293 -1.3331994 0.5634331 16711746
0.1912486 -0.5593953 0.2696410 16711746
0.5468891 -1.0233465 0.4051018 16711746
-0.1286415 -0.6234691 0.4383488 16711746
1.2373625 -0.3354284 0.5396413 16711746
0.7770040 -0.9480882 0.6718479 16711746
0.7813034 -0.9725126 0.6663206 16711746
0.2361165 -0.5925408 0.3707589 16711746
0.0734370 -0.8617348 0.5983863 16711746
1.1826942 -0.5110955 0.2628917 16711746
1.0197340 -0.8548319 0.4572785 16711746
0.6710247 -0.5856160 0.3548460 16711746
1.0592775 -0.8964903 0.4384344 16711746
0.1754828 -0.6725039 0.3070945 16711746
-0.1132228 -0.5641555 0.3582467 16711746
-0.1348803 -0.6544107 0.3860771 16711746
2.7756982 -2.5595810 2.0401158 16711746
0.5121543 -0.6792827 0.3288247 16711746
0.4905297 -0.6876141 0.3434040 16711746
0.3463755 -0.9474852 0.5072291 16711746
1.6964303 -1.8372564 0.6945404 16711746
0.7708437 -0.7915277 0.3124246 16711746
1.0443857 -0.7385681 0.4112330 16711746
1.1078203 -0.9211786 0.7652115 16711746
1.0597346 -1.0384266 0.4591546 16711746
0.4275228 -0.7729532 0.5566103 16711746
1.0804385 -1.0353867 0.8287253 16711746
0.4384986 -0.6363081 0.3537014 16711746
0.0506533 -0.7266067 0.5141931 16711746
0.0337545 -0.8570914 0.5944785 16711746
1.2715513 -0.8557349 0.6229187 16711746
1.2776325 -0.8860403 0.6290353 16711746
0.8664412 -0.8308399 0.5732944 16711746
-0.0145239 -0.6631535 0.6410042 16711746
-0.1673543 -0.4528265 0.3845060 16711746
0.9757760 -0.7274371 0.4599996 16711746
0.3374212 -0.6932012 0.4577632 16711746
0.6424994 -1.2575444 0.7068018 16711746
0.2902350 -0.6537085 0.5276272 16711746
0.3279180 -0.6416594 0.5049586 16711746
0.2588037 -0.7430570 0.3962335 16711746
0.2650515 -0.7529114 0.3887543 16711746
0.3681481 -0.9508645 0.4992870 16711746
1.5738591 -0.8342550 0.3199769 16711746
0.0895007 -0.5440454 0.2901496 16711746
0.7580127 -0.7648665 0.3187659 16711746
6.4371409 -3.8225627 0.1521688 16711746
8.8085432 -12.8637886 7.1751075 16711746
27.1592083 -27.9521847 59.2911339 16711746
55.0045738 -41.4296227 95.4298859 16711746
87.5208740 -106.7756653 85.2591858 16711746
95.7331314 -84.6173553 105.1250839 16711746
38.3858452 -92.5407486 42.3895302 16711746
47.8273773 -93.5796738 98.5462418 16711746
47.7282562 -217.0314941 192.1613617 16711746
62.7872505 -35.5406075 69.0195236 16711746
29.5674782 -65.3972855 77.4857407 16711746
60.0054665 -149.5403137 65.0575256 16711746
12.7565527 -160.3240204 150.3140564 16711746
77.2668610 -351.0737000 168.1994019 16711746
62.3164940 -276.2561035 256.6137390 16711746
-9.3232346 -9.0179901 19.3731747 16711746
