# .PCD v.7 - Point Cloud Data file format
VERSION .7
FIELDS x y z rgb
SIZE 4 4 4 4
TYPE F F F F
COUNT 1 1 1 1
WIDTH 72
HEIGHT 1
VIEWPOINT 0 0 0 1 0 0 0
POINTS 72
DATA ascii

 0.0000000 0.0000000 0.0000000 16777215
 -0.0034525 0.0023811 -0.0205375 16777215
 -0.0034879 0.0023574 -0.0204930 16777215
 -0.0036835 0.0023744 -0.0203153 16777215
 -0.0037592 0.0025795 -0.0197206 16777215
 -0.0037533 0.0025768 -0.0197267 16777215
 -0.0038440 0.0025504 -0.0196842 16777215
 -0.0039272 0.0026793 -0.0193311 16777215
 -0.0033246 0.0027278 -0.0189467 16777215
 -0.0035496 0.0026535 -0.0188530 16777215
 -0.0035936 0.0026398 -0.0188499 16777215
 -0.0019032 0.0026908 -0.0180806 16777215
 -0.0025307 0.0026659 -0.0175988 16777215
 -0.0026970 0.0025642 -0.0175463 16777215
 -0.0019890 0.0024735 -0.0174168 16777215
 -0.0029254 0.0025938 -0.0162013 16777215
 -0.0028906 0.0026939 -0.0169704 16777215
 -0.0033709 0.0028375 -0.0178477 16777215
 -0.0035679 0.0028358 -0.0190782 16777215
 -0.0034785 0.0028482 -0.0190859 16777215
 -0.0034100 0.0028388 -0.0190671 16777215
 -0.0033187 0.0028870 -0.0190296 16777215
 -0.0033795 0.0029141 -0.0188936 16777215
 -0.0031033 0.0029077 -0.0186993 16777215
 -0.0028293 0.0029781 -0.0183284 16777215
 -0.0024790 0.0031908 -0.0179063 16777215
 -0.0022671 0.0032209 -0.0172113 16777215
 -0.0022008 0.0032642 -0.0163915 16777215
 -0.0023919 0.0032804 -0.0158517 16777215
 -0.0027191 0.0033395 -0.0151946 16777215
 -0.0028345 0.0034448 -0.0146285 16777215
 -0.0025059 0.0036040 -0.0142914 16777215
 -0.0019128 0.0037368 -0.0131417 16777215
 -0.0013235 0.0037886 -0.0124227 16777215
 -0.0005025 0.0037863 -0.0118341 16777215
 0.0001074 0.0036192 -0.0113848 16777215
 0.0005854 0.0036566 -0.0103238 16777215
 0.0007244 0.0037296 -0.0095283 16777215
 0.0009647 0.0038667 -0.0082259 16777215
 0.0011391 0.0037571 -0.0071673 16777215
 0.0017153 0.0038082 -0.0057694 16777215
 0.0024066 0.0040982 -0.0043797 16777215
 0.0028900 0.0040739 -0.0032816 16777215
 0.0031964 0.0041786 -0.0021847 16777215
 0.0034920 0.0043339 -0.0007430 16777215
 0.0039178 0.0044255 0.0004757 16777215
 0.0044669 0.0045359 0.0016531 16777215
 0.0049649 0.0046017 0.0027802 16777215
 0.0051953 0.0045894 0.0036886 16777215
 0.0053237 0.0047883 0.0051006 16777215
 0.0055115 0.0050381 0.0063043 16777215
 0.0059325 0.0051166 0.0076774 16777215
 0.0064145 0.0051891 0.0092167 16777215
 0.0070226 0.0049667 0.0104804 16777215
 0.0075354 0.0051566 0.0115006 16777215
 0.0079017 0.0052115 0.0126329 16777215
 0.0077195 0.0052469 0.0139372 16777215
 0.0079199 0.0053429 0.0147991 16777215
 0.0082773 0.0053747 0.0158597 16777215
 0.0088252 0.0052251 0.0169379 16777215
 0.0092057 0.0051424 0.0178997 16777215
 0.0095008 0.0050919 0.0187231 16777215
 0.0097945 0.0049938 0.0200812 16777215
 0.0102093 0.0048241 0.0210802 16777215
 0.0107869 0.0048049 0.0220519 16777215
 0.0115954 0.0048622 0.0235531 16777215
 0.0116651 0.0046829 0.0244555 16777215
 0.0121522 0.0044776 0.0254520 16777215
 0.0123966 0.0044379 0.0264704 16777215
 0.0126211 0.0042444 0.0268267 16777215
 0.0126141 0.0039045 0.0269596 16777215
 0.0125295 0.0038635 0.0274288 16777215
