# .PCD v.7 - Point Cloud Data file format
VERSION .7
FIELDS x y z rgb
SIZE 4 4 4 4
TYPE F F F F
COUNT 1 1 1 1
WIDTH 1190
HEIGHT 1
VIEWPOINT 0 0 0 1 0 0 0
POINTS 1190
DATA ascii
-0.0332847 -0.0275732 0.0905466 16711746
-0.0528286 -0.0174126 0.0308909 16711746
0.0138290 0.0073596 0.0400650 16711746
-0.0899287 -0.0216924 0.0651748 16711746
0.0176799 -0.0199786 0.0425928 16711746
-0.0701830 -0.0127530 0.0345722 16711746
0.0171008 -0.0194708 0.0425503 16711746
0.0365736 -0.0214710 0.0774542 16711746
-0.0505181 0.0169999 0.0284393 16711746
-0.0987885 0.0269862 0.0569571 16711746
-0.0857256 0.0527520 0.0535564 16711746
-0.0733814 0.0350898 0.0313605 16711746
-0.0894375 -0.0138181 0.0382639 16711746
-0.0844211 0.0302601 0.0522714 16711746
-0.0893780 -0.0337306 0.0904458 16711746
-0.0751434 0.0461241 0.0416224 16711746
-0.0357015 -0.0069474 0.0016998 16711746
-0.0917983 -0.0275809 0.0762620 16711746
-0.0718830 -0.0089552 0.0683411 16711746
-0.0951264 -0.0151934 0.0982792 16711746
-0.0021252 0.0087051 -0.0063817 16711746
-0.0706883 0.0266985 0.0458861 16711746
-0.0033949 0.0035156 0.0073404 16711746
-0.0033716 0.0036190 0.0105370 16711746
-0.0034145 0.0036705 0.0115016 16711746
-0.0725936 -0.0184645 0.0495381 16711746
-0.0034260 0.0035650 0.0095867 16711746
-0.0476836 0.0130891 0.0283312 16711746
-0.0406273 0.0157610 0.0892816 16711746
-0.0564781 0.0210469 0.0246534 16711746
-0.0792337 0.0190827 0.0675806 16711746
-0.0505527 0.0169624 0.0283643 16711746
-0.0641118 0.0468705 0.0607876 16711746
-0.0567447 0.0164098 0.0796549 16711746
-0.0675653 0.0252955 0.0431842 16711746
-0.0447169 -0.0153076 0.0908791 16711746
-0.0032780 0.0035927 0.0097554 16711746
-0.0033513 0.0037780 0.0134235 16711746
-0.0032967 0.0034241 0.0045736 16711746
-0.0034054 0.0037687 0.0224237 16711746
-0.0033252 0.0034551 0.0047670 16711746
-0.0443979 0.0111351 0.0679726 16711746
-0.0673022 -0.0240235 0.0933302 16711746
-0.0694722 0.0168344 0.0561936 16711746
-0.0845706 0.0078683 0.0381439 16711746
-0.0963087 0.0084966 0.0477629 16711746
-0.0455864 0.0111164 0.0712931 16711746
-0.0716493 0.0187492 0.0703578 16711746
-0.0880413 -0.0141895 0.0698587 16711746
-0.0034792 0.0035705 0.0094799 16711746
-0.0029649 0.0033201 -0.0006867 16711746
-0.0031579 0.0033646 -0.0022127 16711746
-0.0514861 0.0406869 0.0549478 16711746
-0.0892231 0.0384406 0.0485527 16711746
-0.0532653 -0.0121812 0.0139560 16711746
-0.0867755 0.0488056 0.0588661 16711746
-0.0900166 0.0346209 0.0546307 16711746
-0.1131488 0.0306808 0.0677704 16711746
-0.0856031 0.0372488 0.0802645 16711746
-0.0461660 0.0410320 0.0472232 16711746
-0.0721937 0.0469937 0.0486526 16711746
-0.0309344 0.0289306 0.0325442 16711746
-0.0394836 0.0296750 0.0378642 16711746
-0.0930498 0.0437769 0.0706666 16711746
-0.0604750 0.0429295 0.0519385 16711746
-0.0531225 0.0213357 0.0476219 16711746
-0.0038802 0.0083932 0.0369348 16711746
-0.0515043 0.0217645 0.0538679 16711746
0.0108228 -0.0057018 0.0312010 16711746
-0.0671598 0.0247754 0.0558022 16711746
-0.0733197 0.0238154 0.0518135 16711746
-0.0263352 0.0305707 0.0347074 16711746
-0.0501646 0.0221557 0.0218299 16711746
-0.0448366 0.0454554 0.0554362 16711746
-0.0872940 0.0230259 0.0690255 16711746
-0.0841791 0.0206899 0.0534472 16711746
-0.0657579 0.0576036 0.0546232 16711746
-0.0791722 0.0527222 0.0521526 16711746
-0.0697010 0.0321956 0.0659977 16711746
-0.0928506 0.0254445 0.0518194 16711746
-0.1002227 0.0241369 0.0674676 16711746
-0.0312939 0.0238082 0.0250111 16711746
-0.0014454 -0.0069672 0.0464077 16711746
-0.0388893 0.0326299 0.0268845 16711746
-0.0577930 0.0472547 0.0451052 16711746
-0.0604872 0.0493809 0.0482032 16711746
-0.0282553 0.0338200 0.0373575 16711746
-0.0631878 0.0392321 0.0336858 16711746
-0.0678489 0.0496707 0.0449165 16711746
-0.0451852 0.0384541 0.0533556 16711746
-0.0616004 0.0229843 0.0493171 16711746
-0.0683275 0.0163361 0.0382314 16711746
-0.0423796 0.0162999 0.0268708 16711746
-0.0595593 0.0441201 0.0458758 16711746
-0.0376406 0.0043996 0.0540302 16711746
-0.0792858 0.0224449 0.0579178 16711746
-0.0011036 -0.0257588 0.0758038 16711746
-0.0033602 0.0036041 0.0100977 16711746
-0.0032959 0.0034233 0.0047895 16711746
-0.0873268 0.0295166 0.0493286 16711746
-0.0408975 0.0371346 0.0474322 16711746
-0.0793027 0.0434106 0.0539070 16711746
-0.0754553 0.0424307 0.0477812 16711746
-0.0172262 0.0290481 0.0363808 16711746
-0.0142951 0.0363303 0.0370740 16711746
-0.0126267 0.0369822 0.0427129 16711746
-0.0218663 0.0337996 0.0477276 16711746
-0.0491540 0.0366152 0.0337588 16711746
-0.0495069 0.0416541 0.0327731 16711746
-0.0543102 0.0237413 0.0683564 16711746
-0.0133684 0.0241065 0.0392341 16711746
-0.0680257 0.0264282 0.0363953 16711746
-0.0366410 0.0394881 0.0379827 16711746
-0.0433387 0.0362406 0.0323743 16711746
-0.0546754 0.0373221 0.0402868 16711746
-0.1302216 -0.0028862 0.1175226 16711746
-0.0905328 0.0139648 0.0740542 16711746
-0.1355631 -0.0199952 0.0846711 16711746
-0.1102250 -0.0295670 0.1042440 16711746
-0.0748698 0.0460843 0.0439767 16711746
-0.0508561 0.0280250 0.0375629 16711746
-0.0772631 0.0322087 0.0475477 16711746
-0.0641497 -0.0373761 0.0912562 16711746
-0.1135559 0.0274392 0.0902692 16711746
-0.0312216 0.0464881 0.0666762 16711746
-0.0176110 0.0243950 0.0161085 16711746
-0.0250312 0.0224841 0.0240564 16711746
-0.0639390 0.0473402 0.0753744 16711746
-0.0193288 0.0274740 0.0349489 16711746
-0.0248368 0.0406393 0.0497644 16711746
-0.0463877 0.0204939 0.0542386 16711746
-0.0216810 0.0366558 0.0464455 16711746
-0.0227162 0.0391752 0.0579802 16711746
-0.0709913 0.0231410 0.0490785 16711746
-0.0695697 0.0479463 0.0480284 16711746
-0.0742679 0.0484696 0.0579218 16711746
-0.0511457 0.0294043 0.0258705 16711746
-0.0905970 0.0383743 0.0532792 16711746
-0.0153026 0.0054333 0.0762960 16711746
-0.0485482 0.0270674 0.0230750 16711746
-0.0908106 0.0371027 0.0622309 16711746
-0.0555447 0.0146611 0.0329165 16711746
-0.0494779 0.0332610 0.0623576 16711746
-0.1011981 0.0250358 0.0684419 16711746
-0.0017370 -0.0182296 0.0507348 16711746
0.0013194 -0.0269834 0.0735656 16711746
-0.0022351 -0.0241157 0.0603705 16711746
-0.0682468 0.0458978 0.0553942 16711746
-0.0519694 0.0515567 0.0596245 16711746
-0.0817591 0.0253494 0.0703682 16711746
0.0038898 -0.0141437 0.0364944 16711746
-0.0638947 -0.0064574 0.1060081 16711746
-0.0624464 0.0445524 0.0572490 16711746
-0.0308051 -0.0055172 0.0898938 16711746
-0.0326707 -0.0090530 0.0958336 16711746
0.0003499 -0.0155767 0.0460666 16711746
-0.0846627 -0.0154043 0.0565417 16711746
-0.0220937 0.0300297 0.0337251 16711746
-0.0970250 -0.0352825 0.1122182 16711746
-0.0026225 0.0170135 0.0229130 16711746
-0.0244776 -0.0218651 0.0897119 16711746
-0.0328067 0.0386653 0.0508169 16711746
-0.0010403 -0.0136961 0.0538205 16711746
0.0062534 -0.0175876 0.0624818 16711746
-0.0114121 0.0248566 0.0402603 16711746
-0.0020445 0.0095400 0.0335386 16711746
0.0402790 -0.0113172 0.0470893 16711746
-0.0063601 -0.0013738 0.0730577 16711746
-0.0102352 0.0252022 0.0455041 16711746
-0.0025347 0.0173072 0.0245199 16711746
-0.0025852 0.0129246 0.0318133 16711746
-0.0344991 0.0104099 0.0465306 16711746
-0.0467194 0.0199277 0.0334288 16711746
-0.0379170 0.0308477 0.0445319 16711746
-0.0137035 0.0337831 0.0322790 16711746
-0.0183649 0.0295294 0.0293991 16711746
-0.0115275 0.0242042 0.0342244 16711746
-0.0181964 0.0274180 0.0402808 16711746
-0.0064705 0.0260046 0.0314984 16711746
0.0022583 -0.0009062 0.0278048 16711746
-0.0193940 0.0311993 0.0324352 16711746
-0.0228800 0.0310068 0.0270923 16711746
-0.0232830 0.0270278 0.0277103 16711746
-0.0569884 0.0421820 0.0428216 16711746
-0.0356582 0.0400463 0.0505791 16711746
-0.0561028 0.0431248 0.0351308 16711746
-0.0071230 0.0188421 0.0281313 16711746
-0.0304448 0.0343886 0.0349772 16711746
-0.0381759 0.0032611 0.0793889 16711746
0.0002340 -0.0166010 0.0492053 16711746
-0.0026589 -0.0230016 0.0555517 16711746
-0.1255337 -0.0151276 0.0931090 16711746
-0.0260280 0.0286451 0.0423117 16711746
-0.0366408 0.0078031 0.0327583 16711746
-0.0232749 -0.0202600 0.0947411 16711746
-0.0114292 0.0268349 0.0279906 16711746
-0.0069842 0.0190533 0.0287777 16711746
-0.0017121 -0.0092950 0.0378622 16711746
-0.0191800 0.0268512 0.0184475 16711746
-0.0008500 0.0047346 0.0376939 16711746
-0.0400449 0.0280185 0.0344689 16711746
-0.0188410 0.0318035 0.0424403 16711746
-0.0745178 0.0155957 0.0360728 16711746
-0.0357980 0.0259858 0.0185799 16711746
-0.0018776 -0.0058483 0.0348729 16711746
-0.0398800 0.0044370 0.0470644 16711746
-0.0223884 0.0260907 0.0259231 16711746
-0.0424252 0.0284058 0.0211493 16711746
-0.0176574 0.0266110 0.0323346 16711746
-0.0025136 -0.0191614 0.0467963 16711746
-0.0068984 0.0292981 0.0285222 16711746
-0.0361654 0.0239377 0.0200230 16711746
-0.0005246 -0.0193489 0.0392161 16711746
-0.0027648 0.0201084 0.0308936 16711746
-0.0019326 -0.0051957 0.0319521 16711746
-0.0132929 0.0266235 0.0352945 16711746
-0.0470895 0.0207140 0.0103841 16711746
-0.0123872 0.0010694 0.0480892 16711746
-0.0438724 -0.0064736 0.0270895 16711746
-0.0015446 -0.0205810 0.0669200 16711746
-0.0017863 -0.0206813 0.0595113 16711746
-0.0594227 -0.0145026 0.1211911 16711746
-0.0324835 0.0324312 0.0870447 16711746
-0.0075122 0.0202855 0.0323677 16711746
-0.0834680 0.0206831 0.0602174 16711746
-0.0277318 -0.0412707 0.0916582 16711746
-0.0037229 0.0117520 0.0249151 16711746
-0.1169948 0.0099269 0.0614635 16711746
-0.0657772 -0.0523009 0.1235378 16711746
0.0171166 -0.0185287 0.0466777 16711746
-0.1176896 -0.0248291 0.1062259 16711746
-0.1479289 -0.0218866 0.0943158 16711746
-0.0576012 -0.0179046 0.1279789 16711746
-0.0382966 0.0325533 0.0416451 16711746
-0.0584988 -0.0257879 0.1234382 16711746
-0.0462315 0.0444474 0.0403312 16711746
-0.0784513 0.0194769 0.0547806 16711746
-0.0129695 0.0128905 0.0842656 16711746
-0.0871665 -0.0065098 0.1213055 16711746
-0.0021029 -0.0264528 0.0686912 16711746
-0.0061461 -0.0513319 0.1196167 16711746
-0.0033425 -0.0078343 0.0634497 16711746
-0.0028615 0.0186004 0.0257203 16711746
-0.0739375 -0.0315772 0.1268893 16711746
-0.0062377 -0.0532033 0.1237732 16711746
-0.0493922 0.0008271 0.1242037 16711746
-0.0581526 -0.0376029 0.0809058 16711746
-0.0429627 -0.0673724 0.1369878 16711746
-0.0032865 0.0035847 0.0113307 16711746
-0.1311815 -0.0157669 0.0921928 16711746
-0.0021253 -0.0237332 0.0830510 16711746
-0.0565670 -0.0245922 0.1172303 16711746
-0.0765035 -0.0330114 0.1320279 16711746
-0.0990921 -0.0278394 0.1265066 16711746
0.0100811 -0.0371293 0.1064160 16711746
-0.0328277 -0.0043004 0.1006394 16711746
-0.0538395 -0.0158452 0.1184372 16711746
-0.1481235 -0.0357424 0.1104705 16711746
-0.1518463 -0.0001051 0.1002252 16711746
-0.0334373 -0.0403766 0.1112442 16711746
-0.0269230 -0.0260597 0.1188774 16711746
-0.0490884 0.0330748 0.0622098 16711746
-0.0445865 0.0262910 0.0527330 16711746
-0.1049904 -0.0633383 0.1283998 16711746
-0.0032817 0.0265284 0.0311327 16711746
-0.0611954 0.0022167 0.0999681 16711746
-0.0263169 -0.0050668 0.1033018 16711746
-0.0716574 -0.0294416 0.1342548 16711746
-0.0413595 0.0159646 0.0910174 16711746
-0.1030392 0.0141261 0.1127827 16711746
-0.1206626 -0.0405258 0.1125971 16711746
-0.0698493 -0.0571635 0.1178282 16711746
-0.0298177 -0.0252273 0.1216356 16711746
-0.0216736 -0.0339124 0.1137641 16711746
-0.0556718 0.0375301 0.0734970 16711746
-0.0269501 0.0339797 0.0311793 16711746
-0.0388580 0.0383306 0.0374979 16711746
0.0181427 -0.0112200 0.0522161 16711746
-0.0060050 0.0007267 0.0827143 16711746
0.0172062 -0.0268158 0.1026736 16711746
-0.0360835 -0.0130380 0.1126444 16711746
-0.0586269 -0.0002740 0.1028827 16711746
-0.0637354 -0.0022005 0.1074277 16711746
-0.0542874 -0.0160883 0.1194759 16711746
-0.0552446 0.0076582 0.1147422 16711746
-0.1488695 -0.0496788 0.1067436 16711746
-0.0145838 -0.0053072 0.0952353 16711746
-0.0310149 0.0424949 0.0553281 16711746
-0.0422295 0.0360696 0.0334746 16711746
-0.0256812 0.0276177 0.0729367 16711746
-0.0017565 0.0127816 0.0013170 16711746
-0.0395449 0.0016144 0.1045610 16711746
-0.0255238 -0.0048318 0.0990454 16711746
-0.0842805 -0.0065150 0.1172589 16711746
-0.0379556 -0.0215771 0.1151463 16711746
-0.0073574 0.0270417 0.0413579 16711746
-0.0464278 0.0127898 0.1079580 16711746
-0.0219791 0.0007785 0.0958396 16711746
-0.0163377 0.0055209 0.0863143 16711746
-0.0212460 0.0059863 0.0867297 16711746
-0.0490009 -0.0077635 0.1036202 16711746
-0.0079047 0.0046561 0.0760262 16711746
0.0022269 0.0001404 0.0582834 16711746
-0.0163717 0.0124281 0.0844904 16711746
0.0074955 0.0144736 0.0442874 16711746
-0.0242546 0.0162540 0.0890646 16711746
-0.0624387 -0.0220435 0.1051377 16711746
-0.0512006 0.0017443 0.1040109 16711746
-0.0344655 -0.0430705 0.1168654 16711746
-0.0555171 0.0148529 0.0358143 16711746
-0.0398964 -0.0109419 0.1062516 16711746
-0.0038163 0.0006338 0.0623339 16711746
-0.1387250 0.0096336 0.0906704 16711746
-0.0289906 0.0311277 0.0277556 16711746
-0.0305037 0.0275182 0.0165415 16711746
-0.0551860 0.0238096 0.0240147 16711746
-0.0328255 0.0199361 0.0238013 16711746
-0.0507242 0.0214891 0.0239045 16711746
-0.0026809 -0.0107419 0.0334821 16711746
-0.0392984 0.0265054 0.0133499 16711746
-0.0131275 0.0294372 0.0305745 16711746
0.0116602 -0.0187062 0.0687214 16711746
-0.0274011 0.0349146 0.0317770 16711746
-0.0268735 0.0246293 0.0202338 16711746
-0.0355350 0.0161814 0.0362864 16711746
-0.0010127 0.0080644 0.0322590 16711746
-0.0042789 0.0040757 0.0233026 16711746
-0.0652077 -0.0180056 0.0394001 16711746
-0.0022176 -0.0033739 0.0374367 16711746
-0.0038386 0.0038906 0.0182988 16711746
-0.0532804 -0.0111133 0.0277004 16711746
-0.0020000 -0.0061495 0.0367418 16711746
-0.0022562 -0.0083921 0.0356873 16711746
-0.0059021 -0.0151621 0.0530118 16711746
-0.0361830 0.0273903 0.0287490 16711746
-0.0118975 0.0252257 0.0223332 16711746
-0.0196490 0.0213856 0.0349392 16711746
-0.0278172 0.0246526 0.0387551 16711746
-0.0370109 0.0153007 0.0258592 16711746
-0.0171881 0.0298379 0.0234101 16711746
-0.0298632 0.0276778 0.0185225 16711746
-0.0510464 0.0271530 0.0267045 16711746
-0.0055066 0.0274235 0.0244989 16711746
-0.0420243 0.0167492 0.0330715 16711746
-0.0243063 0.0283712 0.0248500 16711746
-0.0165999 0.0271595 0.0343012 16711746
-0.0360369 0.0307890 0.0251023 16711746
0.0005572 0.0230478 0.0201598 16711746
-0.0227856 0.0048307 0.0542067 16711746
0.0086523 0.0047058 0.0114508 16711746
-0.0586561 0.0154901 0.0532661 16711746
0.0138152 -0.0135240 0.0783867 16711746
-0.0238309 0.0284639 0.0187914 16711746
-0.0039334 0.0152085 0.0241003 16711746
-0.0178779 0.0289219 0.0239234 16711746
-0.0042467 0.0040950 0.0245105 16711746
-0.0039184 0.0039130 0.0234891 16711746
-0.0415426 0.0261545 0.0192363 16711746
-0.0043130 0.0039545 0.0291312 16711746
-0.0140167 0.0312393 0.0335870 16711746
-0.0234154 0.0235207 0.0554672 16711746
-0.0180807 0.0355446 0.0336513 16711746
-0.0616591 0.0207210 0.0482928 16711746
-0.0221324 0.0342971 0.0489951 16711746
-0.0122377 0.0334891 0.0432989 16711746
-0.1164442 -0.0607738 0.1154664 16711746
-0.1179434 -0.0394538 0.1093862 16711746
-0.0403900 -0.0261373 0.1216602 16711746
-0.0078092 0.0274139 0.0455211 16711746
-0.0004297 0.0049462 0.0453342 16711746
-0.1338455 -0.0098608 0.0822061 16711746
-0.1043634 0.0035237 0.1025091 16711746
-0.0279975 -0.0360370 0.0919931 16711746
-0.1378234 -0.0204531 0.0600321 16711746
-0.0890481 -0.0307679 0.1184438 16711746
-0.0439896 0.0003596 0.1070691 16711746
-0.0061966 0.0021755 0.0632322 16711746
0.0007695 -0.0248266 0.0683332 16711746
-0.0403307 0.0087980 0.0981536 16711746
-0.1351050 -0.0137554 0.1063228 16711746
-0.0012743 0.0175427 0.0270410 16711746
-0.0417992 0.0263723 0.0677423 16711746
-0.0313294 0.0304881 0.0400123 16711746
-0.0482928 -0.0221832 0.1188643 16711746
-0.0744668 -0.0065814 0.1268082 16711746
-0.0292110 0.0217478 0.0822454 16711746
-0.0764146 0.0192061 0.0387329 16711746
0.0039964 -0.0004998 0.0477839 16711746
-0.1012382 -0.0186957 0.1000903 16711746
-0.1173801 -0.0249770 0.1060283 16711746
-0.0372916 0.0370277 0.0426490 16711746
-0.0469272 0.0282164 0.0149559 16711746
-0.0028785 -0.0387233 0.0979746 16711746
-0.0513005 0.0344777 0.0217994 16711746
-0.0169871 -0.0549767 0.1188095 16711746
-0.0540402 0.0270692 0.0689608 16711746
-0.0061964 -0.0463484 0.1073912 16711746
-0.1436498 -0.0570257 0.1153508 16711746
-0.0378482 -0.0071333 0.0917726 16711746
-0.0396678 -0.0009589 0.0674986 16711746
-0.0552201 0.0369132 0.0713921 16711746
-0.0162937 0.0309276 0.0443199 16711746
-0.0394919 0.0151054 0.0855378 16711746
-0.0125740 -0.0384830 0.1084338 16711746
-0.0655493 0.0197606 0.0359960 16711746
-0.0032771 0.0245737 0.0273080 16711746
-0.0146409 0.0275560 0.0595370 16711746
0.0001512 0.0270724 0.0280405 16711746
0.0280971 -0.0106652 0.0254589 16711746
0.0335969 -0.0162165 0.0274836 16711746
-0.0009421 0.0135679 0.0258867 16711746
-0.0505661 0.0066534 0.0088033 16711746
-0.0080854 0.0201502 0.0576920 16711746
-0.0041776 0.0163155 0.0476737 16711746
-0.0331212 0.0297034 0.0192969 16711746
-0.0623137 -0.0098131 0.0816602 16711746
-0.0238749 0.0266093 0.0375628 16711746
-0.0410051 -0.0534386 0.1082924 16711746
0.0260419 -0.0142305 0.0190194 16711746
-0.0414593 0.0295132 0.0185993 16711746
-0.0143315 0.0293285 0.0409395 16711746
-0.0562307 0.0071190 0.0119287 16711746
-0.0882430 0.0028010 0.0831334 16711746
-0.0021723 0.0144242 0.0331792 16711746
0.0030672 0.0269006 0.0334455 16711746
0.0081540 0.0280606 0.0284857 16711746
-0.0098770 0.0231623 0.0152135 16711746
0.0128610 0.0299208 0.0366787 16711746
0.0056608 0.0224076 0.0201368 16711746
-0.1547303 -0.0299141 0.1104536 16711746
-0.0552080 -0.0056582 0.1318482 16711746
-0.0810227 -0.0399031 0.1463539 16711746
-0.0930642 0.0210126 0.1152908 16711746
-0.0960546 0.0190408 0.1319088 16711746
-0.0380453 -0.0034306 0.1205686 16711746
-0.0235892 -0.0139237 0.1240158 16711746
-0.0413383 0.0306498 0.0399890 16711746
-0.0081964 0.0231193 0.0726030 16711746
-0.0029132 0.0193580 0.0281487 16711746
-0.1398770 0.0160999 0.1105283 16711746
-0.0046766 0.0105787 0.0716574 16711746
-0.1209799 -0.0672083 0.1474487 16711746
-0.0657717 0.0064567 0.1269420 16711746
-0.1100635 -0.0113903 0.1177046 16711746
-0.0046192 0.0044493 0.0277877 16711746
-0.1554450 0.0058916 0.1205867 16711746
-0.0124331 -0.0013524 0.1050753 16711746
-0.0191674 -0.0006236 0.1050240 16711746
-0.0421825 -0.0050600 0.1062658 16711746
-0.0468227 -0.0159841 0.1355628 16711746
-0.1357816 -0.0487732 0.1233451 16711746
0.0080746 0.0139798 0.0462851 16711746
-0.0797839 0.0190167 0.0918523 16711746
0.0091196 0.0093056 0.0499748 16711746
-0.0057617 -0.0055625 0.0983608 16711746
-0.0506927 0.0189042 0.1177271 16711746
-0.0061318 0.0114155 0.0659360 16711746
-0.0046975 0.0058625 0.0837754 16711746
-0.1231343 0.0004414 0.1337380 16711746
-0.1290199 -0.0302335 0.1122820 16711746
-0.0970507 0.0068260 0.1164764 16711746
-0.0043356 0.0009532 0.0913212 16711746
-0.0061032 0.0005572 0.0923706 16711746
-0.1594632 0.0060052 0.1244837 16711746
-0.0738911 -0.0260787 0.1352801 16711746
-0.1532656 -0.0190935 0.1115945 16711746
-0.0236019 0.0064939 0.1000608 16711746
-0.0063725 0.0092957 0.0706521 16711746
-0.1065661 -0.0349455 0.0775899 16711746
-0.1093693 0.0030547 0.1350770 16711746
-0.1423795 0.0061268 0.1346623 16711746
-0.0733460 0.0105488 0.1276247 16711746
-0.0644420 0.0061084 0.1235318 16711746
-0.0282305 -0.0015038 0.1038209 16711746
-0.1427729 -0.0612392 0.1110724 16711746
0.0087520 -0.0109817 0.0738702 16711746
-0.0024785 0.0158188 0.0394037 16711746
-0.0073317 0.0181116 0.0500979 16711746
-0.0426027 -0.0229831 0.1318771 16711746
0.0013280 -0.0285401 0.0773727 16711746
-0.1010679 0.0031615 0.1327464 16711746
-0.0097204 0.0233301 0.0378937 16711746
-0.0159795 0.0288333 0.0518634 16711746
-0.0050796 0.0107713 0.0755616 16711746
-0.0941962 -0.0050949 0.1172773 16711746
0.0230658 -0.0247699 0.0899035 16711746
-0.0385453 -0.0021309 0.0859075 16711746
-0.1952220 -0.0277506 0.1081040 16711746
-0.1211450 -0.0195242 0.1217412 16711746
-0.0430600 -0.0194693 0.1267074 16711746
-0.0466392 0.0033008 0.1041601 16711746
0.0104615 0.0095789 0.0591942 16711746
-0.1051152 0.0142970 0.1037639 16711746
-0.0366454 -0.0246127 0.1151738 16711746
-0.0454908 0.0170958 0.1036582 16711746
-0.0375533 0.0063477 0.1117275 16711746
-0.0152163 0.0117053 0.0765122 16711746
0.0000106 -0.0237423 0.0561215 16711746
-0.0122178 -0.0340189 0.1026669 16711746
-0.1180084 -0.0022535 0.1049345 16711746
-0.0572159 0.0189063 0.0354879 16711746
-0.0175808 -0.0001846 0.0985248 16711746
-0.1744784 -0.0195751 0.1050180 16711746
-0.1252076 -0.0181233 0.0763063 16711746
-0.1041856 0.0143014 0.1146795 16711746
-0.1460032 -0.0307846 0.1404778 16711746
-0.1407660 -0.0356087 0.1215888 16711746
-0.0624991 0.0007729 0.1336289 16711746
-0.0503254 0.0003553 0.1268337 16711746
-0.0245182 0.0168982 0.0662044 16711746
-0.0019462 0.0107245 0.0405542 16711746
-0.0588502 0.0153760 0.0359366 16711746
0.0090726 -0.0308184 0.0970375 16711746
-0.0995791 -0.0352951 0.0402120 16711746
-0.1016423 -0.0373611 0.0509544 16711746
-0.0885362 -0.0382822 0.0697184 16711746
-0.1360187 -0.0374960 0.1255906 16711746
-0.1449457 -0.0247812 0.1277615 16711746
-0.0655006 -0.0315715 0.1219917 16711746
-0.0098352 0.0238391 0.0718945 16711746
-0.0365121 -0.0044846 0.1118493 16711746
-0.1465987 -0.0586793 0.1120458 16711746
-0.1348124 -0.0335410 0.1308621 16711746
-0.1674087 -0.0413167 0.1278889 16711746
-0.1534013 0.0039058 0.0744558 16711746
-0.1311752 -0.0347722 0.0675073 16711746
-0.0359609 0.0250800 0.0486478 16711746
-0.0504937 0.0280487 0.0161467 16711746
-0.0155163 0.0263324 0.0529983 16711746
-0.0071398 0.0283918 0.0361191 16711746
-0.0358385 0.0251452 0.0486961 16711746
-0.0042342 0.0144643 0.0380545 16711746
-0.0443859 0.0307033 0.0226941 16711746
-0.0424636 0.0015941 0.0823447 16711746
-0.1045677 0.0112656 0.0783437 16711746
-0.1051861 -0.0148176 0.0603432 16711746
-0.0282602 0.0190729 0.0223622 16711746
-0.0063292 0.0255672 0.0306431 16711746
-0.0182212 0.0295247 0.0249587 16711746
0.0219584 0.0153823 0.0004681 16711746
-0.0520192 0.0198164 0.0383742 16711746
-0.0582480 0.0145198 0.0187435 16711746
-0.0181138 0.0244396 0.0228281 16711746
0.0042896 -0.0004050 0.0037600 16711746
0.0167996 0.0100796 -0.0042861 16711746
-0.0040084 0.0274832 0.0283786 16711746
0.0002045 0.0271948 0.0280970 16711746
-0.0144976 0.0267094 0.0457352 16711746
0.0240997 0.0214001 0.0035572 16711746
-0.0671732 0.0125095 0.0404285 16711746
-0.0350207 0.0309155 0.0295978 16711746
-0.0685527 0.0332428 0.0267377 16711746
-0.0259634 0.0289583 0.0434059 16711746
-0.0324122 0.0265880 0.0152678 16711746
0.0187864 0.0107968 -0.0027668 16711746
-0.0318398 0.0324333 0.0321356 16711746
-0.0457353 0.0223825 0.0235199 16711746
-0.0294545 0.0209435 0.0364747 16711746
-0.0340327 0.0222340 0.0296186 16711746
-0.0376991 0.0192210 0.0462517 16711746
-0.0804152 0.0089178 0.0650990 16711746
-0.0285608 0.0253403 0.0404381 16711746
-0.0063957 0.0299086 0.0269607 16711746
-0.0248923 0.0267504 0.0204439 16711746
-0.0289111 0.0110207 0.0670050 16711746
-0.0201001 0.0265862 0.0367588 16711746
-0.0491052 -0.0105757 0.0761273 16711746
-0.0067070 0.0248414 0.0287650 16711746
-0.0649020 -0.0029252 0.0611069 16711746
-0.1072551 -0.0017310 0.0750725 16711746
-0.0461871 0.0223987 0.0221719 16711746
-0.0030338 0.0207391 0.0282670 16711746
-0.0299976 0.0278223 0.0419104 16711746
-0.0300420 0.0265464 0.0436704 16711746
-0.0172199 0.0265154 0.0402736 16711746
-0.0753389 0.0295507 0.0276269 16711746
-0.1075666 -0.0219559 0.0878241 16711746
-0.0433991 0.0106894 0.0663503 16711746
-0.0143957 0.0279424 0.0378994 16711746
-0.0524775 0.0150055 0.1060311 16711746
-0.1006901 -0.0237192 0.1381187 16711746
-0.0613003 0.0042142 0.1214766 16711746
-0.0328349 -0.0044167 0.1028682 16711746
-0.1423058 -0.0566112 0.1135242 16711746
-0.0463105 0.0177571 0.0859442 16711746
-0.0526913 -0.0245571 0.1318878 16711746
-0.1304275 -0.0188332 0.0574719 16711746
-0.0165468 0.0126321 0.0856806 16711746
-0.0116219 0.0011451 0.0935445 16711746
0.0020007 0.0035787 0.0571828 16711746
-0.0972762 0.0138042 0.1176801 16711746
-0.0427021 0.0032344 0.0927382 16711746
0.0089139 0.0074118 0.0507470 16711746
0.0020914 0.0259281 0.0322294 16711746
0.0184247 -0.0046576 0.0432011 16711746
-0.0401410 -0.0170057 0.1249024 16711746
0.0352423 -0.0203053 0.0739544 16711746
-0.0077900 0.0267428 0.0432550 16711746
-0.0018581 -0.0118934 0.0356239 16711746
0.0017272 0.0240489 0.0335182 16711746
-0.0016785 0.0082870 0.0203792 16711746
-0.0085082 0.0214330 0.0230197 16711746
-0.0690219 0.0067818 0.0417352 16711746
-0.0239795 -0.0387093 0.1317981 16711746
-0.0129221 -0.0154766 0.1040043 16711746
-0.0876878 0.0121895 0.1198357 16711746
-0.1468534 -0.0331565 0.1136777 16711746
-0.0665141 -0.0460895 0.1217925 16711746
-0.1334653 0.0029096 0.1109120 16711746
-0.0016484 0.0339471 0.0367109 16711746
0.0055513 0.0113783 0.0516457 16711746
0.0080361 0.0142192 0.0478681 16711746
0.0007168 -0.0234607 0.0656279 16711746
-0.1480448 0.0128710 0.1112835 16711746
-0.0037786 0.0040877 0.0142816 16711746
-0.0988593 -0.0560250 0.1259732 16711746
-0.0308822 0.0227398 0.0881452 16711746
-0.1204887 -0.0357934 0.1207656 16711746
-0.0069181 0.0183412 0.0269998 16711746
-0.1180993 0.0106771 0.0854543 16711746
-0.0744082 0.0187738 0.0259023 16711746
-0.0168187 0.0126796 0.0889800 16711746
-0.0096494 0.0273961 0.0216379 16711746
-0.0025151 -0.0179110 0.0542094 16711746
-0.0247032 0.0274884 0.0395307 16711746
-0.0266488 0.0270825 0.0675544 16711746
-0.0082984 0.0290626 0.0496131 16711746
-0.0178682 0.0226725 0.0404829 16711746
-0.0019732 -0.0059368 0.0383028 16711746
-0.0016986 0.0314507 0.0320728 16711746
-0.0006962 0.0280533 0.0322850 16711746
0.0055602 0.0317575 0.0297678 16711746
0.0084317 -0.0183056 0.0712921 16711746
-0.1377867 -0.0228011 0.0714039 16711746
-0.0771536 -0.0244128 0.0231524 16711746
-0.0884570 -0.0165380 0.0330387 16711746
0.0172839 -0.0103338 0.0705497 16711746
-0.1143933 -0.0259681 0.0447172 16711746
-0.0209232 0.0257198 0.0275463 16711746
-0.0233246 0.0280394 0.0271060 16711746
-0.0004827 -0.0115738 0.0322804 16711746
0.0001484 -0.0140453 0.0413238 16711746
-0.0912476 0.0225667 0.0925423 16711746
0.0019185 -0.0054645 0.0307060 16711746
-0.0756629 -0.0067812 0.0627826 16711746
-0.0012327 0.0035065 0.0221631 16711746
0.0022704 0.0205193 0.0316571 16711746
0.0029001 0.0140545 0.0274070 16711746
0.0036974 0.0091853 0.0225956 16711746
-0.0588789 0.0021903 0.0959421 16711746
-0.0442190 0.0169174 0.0998210 16711746
-0.0044969 0.0026621 0.0813644 16711746
-0.0127207 0.0006908 0.1069596 16711746
-0.1055447 0.0140460 0.1159322 16711746
-0.0991791 -0.0092237 0.1309907 16711746
-0.1108097 -0.0129676 0.1411866 16711746
-0.1061366 -0.0167959 0.1042207 16711746
-0.0390096 -0.0147647 0.1242567 16711746
-0.0015110 0.0279339 0.0321376 16711746
-0.0066790 0.0217261 0.0469907 16711746
0.0028717 0.0278447 0.0323912 16711746
-0.0127102 0.0070414 0.0838970 16711746
-0.1228215 -0.0134712 0.1178812 16711746
-0.0601455 -0.0099550 0.1173099 16711746
-0.0829661 -0.0533951 0.1607048 16711746
-0.0124888 0.0067824 0.0812096 16711746
-0.0083191 0.0115689 0.0745579 16711746
-0.0425521 0.0046490 0.1173321 16711746
0.0023939 0.0145578 0.0390747 16711746
-0.0162432 0.0256898 0.0597151 16711746
-0.0154932 -0.0053827 0.1006747 16711746
-0.0853109 0.0133104 0.1064628 16711746
-0.0084656 0.0127842 0.0799511 16711746
-0.0061939 0.0100556 0.0708939 16711746
-0.1340485 -0.0669754 0.1474554 16711746
-0.0246122 0.0130320 0.0888087 16711746
-0.1430046 -0.0347994 0.1064801 16711746
-0.0164575 0.0310333 0.0423230 16711746
-0.1090267 -0.0578769 0.1287845 16711746
-0.0088516 0.0065184 0.0929741 16711746
-0.0067346 0.0031260 0.0848966 16711746
-0.0120411 -0.0011679 0.1011686 16711746
-0.1158123 -0.0095147 0.1256288 16711746
-0.0104770 0.0237158 0.0729312 16711746
-0.0036178 0.0097753 0.0617586 16711746
-0.0954381 0.0180685 0.1150335 16711746
-0.0526046 0.0055795 0.1195880 16711746
-0.1013692 -0.0075261 0.1272203 16711746
-0.0072542 -0.0026886 0.1030423 16711746
-0.0193721 -0.0434260 0.1345052 16711746
-0.0385049 -0.0319012 0.1231906 16711746
-0.0489713 -0.0170972 0.1434622 16711746
-0.0503704 0.0045844 0.1126918 16711746
-0.0285987 -0.0029689 0.0818306 16711746
0.0042959 0.0098770 0.0396083 16711746
-0.0054237 0.0086151 0.0559832 16711746
-0.0265252 -0.0007811 0.0956550 16711746
-0.0273779 0.0136045 0.0983890 16711746
-0.0762538 0.0177538 0.0339759 16711746
-0.0147396 0.0086413 0.0820595 16711746
-0.1428814 -0.0343779 0.1056609 16711746
-0.0450563 0.0096690 0.1172483 16711746
-0.1368442 -0.0156445 0.0683811 16711746
0.0055065 -0.0162747 0.0528443 16711746
-0.1635218 -0.0282687 0.0872401 16711746
-0.1163463 -0.0428640 0.1120182 16711746
-0.1799723 -0.0417498 0.1400684 16711746
-0.0290613 0.0142528 0.0760844 16711746
-0.0459987 -0.0135904 0.1122727 16711746
-0.1308610 -0.0344203 0.0997754 16711746
-0.0409295 0.0185638 0.0254064 16711746
-0.0100034 -0.0005953 0.0828358 16711746
-0.0086715 0.0049342 0.0814988 16711746
-0.0307798 0.0179237 0.0026069 16711746
-0.0259182 0.0232703 0.0353658 16711746
-0.0308651 0.0219538 0.0387769 16711746
-0.0303791 0.0296308 0.0365235 16711746
-0.0612955 0.0043666 0.0670147 16711746
-0.0390052 -0.0052654 0.0787204 16711746
-0.0303983 0.0122631 0.0814851 16711746
-0.0024016 -0.0159109 0.0519617 16711746
-0.0101054 0.0256118 0.0316397 16711746
-0.0075649 0.0269029 0.0562705 16711746
0.0056004 0.0254190 0.0282815 16711746
-0.1095567 0.0006400 0.0861185 16711746
-0.0782769 -0.0460012 0.0908646 16711746
-0.0953262 -0.0142403 0.0867622 16711746
-0.0867931 0.0136071 0.0903326 16711746
-0.0599910 0.0094183 0.0482490 16711746
0.0243032 0.0166134 0.0023638 16711746
-0.0288280 0.0225312 0.0173463 16711746
-0.0331124 0.0063743 0.0331776 16711746
-0.0331241 0.0258930 0.0525645 16711746
0.0252044 0.0170219 0.0031005 16711746
-0.0418577 0.0120729 0.0792093 16711746
-0.0507622 0.0192505 0.0971637 16711746
-0.0293242 0.0217362 0.0825358 16711746
-0.0031623 0.0039262 0.0304950 16711746
-0.0176998 0.0118607 0.0700187 16711746
-0.0283310 0.0208567 0.0783310 16711746
-0.0050624 0.0249501 0.0322983 16711746
-0.0745845 0.0201427 0.0267608 16711746
-0.0500963 -0.0275644 0.0650193 16711746
-0.0336259 0.0223440 0.0528472 16711746
0.0029544 0.0277222 0.0464963 16711746
0.0034635 -0.0085756 0.0365932 16711746
-0.0017436 0.0263676 0.0283607 16711746
0.0031625 -0.0159170 0.0395340 16711746
-0.0041366 0.0270811 0.0275070 16711746
-0.0096612 0.0228108 0.0680241 16711746
0.0084224 0.0277139 0.0300283 16711746
0.0305605 0.0229845 0.0091420 16711746
0.0064461 0.0262689 0.0442868 16711746
0.0016356 0.0301936 0.0373045 16711746
-0.0001456 -0.0179757 0.0466022 16711746
-0.0595578 0.0156513 0.0546469 16711746
-0.0448832 0.0165921 0.0821131 16711746
-0.0146443 0.0251767 0.0496714 16711746
0.0041074 0.0297758 0.0294117 16711746
-0.0259063 0.0251981 0.0286924 16711746
0.0004869 0.0278460 0.0259749 16711746
-0.0350450 -0.0295877 0.0975080 16711746
-0.0602098 -0.0207440 0.1003928 16711746
-0.0221353 0.0240879 0.0579993 16711746
-0.0971344 0.0110741 0.0723814 16711746
-0.0062768 0.0255556 0.0323519 16711746
0.0025386 -0.0115114 0.0502754 16711746
-0.0171529 0.0131296 0.0897696 16711746
-0.1642069 -0.0580637 0.1112254 16711746
-0.0008486 0.0089893 0.0465222 16711746
-0.0548027 -0.0093343 0.1186294 16711746
-0.1877727 -0.0602350 0.1346694 16711746
0.0092374 0.0089983 0.0526901 16711746
-0.0309643 0.0013284 0.0405018 16711746
-0.0399602 0.0159911 0.1072746 16711746
-0.1432673 -0.0001518 0.1094472 16711746
-0.0191571 -0.0006840 0.1069984 16711746
-0.0161317 0.0025289 0.0876981 16711746
-0.0792366 -0.0204359 0.1339570 16711746
-0.0503916 -0.0039517 0.1170230 16711746
-0.0068444 -0.0020507 0.0849307 16711746
-0.0100266 -0.0116311 0.0896319 16711746
0.0034729 0.0270640 0.0327215 16711746
-0.0309438 0.0242795 0.0704289 16711746
-0.1218858 -0.0110827 0.1003553 16711746
0.0133769 -0.0131434 0.0757128 16711746
-0.0026709 0.0103446 0.0392818 16711746
-0.0628935 -0.0348831 0.0871228 16711746
-0.1254652 -0.0132345 0.0805710 16711746
-0.0561819 -0.0157355 0.0748899 16711746
0.0029857 0.0302848 0.0433894 16711746
0.0065188 0.0267351 0.0453940 16711746
-0.0238990 0.0054085 0.1053591 16711746
-0.0440673 -0.0150965 0.1011754 16711746
0.0291094 -0.0181097 0.0720617 16711746
-0.1170698 -0.0348063 0.1097102 16711746
0.0006202 0.0293073 0.0283891 16711746
0.0406252 0.0255366 0.0147810 16711746
-0.1314212 -0.0183983 0.0924593 16711746
-0.0151560 0.0274155 0.0303922 16711746
0.0204755 -0.0032158 0.0585694 16711746
-0.0988821 0.0148376 0.0945630 16711746
-0.0099972 0.0220782 0.0328550 16711746
-0.0630039 0.0077931 0.0164593 16711746
-0.0025311 -0.0074371 0.0223159 16711746
0.0013521 -0.0044919 0.0249273 16711746
-0.0014072 0.0073627 0.0275191 16711746
-0.0641418 -0.0084364 0.1311475 16711746
-0.0381140 -0.0185542 0.1096743 16711746
-0.0389365 0.0288597 0.0271233 16711746
-0.0537852 0.0108234 0.1326925 16711746
-0.0663927 -0.0042793 0.1351812 16711746
-0.1075733 -0.0093691 0.1054888 16711746
-0.1543477 -0.0486167 0.1302961 16711746
0.0273087 0.0392345 0.0455650 16711746
-0.0638821 0.0199982 0.0394856 16711746
-0.0525572 0.0156130 0.0300249 16711746
-0.1679965 -0.0326447 0.1191604 16711746
-0.1061937 0.0037149 0.1054781 16711746
-0.0386025 0.0176874 0.0229223 16711746
-0.0362517 0.0132142 0.0924999 16711746
-0.0107209 -0.0012257 0.0837645 16711746
-0.1410817 0.0064772 0.1338959 16711746
-0.0371706 0.0276062 0.0248083 16711746
-0.1439343 -0.0289350 0.1190042 16711746
-0.0373906 0.0302749 0.0425263 16711746
-0.1088222 -0.0244647 0.0434875 16711746
-0.0116409 -0.0026977 0.0996155 16711746
-0.1030249 -0.0085660 0.1301713 16711746
0.0238039 0.0163613 0.0017277 16711746
-0.0426028 -0.0356963 0.1389248 16711746
-0.0087932 0.0027406 0.0652433 16711746
-0.0081966 0.0102283 0.0657794 16711746
-0.1034648 -0.0118795 0.0463493 16711746
-0.2013755 -0.0390894 0.1347573 16711746
-0.0134394 0.0236598 0.0384065 16711746
-0.0623154 0.0023772 0.1061348 16711746
-0.0724506 -0.0119752 0.0268570 16711746
0.0256480 0.0195369 0.0041332 16711746
-0.0374216 0.0149160 0.0218466 16711746
-0.0315738 0.0234937 0.0080350 16711746
-0.0310879 0.0165548 0.0145596 16711746
0.0327383 0.0273333 0.0158507 16711746
-0.0291013 0.0190784 0.0046690 16711746
-0.0340343 0.0263586 0.0212388 16711746
-0.0431689 0.0133181 0.0134457 16711746
-0.0370651 0.0171981 0.0113840 16711746
-0.0324308 0.0209637 0.0072407 16711746
-0.0383627 0.0119933 0.0098237 16711746
-0.0332507 0.0202596 0.0107970 16711746
-0.0190052 0.0250925 0.0330787 16711746
-0.0347887 0.0245934 0.0133285 16711746
-0.0372438 0.0236482 0.0343012 16711746
-0.0519926 0.0196169 0.0240993 16711746
0.0154766 0.0300147 0.0304200 16711746
0.0200365 0.0313133 0.0343223 16711746
-0.0769473 -0.0192462 0.0322024 16711746
-0.0222839 0.0199473 0.0195569 16711746
-0.0364785 0.0162905 0.0338862 16711746
-0.0351739 0.0200474 0.0301995 16711746
-0.0215017 0.0237303 0.0310467 16711746
0.0318546 0.0155024 0.0069477 16711746
-0.0610996 0.0063676 0.0581222 16711746
-0.0377968 0.0240218 0.0351533 16711746
-0.0407482 0.0111001 0.0245534 16711746
-0.0602849 0.0129510 0.0369549 16711746
-0.1065842 0.0160496 0.1039983 16711746
-0.0439699 0.0246805 0.0192369 16711746
-0.0993922 0.0114862 0.0974284 16711746
0.0079896 0.0282584 0.0314435 16711746
-0.0498065 -0.0014077 0.0648009 16711746
-0.1117230 -0.0053853 0.0972765 16711746
-0.0747440 0.0194867 0.0795579 16711746
-0.0336613 0.0270724 0.0432534 16711746
-0.0518934 0.0114466 0.0821241 16711746
0.0265842 0.0176703 0.0042358 16711746
-0.0356588 0.0201700 0.0306781 16711746
-0.0448547 0.0170024 0.0816288 16711746
0.0260989 0.0331787 0.0329726 16711746
-0.1016276 -0.0190584 0.1040495 16711746
-0.0246286 0.0273569 0.0264874 16711746
-0.0719591 0.0149045 0.0943026 16711746
0.0075550 -0.0282511 0.0783408 16711746
0.0023687 0.0017304 0.0373774 16711746
-0.0237128 0.0146107 0.0951884 16711746
-0.0076957 0.0272174 0.0571249 16711746
-0.1250013 -0.0314631 0.0631384 16711746
-0.0085904 0.0200686 0.0287673 16711746
-0.0067743 0.0027439 0.0798656 16711746
0.0018849 0.0028952 0.0300590 16711746
-0.0048541 0.0281092 0.0486232 16711746
-0.0191359 0.0278462 0.0354157 16711746
0.0022423 0.0018916 0.0328630 16711746
-0.0354276 0.0042412 0.0580737 16711746
-0.0049767 0.0059644 0.0845168 16711746
-0.0122741 0.0006090 0.1027067 16711746
-0.0153997 -0.0053435 0.0973924 16711746
-0.1449410 0.0050789 0.1353304 16711746
-0.1217614 -0.0411677 0.0742858 16711746
-0.1131570 0.0056258 0.1303375 16711746
0.0335666 0.0150180 0.0181021 16711746
0.0258162 -0.0343999 0.0773485 16711746
-0.0030877 0.0035371 0.0002249 16711746
0.0388358 0.0237330 0.0126428 16711746
-0.1237876 0.0043819 0.1241056 16711746
-0.0430882 -0.0193111 0.1123764 16711746
0.0205620 -0.0132252 0.0400396 16711746
-0.0487312 0.0133181 0.0966128 16711746
0.0109997 -0.0041188 0.0265124 16711746
-0.1011692 -0.0060868 0.0878755 16711746
-0.0188032 -0.0042862 0.0675205 16711746
0.0265999 0.0084069 0.0098208 16711746
-0.0047309 0.0144249 0.0116915 16711746
0.0205108 0.0290322 0.0330998 16711746
-0.0324822 -0.0055812 0.0033442 16711746
-0.0329656 -0.0025801 0.0033966 16711746
-0.0363403 0.0248230 0.0397057 16711746
-0.0177571 -0.0003982 0.0962978 16711746
-0.0426701 -0.0132941 0.1333843 16711746
-0.0186880 0.0135835 0.0763812 16711746
-0.0454797 0.0117263 0.0550892 16711746
0.0336531 0.0419001 0.0527694 16711746
-0.0194148 0.0019386 0.0921333 16711746
-0.0209599 -0.0117613 0.1052818 16711746
-0.0849013 -0.0091773 0.0403435 16711746
-0.1493338 -0.0254312 0.1492926 16711746
-0.0171632 0.0023011 0.0772383 16711746
-0.0611288 -0.0148268 0.0138667 16711746
0.0216796 0.0230810 0.0175014 16711746
-0.0366453 0.0016000 0.0053126 16711746
0.0281910 0.0212065 0.0132029 16711746
0.0238060 0.0212430 0.0077426 16711746
0.0076884 0.0249055 0.0211116 16711746
0.0196760 0.0243634 0.0153235 16711746
0.0291280 0.0090752 0.0121203 16711746
0.0265201 0.0270504 0.0241555 16711746
0.0208784 0.0223470 0.0205021 16711746
-0.0338628 0.0160729 0.0062301 16711746
0.0347509 0.0182472 0.0262611 16711746
0.0308227 0.0360505 0.0460401 16711746
-0.0026262 0.0277740 0.0303017 16711746
-0.0372681 0.0266900 0.0274638 16711746
-0.0442426 -0.0147454 0.1258340 16711746
-0.0096849 0.0035211 0.0788048 16711746
-0.1574205 -0.0399963 0.1369571 16711746
-0.0376538 0.0016324 0.1016753 16711746
-0.0633193 -0.0297953 0.1258651 16711746
-0.0373316 0.0246279 0.0244189 16711746
-0.0163075 -0.0019603 0.0725042 16711746
-0.1493611 -0.0194901 0.1224828 16711746
0.0174193 0.0266362 0.0289699 16711746
-0.0441951 0.0135856 0.0141585 16711746
-0.0537194 0.0140288 0.0231660 16711746
0.0090945 0.0261248 0.0227600 16711746
-0.0443865 0.0181032 0.0173241 16711746
0.0155093 0.0262404 0.0226440 16711746
-0.0452959 0.0106786 0.0148125 16711746
-0.0438921 0.0170708 0.0178875 16711746
-0.0354052 0.0179971 0.0228575 16711746
0.0095835 0.0252387 0.0291522 16711746
0.0143920 0.0284847 0.0360843 16711746
0.0022710 0.0279543 0.0364160 16711746
-0.0864508 -0.0116770 0.0480538 16711746
-0.0451769 0.0169745 0.0402020 16711746
0.0266707 0.0291739 0.0370002 16711746
-0.0377100 0.0219662 0.0119156 16711746
-0.0297689 0.0231546 0.0185397 16711746
-0.0362505 0.0258032 0.0235109 16711746
-0.0038637 0.0258562 0.0263501 16711746
0.0128430 0.0302569 0.0369784 16711746
-0.0405592 0.0110718 0.0242746 16711746
0.0441198 0.0351781 0.0510069 16711746
-0.0300153 0.0194821 0.0051224 16711746
0.0234917 0.0353464 0.0424876 16711746
0.0235256 0.0335208 0.0507870 16711746
0.0250415 0.0317984 0.0301507 16711746
0.0361141 0.0383532 0.0349806 16711746
0.0064778 -0.0095389 0.0271855 16711746
-0.0271340 0.0222914 0.0457394 16711746
0.0413599 0.0332578 0.0466523 16711746
0.0297599 0.0331884 0.0379000 16711746
-0.0306167 0.0269106 0.0235977 16711746
-0.0034183 0.0035783 0.0175133 16711746
0.0244726 0.0320457 0.0348976 16711746
-0.0018005 -0.0090449 0.0315198 16711746
-0.0326835 0.0160001 0.0185550 16711746
-0.0360406 0.0204902 0.0413502 16711746
-0.0256105 0.0228014 0.0341885 16711746
-0.0654293 -0.0313893 0.0677344 16711746
-0.1071890 0.0041491 0.0952718 16711746
-0.0169606 0.0271701 0.0506086 16711746
-0.1303470 -0.0024336 0.0974681 16711746
-0.0571517 0.0163966 0.0318839 16711746
-0.0226079 0.0189143 0.0612533 16711746
0.0175965 0.0321708 0.0362923 16711746
-0.1225528 0.0003217 0.0990206 16711746
0.0481524 0.0332400 0.0455734 16711746
-0.0431851 -0.0268570 0.0984368 16711746
-0.0849329 0.0201677 0.0991910 16711746
0.0304899 0.0356157 0.0452845 16711746
-0.1233463 -0.0460535 0.1493825 16711746
0.0335679 -0.0391723 0.1012344 16711746
0.0242059 0.0371815 0.0409040 16711746
-0.0373175 -0.0030659 0.0922301 16711746
-0.1281413 -0.0026358 0.1154772 16711746
-0.0002791 -0.0216220 0.0497635 16711746
-0.0098537 -0.0123279 0.0940612 16711746
-0.0154102 0.0053806 0.0774826 16711746
0.0332061 0.0321751 0.0387284 16711746
-0.0838398 -0.0289972 0.0368550 16711746
0.0276055 -0.0176715 0.0557902 16711746
-0.0134824 0.0248561 0.0505414 16711746
-0.1228564 -0.0142682 0.1061500 16711746
-0.0017745 -0.0111928 0.0315926 16711746
0.0444338 0.0255641 0.0305896 16711746
-0.0101537 0.0189618 0.0325876 16711746
0.0086785 0.0281073 0.0307206 16711746
0.0206615 0.0259608 0.0197155 16711746
0.0125502 0.0253220 0.0240681 16711746
0.0204735 0.0249916 0.0205281 16711746
0.0258109 0.0170452 0.0141296 16711746
0.0220194 0.0237239 0.0376402 16711746
-0.0433331 0.0169741 0.0141173 16711746
0.0149172 0.0255694 0.0216078 16711746
-0.0017918 0.0244092 0.0248063 16711746
0.0212207 0.0311534 0.0451734 16711746
0.0358690 0.0360351 0.0387599 16711746
0.0086261 -0.0332084 0.0854091 16711746
0.0432813 0.0374139 0.0657440 16711746
-0.0257920 -0.0050510 0.1000620 16711746
0.0109367 -0.0120983 0.0266628 16711746
-0.1008951 -0.0064754 0.1104693 16711746
0.0020832 0.0008591 0.0558653 16711746
0.0281630 0.0235316 0.0185952 16711746
0.0199218 0.0241480 0.0219293 16711746
0.0072242 0.0247080 0.0244171 16711746
0.0180891 0.0272535 0.0201993 16711746
0.0181179 0.0263544 0.0300568 16711746
0.0216496 0.0209728 0.0102029 16711746
0.0306407 0.0226762 0.0154989 16711746
0.0265821 0.0203625 0.0118131 16711746
0.0278462 0.0179920 0.0162486 16711746
0.0162570 0.0232238 0.0259639 16711746
0.0194832 0.0231120 0.0309406 16711746
0.0078480 0.0245342 0.0348567 16711746
-0.0268811 0.0067165 -0.0003336 16711746
0.0282141 0.0250950 0.0344845 16711746
0.0084000 0.0248870 0.0312115 16711746
0.0026297 0.0250003 0.0290139 16711746
0.0217313 0.0226313 0.0101177 16711746
0.0266101 0.0247349 0.0146007 16711746
0.0097552 0.0276502 0.0255472 16711746
0.0062139 -0.0221325 0.0639555 16711746
-0.1094476 -0.0419923 0.0630236 16711746
-0.0255285 0.0274942 0.0716075 16711746
-0.1370066 -0.0000047 0.0883228 16711746
-0.1228646 -0.0308835 0.0967590 16711746
-0.0103790 -0.0007391 0.0776563 16711746
-0.0381565 -0.0168489 0.0987619 16711746
-0.0141021 -0.0044602 0.0822992 16711746
-0.0791040 -0.0140111 0.0725625 16711746
0.0322551 0.0314536 0.0314526 16711746
0.0492067 0.0385210 0.0667706 16711746
-0.0080793 0.0079041 0.0688962 16711746
-0.0143160 -0.0027577 0.0901335 16711746
0.0109855 -0.0201399 0.0528729 16711746
-0.0065389 0.0026161 0.0753550 16711746
-0.0645840 -0.0041360 0.1313438 16711746
-0.0991665 -0.0096421 0.1337222 16711746
-0.1537146 -0.0100288 0.1159902 16711746
-0.1148344 -0.0516689 0.1367112 16711746
0.0506265 0.0266740 0.0631499 16711746
0.0139730 0.0289258 0.0412220 16711746
-0.0738590 -0.0100762 0.0673632 16711746
-0.0495964 0.0140014 0.0212317 16711746
-0.0466617 0.0156312 0.0305639 16711746
0.0137978 0.0262165 0.0217681 16711746
-0.0307327 -0.0192905 0.0332856 16711746
0.0118099 0.0326507 0.0537085 16711746
0.0333542 0.0238585 0.0437592 16711746
0.0278833 0.0240018 0.0114700 16711746
0.0100462 0.0284196 0.0438891 16711746
-0.0253984 0.0101623 -0.0018657 16711746
0.0269064 0.0404155 0.0522856 16711746
-0.0560502 -0.0034675 0.0172623 16711746
0.0344358 0.0328339 0.0657603 16711746
-0.0265189 0.0258807 0.0405652 16711746
-0.0374916 0.0101408 0.0416059 16711746
-0.0098398 0.0250431 0.0305610 16711746
-0.0048460 0.0250830 0.0305798 16711746
0.0283248 0.0334362 0.0408952 16711746
-0.0166937 -0.0140322 0.0706990 16711746
0.0505136 0.0342640 0.0533812 16711746
-0.0968032 -0.0232432 0.0412560 16711746
-0.0852013 -0.0131549 0.0851968 16711746
-0.0018815 -0.0061959 0.0298465 16711746
-0.0017341 -0.0086247 0.0300075 16711746
0.0240310 0.0353529 0.0532298 16711746
-0.0031744 0.0248705 0.0309929 16711746
-0.0460120 -0.0209316 0.1116133 16711746
-0.0562538 -0.0415349 0.1084506 16711746
0.0424611 0.0295483 0.0425475 16711746
-0.1074235 -0.0427584 0.1219599 16711746
-0.1371018 -0.0470457 0.1141655 16711746
-0.0228296 -0.0167360 0.0928281 16711746
-0.1305492 -0.0409841 0.0886395 16711746
-0.0339899 -0.0282424 0.0916636 16711746
-0.0339832 0.0192476 0.0206296 16711746
-0.0499258 0.0188923 0.0224897 16711746
-0.0291528 0.0257502 0.0418027 16711746
-0.1370658 -0.0570079 0.0994086 16711746
0.0346589 0.0218593 0.0200738 16711746
0.0181060 0.0320995 0.0311269 16711746
-0.0813019 -0.0474729 0.0994553 16711746
-0.0387010 0.0274999 0.0188737 16711746
0.0203708 0.0299018 0.0426204 16711746
-0.0678493 -0.0384965 0.0849226 16711746
-0.0182836 0.0175187 0.0109560 16711746
0.0203811 -0.0175448 0.0539663 16711746
-0.0296726 -0.0303144 0.1199882 16711746
-0.0400823 0.0204850 0.0182125 16711746
-0.0303684 0.0087902 0.0030844 16711746
0.0371339 0.0133865 0.0383767 16711746
-0.0065148 0.0255695 0.0295053 16711746
0.0517746 -0.0394758 0.1313461 16711746
-0.1317452 -0.0727460 0.1505628 16711746
0.0505148 0.0395862 0.0694221 16711746
-0.0067089 0.0026390 0.0854156 16711746
-0.1359323 0.0130152 0.1276106 16711746
0.0367069 0.0352822 0.0376719 16711746
-0.0510759 -0.0675468 0.1609096 16711746
0.0219220 0.0245053 0.0175568 16711746
-0.0362589 0.0299876 0.0216488 16711746
-0.0310752 0.0157840 0.0188024 16711746
0.0235479 0.0250780 0.0407002 16711746
-0.0288661 -0.0139237 0.0292422 16711746
-0.0475815 0.0161373 0.0257951 16711746
0.0456260 0.0247391 0.0559117 16711746
0.0249767 0.0261714 0.0311657 16711746
0.0200427 0.0283945 0.0315652 16711746
0.0306775 0.0253671 0.0397516 16711746
0.0171205 0.0337381 0.0547296 16711746
-0.0316191 0.0168395 0.0307345 16711746
-0.0928200 -0.0071977 0.0735120 16711746
-0.0368625 0.0262884 0.0243793 16711746
-0.1028474 -0.0290281 0.0725209 16711746
0.0028142 0.0273363 0.0299999 16711746
-0.0223347 0.0236148 0.0214019 16711746
-0.0673861 -0.0011260 0.1216690 16711746
-0.1421928 -0.0662054 0.1234384 16711746
-0.0034572 0.0043043 0.0458223 16711746
0.0230471 0.0306067 0.0325197 16711746
-0.0503022 -0.0042214 0.1160464 16711746
-0.0405964 0.0263822 0.0212952 16711746
-0.0015433 0.0006717 0.0388644 16711746
-0.1580828 -0.0273620 0.1011926 16711746
-0.0478750 0.0193462 0.1052698 16711746
-0.1450726 -0.0666161 0.1242489 16711746
-0.0068303 0.0030642 0.0864760 16711746
-0.0574455 0.0002136 0.1492304 16711746
-0.0071108 -0.0021542 0.0935292 16711746
-0.0178786 -0.0000415 0.0967012 16711746
0.0232272 -0.0156332 0.0666929 16711746
-0.0076192 0.0272405 0.0457453 16711746
-0.0631617 -0.0132182 0.0194813 16711746
-0.0612546 -0.0188466 0.1369632 16711746
0.0118969 -0.0053534 0.0297482 16711746
-0.1807578 -0.0500143 0.1574948 16711746
-0.0724720 -0.0411789 0.0917410 16711746
-0.0019348 -0.0044883 0.0220215 16711746
-0.0327259 0.0191313 0.0101747 16711746
-0.0282271 0.0187934 0.0215647 16711746
-0.0324180 0.0159467 0.0185339 16711746
-0.0342241 0.0228174 0.0181356 16711746
-0.0109136 0.0228366 0.0180750 16711746
-0.0087289 0.0216782 0.0200081 16711746
-0.0335335 0.0203177 0.0342981 16711746
-0.0264109 0.0231259 0.0198650 16711746
-0.0088494 0.0212612 0.0316040 16711746
-0.0496483 0.0136571 0.0236529 16711746
-0.0351263 0.0145312 0.0123997 16711746
0.0175799 -0.0076408 0.0161386 16711746
-0.0112445 0.0201693 0.0296946 16711746
0.0357162 0.0244126 0.0177876 16711746
-0.0198634 0.0248408 0.0271639 16711746
-0.0344410 0.0261620 0.0173010 16711746
-0.0143609 0.0238986 0.0258290 16711746
-0.0004709 0.0027507 0.0205576 16711746
-0.0358383 0.0196974 0.0202095 16711746
-0.0327011 0.0168402 0.0201009 16711746
