# .PCD v.7 - Point Cloud Data file format
VERSION .7
FIELDS x y z rgb
SIZE 4 4 4 4
TYPE F F F F
COUNT 1 1 1 1
WIDTH 269
HEIGHT 1
VIEWPOINT 0 0 0 1 0 0 0
POINTS 269
DATA ascii

 0.0624545 0.0101013 0.0205771 16777215
 0.0632735 0.0100289 0.0214886 16777215
 0.0643699 0.0105701 0.0219981 16777215
 0.0647713 0.0097561 0.0222109 16777215
 0.0659867 0.0096091 0.0229372 16777215
 0.0665146 0.0089268 0.0236308 16777215
 0.0665826 0.0089238 0.0235563 16777215
 0.0667866 0.0085022 0.0243303 16777215
 0.0668154 0.0085099 0.0251813 16777215
 0.0667132 0.0082085 0.0260566 16777215
 0.0668555 0.0074808 0.0297799 16777215
 0.0685113 0.0072135 0.0313834 16777215
 0.0708781 0.0060440 0.0344920 16777215
 0.0731267 0.0053908 0.0395769 16777215
 0.0759793 0.0012973 0.0461459 16777215
 0.0756937 0.0054441 0.0611519 16777215
 0.0803819 0.0074188 0.0680498 16777215
 0.0907322 0.0026247 0.0806767 16777215
 0.0956735 -0.0016380 0.0893720 16777215
 0.1048221 -0.0040214 0.1018572 16777215
 0.1160493 0.0008743 0.1118998 16777215
 0.1182457 0.0012543 0.1299912 16777215
 0.1332034 0.0177073 0.1565737 16777215
 0.1385660 0.0225992 0.1598653 16777215
 0.1422345 0.0162007 0.1619344 16777215
 0.1452920 0.0095582 0.1664319 16777215
 0.1397331 0.0047746 0.1755959 16777215
 0.1495240 0.0019008 0.1907581 16777215
 0.1498383 -0.0013603 0.1916672 16777215
 0.1689366 -0.0009341 0.2117157 16777215
 0.1634375 -0.0030736 0.2190850 16777215
 0.1579621 -0.0097522 0.2261546 16777215
 0.1696831 -0.0190750 0.2413635 16777215
 0.1764087 -0.0143431 0.2524097 16777215
 0.2074111 -0.0018233 0.2655285 16777215
 0.1799131 -0.0175130 0.2669395 16777215
 0.1925948 -0.0235152 0.2697899 16777215
 0.1947257 -0.0212859 0.2893061 16777215
 0.1989898 -0.0309822 0.2959307 16777215
 0.2053433 -0.0339590 0.2956748 16777215
 0.2042705 -0.0330649 0.3220997 16777215
 0.2158285 -0.0216744 0.3335808 16777215
 0.2274632 -0.0227584 0.3450116 16777215
 0.2300323 -0.0248940 0.3506429 16777215
 0.2356164 -0.0293389 0.3608532 16777215
 0.2386726 -0.0352681 0.3718317 16777215
 0.2435864 -0.0553078 0.3686194 16777215
 0.2366537 -0.0255414 0.3875828 16777215
 0.2390323 -0.0237747 0.4012207 16777215
 0.2462529 -0.0367803 0.4040976 16777215
 0.2364857 -0.0400115 0.4247569 16777215
 0.2384927 -0.0407691 0.4307223 16777215
 0.2446925 -0.0380075 0.4427459 16777215
 0.2526322 -0.0412371 0.4635565 16777215
 0.2594908 -0.0481724 0.4700643 16777215
 0.2733777 -0.0513784 0.4757865 16777215
 0.2787627 -0.0514279 0.4786657 16777215
 0.2832443 -0.0523471 0.4847468 16777215
 0.2867348 -0.0576722 0.4964608 16777215
 0.2846218 -0.0606702 0.5054117 16777215
 0.2866798 -0.0652533 0.5116133 16777215
 0.2916280 -0.0707464 0.5241476 16777215
 0.2833615 -0.0702168 0.5452542 16777215
 0.2995232 -0.0831576 0.5583990 16777215
 0.3065483 -0.0910377 0.5598757 16777215
 0.3113442 -0.0929198 0.5626860 16777215
 0.3131312 -0.0938322 0.5663269 16777215
 0.3180006 -0.0956943 0.5796995 16777215
 0.3216515 -0.1006700 0.5866009 16777215
 0.3260981 -0.1077572 0.5914184 16777215
 0.3375303 -0.1084450 0.6085513 16777215
 0.3402018 -0.1110445 0.6234668 16777215
 0.3487227 -0.1104821 0.6317773 16777215
 0.3521247 -0.1101099 0.6370114 16777215
 0.3540337 -0.1128757 0.6430979 16777215
 0.3456773 -0.0945771 0.6549934 16777215
 0.3646373 -0.1091439 0.6638814 16777215
 0.3602294 -0.0855803 0.6732665 16777215
 0.3717684 -0.0908553 0.6839629 16777215
 0.3718623 -0.0843022 0.7005732 16777215
 0.3761340 -0.0873908 0.7174007 16777215
 0.3813221 -0.0894706 0.7333735 16777215
 0.3859197 -0.0770532 0.7407149 16777215
 0.3717380 -0.0785235 0.7476540 16777215
 0.3752797 -0.0701212 0.7621969 16777215
 0.3898770 -0.0799452 0.7697955 16777215
 0.4041504 -0.1000111 0.7860056 16777215
 0.4013817 -0.0992507 0.7928712 16777215
 0.4015803 -0.0905261 0.8023995 16777215
 0.4035158 -0.0896161 0.8058277 16777215
 0.4119990 -0.0964341 0.8172388 16777215
 0.4182179 -0.0986581 0.8202314 16777215
 0.4203946 -0.1055970 0.8293690 16777215
 0.4257649 -0.1113634 0.8326595 16777215
 0.4339920 -0.1125094 0.8408715 16777215
 0.4367213 -0.1159968 0.8550367 16777215
 0.4351485 -0.1180645 0.8639233 16777215
 0.4384875 -0.1229036 0.8731886 16777215
 0.4409780 -0.1241204 0.8827896 16777215
 0.4537929 -0.1172429 0.8963826 16777215
 0.4472034 -0.1273082 0.9117538 16777215
 0.4558950 -0.1396782 0.9171664 16777215
 0.4643527 -0.1365551 0.9231277 16777215
 0.4688018 -0.1400498 0.9325809 16777215
 0.4765743 -0.1422946 0.9339523 16777215
 0.4784385 -0.1342157 0.9446903 16777215
 0.4815126 -0.1426521 0.9512021 16777215
 0.4877484 -0.1402326 0.9553955 16777215
 0.4919831 -0.1478883 0.9604604 16777215
 0.4891349 -0.1467263 0.9667425 16777215
 0.4882003 -0.1151776 0.9888261 16777215
 0.4997876 -0.1242028 0.9920215 16777215
 0.5042323 -0.1263945 1.0006475 16777215
 0.5050053 -0.1181869 1.0143410 16777215
 0.5067694 -0.1262378 1.0280218 16777215
 0.5061391 -0.1246614 1.0367621 16777215
 0.5045841 -0.1209734 1.0469199 16777215
 0.5347241 -0.1209103 1.0510700 16777215
 0.5392224 -0.1229978 1.0583124 16777215
 0.5436124 -0.1268220 1.0623522 16777215
 0.5407977 -0.1256954 1.0717916 16777215
 0.5434562 -0.1279776 1.0738094 16777215
 0.5464757 -0.1263607 1.0824358 16777215
 0.5456213 -0.1289368 1.0849807 16777215
 0.5482790 -0.1317437 1.0969888 16777215
 0.5479480 -0.1287496 1.0976940 16777215
 0.5449356 -0.1276749 1.1047333 16777215
 0.5539278 -0.1303559 1.1184876 16777215
 0.5599557 -0.1277854 1.1258186 16777215
 0.5518781 -0.1219527 1.1458946 16777215
 0.5404980 -0.1205163 1.1587332 16777215
 0.5451151 -0.1218234 1.1632987 16777215
 0.5473378 -0.1244024 1.1650699 16777215
 0.5454708 -0.1274262 1.1743484 16777215
 0.5483871 -0.1249370 1.1836890 16777215
 0.5479162 -0.1286937 1.1879762 16777215
 0.5550541 -0.1333040 1.1892865 16777215
 0.5555784 -0.1335339 1.1909777 16777215
 0.5582010 -0.1344766 1.2033845 16777215
 0.5611333 -0.1359296 1.2048839 16777215
 0.5684093 -0.1322012 1.2147460 16777215
 0.5700751 -0.1336435 1.2217020 16777215
 0.5794633 -0.1375344 1.2215821 16777215
 0.5786963 -0.1328326 1.2294786 16777215
 0.5767866 -0.1307702 1.2346801 16777215
 0.5837256 -0.1328688 1.2388146 16777215
 0.5897852 -0.1322456 1.2408882 16777215
 0.5918430 -0.1379702 1.2491455 16777215
 0.5965680 -0.1330256 1.2568109 16777215
 0.5971730 -0.1348512 1.2625151 16777215
 0.6028291 -0.1333597 1.2766904 16777215
 0.6049419 -0.1353090 1.2813551 16777215
 0.6082768 -0.1361383 1.2880419 16777215
 0.6067398 -0.1317796 1.2960674 16777215
 0.6084625 -0.1340572 1.3042853 16777215
 0.6107875 -0.1313426 1.3109349 16777215
 0.6173850 -0.1334698 1.3199847 16777215
 0.6199209 -0.1360037 1.3261337 16777215
 0.6162726 -0.1391118 1.3301296 16777215
 0.6235815 -0.1347666 1.3380747 16777215
 0.6289935 -0.1322863 1.3409230 16777215
 0.6315658 -0.1314923 1.3494135 16777215
 0.6376048 -0.1315178 1.3558562 16777215
 0.6407977 -0.1316098 1.3577285 16777215
 0.6467022 -0.1326773 1.3630024 16777215
 0.6486190 -0.1316345 1.3673663 16777215
 0.6490275 -0.1328993 1.3717988 16777215
 0.6530198 -0.1258818 1.3746530 16777215
 0.6585135 -0.1340284 1.3810593 16777215
 0.6608680 -0.1357383 1.3866627 16777215
 0.6628105 -0.1443553 1.3868032 16777215
 0.6609453 -0.1380787 1.3910943 16777215
 0.6681044 -0.1291518 1.4101648 16777215
 0.6761864 -0.1295142 1.4143369 16777215
 0.6749856 -0.1326060 1.4210763 16777215
 0.6710532 -0.1315707 1.4187837 16777215
 0.6714805 -0.1323091 1.4199420 16777215
 0.6841971 -0.1267186 1.4329798 16777215
 0.6847342 -0.1274479 1.4500535 16777215
 0.6810521 -0.1223423 1.4616653 16777215
 0.6813496 -0.1247858 1.4649240 16777215
 0.6786854 -0.1218284 1.4789188 16777215
 0.6758077 -0.1200655 1.4881991 16777215
 0.6879180 -0.1244561 1.4889611 16777215
 0.6933567 -0.1265306 1.4930700 16777215
 0.6906431 -0.1233631 1.4997272 16777215
 0.6977247 -0.1224902 1.5011352 16777215
 0.6989799 -0.1212515 1.5100340 16777215
 0.7012440 -0.1225355 1.5146604 16777215
 0.6957791 -0.1218778 1.5175232 16777215
 0.7005898 -0.1260938 1.5208634 16777215
 0.7001984 -0.1266572 1.5225767 16777215
 0.7047927 -0.1291714 1.5266576 16777215
 0.7086505 -0.1265558 1.5304750 16777215
 0.7101434 -0.1293542 1.5333105 16777215
 0.7111605 -0.1286222 1.5363228 16777215
 0.7061760 -0.1268871 1.5602629 16777215
 0.7061145 -0.1307070 1.5677197 16777215
 0.7168953 -0.1330135 1.5782387 16777215
 0.7225056 -0.1311896 1.5844560 16777215
 0.7193486 -0.1348231 1.5834051 16777215
 0.7160025 -0.1234561 1.5989718 16777215
 0.7245688 -0.1245207 1.6027619 16777215
 0.7304400 -0.1287549 1.6093845 16777215
 0.7201901 -0.1285403 1.6196094 16777215
 0.7217163 -0.1336238 1.6273239 16777215
 0.7316179 -0.1334975 1.6285994 16777215
 0.7359346 -0.1369829 1.6306641 16777215
 0.7394822 -0.1382169 1.6356125 16777215
 0.7429844 -0.1372738 1.6399565 16777215
 0.7400308 -0.1406892 1.6519054 16777215
 0.7441496 -0.1354928 1.6585603 16777215
 0.7561008 -0.1358236 1.6604865 16777215
 0.7500758 -0.1316760 1.6749766 16777215
 0.7547029 -0.1308337 1.6820682 16777215
 0.7649194 -0.1282113 1.6891600 16777215
 0.7688667 -0.1328736 1.6948054 16777215
 0.7715151 -0.1350136 1.7001498 16777215
 0.7662868 -0.1390482 1.7001098 16777215
 0.7628348 -0.1304529 1.7002684 16777215
 0.7750806 -0.1414537 1.7033908 16777215
 0.7616600 -0.1325912 1.7097881 16777215
 0.7706567 -0.1338205 1.7134854 16777215
 0.7720932 -0.1336635 1.7142093 16777215
 0.7742508 -0.1355065 1.7220254 16777215
 0.7789903 -0.1343910 1.7191972 16777215
 0.7813312 -0.1327397 1.7245339 16777215
 0.7834160 -0.1350780 1.7284052 16777215
 0.7863182 -0.1356876 1.7299187 16777215
 0.7864054 -0.1361822 1.7394649 16777215
 0.7870510 -0.1382860 1.7440321 16777215
 0.7841617 -0.1364629 1.7496294 16777215
 0.7880867 -0.1376881 1.7509514 16777215
 0.7903690 -0.1365806 1.7564888 16777215
 0.7892317 -0.1343378 1.7579651 16777215
 0.7970333 -0.1325415 1.7589211 16777215
 0.8000098 -0.1286108 1.7672994 16777215
 0.8059139 -0.1330616 1.7711298 16777215
 0.8140504 -0.1330310 1.7726216 16777215
 0.8131222 -0.1337925 1.7739238 16777215
 0.8135713 -0.1328535 1.7798228 16777215
 0.8080772 -0.1314908 1.7845476 16777215
 0.8160558 -0.1265739 1.7858336 16777215
 0.8189999 -0.1293832 1.7923816 16777215
 0.8183815 -0.1317940 1.7959971 16777215
 0.8300030 -0.1246991 1.8027906 16777215
 0.8304515 -0.1316069 1.8011316 16777215
 0.8329744 -0.1264755 1.8134608 16777215
 0.8420219 -0.1309715 1.8101248 16777215
 0.8417507 -0.1366724 1.8158611 16777215
 0.8241717 -0.1354379 1.8381680 16777215
 0.8207394 -0.1355383 1.8473263 16777215
 0.8301969 -0.1365237 1.8470777 16777215
 0.8296100 -0.1380551 1.8516873 16777215
 0.8302946 -0.1393775 1.8590385 16777215
 0.8307858 -0.1368603 1.8586999 16777215
 0.8276849 -0.1278931 1.8651204 16777215
 0.8356741 -0.1331927 1.8616359 16777215
 0.8387626 -0.1303114 1.8683224 16777215
 0.8387343 -0.1308507 1.8708750 16777215
 0.8480242 -0.1291711 1.8751717 16777215
 0.8458139 -0.1316000 1.8871021 16777215
 0.8514698 -0.1373199 1.8822057 16777215
 0.8522136 -0.1367649 1.8822246 16777215
 0.8525680 -0.1385741 1.8871640 16777215
 0.8541756 -0.1358825 1.8892610 16777215
 0.8526430 -0.1381425 1.8894515 16777215
 0.8552137 -0.1377358 1.8893435 16777215
 0.8567603 -0.1381480 1.8896961 16777215
