# .PCD v0.7 - Point Cloud Data file format
VERSION 0.7
FIELDS x y z rgb
SIZE 4 4 4 4
TYPE F F F F
COUNT 1 1 1 1
WIDTH 1199
HEIGHT 1
VIEWPOINT 0 0 0 1 0 0 0
POINTS 1199
DATA ascii
0.3511498 0.47292176 5.7723413 16711746
1.1766758 1.9322056 6.4567394 16711746
0.67188209 0.092801258 5.1701956 16711746
2.8662288 2.1448381 6.934845 16711746
-15.890609 -6.0919385 17.741062 16711746
6.7360287 2.0210304 8.7204857 16711746
0.61258125 0.43555257 5.2108297 16711746
3.122705 -0.3873356 12.251484 16711746
0.58672345 -0.292317 4.3514075 16711746
8.2949295 1.713313 8.5027313 16711746
5.4631796 2.0688834 6.5743418 16711746
-7.542954 0.0090607675 16.877254 16711746
0.64072132 -0.10262979 4.2002239 16711746
0.72006416 0.016650295 4.3512883 16711746
-9.1060524 -5.9909925 15.490896 16711746
-0.051693182 1.1734546 5.2774649 16711746
0.73467386 -0.40593776 3.7097409 16711746
-1.6347476 2.2114596 6.7811065 16711746
0.74229974 0.01549482 4.2952218 16711746
0.61231858 -0.07379391 4.2947011 16711746
0.80366772 -0.73753256 3.4547281 16711746
2.0098159 1.853161 6.1427751 16711746
1.0371882 0.77024275 5.7963138 16711746
-0.19455221 1.3556871 7.0347323 16711746
0.62408572 -0.62911975 4.1743021 16711746
0.60060388 -0.08996357 4.2478366 16711746
-0.40782815 1.1288823 7.0437732 16711746
0.80082238 -0.85865343 3.3749723 16711746
0.72463781 0.42832214 4.4345293 16711746
0.81214654 -0.58095098 3.3627903 16711746
-2.8223963 1.2405902 5.8259635 16711746
-1.3628169 -1.5112354 5.9350758 16711746
-1.2564476 1.557212 7.2401958 16711746
-0.22879662 -1.3686516 5.6967087 16711746
-4.256321 0.61161649 4.998107 16711746
-3.4144905 0.24821892 4.4494886 16711746
-3.8813868 0.64147234 9.1280899 16711746
-2.4253201 -1.2972686 9.5225573 16711746
-2.9154701 -3.1615701 9.1307135 16711746
-2.7074592 -0.059202369 5.4583588 16711746
-2.6458797 -1.3476477 9.9421816 16711746
-4.1909823 -1.9094956 9.5267801 16711746
1.2980468 1.4015149 9.6121674 16711746
0.72324699 0.44176447 4.4671569 16711746
-4.7020898 -2.8902373 11.453605 16711746
0.60599631 -0.052630693 4.3987584 16711746
1.225588 -0.20571575 4.7626572 16711746
-2.9264863 -3.1912143 9.0954399 16711746
1.7410185 0.28027323 9.0733099 16711746
1.5022864 -0.43805772 5.6915851 16711746
2.5966051 1.2013355 9.7503567 16711746
4.7367449 1.6596804 8.9492846 16711746
1.9755756 -0.72100937 6.6587229 16711746
1.1151423 1.3007203 7.9817104 16711746
-5.2834969 -1.427001 10.129978 16711746
-1.6734588 1.8779438 5.8271799 16711746
-3.5103719 -1.8311414 10.068739 16711746
0.67033124 0.2852996 4.4331298 16711746
-0.97313756 -2.2457347 7.8628912 16711746
0.71786851 -0.57362831 4.1361494 16711746
-4.0694332 -0.089549311 10.738475 16711746
-3.9905045 -0.089340426 10.447598 16711746
0.73290223 -0.3092621 4.2419 16711746
0.59695858 -0.84617651 3.6870353 16711746
-2.5038121 -1.3501319 9.6573362 16711746
0.78756094 -0.90794975 4.1512651 16711746
1.8175439 -0.76406723 5.8726187 16711746
0.62048024 -0.32954997 4.2559628 16711746
1.9217246 1.6539171 8.7088566 16711746
7.4573054 1.9117689 8.4680729 16711746
0.60645664 -0.296547 4.0365934 16711746
-2.9889216 1.4440013 6.7880063 16711746
-0.60988259 0.89401698 5.5811381 16711746
-1.9819859 0.95692813 8.9683657 16711746
1.7576821 1.8899776 7.1364927 16711746
1.0391757 1.9931097 6.981833 16711746
0.4832246 0.44615445 4.5310864 16711746
2.0172861 1.8032814 7.837647 16711746
0.46824956 0.39958963 4.8381524 16711746
5.0927334 2.0285738 7.8960762 16711746
-6.3387747 -2.6365228 6.1372156 16711746
1.9497229 1.7454385 5.8851104 16711746
-3.4264352 0.76635998 4.3769879 16711746
0.77605647 -1.0732251 3.939446 16711746
6.2010288 1.5975879 7.5840158 16711746
8.6400881 1.462118 8.2717562 16711746
5.7440782 1.664987 7.4705534 16711746
2.6947114 1.1241193 11.646896 16711746
6.9115863 1.6431125 8.4414511 16711746
0.71703643 -0.43830293 4.1520071 16711746
-2.0059044 0.20135304 9.5347824 16711746
-3.1304567 1.5232484 6.9640503 16711746
0.75792938 -1.183506 4.3608027 16711746
-2.1140323 1.3358533 4.0766597 16711746
4.1717162 2.097363 6.7101502 16711746
0.58679265 0.077264525 4.3463969 16711746
-2.3264873 1.3268603 5.3104 16711746
2.863065 1.7016785 7.0564566 16711746
2.3149927 1.6677973 7.4895787 16711746
-1.5291117 1.1799355 9.2030478 16711746
10.920287 1.740204 12.254618 16711746
4.831593 1.6961051 9.0897598 16711746
9.8060408 1.7573571 10.577263 16711746
0.71511114 0.44874692 4.4801011 16711746
8.4200115 1.966241 8.8286905 16711746
2.4321496 1.8445284 7.9775567 16711746
1.9186753 2.007973 6.8815551 16711746
5.2985072 -1.5335129 12.179115 16711746
8.0578747 1.1620843 9.3022537 16711746
1.9050581 1.4828054 6.8852901 16711746
-1.2406497 1.4651101 7.0741234 16711746
0.51397467 -0.30457801 4.6622491 16711746
-2.6394632 1.3069909 6.3390322 16711746
1.120986 0.89658499 6.4040947 16711746
-3.4277673 1.0193286 5.3206224 16711746
-4.7497144 1.1883613 6.5233741 16711746
-0.65418607 1.326576 5.2703958 16711746
1.0019484 1.0801741 4.8613954 16711746
1.0046463 1.0905923 4.8984628 16711746
0.61743438 -0.075592093 4.2716756 16711746
-0.065769859 1.0451055 4.6207142 16711746
-2.4112554 0.36384118 4.0019698 16711746
1.8706917 1.5085794 8.2395744 16711746
-6.8264871 1.1835898 13.496358 16711746
6.0967398 1.5440736 7.4660954 16711746
2.8641059 1.7190708 7.611762 16711746
3.6632521 1.7505424 7.8483419 16711746
2.2611611 1.5315163 8.6160984 16711746
6.481329 0.88911557 15.324616 16711746
6.8653383 0.75499314 15.651629 16711746
0.73320681 0.6112805 4.3894506 16711746
2.8287857 1.6167176 8.1014204 16711746
1.4452875 1.6345876 7.8106356 16711746
9.2503595 1.3824013 9.1509523 16711746
1.6665245 1.6439173 6.5229669 16711746
4.6658034 1.8743061 7.0527191 16711746
1.7766865 1.5108323 8.2429695 16711746
6.5108199 1.6711192 7.9238191 16711746
1.343199 1.7041124 6.7849989 16711746
1.7735771 1.573736 8.4462128 16711746
0.72731632 0.66417873 4.5335617 16711746
3.5412769 1.5502114 9.0074358 16711746
-2.422713 1.8771006 6.0756011 16711746
0.76135033 -0.30561125 4.1535015 16711746
3.527729 1.5335926 7.8049593 16711746
0.82362378 -0.71515858 4.1049008 16711746
-2.7465911 1.5389452 6.3854256 16711746
-2.2548611 1.7871424 5.8877006 16711746
0.95767349 -0.36044669 4.2180548 16711746
4.9642048 1.9845449 8.464139 16711746
-1.2343644 1.7093009 6.2314525 16711746
3.0733998 2.6822925 9.0859175 16711746
0.68905288 -0.60700995 4.0545559 16711746
2.2326241 1.4924258 8.612009 16711746
-4.0548086 0.67881429 9.4835043 16711746
2.4867008 0.87810791 10.29377 16711746
1.8142291 1.5800121 8.4732695 16711746
5.1135616 1.2609347 11.339159 16711746
6.718585 1.650123 7.7381735 16711746
0.58175647 -0.086652234 4.262527 16711746
4.795867 0.74832785 16.640892 16711746
7.8477802 1.1993229 11.72318 16711746
1.9818896 1.7233419 7.5995083 16711746
1.3241491 1.7721876 7.3025732 16711746
6.9493656 1.2956786 10.715089 16711746
7.732604 -0.051658951 12.954924 16711746
3.8589189 1.7856656 7.7970796 16711746
2.3291469 1.7888442 7.2750697 16711746
0.78065252 -0.93289155 4.1651273 16711746
1.0855569 0.56460458 4.778481 16711746
-1.1571341 1.5818417 6.6404099 16711746
1.1441611 1.3676463 9.9445143 16711746
4.5404987 1.3017557 10.414146 16711746
-2.1032927 0.99832475 9.3389425 16711746
1.9114406 0.85023952 11.369289 16711746
1.3583565 1.8116044 7.0129128 16711746
0.52282584 -0.095420994 4.4128551 16711746
5.2693872 1.6335433 8.5404949 16711746
5.8176441 2.0451612 7.1082988 16711746
5.5237026 1.4992524 8.6145878 16711746
0.7494505 -0.43024954 4.0767655 16711746
0.82392067 -0.71783566 4.1142974 16711746
0.943717 -0.35364938 4.2584887 16711746
0.57385606 -0.4780823 4.1430316 16711746
0.58196253 -0.48729816 4.1370511 16711746
0.73282325 -0.43979862 4.1206379 16711746
-1.8926373 1.249148 5.63276 16711746
0.53892219 0.29097289 4.4388986 16711746
0.94290036 -0.3646732 4.2591043 16711746
-2.510035 1.5393448 6.2160492 16711746
0.51147228 0.30466464 4.4825978 16711746
0.72035968 0.051521327 4.3307152 16711746
3.6889625 -0.88269418 5.3900113 16711746
0.87071109 0.5943172 5.0866303 16711746
4.4539213 1.7306268 7.5315905 16711746
-3.1267738 1.5255377 6.9727902 16711746
4.6517382 1.6037887 8.7751312 16711746
2.7590332 1.3635359 9.1806107 16711746
2.8267848 1.6342698 8.1614771 16711746
5.1574726 -1.5222348 6.151844 16711746
4.4765201 1.6917739 7.674366 16711746
5.7766647 1.5628525 6.6888137 16711746
7.3234878 1.758347 7.6007018 16711746
0.76048899 -0.56376213 4.0670848 16711746
0.56652433 -0.50486851 4.1554127 16711746
0.67297751 0.051134303 4.243577 16711746
-2.893595 1.2297885 5.9440517 16711746
0.69381237 -0.85640812 4.2711635 16711746
5.0410318 1.9542147 6.8347683 16711746
0.81654072 -0.71696866 4.1114635 16711746
1.916293 0.2010268 8.6147833 16711746
0.74829155 -0.76553291 4.270391 16711746
1.9827049 1.7134478 7.566689 16711746
9.3832731 1.6059579 10.00637 16711746
9.6933002 1.8535314 9.4402704 16711746
7.5447559 1.1293426 21.021326 16711746
1.6738696 1.5608433 8.2085781 16711746
2.7466884 1.1447355 11.75893 16711746
1.1529803 1.953271 7.089838 16711746
-2.1263993 1.9788808 6.1955752 16711746
-1.5478508 1.8484308 5.4597301 16711746
1.4971497 2.0499132 7.225019 16711746
1.1622136 1.8184283 7.3152533 16711746
0.78107309 -0.31260628 4.1281576 16711746
0.59079349 -0.070184268 4.3012261 16711746
0.77568066 -0.31046158 4.1314292 16711746
0.91217065 -0.08191926 4.30722 16711746
0.58953112 -0.08402133 4.2500472 16711746
0.57135022 -0.080890231 4.289638 16711746
-3.4403517 0.93650961 7.0728965 16711746
-1.2888736 1.6787039 6.9129558 16711746
-2.4410112 1.3761742 7.5981712 16711746
0.61060983 -0.10025107 4.2236466 16711746
-1.6652112 2.0317483 6.8164644 16711746
-3.1858656 1.5438157 7.0201688 16711746
-1.3369592 0.99067515 5.1587777 16711746
6.8825545 1.4974403 9.7240133 16711746
5.8403568 -0.79161352 6.868432 16711746
4.064887 1.7907207 7.0191259 16711746
6.1695771 0.14686827 8.0119581 16711746
8.3468637 1.9555085 8.727993 16711746
1.1281968 1.8156493 7.2460251 16711746
9.7143774 1.2606127 9.7400417 16711746
1.172061 0.34812281 18.161697 16711746
7.3509884 1.4462222 7.6370292 16711746
4.5333529 1.7270716 7.748209 16711746
4.7866745 1.4265022 11.016381 16711746
10.170179 1.7807539 10.700881 16711746
0.51896197 0.29535097 4.4637547 16711746
9.5565071 0.27399075 16.838839 16711746
5.3379788 0.28200784 17.872416 16711746
3.021076 1.2848657 10.891762 16711746
-2.213125 1.6004438 8.1238117 16711746
6.1770258 1.5794755 7.5358109 16711746
-3.7982893 1.5449566 6.6908402 16711746
2.6183102 1.5867143 7.2099915 16711746
-5.5287762 1.0072242 11.702411 16711746
0.91351819 -0.67460734 4.1430249 16711746
0.80213434 -0.049009882 4.2862091 16711746
0.73099786 -0.44023103 4.1051726 16711746
4.5790262 2.0060804 7.2330952 16711746
1.8225436 0.99008763 8.7466393 16711746
2.6993577 1.4393103 6.5098801 16711746
2.5493848 1.5011044 7.5375605 16711746
0.65002519 0.075353868 4.2834339 16711746
0.90588254 -0.097360283 4.2912545 16711746
2.1185312 1.2816969 8.6094522 16711746
-6.0645065 1.2311355 10.906407 16711746
7.7373824 1.6487865 7.33424 16711746
0.76061964 -0.23905824 4.1495023 16711746
0.91245002 -0.49179849 4.1672783 16711746
0.68972421 0.69566786 4.6043606 16711746
-2.2188373 1.4802856 7.7895341 16711746
-0.94067609 1.6577621 6.3623228 16711746
0.76727164 1.7305235 7.4827356 16711746
-2.4743812 1.5539063 6.4626989 16711746
-3.3902934 0.92892706 7.0294967 16711746
0.8163088 1.3633773 7.6800208 16711746
0.40284088 1.2441412 6.888958 16711746
0.8332895 1.6216063 7.7818375 16711746
-3.1794178 -1.9369839 7.4968638 16711746
-2.8661542 -1.6456492 6.5661511 16711746
-2.8919184 1.4078742 6.7306542 16711746
10.273069 1.0134969 14.281868 16711746
10.24697 -8.1361856 26.880573 16711746
-15.876595 -3.4485881 20.089901 16711746
-1.7840791 0.56191498 14.990155 16711746
4.6471524 1.366442 10.674634 16711746
2.1432705 -1.7458988 6.5058064 16711746
8.9441977 1.4667482 10.192228 16711746
1.1565005 0.16724068 16.3659 16711746
3.1116877 1.0230179 11.500443 16711746
8.8337431 2.030535 9.4536114 16711746
7.4868436 1.6752186 7.9371371 16711746
0.74363965 -0.42765844 4.0939007 16711746
0.81888938 1.4877158 8.0017157 16711746
3.7502141 1.7167891 7.6017447 16711746
4.6609015 1.897074 7.0011334 16711746
1.8444837 0.14691857 7.36905 16711746
0.75839812 -0.56187373 4.0823717 16711746
3.9085436 1.8731812 7.2128825 16711746
6.1074095 0.37124974 7.8929486 16711746
1.8342242 0.0034706164 6.6518736 16711746
2.8243356 1.6142585 8.1142664 16711746
1.8587644 0.84119552 8.2724752 16711746
2.001863 1.8256798 7.8506627 16711746
-3.016289 1.4836696 6.8587155 16711746
1.1537263 1.4285827 8.4687662 16711746
0.77835625 1.3063748 9.1850157 16711746
1.1275675 1.5016423 8.6787157 16711746
-2.1319702 0.3928538 5.1368804 16711746
0.73718601 -0.56991112 4.1046038 16711746
0.74088293 -0.1881943 4.198103 16711746
1.0965855 1.6692114 9.2499228 16711746
6.6137352 1.468733 6.8981185 16711746
0.76687771 -0.62508613 4.0805373 16711746
0.82516068 -0.052890573 4.2472878 16711746
5.2310872 1.5150294 9.212244 16711746
2.4946012 1.8212974 7.6505284 16711746
1.1653831 0.17039064 16.402208 16711746
0.68459439 -0.65287405 4.1967149 16711746
4.5881534 1.7241181 7.1380649 16711746
1.5427721 1.6612802 8.4616594 16711746
0.79911363 1.6848563 7.4107528 16711746
0.81084579 -0.75556743 4.1134391 16711746
0.76060498 0.014955506 4.2721477 16711746
0.80966097 -0.75589573 4.111506 16711746
-2.4398656 1.6595079 7.7259517 16711746
0.71756041 0.25481296 4.3392987 16711746
4.4372725 0.11701594 6.0708256 16711746
0.88542068 -0.79845828 4.1373763 16711746
2.0125349 1.7199279 7.5407352 16711746
6.9002795 1.5447568 9.0560789 16711746
5.0093122 1.9656885 6.7772532 16711746
2.4844151 1.8355229 7.0590415 16711746
4.408586 1.7186837 7.9367814 16711746
0.84641892 -0.054922082 4.2235255 16711746
1.3507705 1.3975447 9.0956955 16711746
0.94818389 1.6207072 7.803596 16711746
1.2842231 1.7649536 7.4747224 16711746
0.80010909 -0.92713243 4.1480188 16711746
0.94388324 1.8830427 7.9215198 16711746
0.88693804 1.5847507 7.7813611 16711746
0.66145629 0.083234712 4.2557416 16711746
6.7629843 1.4949861 8.911356 16711746
0.66549134 0.084884092 4.2501764 16711746
7.4956713 1.2438486 7.7895908 16711746
0.67741007 -0.41554973 4.0965266 16711746
0.80331004 1.2410024 9.0263891 16711746
0.96226466 -0.4110361 4.1966786 16711746
0.61415452 -0.43003157 4.1169696 16711746
1.4197929 -0.12184671 8.2988195 16711746
1.3099802 1.628642 7.8845057 16711746
0.9524613 -0.40419334 4.2086234 16711746
0.78606242 -0.39052257 4.0890994 16711746
6.4088936 0.082333528 11.171301 16711746
7.2710662 1.9611189 8.6474495 16711746
0.20486766 -0.45626312 4.1492882 16711746
6.924232 1.5078375 9.7847605 16711746
4.9638672 -0.67486018 6.1202698 16711746
6.0830622 0.73543954 16.385353 16711746
0.78601354 -0.93160337 4.1585779 16711746
6.6573548 -2.0075755 7.7327614 16711746
0.71948713 0.047097828 4.2987442 16711746
0.48947984 0.35606441 4.6543698 16711746
0.76405394 -1.1418139 4.2533398 16711746
2.585494 1.63674 7.9459095 16711746
0.8591969 1.5364749 7.8840933 16711746
0.56900012 1.2051883 9.9851513 16711746
2.7177181 1.1178011 10.546738 16711746
2.9140728 1.3139713 9.3105345 16711746
5.5021458 1.4750664 8.5795927 16711746
0.89212728 -0.69082659 4.1583405 16711746
0.73744029 -0.23814379 4.1752248 16711746
0.61043513 -0.30837625 4.1400099 16711746
-2.1468349 1.8736857 6.3370614 16711746
-2.6238573 1.3279836 6.541924 16711746
0.61535048 -0.26790881 4.1594691 16711746
0.81096733 -0.75483388 4.108767 16711746
4.791244 1.9837435 7.1401277 16711746
4.2147651 1.9133679 7.246202 16711746
2.4311481 1.7448684 7.364399 16711746
1.2877551 1.4963875 8.2948427 16711746
4.478117 2.0264921 6.9509554 16711746
3.8486788 1.7189995 7.9989915 16711746
0.55350882 1.4028912 8.6378689 16711746
2.3570333 1.9088396 7.5094872 16711746
0.75132555 -0.57015491 4.0889993 16711746
-3.1422944 1.5324888 6.9934769 16711746
5.1609631 1.5567139 8.0347729 16711746
2.8876925 1.7724525 7.7475848 16711746
5.2742534 1.7834929 6.593749 16711746
7.7499661 0.41564962 7.9863963 16711746
0.81028134 1.432981 7.9095759 16711746
0.78098089 -0.30676532 4.1235228 16711746
3.7214046 1.6520301 7.508976 16711746
6.7824659 1.4901575 8.9311056 16711746
0.75173843 -0.19717403 4.1789908 16711746
0.92482632 -0.094834171 4.2657228 16711746
0.95420712 1.0659137 11.244253 16711746
1.7856426 1.3819549 8.7080956 16711746
0.99671167 1.0376039 11.091132 16711746
4.3782496 1.7008976 8.467536 16711746
-0.39568728 0.37472737 17.180719 16711746
3.4584188 1.0918009 11.555049 16711746
0.96202087 -0.34055981 4.2259908 16711746
1.5857574 0.65376198 9.4657183 16711746
2.5418444 1.6034813 8.0134687 16711746
0.62914491 -0.08829882 4.2296581 16711746
10.274101 1.0512019 14.31166 16711746
4.745842 1.9794027 7.312994 16711746
1.914534 0.27725041 8.4899874 16711746
4.8379393 -5.0561881 15.935647 16711746
4.5635304 1.3212876 11.477081 16711746
1.6784705 1.3714733 9.7298737 16711746
2.8116415 1.5250438 8.0785427 16711746
1.7219986 1.4131716 8.6965065 16711746
-0.5771758 0.98715842 11.560593 16711746
3.549083 1.7433231 7.0838213 16711746
0.85893559 -0.48267695 4.1024113 16711746
0.64701498 0.092603557 4.2836494 16711746
0.82576567 -0.14985965 4.1945128 16711746
3.107512 1.4771943 8.7839975 16711746
3.0910094 1.2772015 9.5516882 16711746
0.65689868 0.24433823 4.4110065 16711746
-0.010905755 1.1368902 10.693533 16711746
2.6199067 1.6595652 7.4536405 16711746
-0.79783028 1.3246346 9.7721977 16711746
-0.25718397 1.3667192 8.5172615 16711746
1.0394244 1.6100649 7.3796115 16711746
0.7777003 -0.56711394 4.0648327 16711746
0.84845811 -0.48478672 4.1189775 16711746
0.78946882 -0.31372681 4.1177359 16711746
1.2752447 1.5087477 8.3336267 16711746
2.3748558 1.7125933 7.4771066 16711746
1.6407974 1.5445696 7.8138809 16711746
1.0270677 1.6448354 7.4594307 16711746
0.96622503 -0.4151662 4.2168307 16711746
-0.86826187 1.3602064 9.9165163 16711746
0.0048021371 1.1986375 9.1155977 16711746
0.68724281 -0.43141827 4.1491308 16711746
0.83552086 -0.4866387 4.1275129 16711746
0.84027755 -0.4833979 4.1268721 16711746
0.65378225 -0.32864457 4.1031876 16711746
0.17849503 1.2902162 9.4354935 16711746
5.2738252 1.7003456 7.9899044 16711746
7.405829 0.74273634 11.87126 16711746
1.3203495 1.7626538 8.1842775 16711746
0.22220609 0.82942206 12.54317 16711746
1.5255665 1.6781373 7.5567856 16711746
3.5897281 1.215788 10.477915 16711746
-0.43878427 0.37971953 17.296944 16711746
3.6602666 1.6611699 8.1598854 16711746
4.2228065 1.6523669 7.8105531 16711746
5.4967771 -0.51357996 6.6109891 16711746
3.4403336 -1.6881181 13.374644 16711746
0.63991165 0.25272486 4.4178514 16711746
8.0831709 -6.0910721 20.67347 16711746
0.83737493 -0.71470529 4.1011395 16711746
2.267308 1.4599726 8.4147387 16711746
0.78606033 -0.93537861 4.1627398 16711746
-1.8972466 0.71465635 15.598544 16711746
1.9158696 0.29945523 8.5645237 16711746
0.78740448 1.619338 7.6405616 16711746
2.0672123 1.3733846 8.4793186 16711746
5.9118252 1.2089355 6.318799 16711746
3.9898884 1.7032804 8.0063114 16711746
0.023755698 1.1220633 10.607202 16711746
0.46676993 1.1494055 11.851847 16711746
0.0257921 1.1085217 10.595511 16711746
7.218699 -2.2021701 8.2527113 16711746
1.1376446 1.2959217 9.6518898 16711746
0.37163678 0.96237719 10.628402 16711746
1.3081807 1.6516207 7.9286466 16711746
0.92587358 -0.49251103 4.1594357 16711746
-0.43605345 0.39266309 17.33865 16711746
8.8385935 1.6869172 11.670466 16711746
0.61834395 1.5800574 6.8440843 16711746
0.18859531 1.4100846 8.1408339 16711746
0.86758286 -0.85095841 4.1757116 16711746
0.97835404 -0.33661973 4.214632 16711746
0.98662543 0.072790027 4.3984375 16711746
-0.18081576 1.2937113 8.3436604 16711746
1.9805406 1.6182837 7.3642297 16711746
0.89514798 -0.6920107 4.1556921 16711746
0.93225378 -0.49128082 4.1647005 16711746
0.69397938 1.3920839 6.9548874 16711746
0.757119 -0.40843663 4.1170669 16711746
2.3753393 1.4917775 8.2014771 16711746
7.1198354 1.4663304 10.349526 16711746
0.043536395 1.4543999 10.014674 16711746
-3.0726705 -4.4893031 20.549198 16711746
1.814447 0.73210794 8.355092 16711746
7.5593963 1.2468258 9.7671204 16711746
1.4108111 1.5856007 8.0256577 16711746
5.5183229 1.5014335 8.6280298 16711746
1.8736975 0.86945367 8.5511818 16711746
4.275176 1.17366 11.147867 16711746
0.48291028 1.2879256 10.349119 16711746
2.2952302 -0.84166706 4.917346 16711746
0.99769527 1.0417871 11.133824 16711746
3.9364607 0.73378319 14.794065 16711746
2.6717334 1.239594 10.043065 16711746
-12.512211 -11.200801 56.415703 16711746
5.0073633 -3.1631272 12.728534 16711746
5.1663966 1.5269433 8.5322304 16711746
0.9182651 -0.48893702 4.1598091 16711746
0.58457667 1.202252 9.9788113 16711746
1.1603678 1.4317528 8.5810986 16711746
-2.3602586 0.45896524 14.930283 16711746
-0.60002542 0.99336612 11.614139 16711746
3.4482367 1.6740987 7.8672142 16711746
1.1384677 1.4819553 8.7163296 16711746
2.5359027 1.340615 9.3822889 16711746
0.7720955 1.2821392 9.1918526 16711746
2.664665 1.6737612 7.9574714 16711746
1.8212067 0.76350904 8.3494673 16711746
1.2314247 1.2257626 8.085124 16711746
-0.25674525 -2.0282469 10.518961 16711746
1.539189 -0.040642817 11.491137 16711746
0.78323525 1.2733257 9.1836433 16711746
1.4238211 1.5821916 7.9892898 16711746
4.9262366 1.6405962 8.0034523 16711746
3.5307925 1.5426254 8.7821016 16711746
2.9438636 1.3276197 9.5987053 16711746
1.948253 0.29173577 9.3023176 16711746
-0.17626162 -2.7401464 16.053596 16711746
-0.22648565 1.3641939 7.6588922 16711746
1.5095016 1.629038 7.4647322 16711746
1.1653167 1.4378809 8.2978735 16711746
1.0049845 -0.420982 4.1674576 16711746
0.83971518 1.5895032 7.2374001 16711746
-0.10354704 1.3281814 8.0552521 16711746
0.86425263 1.4133157 7.8109355 16711746
0.8754189 -0.73242366 4.1515741 16711746
0.78771394 1.3012151 8.1354771 16711746
-1.4340234 1.0614952 8.8702631 16711746
1.8317853 1.5005169 8.312664 16711746
2.0302107 1.583009 8.2975388 16711746
0.94172674 1.5276726 7.688343 16711746
0.72256655 1.3814009 8.359189 16711746
3.0980184 1.2794034 9.5483189 16711746
3.0643649 1.658731 7.9067068 16711746
-0.66201729 1.0330434 11.827938 16711746
-2.7276223 0.53647572 15.735105 16711746
0.4927716 1.1070539 11.688952 16711746
3.3690498 0.76081175 11.848042 16711746
-3.1879113 0.95444041 19.117716 16711746
4.5152626 0.076236196 14.411003 16711746
5.6127009 0.6400032 13.08658 16711746
4.6447458 0.69782788 16.389259 16711746
1.0947441 1.2249249 11.002661 16711746
5.5578365 0.29563671 18.421091 16711746
4.4503894 0.60240763 15.472821 16711746
2.3262134 1.4457799 8.4555883 16711746
5.162601 1.6500014 7.8779564 16711746
-0.2268189 1.332883 8.4182014 16711746
-1.176247 1.0636783 9.2397518 16711746
1.7213489 1.3407037 9.5782862 16711746
3.1682081 1.5071158 8.5850334 16711746
5.9891071 1.3210711 10.404082 16711746
3.8017704 1.336211 9.3683167 16711746
1.8144358 0.92135298 8.4885168 16711746
-2.4370978 0.6319505 15.987726 16711746
4.6098962 1.5459059 8.6821032 16711746
2.8950548 1.0339628 11.56576 16711746
5.005198 1.438386 8.2940168 16711746
-0.28697065 1.3465635 8.0008211 16711746
0.37124836 1.5218799 7.2353663 16711746
-0.87203425 1.2685221 8.520854 16711746
1.8386232 1.4621997 8.2192497 16711746
0.07316447 1.4275187 7.2774363 16711746
-0.16029245 1.0769207 9.9736204 16711746
1.39143 1.346349 8.9229984 16711746
4.56077 1.8301814 7.7383018 16711746
2.8038445 1.1469053 10.561282 16711746
0.36874458 1.5080638 7.2122197 16711746
-0.0968545 1.3794177 7.8531404 16711746
-1.367717 1.0442866 10.013943 16711746
4.571281 1.8548642 7.773612 16711746
-0.63061965 1.2866702 7.8545337 16711746
0.67644531 1.5426904 7.6772251 16711746
-2.5227258 0.37308565 14.492581 16711746
-3.6724815 0.81926036 11.471327 16711746
5.6295934 1.2423458 7.0167875 16711746
-1.4206431 0.99829751 9.0537148 16711746
-1.7737461 0.9474768 10.870308 16711746
5.1616139 1.5676211 8.303791 16711746
4.8950806 1.2105751 8.9803352 16711746
3.1941743 1.5552231 8.6984301 16711746
-1.9230078 0.99259275 11.086591 16711746
0.54047656 0.89466727 10.440386 16711746
-1.8842791 0.97323263 11.0062 16711746
-1.7079065 1.1306657 9.2585211 16711746
1.791348 -0.29797769 8.9753456 16711746
-0.65334213 1.2609863 7.8110704 16711746
5.2061458 0.15800665 8.5051126 16711746
3.1158855 0.78945762 12.081807 16711746
1.9644847 -0.58768749 8.3715353 16711746
-1.7564833 0.58972949 14.994457 16711746
3.687815 0.60960728 13.651457 16711746
4.9991045 1.4949512 8.1240396 16711746
-7.4871836 -4.3277578 12.917257 16711746
1.1961715 1.6096988 7.7520323 16711746
3.6802149 -2.8474464 8.8539581 16711746
4.5189528 1.7208822 7.7347884 16711746
2.7274754 1.3199254 9.055315 16711746
2.5352588 -0.39454719 9.5258427 16711746
-1.9090297 1.3307753 8.1226606 16711746
2.7238777 -3.3844852 10.242442 16711746
5.4050508 0.42849815 12.036876 16711746
2.6627731 1.3665076 9.2397499 16711746
4.4245706 1.2826582 10.658697 16711746
3.7438128 1.7292444 7.6187744 16711746
3.9483876 1.4567612 9.2053461 16711746
5.2339101 1.438509 9.5913963 16711746
0.87208736 1.4231915 7.816112 16711746
-2.6922188 0.39263791 14.924069 16711746
0.27290025 1.0773518 11.208939 16711746
-0.53591192 1.2754899 8.7900696 16711746
-0.41033819 1.3470078 9.6509628 16711746
5.795516 1.278016 7.8158855 16711746
2.7072923 1.4952956 8.2112703 16711746
-3.7093 0.6986984 18.136368 16711746
5.0178804 0.188545 16.661959 16711746
0.68466216 1.5691147 7.770824 16711746
6.8542447 -0.47455788 15.021879 16711746
-18.734556 -1.6631483 27.831009 16711746
-6.2415261 -8.6630449 41.607353 16711746
0.095455222 1.4220809 7.5368242 16711746
-2.1733785 0.99466342 8.5232029 16711746
-0.60628271 1.4306945 7.5418077 16711746
-1.6925834 1.3661186 7.9372892 16711746
-1.2272213 1.6434158 7.5831451 16711746
-2.1348691 0.97402763 8.4851532 16711746
3.5752447 1.5321374 7.8326278 16711746
-0.35121199 1.4194144 7.2042332 16711746
1.7320632 1.5116727 8.9669704 16711746
-0.42548022 1.2832317 7.7197342 16711746
1.4786425 1.4161861 8.2210808 16711746
0.95815837 1.5205867 7.6730947 16711746
7.028584 1.356663 10.900897 16711746
-2.216428 1.045876 9.8612976 16711746
-1.4511682 0.94177079 11.123965 16711746
6.1366496 0.65002871 9.6626186 16711746
7.3071637 1.6551403 9.3594713 16711746
-3.9826107 -4.026453 17.8904 16711746
-6.1163592 -4.7773366 18.026922 16711746
-2.3035152 1.3170493 8.0910091 16711746
-6.2407584 0.75763041 11.136391 16711746
-7.0433993 -8.2741404 38.562187 16711746
5.7425399 -1.2500793 13.416829 16711746
9.0884867 0.30784392 17.531137 16711746
4.6318817 1.6789099 8.1946135 16711746
1.2235591 1.4542023 8.0497389 16711746
0.46930444 1.3212304 10.464439 16711746
-0.15590669 1.3627185 8.1797867 16711746
0.80115837 1.4701742 7.9746566 16711746
6.6206865 0.78983557 10.356006 16711746
6.5236936 1.1886659 11.908362 16711746
2.1130757 1.3900964 8.8158474 16711746
1.7835559 1.512136 8.1675711 16711746
3.8593678 1.532333 8.5567913 16711746
5.2146974 1.4589136 7.6779189 16711746
-1.155484 1.2276509 7.8166265 16711746
2.4448361 1.5733684 7.8519192 16711746
0.68154091 1.3988177 7.9480324 16711746
-0.14416751 1.2679528 8.2855148 16711746
-1.8534558 1.408892 7.5911965 16711746
1.4256618 1.5750744 7.6574855 16711746
-1.6485826 1.0782299 8.7909298 16711746
-0.15770347 1.2861819 8.7969904 16711746
-1.7694827 1.3644482 7.5085354 16711746
-1.1591698 1.4070338 7.0333681 16711746
-1.8806123 1.3119251 8.085022 16711746
-1.0539685 1.4738076 6.9665995 16711746
-1.8352393 0.88296306 8.1300621 16711746
0.48751259 1.3511428 9.114295 16711746
0.56466049 1.2417604 8.8416128 16711746
-1.3724695 -0.35908723 8.8722754 16711746
-3.3935628 0.7842105 9.9078808 16711746
0.23164968 1.3073555 8.9612446 16711746
0.55588055 1.3927461 8.610548 16711746
-1.3996371 1.0002661 9.0438395 16711746
-2.6247711 0.49823532 15.464871 16711746
5.8424306 1.2535163 10.176963 16711746
2.9346387 -0.48121271 12.141509 16711746
2.6950846 1.2147249 9.8842459 16711746
-10.600149 -9.6414299 32.008862 16711746
-6.6995063 -7.8354611 36.650661 16711746
-1.4058421 0.90907371 11.011848 16711746
2.2613432 -0.46341318 8.1877518 16711746
10.131022 0.82604581 12.714243 16711746
6.0209212 -3.9122307 14.496619 16711746
5.956893 -3.8641756 14.327473 16711746
5.1333871 -2.6524611 13.115058 16711746
8.7809134 -13.714476 43.068264 16711746
5.2955313 -5.3305621 17.408873 16711746
2.7449152 1.0840653 10.445077 16711746
2.4710991 1.3239506 8.7593641 16711746
4.136167 1.5876721 8.5099106 16711746
-0.8359372 1.4154162 7.1476727 16711746
-0.80557978 1.2308476 8.418417 16711746
6.242579 1.4655977 8.2570524 16711746
3.9631608 1.351717 9.9456148 16711746
0.84439367 1.1876018 8.9481564 16711746
5.8156362 1.2692493 7.8130016 16711746
-4.5025973 0.82857472 10.428691 16711746
1.4815829 1.2610646 8.8049946 16711746
1.852832 -0.3007057 8.2065945 16711746
6.6353984 1.6111498 9.3525782 16711746
1.8875263 -1.1516376 7.9683423 16711746
6.6277556 1.7302629 8.8549337 16711746
-2.9605718 0.92377847 12.849403 16711746
1.3581873 1.3240556 9.2964935 16711746
-0.27188522 1.4172766 7.4452891 16711746
-1.2337496 0.99254388 9.7933559 16711746
-1.9073454 0.65123373 15.40104 16711746
5.4622755 1.6448779 7.9360147 16711746
2.9434493 -0.51127183 12.082309 16711746
1.5217724 -1.6299902 11.713809 16711746
0.61140132 1.4018495 8.0148573 16711746
1.0753056 1.3730388 8.9014797 16711746
-1.6919625 0.58281761 14.705422 16711746
2.4637876 1.3338813 8.7869129 16711746
5.7353873 1.5126326 8.6042891 16711746
-0.92910177 1.3475981 7.4523902 16711746
-0.77531672 1.6442646 7.0451565 16711746
-0.12247475 1.4048423 7.9299393 16711746
-2.0918741 1.2221187 7.3193979 16711746
-0.54739332 1.2920018 7.4918823 16711746
-0.70268524 1.2929192 7.8940368 16711746
-1.8854625 1.3541816 7.0953779 16711746
-1.0325391 1.1093992 6.6614261 16711746
5.1846371 1.5732204 8.0486155 16711746
-1.263618 1.2467449 8.0193081 16711746
-0.3186484 1.4559277 7.5176129 16711746
-0.5026952 1.1991614 8.7138319 16711746
-5.3896928 0.57197618 11.618972 16711746
3.4851842 1.4618629 8.759449 16711746
2.1039584 1.4969199 8.465642 16711746
0.71904421 0.96247154 11.8862 16711746
-2.0524015 1.3844894 7.5667248 16711746
-1.0931995 1.4805741 7.0125027 16711746
-4.8893566 0.82560498 10.760362 16711746
-10.611369 -8.4952555 38.981728 16711746
5.9087577 0.51719028 13.576666 16711746
6.2158127 0.57345366 14.072551 16711746
3.4414144 1.4144138 9.2710876 16711746
6.2843823 -0.99179006 15.018823 16711746
5.5291529 1.5050613 8.6296158 16711746
-1.129249 1.0421518 9.1826258 16711746
0.34237754 1.4595003 7.6627297 16711746
1.3352987 1.4485408 8.6184072 16711746
0.76700479 1.1446991 10.001558 16711746
6.4511156 1.4981947 9.0570974 16711746
2.3828359 1.4764832 8.1568213 16711746
0.85758245 1.3454611 8.651824 16711746
0.20921081 1.2906563 8.6887121 16711746
1.3892972 1.3417494 8.3485584 16711746
1.2578357 1.2795502 8.3058491 16711746
-4.3471956 0.018975917 8.1293535 16711746
0.14820398 1.4254858 8.1792259 16711746
1.2622641 1.2488644 8.4803886 16711746
-1.6906205 1.0975224 8.8216629 16711746
-4.9043741 0.65391564 8.5726547 16711746
-0.13733874 1.3523527 8.1444683 16711746
0.20956011 1.3428588 8.0924692 16711746
-2.197628 1.4090381 7.6417117 16711746
-0.049085326 1.5787755 8.5474072 16711746
-0.38316357 1.4416324 7.2341952 16711746
5.4772611 1.4595486 8.5553188 16711746
-0.37344614 1.2989857 8.2543287 16711746
2.5492787 1.3388824 9.3817577 16711746
2.9667671 1.3537263 8.9581547 16711746
-5.6169181 0.67479384 10.71008 16711746
2.1311157 1.2236626 8.4452753 16711746
2.1645083 1.2258003 9.2714424 16711746
3.3514347 -2.5307074 9.40728 16711746
6.0238051 -0.28588295 9.9917593 16711746
2.2355666 1.2512634 9.5407887 16711746
8.0441027 1.4844869 10.819417 16711746
8.8282642 0.80678135 12.649323 16711746
6.1845608 1.1672539 11.800123 16711746
0.63798565 1.2901646 8.3773699 16711746
8.7860708 -7.4102697 22.795509 16711746
-12.057635 -6.6150293 24.586283 16711746
10.181803 0.38800555 18.592936 16711746
-0.51401728 0.42438063 16.441246 16711746
1.1117443 1.2933648 9.1069107 16711746
1.5360167 1.4054515 8.2658072 16711746
7.8951287 1.4318807 10.616069 16711746
2.9815578 1.3504308 8.9368734 16711746
-5.3973856 0.61199582 8.9457521 16711746
2.9918947 1.4108328 9.1115446 16711746
4.5597792 1.3750844 8.9066362 16711746
-4.1786513 0.71476811 10.11581 16711746
-1.075794 1.0174285 9.1056566 16711746
-2.3319755 1.3298908 8.1208849 16711746
5.1370444 0.91506624 17.733536 16711746
2.6635344 1.5009186 8.4259462 16711746
2.3282681 1.3809001 8.3131609 16711746
2.7484128 1.3345288 9.0385303 16711746
0.82938302 1.2128847 9.0171261 16711746
3.5292439 1.4637681 9.1730518 16711746
-0.11936671 1.2444423 8.2488937 16711746
2.0049703 -0.6013332 7.7930064 16711746
0.84970719 1.1812502 8.9410114 16711746
1.8513105 0.73104393 8.2179737 16711746
-1.6972508 1.0952212 8.8215485 16711746
-4.2560587 0.77509385 10.247571 16711746
1.3596412 1.2827127 9.1988668 16711746
-0.66848624 1.2749338 7.8044953 16711746
-1.8995805 1.2842441 7.4363599 16711746
-1.3716067 -0.356814 8.8998575 16711746
1.3409797 1.2816892 9.1954527 16711746
6.1785307 1.4405084 8.1562662 16711746
5.3861551 1.7621986 9.2361488 16711746
-0.19072391 -0.1721483 8.7776861 16711746
4.6121731 1.5612569 8.6659155 16711746
7.4551635 0.27651268 11.970657 16711746
5.8106089 0.11549231 9.7697172 16711746
6.1352468 1.1543075 11.730696 16711746
4.5679979 1.3059388 10.437069 16711746
10.381211 1.0755166 14.573601 16711746
-12.294331 -3.6307592 34.972839 16711746
0.14250346 1.118928 11.131243 16711746
-14.945645 -4.2356467 41.233692 16711746
6.5476313 1.1228212 12.597133 16711746
4.9774046 1.4952425 9.4820423 16711746
3.2211359 -2.4639041 11.872922 16711746
-19.019609 -1.7464905 28.421473 16711746
5.1146259 1.2429508 11.269136 16711746
4.5684476 1.2978988 10.424018 16711746
5.2887254 1.4768226 9.7056923 16711746
-3.8672998 0.89231515 10.369292 16711746
2.1586905 1.0572602 10.469499 16711746
-1.318225 1.2598259 6.9116573 16711746
-1.680639 0.27431911 13.336662 16711746
2.525862 -0.56235093 7.5638232 16711746
7.1720371 -0.14235814 12.569451 16711746
-6.863379 -2.5423214 11.471227 16711746
-0.86678576 1.3869464 7.2922482 16711746
2.8545742 1.291422 9.536046 16711746
0.2281567 1.049139 10.904317 16711746
1.8523647 0.71939772 8.183445 16711746
6.5102139 1.5416341 9.1869068 16711746
6.7185206 1.5671012 9.8989038 16711746
-1.1660789 1.3975009 7.0246034 16711746
5.2610779 1.3952849 7.6900086 16711746
8.0643768 1.3258557 11.991399 16711746
0.25293934 1.2218603 9.2438927 16711746
5.0565429 1.4832399 7.9270978 16711746
3.9598951 1.4766152 9.2515583 16711746
6.4553103 1.5036319 9.1105833 16711746
-4.8975091 -2.6980395 19.888186 16711746
2.2324955 1.2453064 9.5475588 16711746
2.132735 1.3120397 9.2141323 16711746
5.3713088 1.0645933 12.582304 16711746
3.0739369 1.4171948 8.6399975 16711746
2.6673427 1.1451203 9.7251606 16711746
6.7292819 1.5753825 9.6717491 16711746
3.5793824 -2.3703527 14.342993 16711746
7.6522655 -7.9398651 24.420727 16711746
2.3618743 -0.49333119 9.0455132 16711746
-1.6269184 0.13758326 9.0147009 16711746
-1.874714 0.89407003 8.1472569 16711746
-0.78728986 1.3392723 7.9079051 16711746
4.9499264 1.3990943 8.5669718 16711746
-0.66154855 1.188311 7.2211857 16711746
-0.4982374 1.3148675 7.7840819 16711746
-1.663311 1.1109563 8.2102365 16711746
8.6190701 1.4346771 11.183192 16711746
0.25833738 1.3581476 8.0974503 16711746
-1.7038267 0.46232063 15.66393 16711746
5.9013591 1.4837835 9.0710096 16711746
7.139729 1.5027789 10.136762 16711746
-2.398596 -1.0235656 15.662054 16711746
10.468395 1.1466733 14.665782 16711746
-0.8405661 1.1230525 9.2501764 16711746
5.8492761 1.399596 10.185151 16711746
5.8788033 1.253508 10.978486 16711746
-0.14455242 1.159174 9.0656166 16711746
4.5831146 1.5948663 9.1300964 16711746
-0.42980385 1.2896595 7.729959 16711746
2.8823783 1.281947 9.7662783 16711746
0.0077278502 1.3112726 8.0985394 16711746
-0.44894883 1.1618104 8.6403437 16711746
-0.30191496 1.2019069 9.0084982 16711746
1.3503903 1.2658179 8.8446121 16711746
-1.4227375 1.1606858 7.6278424 16711746
0.51791263 0.83853596 12.250484 16711746
-0.2831668 1.4111576 7.7602568 16711746
-1.3585961 0.88946557 12.280841 16711746
3.5383959 1.5002745 9.267416 16711746
1.2611974 1.0016654 10.189542 16711746
0.81109309 1.2281853 9.0386677 16711746
0.6258238 1.309406 8.4394035 16711746
5.0189624 1.4268452 8.6406937 16711746
0.821688 1.2216619 9.027832 16711746
1.223168 1.2063103 9.452816 16711746
0.14892982 1.3184981 9.445941 16711746
-0.18589455 -3.4416184 11.961507 16711746
-2.252687 0.9830367 8.7148762 16711746
-1.7638212 1.0841177 7.704967 16711746
-0.24214883 0.27610472 12.453484 16711746
2.1875188 0.9594444 10.183944 16711746
-2.2692571 -3.7269163 20.332811 16711746
2.9902937 -2.1766012 9.7691822 16711746
3.1073754 -2.2577729 9.9104338 16711746
-0.8180986 0.52705932 16.146503 16711746
0.49696809 1.2653812 9.284812 16711746
1.9883507 -0.59400493 7.9547706 16711746
-1.4716797 0.94938403 11.161573 16711746
5.4363909 -0.26919422 16.939899 16711746
8.9605122 0.23095107 16.454781 16711746
3.2126856 1.1332533 10.213352 16711746
2.8507104 1.2582138 9.4497118 16711746
-0.6071853 1.2940291 8.3307562 16711746
7.1147928 1.4742155 9.8634024 16711746
0.021961009 0.84842247 12.373491 16711746
-2.8743885 -1.1036762 16.97459 16711746
-2.2415633 1.0543059 9.8736792 16711746
-6.3267078 -4.730123 18.853413 16711746
5.2774248 1.414777 7.7488751 16711746
9.5310793 1.229521 11.774899 16711746
8.50737 1.4539584 12.558276 16711746
-1.2537678 1.2542436 8.017909 16711746
-13.011899 -5.4577193 15.434576 16711746
10.909353 0.93599194 13.586953 16711746
2.3728034 1.2545964 8.7304678 16711746
2.2398603 1.232251 9.4821997 16711746
-0.51402354 1.1440132 9.167202 16711746
2.8720355 -2.5906403 10.133051 16711746
5.1113772 0.88486326 7.0208631 16711746
5.8996792 1.2811555 10.999709 16711746
5.3191295 1.4962275 9.7440948 16711746
2.5090544 1.3134962 9.5189028 16711746
0.61819303 1.1720449 9.9244337 16711746
1.2654022 1.2702065 8.2837753 16711746
-0.2949563 1.4258595 7.9100347 16711746
0.64126694 1.2970862 8.4159727 16711746
-1.7410647 0.86901003 11.458144 16711746
0.19563852 1.0888458 10.967023 16711746
-3.2370217 0.64665449 8.4075127 16711746
-4.8934832 0.55170852 10.206432 16711746
2.9766214 1.3636888 8.9634504 16711746
-5.0129204 0.51020432 11.277241 16711746
-0.36708266 0.48129651 6.5238686 16711746
-0.43990272 1.27698 7.7215996 16711746
-1.6485071 0.91444385 10.770576 16711746
2.192378 0.94390148 10.10285 16711746
-0.86478847 1.1074389 8.487154 16711746
0.7866891 1.2496245 9.0608997 16711746
-1.5185623 0.83146691 8.5156698 16711746
-1.2467211 0.86060667 10.82312 16711746
1.3042713 0.35881478 10.077172 16711746
2.6626906 1.328558 9.1255903 16711746
4.8726587 1.5401 8.7856665 16711746
-0.5464977 1.1530502 9.2093582 16711746
-1.1043561 1.0608035 10.283294 16711746
7.2462268 1.5394845 10.555379 16711746
4.9316592 1.2843474 9.4434967 16711746
-7.0057673 -1.2796528 23.229696 16711746
-0.4406656 1.1768631 8.0727329 16711746
3.6355615 0.4793677 13.074783 16711746
-7.6358366 -1.4846337 24.307667 16711746
3.0725851 0.51274794 17.611837 16711746
3.923243 1.1192919 11.326595 16711746
5.2510767 1.4464569 9.6414042 16711746
3.1229644 0.48487124 15.583759 16711746
3.0520906 0.47843859 17.414213 16711746
-0.49907786 1.1517528 9.3808584 16711746
7.5335064 0.77426881 15.253701 16711746
0.27578056 1.2014781 9.2040119 16711746
0.24151242 1.2895547 8.9285183 16711746
7.1305313 1.3773848 9.7336588 16711746
-1.3141642 -0.38540676 8.8029861 16711746
3.9465041 1.5447114 8.5411005 16711746
7.5546613 1.3981177 9.8671083 16711746
0.28486159 1.0259143 10.460249 16711746
1.5327927 1.3269631 8.6755733 16711746
2.0003276 -0.36130878 7.8307734 16711746
-1.3379666 -0.38612074 8.8261833 16711746
2.236115 1.2997996 8.5826473 16711746
1.9856782 -0.35131606 7.9498181 16711746
3.1890142 -1.839512 11.24403 16711746
-10.712391 -1.0586064 13.070437 16711746
6.9654245 1.1563237 9.2926569 16711746
-1.9020193 1.2300652 8.418067 16711746
-2.6879826 -1.1143767 16.717279 16711746
-11.566243 -9.7103472 52.937946 16711746
4.8968506 0.64182651 15.130524 16711746
5.1925988 -2.9452267 13.081729 16711746
-7.9064569 -10.239099 48.081665 16711746
7.6569977 -1.1060123 20.704838 16711746
0.151224 1.1539645 9.286376 16711746
-1.316976 1.1244028 8.413559 16711746
-4.1455789 0.9590016 9.5902357 16711746
-0.44740561 1.2588362 8.6324625 16711746
0.036247265 1.1953381 9.0825548 16711746
1.6658587 -0.35516882 8.2772236 16711746
-0.082341209 0.85397911 11.16525 16711746
1.650825 -0.35007817 8.3436928 16711746
-0.085477896 0.85854161 11.166103 16711746
1.9859533 0.60250056 10.208749 16711746
-1.7613734 0.84053391 8.0388689 16711746
0.6562916 1.1130723 9.8065586 16711746
1.9540617 0.70079905 10.561798 16711746
2.0412331 0.40398169 9.3395424 16711746
2.2294331 -1.2923191 9.7490129 16711746
-2.6931269 0.16887259 11.28424 16711746
1.3467339 -0.46633121 10.273295 16711746
1.0532161 0.81793094 9.0878172 16711746
-3.9173899 -2.1077671 9.2887526 16711746
-3.7496874 0.60156161 9.8362656 16711746
-3.4581184 0.13499147 16.144909 16711746
7.9659815 1.7684977 11.176339 16711746
-0.37172759 1.0314124 8.9255295 16711746
4.00734 1.2197281 9.7281284 16711746
-1.8971179 1.225998 8.3869781 16711746
6.2121038 1.526105 8.9616613 16711746
11.397113 1.1914344 15.34028 16711746
6.6454072 1.5393155 9.5990162 16711746
8.6772079 1.4651254 11.296711 16711746
-0.47634348 1.2143021 7.2944427 16711746
2.7568367 0.93204492 12.081008 16711746
-0.19934177 0.98154449 10.808899 16711746
1.2217031 1.2343735 9.5410271 16711746
-1.5022445 0.88339692 12.552095 16711746
3.0410044 0.74778092 11.616326 16711746
0.65496218 0.89967972 8.502182 16711746
2.1576474 1.1189922 9.2041922 16711746
2.3443244 0.8758688 13.454997 16711746
3.5004406 1.0929899 10.991262 16711746
-1.4242779 0.88998252 10.900042 16711746
0.43148884 1.1058363 9.771266 16711746
-1.3015615 0.88212681 9.8138847 16711746
2.3914146 1.3673173 9.1653576 16711746
3.115757 1.3245326 9.6081676 16711746
-0.0062377481 1.2110375 9.1213846 16711746
-2.1821334 0.5810439 10.669848 16711746
-0.51184815 1.2327422 8.2285433 16711746
3.4129536 1.1546338 9.8409843 16711746
1.9440593 1.2383407 9.8417721 16711746
-0.12609278 1.0879689 9.6579838 16711746
-0.036429595 1.1871016 8.1462507 16711746
1.2369407 1.2115769 9.4906139 16711746
-1.3149766 0.95041376 8.9660654 16711746
2.7624855 1.0594993 10.380542 16711746
-1.5199643 0.85526031 10.563859 16711746
-0.15527445 1.1014645 9.7145643 16711746
2.2296431 1.2719445 9.6029825 16711746
-3.3994994 0.64256352 14.519289 16711746
-0.29400551 0.97213018 11.600421 16711746
3.4787416 1.3246353 9.3898201 16711746
3.4863067 1.3502918 9.7106781 16711746
-0.51371408 1.2222081 8.2005339 16711746
3.9135292 1.062026 11.167613 16711746
7.0106797 0.75712109 13.526428 16711746
-13.700584 -1.981177 30.479084 16711746
3.2386739 -1.9982178 11.939141 16711746
-16.037968 -7.6308556 34.289593 16711746
-11.264224 -3.5161974 31.044628 16711746
7.1711798 0.87827545 16.023428 16711746
3.4326205 1.0663273 11.450845 16711746
6.0123243 1.1616365 12.29974 16711746
2.7146795 1.0249544 11.456968 16711746
4.5124125 0.76603025 14.770748 16711746
4.599412 -3.2259209 14.807288 16711746
6.8775625 -0.87829506 20.313404 16711746
3.3037751 -2.5424912 12.174209 16711746
2.3426211 0.23492259 18.156656 16711746
-7.0977221 -7.1690965 19.958523 16711746
-5.6200342 -3.0938699 24.067766 16711746
3.032171 1.0404319 11.10659 16711746
3.0996089 1.279071 9.514513 16711746
8.1554689 1.3552792 12.124899 16711746
-7.9758325 -1.6394283 26.1712 16711746
7.0378604 1.3928405 10.197984 16711746
2.4574604 1.2377057 9.818059 16711746
0.32872912 1.1598761 9.1150389 16711746
-0.35133773 1.0184728 9.8660574 16711746
-0.21525507 0.91427475 12.113165 16711746
-2.8162501 0.93471348 11.428452 16711746
1.397037 1.2193117 9.0824051 16711746
-1.1138995 0.80727947 9.6134806 16711746
-1.9552388 -0.32946754 9.3760538 16711746
0.25088617 1.1962533 8.5694027 16711746
2.220104 1.0255057 11.122587 16711746
2.0987992 0.93032843 9.5372066 16711746
2.8129883 -0.076822318 12.08594 16711746
2.4640048 1.0070432 10.996332 16711746
7.3728623 0.69691694 15.483005 16711746
0.035538889 1.1381707 9.4229393 16711746
2.2569668 1.1950992 9.4434547 16711746
7.0197129 1.3544835 10.88955 16711746
3.0014389 0.94974172 12.20395 16711746
4.2104526 1.4301888 9.647625 16711746
-0.72542936 1.204693 8.6010857 16711746
-0.83881122 1.2659087 8.6867619 16711746
-4.0454822 0.39413151 12.984286 16711746
5.0280771 1.200704 11.374945 16711746
2.4400625 0.67773283 19.092924 16711746
6.3092761 1.4198775 8.9543543 16711746
3.0027902 0.4267244 17.002094 16711746
2.7191601 1.2121861 9.7893848 16711746
3.7154255 0.97421414 12.018881 16711746
5.2252402 1.4065791 9.9739094 16711746
-0.49881306 1.1427808 9.0247002 16711746
4.0652585 1.0424179 11.497046 16711746
-10.561641 -2.0625186 31.981962 16711746
-0.42564857 1.2203331 7.3931465 16711746
5.7934399 1.3699322 10.108272 16711746
-9.5616188 -5.0587258 28.833599 16711746
2.3498299 1.0994986 10.421385 16711746
-0.47980431 1.0899104 11.018144 16711746
2.057914 -0.38447416 7.7335043 16711746
2.0531225 0.092363939 7.6910868 16711746
-0.47426027 1.4485323 11.467945 16711746
-0.72785491 1.1099699 8.2381601 16711746
3.0179935 1.2031037 9.8907728 16711746
1.1769315 1.2800468 9.6289368 16711746
-0.81563461 0.42879784 7.7163811 16711746
-0.6957615 1.2238659 9.2124901 16711746
1.9948261 0.17372224 7.8741956 16711746
1.1576978 0.50195885 9.9047155 16711746
6.1382623 1.1107656 8.9820948 16711746
0.30620083 0.98535186 8.7085495 16711746
2.073024 -0.61235631 7.6183996 16711746
1.9020213 0.16805454 8.1061287 16711746
5.8649216 0.8909899 14.570399 16711746
9.5473146 0.92710096 13.653914 16711746
-4.2832031 0.69913429 17.789398 16711746
8.2479429 0.34646153 16.501657 16711746
-1.2681057 1.1018075 8.3664808 16711746
-3.2670076 0.43026909 16.429976 16711746
18.342978 -10.430026 27.885429 16711746
7.8993382 1.4258525 10.660143 16711746
8.8497238 1.5196507 11.516532 16711746
-16.592081 -1.9870466 25.042242 16711746
4.6372304 -1.0518796 10.40649 16711746
0.25408643 1.2764721 8.8940773 16711746
-0.89425159 1.1097666 9.0694618 16711746
5.7837286 1.4138499 9.855195 16711746
7.5583339 1.5695074 10.208379 16711746
-1.9784631 1.0135841 9.3825169 16711746
-4.0547285 0.39675334 12.944316 16711746
2.24231 1.0917087 10.488107 16711746
-2.9250741 0.42067251 15.387544 16711746
2.0857279 0.93162155 13.814772 16711746
3.5032709 1.0696051 10.949824 16711746
-6.9504762 -0.073953189 16.68642 16711746
6.7556343 1.3984027 10.466378 16711746
0.96971804 1.2497439 9.3993044 16711746
9.595417 1.4226774 11.896219 16711746
0.27247411 0.9768241 10.169571 16711746
0.30565804 0.94951808 10.09998 16711746
0.13301584 1.0437822 10.389329 16711746
5.1875768 1.4768479 9.9285927 16711746
-4.0021906 0.37677145 12.859895 16711746
7.2331147 -0.079750821 11.311275 16711746
-1.4177035 0.92315811 9.9217501 16711746
2.8280234 0.98429281 10.159493 16711746
-2.1241403 1.2751077 9.5785637 16711746
1.593117 -0.83028835 8.0020838 16711746
7.6615705 0.12914424 11.266783 16711746
2.927861 -1.2865033 7.4079685 16711746
6.6280761 -0.40552279 10.508444 16711746
2.1578395 0.94802314 11.701102 16711746
8.1165199 1.5339062 11.074201 16711746
3.0394144 0.69790477 11.39005 16711746
4.0415869 1.2366047 9.7944241 16711746
3.4610331 1.2395067 11.339625 16711746
3.1032178 0.5299955 15.262512 16711746
-9.7289076 -1.3799745 28.142508 16711746
9.4026566 1.0455176 14.992601 16711746
8.0743504 1.5055356 10.881778 16711746
3.5900612 1.1822584 10.362115 16711746
2.6995416 1.1386486 9.6474609 16711746
18.380568 0.76532882 21.446209 16711746
8.68999 -0.29383433 17.832865 16711746
0.24834816 1.2284095 9.2470732 16711746
0.90784907 1.3215895 9.521739 16711746
-0.70060205 1.3158107 8.8819189 16711746
-0.88642597 1.3253633 9.3896685 16711746
2.1559455 -0.43914893 7.4396338 16711746
0.77567083 -2.5630801 10.018666 16711746
-0.64374763 1.0169067 8.9045792 16711746
-1.416119 -0.46146902 10.407947 16711746
-0.44150805 -0.41771394 8.1771145 16711746
-0.18292202 1.3088701 8.7486525 16711746
3.9586654 1.283041 9.8374882 16711746
-0.36380345 1.2911985 8.2561703 16711746
3.1776578 0.99234545 10.648589 16711746
7.5488749 1.2227648 9.3805866 16711746
1.8959638 0.98753911 11.859914 16711746
-5.7543564 -0.14771985 15.676155 16711746
2.2313037 1.0744351 10.051999 16711746
