# .PCD v.7 - Point Cloud Data file format
VERSION .7
FIELDS x y z rgb
SIZE 4 4 4 4
TYPE F F F F
COUNT 1 1 1 1
WIDTH 199
HEIGHT 1
VIEWPOINT 0 0 0 1 0 0 0
POINTS 199
DATA ascii

 0.1390677 -0.0197519 0.1321987 16777215
 0.1395777 -0.0208063 0.1328927 16777215
 0.1395541 -0.0211315 0.1330182 16777215
 0.1410613 -0.0302344 0.1381691 16777215
 0.1444862 -0.0283954 0.1379444 16777215
 0.1463001 -0.0305095 0.1390179 16777215
 0.1480013 -0.0316055 0.1417762 16777215
 0.1531716 -0.0368211 0.1511985 16777215
 0.1562781 -0.0395254 0.1598609 16777215
 0.1561109 -0.0413482 0.1641315 16777215
 0.1620654 -0.0455512 0.1702514 16777215
 0.1643540 -0.0466886 0.1827433 16777215
 0.1766862 -0.0489305 0.1903672 16777215
 0.1844226 -0.0535886 0.2096579 16777215
 0.1925590 -0.0538732 0.2193384 16777215
 0.1838553 -0.0694762 0.2369458 16777215
 0.1900003 -0.0684836 0.2592066 16777215
 0.1973728 -0.0792394 0.2736970 16777215
 0.2207801 -0.0816008 0.2939497 16777215
 0.2349782 -0.0793264 0.3316161 16777215
 0.2374758 -0.0941231 0.3456658 16777215
 0.2480879 -0.0920662 0.4111769 16777215
 0.2606421 -0.1114525 0.4242384 16777215
 0.2652536 -0.1160294 0.4588338 16777215
 0.3026700 -0.1342485 0.4806049 16777215
 0.3230543 -0.1486966 0.5172246 16777215
 0.3127714 -0.1581017 0.5319999 16777215
 0.3356048 -0.1614830 0.5633398 16777215
 0.3648032 -0.1550034 0.5965438 16777215
 0.3746063 -0.1665878 0.6017477 16777215
 0.3585849 -0.1814228 0.6331382 16777215
 0.3496944 -0.1865311 0.6569074 16777215
 0.3556944 -0.2005406 0.6728622 16777215
 0.4023060 -0.1954496 0.6768862 16777215
 0.3967018 -0.1986541 0.6915685 16777215
 0.4203184 -0.1974258 0.7361105 16777215
 0.4459358 -0.1718127 0.7817845 16777215
 0.4618564 -0.1618106 0.8066960 16777215
 0.4819552 -0.1770936 0.8120021 16777215
 0.4982088 -0.2083828 0.8231108 16777215
 0.4872101 -0.2009707 0.8642767 16777215
 0.4902033 -0.2105923 0.8707651 16777215
 0.5267297 -0.2050256 0.8917476 16777215
 0.5320792 -0.2163218 0.8944107 16777215
 0.5375082 -0.2236450 0.9183313 16777215
 0.5543777 -0.2193320 0.9645672 16777215
 0.5544290 -0.2124083 0.9813404 16777215
 0.5728930 -0.2279425 1.0242264 16777215
 0.5850557 -0.2319036 1.0479213 16777215
 0.5821947 -0.2422720 1.0640384 16777215
 0.5971293 -0.2335265 1.0764271 16777215
 0.6236442 -0.2277794 1.1174140 16777215
 0.6481817 -0.2488430 1.1144557 16777215
 0.6482537 -0.2502811 1.1457652 16777215
 0.6462260 -0.2643678 1.1635587 16777215
 0.6957572 -0.2670617 1.2086202 16777215
 0.7111292 -0.2711171 1.2343729 16777215
 0.7064391 -0.2785748 1.2570715 16777215
 0.7168163 -0.2760939 1.2904922 16777215
 0.7513802 -0.2597471 1.3149387 16777215
 0.7803599 -0.2675074 1.3493718 16777215
 0.8028340 -0.2842694 1.3891305 16777215
 0.8096964 -0.2787674 1.3981497 16777215
 0.8171992 -0.2728079 1.4015032 16777215
 0.7971934 -0.2957355 1.4087807 16777215
 0.7978151 -0.2954847 1.4255625 16777215
 0.7889999 -0.2985816 1.4341053 16777215
 0.7976081 -0.3087120 1.4510680 16777215
 0.8069060 -0.3007089 1.4711115 16777215
 0.7960056 -0.2932266 1.4938135 16777215
 0.7792838 -0.3027419 1.5019501 16777215
 0.8321570 -0.2956613 1.5144486 16777215
 0.8143750 -0.2948149 1.5293921 16777215
 0.8639464 -0.2852980 1.5425332 16777215
 0.8690148 -0.3162500 1.5545661 16777215
 0.8933330 -0.3189794 1.5758129 16777215
 0.8785057 -0.3126066 1.5997506 16777215
 0.8706010 -0.3257341 1.6043532 16777215
 0.8949854 -0.3314976 1.6307187 16777215
 0.9008993 -0.3215293 1.6628606 16777215
 0.9166621 -0.3135714 1.6892707 16777215
 0.9341639 -0.3137082 1.7005646 16777215
 0.9017072 -0.3295094 1.7292783 16777215
 0.9324687 -0.3187214 1.7384065 16777215
 0.9097853 -0.3294361 1.7730584 16777215
 0.9071711 -0.3545324 1.7932487 16777215
 0.8525047 -0.3161498 1.8314129 16777215
 0.8187880 -0.2939187 1.8371397 16777215
 0.8416826 -0.2954422 1.8556087 16777215
 0.8369434 -0.2970604 1.8633671 16777215
 0.8544586 -0.2922683 1.8893669 16777215
 0.8363220 -0.2767172 1.8977938 16777215
 0.8657321 -0.2534385 1.9061964 16777215
 0.8790320 -0.2283102 1.9351455 16777215
 0.8806667 -0.2396820 1.9597650 16777215
 0.8854805 -0.2539816 1.9783475 16777215
 0.9138618 -0.2533708 2.0028586 16777215
 0.9376800 -0.2612620 2.0381269 16777215
 0.9379725 -0.2796797 2.0466783 16777215
 0.9480014 -0.2642787 2.0696499 16777215
 0.9586452 -0.2462578 2.1125612 16777215
 0.9838134 -0.2510542 2.1230662 16777215
 0.9991014 -0.2542465 2.1595120 16777215
 1.0136241 -0.2398671 2.1634877 16777215
 1.0157794 -0.2377465 2.1711538 16777215
 0.9942566 -0.2281628 2.2050200 16777215
 1.0165834 -0.2421167 2.2092109 16777215
 1.0297105 -0.2642226 2.2241311 16777215
 1.0232960 -0.2883224 2.2565939 16777215
 1.0316434 -0.2960444 2.2712257 16777215
 1.0456802 -0.2944479 2.3031666 16777215
 1.0688552 -0.2762607 2.3210578 16777215
 1.0723038 -0.2848173 2.3387721 16777215
 1.0663110 -0.2856237 2.3513505 16777215
 1.0571678 -0.2877792 2.3894870 16777215
 1.0899402 -0.2920527 2.4188759 16777215
 1.0932171 -0.2717226 2.4512689 16777215
 1.0960948 -0.3040278 2.4676511 16777215
 1.0963087 -0.3166553 2.4716778 16777215
 1.1177899 -0.2996474 2.4951229 16777215
 1.1201744 -0.3009116 2.5088127 16777215
 1.1285681 -0.3080174 2.5309877 16777215
 1.1291621 -0.3064567 2.5663698 16777215
 1.1385556 -0.2799278 2.5948610 16777215
 1.1767346 -0.2853246 2.6172218 16777215
 1.1740546 -0.3001463 2.6419649 16777215
 1.2106600 -0.3118654 2.6537433 16777215
 1.2101282 -0.3161001 2.6597672 16777215
 1.2417798 -0.3048564 2.7041764 16777215
 1.1869687 -0.2807692 2.7845542 16777215
 1.2038130 -0.2773511 2.7925129 16777215
 1.2078067 -0.2870272 2.8012898 16777215
 1.2207642 -0.2880981 2.8236225 16777215
 1.1920743 -0.2827066 2.8694599 16777215
 1.2149527 -0.3191028 2.8524232 16777215
 1.2096350 -0.3339561 2.8590236 16777215
 1.1984068 -0.3840411 2.8814738 16777215
 1.2681262 -0.3378280 2.9013326 16777215
 1.2671394 -0.3470719 2.9293847 16777215
 1.2410591 -0.3175185 2.9574790 16777215
 1.2811968 -0.3524435 2.9473774 16777215
 1.3030460 -0.3542467 2.9609952 16777215
 1.3205063 -0.3533763 3.0412037 16777215
 1.3103760 -0.3306724 3.0467503 16777215
 1.3468450 -0.3753042 3.0671134 16777215
 1.3285189 -0.3607319 3.0668042 16777215
 1.2984835 -0.3765505 3.0974638 16777215
 1.3225746 -0.3604420 3.0902727 16777215
 1.2947346 -0.3540957 3.1061096 16777215
 1.2866626 -0.3550885 3.1382823 16777215
 1.2966770 -0.3602413 3.1552148 16777215
 1.3126774 -0.3349878 3.1622648 16777215
 1.3088497 -0.3394911 3.1729372 16777215
 1.3351591 -0.3172995 3.1941915 16777215
 1.3294443 -0.3493172 3.2131016 16777215
 1.3236728 -0.3675297 3.2275627 16777215
 1.3225214 -0.3969306 3.2409308 16777215
 1.3358663 -0.4183054 3.2633803 16777215
 1.3309646 -0.3845787 3.2885487 16777215
 1.3262566 -0.4017780 3.2966383 16777215
 1.3384889 -0.3993162 3.3141551 16777215
 1.3505625 -0.3837844 3.3319757 16777215
 1.3650894 -0.3939422 3.3409281 16777215
 1.3607732 -0.3800168 3.3766713 16777215
 1.3667461 -0.3721684 3.3782799 16777215
 1.3890635 -0.3699512 3.4123936 16777215
 1.3973980 -0.3857082 3.4231560 16777215
 1.3958000 -0.3958212 3.4392788 16777215
 1.4022264 -0.3852389 3.4507241 16777215
 1.4195092 -0.3978095 3.4527295 16777215
 1.4071460 -0.3990247 3.4695661 16777215
 1.4113131 -0.3940450 3.4910059 16777215
 1.4145074 -0.3868601 3.5121701 16777215
 1.4252608 -0.3681278 3.5362635 16777215
 1.4377493 -0.3619322 3.5555420 16777215
 1.4549608 -0.3613163 3.5720596 16777215
 1.4549432 -0.3566226 3.5821867 16777215
 1.4522268 -0.3593029 3.5910439 16777215
 1.4559810 -0.3480830 3.6057444 16777215
 1.4540633 -0.3457956 3.6289096 16777215
 1.4616505 -0.3446250 3.6370862 16777215
 1.4655185 -0.3400590 3.6574717 16777215
 1.4693711 -0.3207337 3.6728466 16777215
 1.4922550 -0.3248447 3.6872337 16777215
 1.4984679 -0.3377798 3.7118778 16777215
 1.5098047 -0.3387250 3.7221837 16777215
 1.5018981 -0.3314050 3.7483819 16777215
 1.5260268 -0.3464088 3.7580669 16777215
 1.5296879 -0.3419592 3.7711911 16777215
 1.5137912 -0.3199680 3.8127453 16777215
 1.4736295 -0.2964257 3.8308167 16777215
 1.4981226 -0.3244207 3.8552732 16777215
 1.5138278 -0.3225548 3.8495173 16777215
 1.4993132 -0.3245336 3.8672245 16777215
 1.5155427 -0.3238199 3.8760343 16777215
 1.5271593 -0.3287385 3.8768260 16777215
 1.5285336 -0.3386781 3.8992276 16777215
 1.5576946 -0.3410453 3.8941810 16777215
 1.5407498 -0.3354367 3.9085646 16777215
