# .PCD v.7 - Point Cloud Data file format
VERSION .7
FIELDS x y z rgb
SIZE 4 4 4 4
TYPE F F F F
COUNT 1 1 1 1
WIDTH 114
HEIGHT 1
VIEWPOINT 0 0 0 1 0 0 0
POINTS 114
DATA ascii

 0.1261161 -0.0225337 0.0411135 16777215
 -0.0000515 -0.0018559 0.0190231 16777215
0.4400403 -1.0093454 0.1277169 16711746
0.1850896 -0.8748537 -0.0903047 16711746
-0.0167488 -1.0361981 0.2643013 16711746
-0.2673129 -1.1332078 -0.0611311 16711746
-0.1198926 -1.1840228 -0.0437564 16711746
-0.0151109 -1.1297015 -0.0785919 16711746
0.4957064 -0.8118852 0.3874954 16711746
0.1862722 -1.1432632 0.1334909 16711746
0.1536855 -1.1617800 0.1357005 16711746
-0.0368392 -1.1113702 0.1345717 16711746
-0.5872553 -1.1820158 0.1404765 16711746
0.2472322 -1.0937822 0.1699032 16711746
0.1616662 -0.9900542 0.1563295 16711746
0.1552306 -1.1429286 0.1803546 16711746
0.1454645 -1.1588881 0.1563908 16711746
0.3048820 -1.0972457 0.0631181 16711746
0.5131868 -1.0027479 -0.0048937 16711746
0.4891905 -1.0150999 -0.0121097 16711746
0.3889493 -1.0334630 0.1306651 16711746
-0.0122663 -1.1277916 -0.0451362 16711746
-0.0731574 -1.1618143 -0.0592190 16711746
0.1918266 -0.9670088 0.1727478 16711746
0.2959559 -1.0231795 0.0991665 16711746
0.2796162 -1.1048616 0.0872323 16711746
0.3227712 -0.9374487 0.0733216 16711746
0.3232607 -0.9342569 0.1674882 16711746
0.3852331 -1.0178447 0.1747478 16711746
0.4965471 -1.0126059 -0.0302153 16711746
0.5140340 -1.0042906 -0.0470020 16711746
0.3768419 -1.0192491 -0.1021304 16711746
-0.0143841 -1.1189920 0.0431502 16711746
-0.0482990 -1.1377776 0.0428474 16711746
0.1904841 -0.9632686 0.2169343 16711746
0.1746305 -1.0254526 -0.0103914 16711746
0.1354409 -0.9224571 -0.0131044 16711746
-0.1763140 -1.0231616 0.1795353 16711746
0.3525726 -1.1758306 -0.0554327 16711746
0.2889917 -1.1231031 -0.0691717 16711746
-0.0175929 -1.1122584 0.1026223 16711746
-0.0413577 -1.1262670 0.0779915 16711746
0.8406504 -0.8498163 -0.0055746 16711746
-0.2006776 -1.2332819 -0.0560392 16711746
-0.2327790 -1.2516209 -0.0734822 16711746
0.1215556 -1.1553340 0.1979359 16711746
0.0915945 -1.1726899 0.2005513 16711746
0.3304472 -1.1003617 -0.0757768 16711746
0.3098997 -1.1116626 -0.0776213 16711746
0.2635916 -1.0147597 -0.0889562 16711746
0.3738564 -1.0244793 -0.0629915 16711746
0.3128902 -0.9506029 0.3367748 16711746
0.1325787 -1.1826730 0.1113520 16711746
0.2562842 -0.9847200 -0.0242575 16711746
0.1424790 -1.1326437 0.2177131 16711746
0.6978317 -1.0411273 0.4698774 16711746
0.4720097 -1.0236470 -0.0127995 16711746
0.4376578 -1.0404915 -0.0094920 16711746
0.3854721 -1.0636244 0.0173463 16711746
-0.0347515 -0.9920647 0.3476234 16711746
-0.3560110 -1.1574950 -0.1038177 16711746
-0.0703040 -1.1580905 -0.0170249 16711746
0.5147415 -0.9956957 0.0436589 16711746
0.4934706 -1.0044219 0.0508993 16711746
0.4597108 -1.0314381 -0.0866153 16711746
0.8718440 -0.8374432 0.0614851 16711746
0.2995843 -1.0717338 0.0075345 16711746
0.5203232 -0.9749426 0.1187537 16711746
-0.2681156 -1.2129244 0.2044301 16711746
-0.1727082 -1.2174970 -0.0842095 16711746
-0.2223599 -1.2451292 -0.0982197 16711746
-0.1710801 -1.2248766 -0.1071731 16711746
0.4332224 -0.8981766 -0.0568911 16711746
0.2426656 -0.9871793 0.0193823 16711746
0.4384655 -1.0312674 0.0494345 16711746
0.2104659 -0.9795004 0.1184680 16711746
0.2377258 -1.1267769 0.0925473 16711746
0.0607607 -1.0872923 -0.1015625 16711746
0.0784626 -1.0639544 -0.0918688 16711746
0.0848249 -1.0740027 -0.1051916 16711746
0.1332311 -1.0488051 -0.0336724 16711746
0.1034475 -1.0646232 -0.0339466 16711746
0.5904376 -0.9655401 -0.0119573 16711746
0.6036584 -0.9545505 0.0421742 16711746
0.6677134 -0.7861411 -0.1533545 16711746
0.4969722 -1.0111221 -0.0975942 16711746
0.2891074 -1.0760444 0.1566259 16711746
0.3416179 -1.0045663 0.2432606 16711746
0.3756262 -0.9075419 0.1811786 16711746
-0.1185999 -1.1728926 0.0704207 16711746
-0.1673819 -1.1991645 0.0697633 16711746
-0.1481474 -1.2088366 -0.1266680 16711746
-0.0509957 -0.1640410 0.1438446 16711746
-0.5820868 -0.6941467 0.2233706 16711746
0.0712424 -0.3882336 0.1209032 16711746
-0.1164740 -0.7500348 0.0971627 16711746
-1.8814791 -1.5512758 0.7498974 16711746
0.4469608 -0.3905239 0.3600534 16711746
0.0645337 -0.4253907 0.1882562 16711746
2.4069419 -2.6202693 0.1444474 16711746
-0.6990069 -0.4299086 0.5066494 16711746
0.0505995 -0.0773971 0.0453323 16711746
2.1628294 -3.6653564 3.1587875 16711746
0.1130295 -3.9178636 2.2101941 16711746
-1.1809062 -4.8566003 1.2743430 16711746
-3.5384941 -3.6695116 1.7958698 16711746
-3.0632257 -1.9597752 2.4239337 16711746
0.0462370 -0.0973002 0.0804942 16711746
0.2266404 -0.2143609 0.1894186 16711746
-0.0166004 -0.1697216 0.1148216 16711746
0.0654325 -0.2116706 0.1635485 16711746
-1.5388275 -5.7098727 2.5126667 16711746
2.0326276 -3.5289459 2.5589151 16711746
0.4067850 -0.3874271 0.0867626 16711746
