# .PCD v0.7 - Point Cloud Data file format
VERSION 0.7
FIELDS x y z rgb
SIZE 4 4 4 4
TYPE F F F F
COUNT 1 1 1 1
WIDTH 1204
HEIGHT 1
VIEWPOINT 0 0 0 1 0 0 0
POINTS 1204
DATA ascii
4.1586924 -4.0819602 16.734949 16711746
3.5029554 -4.4755473 16.161362 16711746
4.4851546 -4.8611016 17.608414 16711746
4.9200535 -4.3630328 16.491541 16711746
2.4268572 -3.4976892 16.136745 16711746
3.9803841 -3.7317655 16.385839 16711746
1.4241449 -4.9142122 17.402685 16711746
3.7105589 -4.3614516 17.042101 16711746
4.0691705 -4.1429343 16.103142 16711746
0.82700795 -4.6524596 17.491533 16711746
2.3786988 -4.0690761 16.303932 16711746
3.5693209 -4.3487878 16.214546 16711746
1.1160282 -4.3330836 17.328108 16711746
2.1196673 -4.1769085 15.801311 16711746
4.1240287 -3.4659772 16.258831 16711746
3.6684506 -4.4241323 17.042814 16711746
3.8376172 -4.1736078 15.974824 16711746
4.0667415 -5.4899621 17.880756 16711746
3.209743 -4.1618023 16.690521 16711746
2.2729328 -3.5611758 15.80963 16711746
0.33390436 -4.9335985 16.787506 16711746
3.3658304 -2.6808424 16.307781 16711746
2.2688417 -4.4262428 15.760294 16711746
2.46561 -3.968554 16.318634 16711746
1.8397273 -4.708168 17.066137 16711746
3.1071503 -3.6731083 16.69153 16711746
2.4752877 -3.9279478 16.315746 16711746
1.2541852 -4.1958952 15.827312 16711746
3.2949104 -3.8910089 16.286591 16711746
0.19254988 -5.1968331 16.695717 16711746
0.70165354 -4.7985554 15.725004 16711746
2.1190963 -4.0442019 15.861585 16711746
2.4915009 -3.6230769 16.047329 16711746
1.4851543 -5.2741895 16.536333 16711746
5.3786292 -5.8536048 17.412477 16711746
4.8065572 -5.0354381 16.938707 16711746
5.05583 -8.4670277 21.504316 16711746
6.6625457 -6.3723421 18.734926 16711746
6.082942 -6.1154647 18.629242 16711746
0.96826357 -5.4154539 17.350019 16711746
2.5836122 -5.130672 16.214243 16711746
2.8090317 -3.865669 16.155199 16711746
2.4777627 -3.8638511 16.144936 16711746
3.9103556 -3.7066982 16.319452 16711746
2.8919308 -3.8168585 16.04495 16711746
2.4180226 -3.6125512 16.206312 16711746
3.0535676 -3.9322102 16.428219 16711746
3.7627161 -3.3382487 16.244301 16711746
3.7628939 -2.9891129 16.391006 16711746
2.9691293 -3.2040727 16.343676 16711746
2.4324524 -4.6696277 16.442682 16711746
3.741775 -3.9942164 16.117962 16711746
3.050781 -4.4238424 16.530443 16711746
2.3947186 -4.5261016 16.523029 16711746
3.9506962 -4.574543 16.920713 16711746
3.3500743 -4.2057905 16.124758 16711746
3.6447029 -4.0807829 16.18652 16711746
3.3071885 -4.1538134 16.238522 16711746
2.7461162 -3.8829868 16.096443 16711746
3.3170397 -4.1731334 16.237579 16711746
4.0003304 -3.6509902 16.292715 16711746
4.7214141 -4.1218219 16.450201 16711746
4.4800076 -3.8109009 16.523474 16711746
3.6458406 -3.613476 16.19556 16711746
3.6019051 -3.9734995 16.091995 16711746
2.9683144 -4.1796603 16.546297 16711746
3.1877148 -4.2327795 16.744768 16711746
4.4619255 -3.580461 16.392601 16711746
4.4167843 -3.5281477 16.385357 16711746
3.307698 -3.830498 16.154852 16711746
1.3175839 -4.299428 15.969562 16711746
4.0642581 -4.2417455 16.980846 16711746
0.26765096 -5.2230272 17.813005 16711746
0.93859559 -5.0552878 17.022329 16711746
-0.52148908 -5.528502 16.985613 16711746
3.8213997 -5.6664286 18.52713 16711746
4.0407739 -3.8870516 16.481661 16711746
3.8478572 -5.7611485 18.478985 16711746
4.0653429 -3.8428349 16.577343 16711746
3.885879 -6.1291528 19.717903 16711746
3.9416573 -5.195744 17.698551 16711746
3.5399802 -6.2260423 18.720257 16711746
4.0114727 -6.4882979 19.220905 16711746
3.6841366 -5.7390742 18.227451 16711746
2.8002942 -4.3310723 16.774403 16711746
5.557961 -5.8055873 18.461493 16711746
8.8787556 -7.5109081 20.15667 16711746
4.0676661 -5.325273 17.949039 16711746
3.9677372 -5.8787222 18.576323 16711746
3.5549545 -3.3467493 16.408041 16711746
4.3839254 -3.8109951 16.142767 16711746
3.9419451 -4.6196356 16.68696 16711746
4.0430622 -4.5003557 17.014944 16711746
4.4114699 -4.4166465 17.167732 16711746
4.1834569 -4.2454281 16.928123 16711746
4.3533201 -4.5157208 17.433254 16711746
4.3921652 -3.6481793 16.346087 16711746
4.3142467 -4.2289844 17.279667 16711746
3.9595394 -3.7323389 16.689142 16711746
4.4484134 -4.05832 16.719727 16711746
4.7337027 -4.5585055 16.547632 16711746
4.3425617 -3.460891 16.452938 16711746
1.4542806 -3.906306 15.652582 16711746
4.2945089 -3.5439043 16.775793 16711746
3.2900178 -3.8733003 16.291992 16711746
4.2017808 -5.1796341 18.149263 16711746
3.9428675 -4.4705338 17.073532 16711746
5.1745987 -5.0836535 17.802734 16711746
3.8797739 -5.6377025 18.202915 16711746
4.0245719 -5.1627159 17.769651 16711746
3.4486482 -5.6288481 18.335098 16711746
3.1070712 -3.8031116 16.310436 16711746
4.0115056 -3.3534231 16.644104 16711746
2.8278997 -3.4496036 16.138847 16711746
3.1013594 -3.7228477 16.307512 16711746
3.5161293 -3.2550268 16.397181 16711746
3.9283099 -4.1835561 16.907869 16711746
0.29777133 -4.996417 15.583323 16711746
4.4287133 -3.8375165 16.500687 16711746
3.5701222 -4.293817 16.01335 16711746
4.0706706 -5.9633212 18.648266 16711746
3.8533406 -6.0562191 19.625826 16711746
0.45013657 -6.1869822 17.531 16711746
5.0301476 -5.0000801 17.87047 16711746
4.8804088 -4.7849245 17.745438 16711746
4.503799 -4.5296569 17.889193 16711746
4.5840735 -4.6451116 17.867027 16711746
3.9761744 -5.6644897 18.326529 16711746
4.4049654 -4.4223671 17.550591 16711746
2.1919575 -3.4651687 16.471413 16711746
2.1524138 -3.6425269 16.090061 16711746
5.6119614 -6.1956105 19.549347 16711746
5.0066395 -6.5587983 20.342962 16711746
3.5435286 -3.6563966 16.460482 16711746
4.6941047 -6.7312307 18.692289 16711746
3.9475031 -3.636982 16.494122 16711746
3.5201788 -4.2995114 16.062012 16711746
5.0815082 -4.4628105 17.644827 16711746
4.8848734 -4.7892923 17.749157 16711746
3.9938476 -3.8258798 16.329634 16711746
5.0248113 -4.0223384 17.781229 16711746
4.031724 -4.3019576 16.413589 16711746
5.1039553 -4.1094079 17.866011 16711746
4.1195707 -4.8351583 17.868496 16711746
4.0471163 -3.1870384 16.519493 16711746
3.7964404 -3.7120895 16.592737 16711746
4.3144531 -6.501173 19.864342 16711746
5.1933479 -4.0791535 17.246181 16711746
5.0787649 -4.5981236 18.908382 16711746
3.974077 -5.8295212 18.415682 16711746
5.40239 -4.8221841 17.861177 16711746
5.0718236 -4.8668003 18.024691 16711746
5.1467752 -5.1614952 17.900511 16711746
4.8767986 -4.2221045 16.778154 16711746
3.9770064 -3.8274169 16.598076 16711746
4.4867578 -5.5127764 18.412584 16711746
3.2820861 -3.932219 16.146717 16711746
3.8866496 -3.1925945 16.257526 16711746
4.1635942 -3.2859378 16.546724 16711746
3.6184978 -3.8557212 16.666618 16711746
5.2059093 -5.8970041 16.930607 16711746
3.811799 -3.6847847 16.556627 16711746
2.939806 -3.7624679 16.288034 16711746
4.2031069 -4.1812916 16.748699 16711746
4.8851719 -5.8583174 18.811333 16711746
5.0061784 -6.1544876 19.014746 16711746
5.1480689 -5.1752791 17.631437 16711746
2.772073 -3.8064671 16.104906 16711746
3.9589355 -3.5522008 16.681578 16711746
3.7296576 -2.9418066 16.720327 16711746
1.7750177 -3.399236 16.379652 16711746
2.6041141 -3.9369907 16.195009 16711746
4.1332693 -3.900568 16.820873 16711746
3.3370671 -4.0852804 17.259212 16711746
3.7493577 -4.4036522 18.101849 16711746
3.6701655 -4.5933299 17.799568 16711746
4.0177202 -4.157454 16.967255 16711746
3.2877362 -4.8927746 16.206953 16711746
3.967454 -4.7536492 16.611778 16711746
3.5514145 -5.4126034 16.615591 16711746
3.2736025 -6.2089138 17.693911 16711746
2.3552191 -4.8567467 17.499025 16711746
4.3597851 -4.7601185 16.698059 16711746
3.4368756 -5.5088758 16.818102 16711746
4.1334605 -5.2664838 16.668951 16711746
1.610781 -4.0019159 16.765411 16711746
3.3368168 -6.0176744 17.300751 16711746
3.4144676 -5.6567087 17.430428 16711746
3.5934637 -4.2241135 16.242273 16711746
4.1168566 -4.4249139 16.700466 16711746
3.215569 -3.9170928 17.446636 16711746
3.7218683 -4.3880825 17.108212 16711746
2.643225 -4.64012 17.526745 16711746
3.3144064 -4.6618848 17.23559 16711746
3.5934243 -5.3964014 16.344666 16711746
3.7032044 -5.4038568 16.047703 16711746
3.7212315 -4.9356627 16.340616 16711746
4.4732304 -4.9775863 16.844225 16711746
4.3793864 -5.0117869 16.790457 16711746
4.2869568 -4.8163228 17.189878 16711746
2.0142658 -5.9478397 18.470465 16711746
4.7374139 -3.8777056 17.367535 16711746
3.7998219 -5.3124747 17.446749 16711746
3.2619748 -4.8166327 17.628298 16711746
3.4341919 -2.9866555 16.502518 16711746
4.1332035 -4.0664539 16.993317 16711746
2.8143616 -4.4507194 17.845528 16711746
3.5070994 -4.1697626 16.090885 16711746
4.4520874 -4.5870934 17.296577 16711746
3.774961 -4.3986015 16.946047 16711746
4.4976325 -6.6342154 19.944487 16711746
3.7700267 -5.6224508 18.596664 16711746
3.3675299 -4.4928761 17.480362 16711746
4.8221183 -4.2526488 17.796801 16711746
2.532531 -3.6323416 16.149782 16711746
2.4973817 -3.7035778 16.145401 16711746
4.9110584 -4.1243057 17.198536 16711746
4.1484108 -5.2174182 17.863026 16711746
5.3555379 -4.4190702 17.739229 16711746
7.2255487 -9.6499901 23.621468 16711746
2.7748556 -3.5849957 16.652407 16711746
2.8511689 -4.5450664 16.527742 16711746
2.8606093 -4.5046268 16.262447 16711746
3.3234453 -4.9178572 17.037062 16711746
3.2551498 -4.7285686 16.916437 16711746
2.9948685 -4.3245368 16.172729 16711746
4.440732 -4.577879 16.446775 16711746
3.3451004 -4.1010036 16.445259 16711746
2.9603386 -4.6439962 16.644896 16711746
2.2246623 -4.3530169 16.284969 16711746
3.2368395 -4.7529926 17.013742 16711746
3.3495033 -4.2528839 16.443407 16711746
3.3078537 -4.4846144 17.301929 16711746
3.9944031 -4.0427918 16.478662 16711746
4.1860485 -4.9470863 16.304945 16711746
3.3133571 -4.5943551 17.027456 16711746
2.8868427 -4.2645268 16.50659 16711746
3.3414834 -4.3185992 17.052168 16711746
4.2996473 -4.487915 16.856258 16711746
3.3545759 -4.5240374 17.12199 16711746
4.2018528 -5.2937994 17.911404 16711746
4.6946487 -3.816637 16.677052 16711746
3.1454463 -3.3552105 16.837452 16711746
3.2714376 -3.9471078 17.066946 16711746
2.2029879 -3.8352566 16.0765 16711746
3.3035562 -4.3593197 17.011921 16711746
3.0499554 -3.7169228 16.929241 16711746
3.3313334 -4.2127652 17.387997 16711746
3.3833041 -4.8395171 18.267834 16711746
3.881623 -4.4953551 16.940269 16711746
2.3820477 -5.3258724 18.492243 16711746
1.7669102 -3.8374922 15.661206 16711746
3.3426671 -4.8876314 17.331541 16711746
4.0964823 -5.0001659 16.878727 16711746
4.5564966 -4.7778883 17.190847 16711746
2.3828952 -5.5868411 18.235073 16711746
3.8014624 -4.4685092 16.974182 16711746
4.2114539 -4.2751751 16.94297 16711746
6.1243544 -5.3645244 18.60597 16711746
2.5668192 -4.3654399 17.333202 16711746
6.1897492 -5.229826 18.402573 16711746
2.983768 -4.1361947 17.33077 16711746
3.8520103 -3.8192279 16.857519 16711746
2.1783926 -6.256536 18.158821 16711746
4.4093313 -6.5218287 18.695225 16711746
5.0480056 -5.8847528 19.3475 16711746
1.7450796 -4.0027041 16.348343 16711746
1.423831 -3.726706 16.398266 16711746
3.7283421 -3.7990382 16.57884 16711746
1.6002028 -4.3537221 16.881933 16711746
5.0460467 -5.3835812 18.308468 16711746
4.9011636 -6.1722732 19.151344 16711746
2.4182291 -3.3112113 16.255836 16711746
4.538744 -4.24892 16.550682 16711746
4.0130935 -5.5625772 18.454189 16711746
3.7696052 -4.0575051 16.82988 16711746
4.0904803 -4.2779751 16.527668 16711746
3.2547019 -4.6680117 17.553207 16711746
3.9746127 -3.9466555 16.453945 16711746
2.8456962 -4.3694081 16.863371 16711746
3.9065895 -5.0010705 17.079542 16711746
4.5321469 -3.4388475 17.142126 16711746
3.8885162 -4.7436814 17.455179 16711746
4.1494913 -5.7935066 19.07489 16711746
2.7735205 -4.7508554 16.963093 16711746
4.1525221 -4.2361107 17.99617 16711746
3.0879395 -4.5995336 18.040081 16711746
3.7204123 -5.0248599 18.396774 16711746
3.3280437 -4.9020085 17.341726 16711746
5.8638639 -4.7289157 18.72596 16711746
4.9169483 -5.6958442 18.969563 16711746
5.0782666 -4.4963393 17.753084 16711746
3.3206565 -3.9469171 16.500065 16711746
2.7805235 -3.5856307 17.014053 16711746
6.1870918 -6.9654822 19.510313 16711746
6.4393182 -7.4254837 16.40214 16711746
6.6500659 -8.0688105 20.429968 16711746
12.710761 -16.563864 16.522146 16711746
4.2458501 -4.0785427 17.342403 16711746
3.8682561 -4.3452959 17.198204 16711746
3.9508233 -5.1360149 17.477383 16711746
4.3902478 -4.3418326 17.808449 16711746
3.6376648 -4.4236121 17.015209 16711746
4.0005655 -4.8720994 17.668034 16711746
3.2747931 -3.5141704 17.03809 16711746
3.8847477 -4.319921 17.518747 16711746
3.6896267 -4.5759683 17.203535 16711746
3.96768 -3.2105181 16.383549 16711746
4.1659527 -4.5590062 18.02302 16711746
2.3304548 -4.3987885 17.366518 16711746
3.8830967 -4.6133685 17.394455 16711746
3.9285603 -3.5356627 16.508512 16711746
3.9085524 -4.3089414 17.280922 16711746
3.8860438 -3.9389629 17.173763 16711746
3.8088825 -5.4721766 18.708645 16711746
4.4590907 -5.8122277 18.856779 16711746
4.7411098 -4.4549861 17.451231 16711746
4.0119734 -3.6352537 16.744938 16711746
4.0543408 -5.0944095 18.970953 16711746
4.1843619 -3.7773085 16.682072 16711746
3.806478 -4.9564147 18.460361 16711746
4.1084414 -4.8799849 17.866796 16711746
3.8700984 -4.4646091 17.191172 16711746
4.3233728 -4.2160306 17.404835 16711746
3.820313 -4.7162008 18.927349 16711746
3.8959191 -4.8898034 17.383081 16711746
5.105989 -5.0031519 17.612539 16711746
3.7926674 -5.0300794 18.898153 16711746
3.9739232 -4.6294584 17.693207 16711746
4.6559644 -3.9709346 17.224909 16711746
4.4307837 -4.1191735 17.446747 16711746
4.1839094 -3.6812992 16.727039 16711746
2.4310012 -5.1599226 18.01849 16711746
4.4124889 -4.3782644 17.834509 16711746
2.4461689 -4.5195355 16.68154 16711746
2.6092944 -4.5911756 17.676304 16711746
3.5105734 -4.1097856 16.329512 16711746
3.8764162 -4.8893728 18.730066 16711746
3.054064 -3.480835 16.628176 16711746
5.3106012 -4.2095914 18.248817 16711746
4.6878238 -4.8635654 16.704916 16711746
4.4323626 -6.1070385 19.909985 16711746
4.9363189 -4.778789 17.80444 16711746
3.8339896 -8.5620403 19.255201 16711746
4.948843 -4.6236544 17.677336 16711746
1.8911906 -3.9667797 16.303461 16711746
3.6322229 -3.9581363 16.395725 16711746
5.5341611 -4.9808936 17.713709 16711746
3.7086351 -4.2034492 17.014542 16711746
3.1027298 -4.9197502 18.130688 16711746
5.3442683 -4.7522478 17.614063 16711746
3.2189136 -4.2755356 17.247797 16711746
3.6858847 -5.1858268 19.02589 16711746
2.5662901 -4.3037519 17.341375 16711746
3.8939734 -4.6873913 17.982811 16711746
3.6503949 -3.7297673 16.751987 16711746
3.4008875 -4.1771588 17.340229 16711746
5.1138067 -4.9028454 17.721956 16711746
5.5070381 -5.0295682 17.537111 16711746
3.8664708 -5.4116044 17.502991 16711746
3.8186066 -4.000216 16.692074 16711746
3.7353256 -4.3159418 17.046196 16711746
5.763608 -4.6311693 17.715702 16711746
3.7427323 -4.3911219 17.063538 16711746
2.1600537 -4.2544627 17.384903 16711746
1.7818978 -4.8166499 18.244337 16711746
5.1888614 -4.2827382 17.31163 16711746
3.3002689 -4.8467398 17.777908 16711746
3.3568027 -4.5553589 16.583862 16711746
3.3395555 -4.2398677 16.555693 16711746
3.2992103 -4.011745 16.547714 16711746
4.3520312 -4.7947474 17.042023 16711746
1.8788711 -4.8421631 18.319883 16711746
3.9294279 -5.0465803 18.801184 16711746
5.1977248 -4.9069123 17.753895 16711746
2.9915218 -4.168129 16.394032 16711746
3.3786552 -4.5156264 16.951437 16711746
3.3331757 -4.0601778 16.593735 16711746
3.3478539 -4.1169643 16.473019 16711746
3.3787737 -4.4696598 17.827763 16711746
3.1908331 -3.8757842 16.251114 16711746
3.6004229 -4.2109995 16.482557 16711746
3.2735062 -3.5717802 16.466881 16711746
3.2673881 -3.9030473 16.41016 16711746
4.2966456 -4.8413877 16.842741 16711746
3.2346852 -4.6554527 17.02553 16711746
2.7935059 -4.1770625 16.749802 16711746
2.9222226 -3.6499844 16.309767 16711746
2.8782146 -3.9143963 16.477081 16711746
3.3332307 -4.0842438 16.595242 16711746
3.1136611 -3.9909928 16.55093 16711746
3.8164654 -4.0914664 16.459965 16711746
4.3155775 -4.7021856 16.730818 16711746
2.9014482 -3.7194395 16.41798 16711746
3.3192358 -3.9626513 16.584011 16711746
3.3308458 -4.0100541 16.479906 16711746
2.3900566 -4.3735342 17.600088 16711746
2.6270096 -3.9763412 16.774694 16711746
2.4738581 -4.1233063 16.734625 16711746
2.2632396 -4.3825402 17.278753 16711746
2.4297121 -4.4118304 17.478086 16711746
1.428282 -4.7192311 17.314247 16711746
2.0513582 -3.7340581 16.974087 16711746
5.1163363 -4.4099417 17.723171 16711746
2.5056608 -4.1697564 17.035358 16711746
2.2311275 -4.3435521 17.052132 16711746
3.0077856 -3.821734 16.39851 16711746
4.5264792 -4.1689105 16.83746 16711746
2.8741522 -4.1251621 16.539373 16711746
3.2156041 -4.6102877 17.798458 16711746
2.3438306 -4.1936378 17.209169 16711746
2.824507 -3.8029163 16.869797 16711746
3.7598131 -5.133553 17.986244 16711746
5.4491649 -4.4151111 17.925776 16711746
3.7098958 -6.0971484 18.779776 16711746
4.3767118 -4.293303 17.596411 16711746
2.7550585 -4.1941934 17.349474 16711746
3.6247411 -3.5336008 16.921616 16711746
5.1812854 -5.2808499 17.796013 16711746
5.3959074 -4.7580543 17.760691 16711746
5.2105384 -4.9853625 18.037205 16711746
2.1259916 -3.475703 16.628183 16711746
0.89455694 -5.3789563 17.255014 16711746
-4.9958396 -13.708308 20.046909 16711746
4.6728559 -5.5218086 18.462685 16711746
6.7739868 -10.51072 19.995094 16711746
-2.267658 -14.715365 19.946363 16711746
2.8257895 -4.4128184 16.654104 16711746
0.90908349 -5.447577 17.7481 16711746
3.4475944 -4.0412397 18.09053 16711746
2.200614 -5.0414658 17.226278 16711746
3.778209 -4.4159279 18.019688 16711746
3.4928052 -4.7755694 17.941526 16711746
2.6349285 -3.8827803 16.832533 16711746
6.0429664 -5.2829518 17.632135 16711746
3.4871793 -4.8992329 17.66713 16711746
3.3717551 -4.2796154 16.500473 16711746
2.4315784 -3.8383462 16.68009 16711746
5.1727142 -4.7916312 17.663595 16711746
4.1866765 -5.2739568 17.720566 16711746
2.84025 -2.7053189 16.566698 16711746
3.9750168 -5.6300521 18.249636 16711746
3.6428871 -5.8049479 19.313341 16711746
0.80877888 -4.3921385 17.150494 16711746
0.61193585 -4.5393085 17.185436 16711746
5.6785069 -5.1295257 18.048857 16711746
5.7048411 -6.2617335 19.722603 16711746
3.6715579 -5.0983334 18.804453 16711746
3.744678 -5.5387769 18.124886 16711746
3.6642189 -8.6603003 21.072134 16711746
4.9578309 -4.6326799 17.815447 16711746
2.8664839 -4.0354972 16.274963 16711746
3.1059051 -4.6299858 16.593485 16711746
1.6719836 -4.2106371 17.059237 16711746
8.7789545 -14.654438 21.881121 16711746
3.2140381 -4.143167 17.241304 16711746
3.2463591 -3.9442399 17.29373 16711746
2.6339402 -3.854564 16.798485 16711746
4.3135676 -5.9273815 18.913021 16711746
2.1010869 -4.2692528 16.383394 16711746
2.147361 -4.1787467 16.378239 16711746
3.191211 -4.644793 17.455038 16711746
1.3610471 -5.0318255 17.245584 16711746
2.473599 -4.0567498 16.839493 16711746
0.30885896 -4.8028197 17.262169 16711746
3.7197206 -5.4558339 18.481596 16711746
2.9965067 -2.9900131 16.481913 16711746
3.9954069 -5.5484924 18.263016 16711746
3.8489971 -4.7018256 18.284342 16711746
3.5406058 -3.5239384 16.525711 16711746
4.1746378 -3.6307256 17.738178 16711746
3.3342278 -4.0665002 16.402351 16711746
2.9644408 -4.2039542 16.412668 16711746
3.2867985 -4.3633447 17.427755 16711746
3.7354705 -4.6532588 17.763929 16711746
3.2753026 -3.5531602 16.55756 16711746
4.2725291 -4.2123084 18.473602 16711746
3.3596663 -4.5485072 17.523878 16711746
3.6088531 -3.7826142 16.68767 16711746
3.322958 -4.8440537 17.216373 16711746
3.4381249 -4.5621643 17.752375 16711746
3.233001 -3.5305481 16.427408 16711746
3.9790378 -4.0556412 16.782503 16711746
4.4844213 -3.9617422 16.996975 16711746
2.9105859 -3.9571347 16.636387 16711746
3.1281459 -3.5138321 16.401943 16711746
3.836952 -3.9365189 16.907393 16711746
3.5579236 -4.1409445 17.081032 16711746
3.6646888 -3.8070929 16.710787 16711746
2.4738231 -4.133812 16.518661 16711746
3.8197837 -3.7409978 16.738941 16711746
2.879684 -4.1747828 16.649666 16711746
3.4967406 -3.6302333 16.514133 16711746
3.7580278 -4.0893383 16.746811 16711746
4.6494708 -4.2751074 18.306833 16711746
4.1517339 -3.8401318 16.902351 16711746
3.9758074 -4.0627909 16.963306 16711746
3.9710903 -4.0178609 16.855816 16711746
2.801122 -3.9491589 17.76296 16711746
4.6308026 -4.2384977 18.28854 16711746
3.9577146 -4.0034003 16.769579 16711746
2.0765178 -3.8505783 16.847816 16711746
3.4403913 -4.6419077 17.812902 16711746
3.824784 -4.5048094 17.41551 16711746
3.4424686 -4.5202074 17.481899 16711746
3.7102404 -4.8040342 18.37657 16711746
3.453464 -4.7682962 17.878334 16711746
3.2953696 -4.4579968 17.232351 16711746
3.4301643 -4.5013461 17.474133 16711746
4.4001718 -4.4230428 18.694189 16711746
3.2071912 -4.0665307 16.753996 16711746
3.8755796 -3.450403 16.589283 16711746
3.9113634 -3.87146 16.629709 16711746
3.6109395 -3.8877718 16.625742 16711746
1.7344751 -4.5446162 17.562929 16711746
3.7713025 -4.2746592 18.237272 16711746
1.8428566 -4.0102272 17.385679 16711746
4.5426989 -4.4741201 17.776522 16711746
2.4531279 -4.1999273 16.655594 16711746
2.4701579 -4.0580192 16.471813 16711746
2.6375153 -3.5571156 16.535608 16711746
4.8705816 -4.026792 17.659204 16711746
2.5905735 -3.6816177 16.775541 16711746
2.6001656 -3.658046 16.770573 16711746
4.7758331 -4.2561774 17.099636 16711746
2.6730204 -3.6761827 16.902834 16711746
2.1161075 -3.5587406 16.756561 16711746
1.8233188 -4.4747767 16.244476 16711746
4.5893683 -3.7602766 17.619806 16711746
4.6047955 -3.6332991 17.122374 16711746
3.6486931 -3.8855846 17.259981 16711746
3.7300594 -3.3522964 16.563549 16711746
2.7405605 -4.4310937 16.625921 16711746
4.5609303 -4.0722537 17.296865 16711746
2.4867334 -3.8977833 16.420145 16711746
3.6548989 -3.8101079 17.095984 16711746
3.8259852 -3.5237887 16.816364 16711746
4.2409658 -3.5756652 16.798119 16711746
2.5182943 -3.9726298 16.478308 16711746
4.0415802 -3.575171 17.24695 16711746
3.6435499 -4.679143 17.228468 16711746
3.7817993 -3.4430661 16.843859 16711746
4.0296578 -3.7191453 17.259626 16711746
3.0310826 -3.9106455 16.96673 16711746
4.5265384 -4.0592508 16.653788 16711746
3.591485 -3.7958186 17.005201 16711746
4.4006128 -3.8585913 16.984255 16711746
2.6029677 -3.913296 16.969578 16711746
2.5258176 -3.8667212 16.481115 16711746
3.4888682 -4.9031816 18.000969 16711746
2.5223482 -3.8756084 16.481482 16711746
5.751091 -5.640698 18.017822 16711746
2.3918684 -4.0111036 16.661024 16711746
5.4755363 -5.5828528 18.089075 16711746
2.861861 -3.4266949 16.65856 16711746
2.5564718 -4.2570338 17.269636 16711746
4.5150514 -6.0384579 19.279232 16711746
2.8882351 -3.8397233 16.469467 16711746
4.8519907 -3.7192068 17.297329 16711746
3.119874 -3.6654971 16.674978 16711746
3.6933181 -5.1248417 18.075266 16711746
3.7197757 -5.0958257 18.372816 16711746
3.352617 -2.9554458 17.216713 16711746
3.6985841 -4.3180456 18.451065 16711746
3.1215646 -3.6854215 16.591808 16711746
3.1613805 -3.7162728 16.963467 16711746
3.1693037 -3.8032103 16.98805 16711746
3.1576166 -4.5870428 18.511003 16711746
3.7152846 -4.0228148 18.203011 16711746
2.4163492 -3.7192266 16.29537 16711746
4.0305624 -4.6843739 18.328991 16711746
5.2817173 -5.032649 17.734503 16711746
5.2264681 -4.073235 17.111073 16711746
3.3540401 -4.4195757 16.545685 16711746
3.0079436 -4.322989 16.453886 16711746
4.397429 -4.9692764 18.745934 16711746
-0.38039592 -7.0475402 17.827732 16711746
2.7977004 -8.3485575 17.962173 16711746
-5.9384298 -14.305121 19.865253 16711746
4.2456565 -5.0529995 16.669161 16711746
2.6793118 -4.2271376 16.722536 16711746
3.8984578 -4.4452071 17.046757 16711746
3.0836487 -4.5384541 17.439114 16711746
4.0399771 -4.8102117 17.306562 16711746
3.8824422 -4.4605794 16.724102 16711746
2.0465226 -4.4381099 16.6486 16711746
2.3665636 -3.7023544 16.249382 16711746
3.7748313 -4.8496823 17.707987 16711746
2.7391109 -3.7506666 17.621054 16711746
2.3783739 -4.0198264 16.371176 16711746
2.3729188 -3.9033988 16.227589 16711746
3.6895101 -3.471693 17.040844 16711746
1.0918415 -4.2155604 16.95528 16711746
4.0821905 -3.5385284 17.366703 16711746
3.1558397 -4.3655143 17.29438 16711746
3.3238144 -4.5224934 16.498558 16711746
3.2220142 -4.4548721 16.766834 16711746
2.1525149 -4.2819524 16.950451 16711746
2.3171449 -4.6801381 16.79101 16711746
2.2674031 -3.82324 16.510914 16711746
2.1344903 -3.8930752 16.416231 16711746
4.7374053 -4.3848128 17.065182 16711746
4.282824 -5.7025223 18.531479 16711746
3.6397269 -4.8382149 18.446814 16711746
3.6094418 -4.9623723 18.353205 16711746
4.7973738 -6.1158404 19.490492 16711746
2.2679543 -4.2495351 16.73679 16711746
3.3223209 -4.4387355 17.475302 16711746
3.9966254 -5.4291306 19.515694 16711746
3.1768074 -4.4018869 17.173843 16711746
1.4312139 -3.8879628 16.923546 16711746
5.1684542 -6.2750573 18.524513 16711746
3.2248054 -4.5753117 16.774792 16711746
3.7017136 -3.9867568 17.322384 16711746
2.2072217 -3.9663384 16.836559 16711746
3.8194895 -5.037199 17.806461 16711746
2.3960361 -3.7520106 16.38623 16711746
3.0392609 -4.2584529 17.401726 16711746
4.4053168 -4.2698126 17.109583 16711746
2.3043532 -4.0321088 16.91143 16711746
3.3788264 -4.8273888 19.042316 16711746
6.0829921 -5.5507627 17.994904 16711746
2.3205354 -3.8166347 16.813824 16711746
3.3591065 -4.5350041 17.908041 16711746
2.2915132 -3.6046457 16.619774 16711746
3.3221083 -4.5185189 16.498478 16711746
3.3891234 -4.7799087 16.353939 16711746
3.1189845 -4.905015 16.336861 16711746
3.4552691 -4.8162484 16.282763 16711746
4.3014855 -5.7991242 16.59626 16711746
4.1019416 -4.9774108 17.128777 16711746
2.8301859 -4.5947351 16.417376 16711746
3.7523026 -4.250268 17.408255 16711746
3.1223531 -4.6639709 16.357672 16711746
4.7156935 -5.126616 17.118328 16711746
3.9473715 -5.4987259 16.584253 16711746
2.168853 -4.0225625 16.156904 16711746
2.6085787 -4.6932611 16.671579 16711746
2.369535 -3.9020174 16.369116 16711746
2.3661771 -5.5225816 16.685221 16711746
2.983948 -4.762938 16.418655 16711746
2.3629029 -3.8698678 16.321114 16711746
3.2835681 -4.5399275 17.23086 16711746
3.9812338 -5.0812378 16.952391 16711746
4.8089623 -5.5088367 16.678381 16711746
2.2983186 -4.3215351 16.529371 16711746
5.378552 -5.5759158 17.125542 16711746
2.8865881 -5.1803041 16.429152 16711746
2.4932423 -3.8367059 16.252157 16711746
4.1151352 -5.6325331 16.682032 16711746
3.266042 -4.8111033 16.458981 16711746
4.0261598 -5.0850697 17.48628 16711746
2.9386575 -3.8095481 16.750153 16711746
4.6229935 -6.1505527 19.437529 16711746
3.9255452 -4.9391012 17.900055 16711746
2.5402586 -3.8299732 16.553923 16711746
2.51372 -3.9463964 16.446426 16711746
4.9335718 -4.4532137 17.288593 16711746
3.3731518 -4.7674751 18.370813 16711746
5.2212481 -4.6212168 17.314846 16711746
4.9424067 -4.3452563 16.927343 16711746
4.3927097 -5.7379212 18.998215 16711746
2.5179935 -4.0354881 16.520119 16711746
2.5105555 -4.10782 16.715076 16711746
2.2078717 -3.6468771 16.580553 16711746
3.9967089 -4.1163888 17.19257 16711746
3.8692818 -5.0626111 18.119907 16711746
5.2137094 -4.5171132 17.752693 16711746
3.7122915 -3.1642418 17.083948 16711746
4.6019888 -7.4526501 21.772772 16711746
3.4599688 -2.7572811 16.756502 16711746
5.8065071 -8.275321 22.212654 16711746
3.9497979 -5.8982716 19.654474 16711746
4.3818507 -6.0631647 19.817257 16711746
3.1068404 -6.0805593 18.849304 16711746
5.0133042 -5.7820215 16.750378 16711746
3.6889129 -4.9434977 18.395046 16711746
3.7762392 -5.4174676 18.108528 16711746
3.2149673 -4.1885715 16.349424 16711746
2.7101612 -4.0124831 16.800215 16711746
3.033551 -4.0439978 16.486225 16711746
3.8219774 -4.5095501 16.674149 16711746
3.1224542 -4.489193 16.470594 16711746
2.6265726 -4.3249831 16.678967 16711746
3.0405302 -3.9848835 16.491768 16711746
2.9057393 -4.3546991 16.50354 16711746
4.4096584 -4.3213201 17.042902 16711746
2.4394886 -4.2904005 16.726038 16711746
3.8812521 -4.4937568 16.624811 16711746
3.2122245 -4.2016139 16.757456 16711746
3.1570017 -4.276269 16.562998 16711746
2.88011 -3.8468144 16.41213 16711746
2.2542667 -3.9756448 16.340265 16711746
2.462898 -4.2155714 16.728725 16711746
3.1604276 -3.6467848 16.492039 16711746
4.1234841 -4.3670955 17.094149 16711746
2.8976274 -3.914181 16.589659 16711746
3.2016263 -4.6615024 16.831234 16711746
4.5627112 -4.0086331 16.944359 16711746
3.0260277 -4.1939826 16.472685 16711746
4.2339849 -4.3073621 17.107252 16711746
3.1829057 -4.3652225 16.862776 16711746
2.0554583 -3.677933 16.687346 16711746
2.2863767 -3.6286745 16.347015 16711746
4.2078791 -3.3234015 17.073765 16711746
4.1241493 -4.6146421 16.87583 16711746
2.7993934 -4.4745307 17.568375 16711746
3.7108753 -4.263567 16.520098 16711746
4.1419768 -4.3186736 16.603298 16711746
4.8548713 -4.7043314 17.84712 16711746
3.9752476 -5.4180694 18.032187 16711746
2.8960638 -4.1689324 16.451872 16711746
2.8445172 -4.0779805 16.458771 16711746
2.461005 -3.819597 16.523081 16711746
2.4042163 -4.3783741 16.532791 16711746
2.942158 -3.9394922 16.475508 16711746
3.2674451 -4.4546151 16.979382 16711746
3.3507745 -5.555223 18.547487 16711746
3.5429752 -5.4727168 18.632723 16711746
3.3492792 -5.5580273 18.549854 16711746
2.2495365 -3.9743624 16.252146 16711746
2.5101867 -4.36309 16.667654 16711746
2.3829327 -4.1090126 16.166813 16711746
2.371037 -4.1733732 16.542181 16711746
0.98813736 -4.2939205 16.975401 16711746
3.4750993 -5.7333078 17.842596 16711746
5.9902358 -5.4402952 17.412893 16711746
2.4790363 -3.5754983 16.339529 16711746
5.4857874 -5.7929468 17.22621 16711746
1.7471395 -3.8630097 16.283834 16711746
2.2160168 -3.7578101 16.434948 16711746
4.7526698 -5.3762355 17.558413 16711746
5.683454 -5.8253951 18.618513 16711746
5.9267645 -5.4112749 17.392778 16711746
2.2040946 -3.7555442 16.204863 16711746
1.5406121 -4.4601421 16.748238 16711746
2.247874 -3.9773536 16.2647 16711746
3.6318564 -5.7297306 18.715992 16711746
5.2415085 -5.9012227 18.027065 16711746
3.7107477 -5.3361125 18.812693 16711746
2.4061511 -4.6511154 16.766241 16711746
4.1421766 -5.4573889 17.59906 16711746
4.242712 -5.4331384 17.483957 16711746
4.9906526 -5.7992492 17.510464 16711746
5.1109276 -5.1786742 17.069992 16711746
2.075758 -4.657824 16.652275 16711746
2.0585699 -3.9877844 16.408697 16711746
3.4327996 -5.8676286 18.831713 16711746
3.1017456 -4.3214164 16.50148 16711746
2.1441813 -4.2410975 16.943039 16711746
3.5208659 -4.6864448 18.759968 16711746
5.0213552 -5.4376602 17.684414 16711746
1.5533577 -4.3146768 16.244831 16711746
1.6668911 -3.6805394 16.212711 16711746
1.8403598 -4.1724224 16.617441 16711746
2.5331326 -4.089468 16.669813 16711746
3.3849292 -5.4466505 18.811222 16711746
5.9973044 -5.8230715 17.626547 16711746
4.9552617 -4.5513821 17.221697 16711746
4.7764349 -5.9453406 18.965721 16711746
1.7025759 -5.0918512 18.619226 16711746
3.8790691 -4.4546127 17.615393 16711746
3.7871466 -5.4604192 18.903889 16711746
4.4385424 -5.7358289 18.639309 16711746
2.4846251 -4.0059233 16.674061 16711746
5.8096166 -4.7189851 17.901287 16711746
3.9448898 -4.5067568 17.345913 16711746
6.400095 -5.8726354 18.331453 16711746
4.0905266 -5.6433811 19.922041 16711746
2.1830723 -4.0950789 16.887556 16711746
3.8128994 -5.2512083 18.20158 16711746
2.1582003 -5.5188069 18.873392 16711746
3.3628218 -4.1221251 16.890223 16711746
5.4850035 -4.4113364 17.837999 16711746
1.989611 -6.8015885 20.065271 16711746
0.55319494 -5.5617557 17.332733 16711746
4.2136588 -5.1836352 17.019207 16711746
1.0976191 -3.9802411 17.022352 16711746
5.7185683 -5.1552253 17.439631 16711746
5.7208848 -4.500494 18.062805 16711746
3.6170971 -3.8136656 16.850838 16711746
3.2627678 -4.9865375 18.496527 16711746
3.6270976 -4.8900933 19.084311 16711746
2.1910527 -5.808991 17.014051 16711746
3.3134031 -3.9796154 16.841049 16711746
5.4326158 -5.4910736 16.64827 16711746
3.1411376 -4.1641102 16.669008 16711746
3.0547204 -3.0025983 17.160387 16711746
3.899909 -3.7170393 16.590124 16711746
2.156637 -3.8269403 16.77824 16711746
2.12519 -3.7436571 16.578806 16711746
2.6823599 -3.6118574 16.653868 16711746
2.4132881 -3.6465082 16.767273 16711746
2.6632721 -3.6667905 16.650042 16711746
4.2153339 -3.5161247 16.675217 16711746
3.4622703 -3.4681728 17.017124 16711746
3.3499227 -4.8079629 17.409126 16711746
3.2034051 -4.6622472 17.562195 16711746
4.8971162 -4.0724139 17.198328 16711746
4.3229232 -3.7820475 16.73225 16711746
3.6529775 -3.7455213 16.573374 16711746
3.1586442 -3.7410042 16.687382 16711746
4.1114545 -4.0967741 17.09441 16711746
3.1200385 -3.714123 16.548676 16711746
4.1422911 -4.495151 17.397772 16711746
3.656054 -3.7643018 16.571659 16711746
4.4171948 -3.647171 17.272326 16711746
4.8254871 -3.8054111 17.595371 16711746
4.6439323 -3.9006469 16.943386 16711746
3.3094525 -4.4173269 17.577858 16711746
5.4876609 -5.4610715 17.4454 16711746
5.0299149 -4.8557787 16.887398 16711746
6.7456388 -5.5686274 18.041498 16711746
1.7609019 -3.7590971 16.824545 16711746
2.244668 -3.4084196 16.794781 16711746
3.4804749 -5.8132396 18.584103 16711746
2.3130865 -4.3494945 16.44603 16711746
4.9984484 -5.6017871 18.119991 16711746
4.9915881 -5.5828109 18.110647 16711746
4.0726032 -5.4417424 17.808666 16711746
4.2811003 -5.6974273 18.701029 16711746
2.3289659 -4.2606664 16.581123 16711746
3.3299191 -4.5106506 17.32358 16711746
3.9381373 -4.4994926 17.612513 16711746
3.1896033 -3.9596603 16.780069 16711746
6.1747351 -6.2018075 17.688063 16711746
6.3407636 -5.6677527 18.173206 16711746
5.7720389 -5.372869 17.630756 16711746
2.9991288 -4.5000219 17.506643 16711746
2.2808275 -4.2931519 16.311209 16711746
5.3673153 -4.6935334 16.988297 16711746
0.93805093 -4.2691779 16.983429 16711746
2.1497569 -4.1736913 16.653152 16711746
1.2231338 -4.2681065 16.890057 16711746
1.3593475 -3.7695544 16.985445 16711746
1.3094521 -3.8003225 16.991566 16711746
3.9512932 -5.5434942 19.368761 16711746
5.3754382 -4.6005611 16.747599 16711746
3.8012912 -5.0919828 19.133545 16711746
4.7593718 -6.6002851 19.514593 16711746
4.8705468 -5.5561981 18.8794 16711746
4.1097441 -5.3606901 18.429644 16711746
-0.35323575 -7.2366891 18.031622 16711746
7.8364234 -9.4733744 18.111305 16711746
2.5755396 -3.0145426 16.731026 16711746
3.0875003 -3.8452132 16.622019 16711746
3.1609917 -3.6645615 16.598825 16711746
5.4977078 -5.6492405 18.295561 16711746
3.1976495 -4.7744889 17.493374 16711746
6.5695105 -6.115335 17.67186 16711746
6.3386669 -5.9346943 17.676815 16711746
3.3100674 -3.8805976 16.827961 16711746
2.9624226 -4.9619002 17.784224 16711746
2.886061 -4.9116449 17.627144 16711746
2.4030328 -4.92313 17.615393 16711746
4.7300968 -3.9721136 16.774384 16711746
3.7220705 -5.0988274 19.10701 16711746
3.4450557 -4.643805 17.603611 16711746
3.2994101 -4.5191555 17.665012 16711746
2.62995 -4.0490904 17.229628 16711746
2.8256557 -4.0963941 16.429796 16711746
5.1114922 -4.3726912 17.032507 16711746
5.1594067 -4.2076306 17.448156 16711746
3.4616947 -5.0831723 17.977016 16711746
3.9108651 -5.0652022 16.490843 16711746
2.88327 -4.5040803 16.282228 16711746
4.1255679 -5.3471208 17.043024 16711746
2.0506029 -4.6830144 17.782818 16711746
4.8180642 -4.8913383 17.13232 16711746
3.3393643 -4.5085421 16.499912 16711746
3.376694 -4.7670403 16.89028 16711746
2.0939081 -4.1422887 16.19706 16711746
4.1365833 -5.2012143 17.555552 16711746
3.0137672 -4.8641977 16.693745 16711746
3.3157659 -5.1998062 17.400238 16711746
4.1211829 -5.2741895 16.800562 16711746
2.7878711 -4.6126943 16.310898 16711746
4.7370954 -5.2614021 16.874849 16711746
2.9848943 -5.2234659 16.690359 16711746
2.7816324 -5.0008049 17.137552 16711746
2.7527571 -4.6790705 17.131399 16711746
4.6325965 -5.1135697 16.709234 16711746
2.9555249 -5.1358151 17.844847 16711746
4.0621939 -4.9935427 16.823231 16711746
2.7491775 -4.7686763 17.139688 16711746
3.1082416 -4.24863 16.513577 16711746
1.9142662 -4.0566554 16.257524 16711746
4.5323906 -4.5404367 17.014364 16711746
4.0675278 -5.1386085 16.799171 16711746
3.952646 -4.9871454 17.050526 16711746
2.7683177 -4.780899 17.284771 16711746
2.9553185 -4.4246221 17.036572 16711746
4.120616 -5.0162735 17.818859 16711746
4.3399596 -5.0968843 17.305727 16711746
3.4560225 -5.0096307 17.942871 16711746
3.1556728 -4.8193908 16.989258 16711746
3.3729742 -4.7402468 16.902607 16711746
2.0248744 -4.4079719 18.201197 16711746
2.8848839 -4.2983627 16.981503 16711746
3.6827488 -5.7731586 18.532661 16711746
4.0140176 -4.8069792 16.757664 16711746
4.3877621 -4.7505393 17.120813 16711746
4.6268802 -4.6542029 17.052479 16711746
4.0903616 -5.9800682 18.581533 16711746
4.0072694 -4.5431027 17.761011 16711746
4.162672 -4.7187653 17.14344 16711746
4.0800033 -5.1539888 17.621317 16711746
5.3788161 -5.5479145 17.424238 16711746
5.0282745 -5.4951162 17.916571 16711746
5.2150512 -5.0369577 17.255852 16711746
4.7969499 -5.0142159 17.45533 16711746
2.9847627 -4.1190658 16.986984 16711746
3.2024612 -4.5451126 17.360451 16711746
4.0388856 -4.9875364 17.572138 16711746
4.0253668 -4.7283378 17.347185 16711746
4.2684202 -4.3118396 17.215187 16711746
3.3030183 -4.9120646 17.856201 16711746
3.7727103 -5.5595312 18.034355 16711746
3.4275954 -4.1008654 17.45183 16711746
5.46558 -4.2792072 17.953979 16711746
3.1268504 -3.5980401 16.738863 16711746
4.7516046 -4.8604846 17.941681 16711746
3.6810029 -3.0157065 17.10317 16711746
4.36867 -4.1442933 18.018147 16711746
4.8578734 -4.0894351 17.500708 16711746
3.6808119 -5.1468806 18.850079 16711746
5.9050789 -5.5752878 18.348959 16711746
5.1388278 -4.9029269 18.194593 16711746
3.8909845 -4.8508596 17.782742 16711746
2.1628954 -7.1716938 20.140289 16711746
3.8386605 -5.2838802 19.303354 16711746
0.71296734 -5.7606769 17.576214 16711746
3.7969825 -3.9272738 16.797398 16711746
3.299006 -4.7363973 17.484459 16711746
3.3659337 -5.0419774 17.462536 16711746
4.0311093 -4.9802656 17.427654 16711746
3.7350771 -4.7070875 18.200926 16711746
4.0382133 -4.7238097 17.62785 16711746
3.8900294 -4.5987806 17.49383 16711746
4.7146592 -4.7929025 17.692797 16711746
5.1674309 -4.6354294 17.397284 16711746
4.3661447 -4.4428773 17.43664 16711746
4.0501904 -4.3870263 17.154488 16711746
3.8811641 -5.3510518 18.070438 16711746
3.8657284 -4.6514778 17.384617 16711746
3.315619 -5.0360374 17.918301 16711746
3.3592775 -5.055944 17.906391 16711746
3.0907812 -5.0281272 18.071779 16711746
3.1558993 -3.3720539 16.711191 16711746
4.0406446 -3.4383557 16.779438 16711746
4.9071126 -4.6017141 17.174158 16711746
3.133199 -4.7817183 16.354116 16711746
4.4041619 -4.3972731 17.121748 16711746
3.9162035 -4.3047509 16.930162 16711746
4.0509834 -4.8783317 17.082851 16711746
1.7317961 -5.4689903 17.635529 16711746
4.9227238 -4.7394257 17.787495 16711746
3.5294809 -5.0232697 17.806086 16711746
4.3221722 -4.6893849 17.169966 16711746
4.0875926 -5.73667 17.787512 16711746
3.619627 -3.5952554 17.756168 16711746
4.5775452 -4.7240119 18.000593 16711746
4.5438757 -4.4712605 18.251867 16711746
2.9827621 -4.1422181 16.980751 16711746
3.1686249 -4.7951889 16.992653 16711746
3.7392013 -3.3765709 16.733532 16711746
3.9223633 -3.3235924 17.091341 16711746
4.0411386 -3.0892484 16.747269 16711746
3.781055 -3.4533322 16.874041 16711746
3.8530948 -3.4267366 17.00802 16711746
3.6128962 -3.0008507 16.873934 16711746
3.6354971 -4.3124218 17.938803 16711746
4.2370067 -4.0032949 17.837782 16711746
3.2761919 -4.9064775 17.28632 16711746
4.7280374 -4.3317552 17.033092 16711746
3.3958321 -3.7925596 17.352467 16711746
4.596446 -4.6747513 17.359301 16711746
2.8350258 -4.5365129 17.061573 16711746
4.3733296 -3.7684567 17.895823 16711746
3.1040075 -4.360466 16.627552 16711746
3.812952 -5.3512931 18.196653 16711746
5.2358384 -4.8537846 17.267443 16711746
3.6344697 -5.2088957 19.031448 16711746
4.8997579 -5.1543689 18.428404 16711746
2.6396432 -2.956254 17.021069 16711746
3.3046167 -4.0368824 16.574987 16711746
3.2287779 -4.5780282 17.484297 16711746
5.1728153 -4.9351859 17.237156 16711746
4.9146228 -4.5176249 17.867495 16711746
5.1109781 -4.0887723 17.440599 16711746
3.4663634 -4.4063334 17.667273 16711746
4.0727739 -3.4270287 17.614868 16711746
3.1405339 -3.9492292 16.8773 16711746
3.0756726 -4.2130108 16.787149 16711746
3.1595666 -4.4764519 17.355385 16711746
2.8242722 -3.1375868 16.860415 16711746
3.1370137 -3.7262495 16.734985 16711746
3.6995108 -3.6864116 17.949322 16711746
5.6576705 -5.3192558 17.514416 16711746
5.74017 -5.4224067 17.369999 16711746
5.1026554 -7.7862101 20.519415 16711746
3.2553256 -4.098228 17.036259 16711746
4.1521816 -8.3522387 20.921387 16711746
3.3199756 -4.0556474 16.848696 16711746
4.5661783 -3.9504855 17.506966 16711746
4.1932821 -5.80125 18.747824 16711746
3.4886024 -4.3951011 18.257271 16711746
4.0792522 -5.2545023 18.15103 16711746
4.199512 -5.2872338 18.076561 16711746
4.71106 -4.7274728 18.437626 16711746
5.1346378 -4.1729116 18.193403 16711746
4.0209112 -5.072526 18.060463 16711746
4.9787703 -4.0601864 17.493631 16711746
4.8758326 -4.7977357 17.181898 16711746
5.7909155 -4.5333352 17.580282 16711746
4.2271729 -4.933537 18.078545 16711746
3.6381719 -4.8237171 18.32745 16711746
3.4928076 -4.2389498 18.142679 16711746
3.8996568 -4.0296865 17.072342 16711746
5.7471843 -4.4957681 17.566238 16711746
3.4149089 -4.2407112 18.045282 16711746
4.5861206 -4.4456158 17.139202 16711746
3.9292543 -4.1027408 17.153589 16711746
3.0726268 -4.1327758 17.264355 16711746
4.19064 -3.8975704 17.24284 16711746
3.2005417 -3.7399983 16.748468 16711746
3.7877746 -3.3819864 16.824472 16711746
3.6699855 -3.4366887 16.782125 16711746
3.1982491 -3.3267348 16.767097 16711746
3.9713981 -3.621217 17.274418 16711746
3.7766783 -3.4278896 16.861845 16711746
3.5673006 -5.3500767 17.877813 16711746
3.647764 -4.9117479 18.936098 16711746
5.0228286 -4.8694925 18.127075 16711746
5.2377095 -5.1975403 18.011196 16711746
3.8025777 -4.6798391 18.074383 16711746
3.6701241 -4.3733454 18.104525 16711746
3.4328284 -4.8533697 18.911978 16711746
3.4356589 -4.3569655 17.899542 16711746
4.902338 -4.7130842 18.034178 16711746
5.3020368 -4.056427 17.805897 16711746
4.7351213 -4.064467 17.160646 16711746
3.6855528 -5.02948 18.32785 16711746
3.9954331 -5.0077133 19.029882 16711746
3.1437006 -6.5455036 19.989271 16711746
-0.78494352 -7.1453505 18.083714 16711746
-3.9522004 -11.709194 18.979336 16711746
3.028127 -4.1594062 16.705042 16711746
3.6797049 -3.3208869 17.197815 16711746
3.6987906 -3.1980383 16.848797 16711746
3.0512486 -3.2975457 16.912374 16711746
3.4767504 -3.549089 16.854677 16711746
3.082845 -3.5819457 16.83333 16711746
3.6013649 -3.0229533 16.945675 16711746
3.6352296 -3.0333095 16.893505 16711746
3.2046373 -3.3386111 16.867958 16711746
3.6444702 -3.9927783 16.899834 16711746
4.7668009 -3.9331412 17.185749 16711746
4.0769639 -3.5545833 17.570208 16711746
3.7303448 -5.4281402 17.992258 16711746
0.41312516 -4.7683382 16.974215 16711746
4.4008393 -3.8057952 17.662012 16711746
3.7215037 -3.714081 17.422516 16711746
3.5630512 -3.5488124 16.887375 16711746
3.2142844 -3.9304357 16.811962 16711746
1.7468057 -3.8884482 16.690403 16711746
4.5107427 -4.376121 18.120247 16711746
3.2585974 -3.9651461 17.244677 16711746
3.56671 -3.4181614 17.331268 16711746
1.8250031 -3.7833586 16.741734 16711746
5.3103399 -5.6617551 18.846897 16711746
5.1294732 -7.9380126 20.580006 16711746
4.9073977 -4.2214632 17.312857 16711746
3.2576885 -4.7594004 17.894014 16711746
3.2330973 -4.1547861 17.623411 16711746
3.3327544 -4.0127506 17.805876 16711746
4.7941303 -4.368793 17.911188 16711746
4.6653457 -3.7243762 17.870249 16711746
3.6723924 -3.3593698 16.857195 16711746
3.8605568 -3.4809184 17.181948 16711746
3.9791694 -3.5586855 17.635033 16711746
3.1093328 -3.477963 16.864122 16711746
4.2753401 -3.8847744 17.329054 16711746
3.6901822 -4.3078609 17.582445 16711746
4.2729087 -3.8916941 17.460951 16711746
3.0804796 -4.1204824 16.606962 16711746
4.4920239 -3.9544249 17.332802 16711746
3.9401596 -4.5706453 18.540741 16711746
2.6924021 -3.990973 16.661865 16711746
3.0248749 -3.8002436 16.801865 16711746
4.3344169 -5.993248 18.653795 16711746
4.2929192 -6.143084 19.254713 16711746
4.143661 -3.244185 16.96554 16711746
2.0887606 -3.5028851 17.240717 16711746
2.6984718 -3.4132509 16.999332 16711746
3.2738883 -3.4149878 16.823446 16711746
2.9377658 -3.5971923 16.814795 16711746
3.0065513 -3.2584305 16.914227 16711746
3.0179179 -3.3142507 16.869122 16711746
3.1281593 -3.5906527 17.026646 16711746
3.7859719 -3.2116468 16.784317 16711746
3.229362 -3.8781929 17.028173 16711746
3.0091689 -3.3559856 16.753265 16711746
3.0074823 -3.5366485 17.393175 16711746
4.7816458 -4.594799 17.797089 16711746
3.6369226 -3.7121885 16.69277 16711746
3.5383396 -3.3716235 16.8216 16711746
3.4212267 -3.1953483 17.499186 16711746
3.4670484 -3.2870729 17.542526 16711746
3.9883862 -3.5246344 16.966509 16711746
3.8100796 -3.4952736 16.926905 16711746
3.8365941 -3.3355432 17.297136 16711746
3.1874492 -3.1839268 16.814571 16711746
3.6544249 -3.7449923 17.207352 16711746
3.0623891 -3.1187122 16.877964 16711746
3.3390284 -3.7108598 17.447086 16711746
3.1040823 -3.4154007 16.740973 16711746
3.9081223 -3.6702952 16.931696 16711746
3.0596635 -3.2306621 16.832743 16711746
2.6720738 -3.3598728 16.780958 16711746
3.7752311 -3.7049062 17.298754 16711746
3.1830747 -3.166115 16.83145 16711746
2.8963714 -3.6140974 17.549051 16711746
3.5820446 -3.4138634 17.344433 16711746
4.1250672 -3.9396548 17.094639 16711746
3.5285673 -3.8387902 17.443182 16711746
3.9497278 -3.417186 17.438589 16711746
4.208395 -3.9339957 17.843494 16711746
4.1022444 -3.7566442 17.459177 16711746
3.0911086 -3.7879767 16.65394 16711746
3.6418326 -3.9059722 17.543056 16711746
3.5048153 -4.2657413 18.036022 16711746
0.99063867 -5.5089598 17.780148 16711746
3.8391368 -4.4679208 18.600281 16711746
4.388588 -4.0732746 17.866364 16711746
3.7854097 -4.8545442 18.89707 16711746
3.7814195 -3.207057 17.244019 16711746
3.4707794 -3.0817599 16.848253 16711746
3.6246138 -3.6174529 17.22138 16711746
3.617409 -3.6450543 17.060701 16711746
3.7896831 -3.9787238 17.655046 16711746
4.4220395 -3.7890265 17.483946 16711746
4.2078238 -3.7558317 17.409832 16711746
4.1939626 -3.9587531 17.719397 16711746
4.5557652 -3.6696234 17.685671 16711746
3.865669 -3.8866255 17.360725 16711746
3.905375 -3.6073885 17.252258 16711746
3.9947193 -3.3773201 17.385939 16711746
3.4449217 -3.2951059 16.902319 16711746
3.4591737 -3.723388 17.051199 16711746
4.105288 -3.838151 17.550573 16711746
3.8187141 -3.6877382 17.265932 16711746
3.8471262 -3.8952274 17.536045 16711746
3.6742415 -3.6979911 17.093025 16711746
3.5045869 -3.6400146 17.116358 16711746
4.2170582 -3.9597545 18.08046 16711746
3.2005506 -3.6620493 17.093096 16711746
3.6249542 -3.6620469 17.275204 16711746
4.0412464 -3.4772687 17.159073 16711746
3.709619 -3.8478112 17.351856 16711746
4.151444 -3.6531072 17.481758 16711746
3.2393405 -3.9583952 17.716616 16711746
3.8857803 -3.3611441 17.204876 16711746
3.2983036 -3.6176243 17.179924 16711746
3.6006513 -3.204813 16.846254 16711746
3.4775233 -4.0439734 17.819405 16711746
3.5552289 -3.4748421 17.141064 16711746
3.2352431 -3.5160174 17.14859 16711746
4.2702889 -3.9998186 17.846714 16711746
4.2634511 -3.5067894 17.4554 16711746
3.8775055 -3.6749969 17.366341 16711746
3.843329 -3.5030365 17.159256 16711746
3.8010166 -3.3962209 17.103268 16711746
3.8405008 -4.1237979 17.729275 16711746
3.8028042 -3.7945099 17.492249 16711746
4.1298199 -4.0271277 17.860512 16711746
4.5571971 -3.6885462 17.690119 16711746
3.4106288 -3.9699068 17.942677 16711746
3.5551851 -3.2240038 17.2668 16711746
3.75458 -3.6311362 17.27079 16711746
3.2799404 -3.3043048 17.10033 16711746
4.7499752 -4.1980228 17.909784 16711746
3.6816683 -4.0288472 17.546215 16711746
4.4288383 -3.9694676 17.44631 16711746
3.6037762 -3.0752158 16.816452 16711746
4.1213279 -3.6632636 17.261345 16711746
3.408648 -4.0922351 18.025187 16711746
3.5247598 -3.9972799 17.591719 16711746
4.5001159 -4.1617756 17.489735 16711746
3.7521973 -4.5069108 18.323141 16711746
3.8041589 -3.3755567 17.037907 16711746
3.664232 -3.7816656 17.460979 16711746
3.7223074 -3.0255773 16.875509 16711746
4.2692418 -3.7805455 17.492788 16711746
3.7155108 -3.9847231 18.278872 16711746
2.6164753 -3.9501843 17.78134 16711746
2.7140064 -3.6167963 17.709433 16711746
3.9614191 -4.0122037 17.331652 16711746
3.9695051 -3.8310118 17.356153 16711746
3.4071898 -3.6948047 17.420948 16711746
4.3584237 -3.9058955 17.366812 16711746
4.072649 -4.5454154 18.266945 16711746
5.2267756 -4.2131033 18.244038 16711746
3.7781055 -3.1629858 16.866186 16711746
