# .PCD v.7 - Point Cloud Data file format
VERSION .7
FIELDS x y z rgb
SIZE 4 4 4 4
TYPE F F F F
COUNT 1 1 1 1
WIDTH 151
HEIGHT 1
VIEWPOINT 0 0 0 1 0 0 0
POINTS 151
DATA ascii

-0.6055235 -0.8066512 0.4194921 16711746
-0.4018148 -0.9251849 0.5380458 16711746
-0.6822084 -0.5774971 0.5969577 16711746
-0.2086636 -0.7422543 0.7100303 16711746
-0.4924369 -0.7619999 0.7555847 16711746
-0.5860154 -0.7148144 0.6525065 16711746
-0.5093973 -0.7958933 0.6624720 16711746
-0.4803227 -0.7989711 0.7066237 16711746
-0.4266372 -1.0038862 0.4307462 16711746
-0.4844182 -0.8903915 0.3794892 16711746
-0.3916710 -0.8693238 0.6795678 16711746
-0.5170847 -0.9311115 0.3715195 16711746
-0.5869849 -0.8393157 0.3920496 16711746
-0.6644241 -0.7207962 0.3825149 16711746
-0.6329017 -0.7711856 0.3875905 16711746
-0.4171119 -0.8956814 0.5929872 16711746
0.2193547 -0.7851158 0.4880365 16711746
-0.2974472 -0.9387445 0.6111033 16711746
-0.7512571 -0.5188388 0.3812519 16711746
-0.7154863 -0.6204965 0.3920096 16711746
-0.1808977 -0.7219857 0.7357047 16711746
-0.1559098 -1.0335079 0.4314186 16711746
-0.1919865 -0.9903829 0.5338604 16711746
0.2442625 -0.7229403 0.5222932 16711746
-0.1351898 -0.9835560 0.5437264 16711746
-0.3056899 -1.1042404 0.4565401 16711746
-0.5177725 -0.9376014 0.3246981 16711746
-0.5614832 -0.8850076 0.3279158 16711746
-0.1931416 -0.9681652 0.5799140 16711746
-0.2422491 -0.9726901 0.5626278 16711746
-0.6388457 -0.7542177 0.4167553 16711746
-0.5810738 -0.8407840 0.4272667 16711746
-0.5980107 -0.8219957 0.3994918 16711746
-0.6097161 -0.8099194 0.3740799 16711746
-0.4424827 -0.8746839 0.6041549 16711746
0.2067506 -0.6122071 0.5531368 16711746
-0.6989266 -0.6714000 0.3363563 16711746
-0.6662393 -0.7251838 0.3584765 16711746
-0.1631316 -1.0368474 0.4213583 16711746
-0.2506882 -0.9609084 0.5850154 16711746
0.0906337 -0.7802749 0.6645338 16711746
-0.0980194 -0.9412766 0.6102864 16711746
-0.0335434 -0.8912224 0.5853518 16711746
-0.6078395 -0.5522765 0.8826951 16711746
-3.1984532 -1.9511753 1.4846596 16711746
-0.2902414 -2.9248168 2.7375350 16711746
-0.2418429 -2.3543119 2.0378191 16711746
-0.2946619 -3.7470913 3.0961120 16711746
-0.7964773 -3.2804708 2.3168678 16711746
-0.9261997 -3.2841325 2.3484011 16711746
-0.2737070 -2.3804140 1.5397538 16711746
-0.8773996 -3.2553661 2.0406311 16711746
-3.6109073 -2.6836050 1.4568791 16711746
-4.3707185 -2.9999795 1.7675704 16711746
-0.1119022 -3.0917087 2.5855477 16711746
-0.0666493 -2.5830126 2.4270048 16711746
-3.3055537 -1.2843107 4.0076103 16711746
-2.8850629 -0.9917976 3.2961180 16711746
-3.3852148 -1.4837452 1.8613248 16711746
3.6004975 -7.2304382 9.3177929 16711746
-0.1258976 -2.7413223 3.3930581 16711746
-0.8667939 -2.6755416 3.1425765 16711746
-0.1001528 -2.2625654 1.9885272 16711746
-1.4432812 -2.3631623 0.9722334 16711746
-0.1240731 -2.9399261 1.4717697 16711746
-4.7960320 -2.8523719 2.3219659 16711746
-0.2992382 -4.1942692 4.2566595 16711746
-0.5061107 -3.3455348 3.1917858 16711746
-0.8909178 -3.3243248 3.6848018 16711746
-1.1277199 -2.7473927 2.6683936 16711746
-0.1565010 -0.2083195 0.0615714 16711746
-2.6529362 -3.9228878 1.8937579 16711746
-3.0440247 -2.4071422 1.2637756 16711746
-0.1512429 -2.0152569 1.6892674 16711746
-0.2969580 -3.0776134 1.9590513 16711746
-1.7069980 -1.8807522 1.0254662 16711746
-0.0164981 -2.5855932 2.1989238 16711746
0.1259771 -1.2221454 2.2901239 16711746
-4.1463351 -1.6124514 5.0454326 16711746
-0.5873048 -3.3170884 2.6625454 16711746
-0.3713538 -4.3841200 4.8023782 16711746
-1.0803368 -3.1205876 1.4962095 16711746
-1.6712651 -3.1209779 1.3202081 16711746
-1.9560277 -3.6341779 1.3882382 16711746
-2.2825911 -4.1788158 1.8470783 16711746
-0.3093405 -1.1529526 1.3136348 16711746
-0.2289033 -2.2760315 2.1328278 16711746
-4.2329254 -1.6861140 1.9597100 16711746
-0.3452137 -1.2860434 1.4612888 16711746
-0.0026829 -0.2765138 0.1058706 16711746
-2.7854812 -2.9103568 1.7263687 16711746
-3.6957717 -3.1749089 1.8669752 16711746
-3.2706006 -1.9399819 1.4289799 16711746
-1.9144266 -2.9563205 1.3872769 16711746
-0.6309006 -2.7859004 1.8964968 16711746
0.1078196 -1.4758192 0.7282881 16711746
-1.0672897 -3.4366701 2.1049538 16711746
-0.5232282 -3.0308311 2.6957541 16711746
0.2208802 -2.3988650 4.2795372 16711746
-0.6354678 -1.9816970 2.7413738 16711746
-0.0078838 -0.1060368 0.0426444 16711746
-1.4354662 -2.7678556 1.1264623 16711746
-1.4269601 -3.3265035 3.8368981 16711746
-0.5099757 -3.3806534 2.3328512 16711746
-0.7391982 -2.7295048 1.7115114 16711746
-2.3866653 -2.1363299 5.1614575 16711746
-4.6387167 -2.7753429 2.0562096 16711746
0.1756695 -2.8378010 1.3662444 16711746
-2.8865268 -1.6692377 4.8574572 16711746
0.0638584 -2.8499830 2.9317353 16711746
-2.0728090 -3.3748307 1.3943882 16711746
-0.5106387 -5.0635304 4.3578591 16711746
-2.6963444 -3.1813171 2.0405049 16711746
0.2995439 -2.7778909 1.3914623 16711746
-0.5207268 -2.9217634 2.6017849 16711746
-2.6329324 -3.6419125 1.6807868 16711746
0.1108024 -1.3348280 2.3614526 16711746
-2.1499214 -3.3611770 1.2505196 16711746
-0.7172677 -2.8291068 1.2262738 16711746
-0.1968497 -0.3200337 0.0991422 16711746
2.0126917 -0.4266319 2.6878326 16711746
-0.7685428 -1.3754585 1.8820354 16711746
-1.1200877 -3.3982594 1.6174372 16711746
-0.2309669 -2.7199996 2.4995277 16711746
-3.2175217 -3.2045059 1.7911719 16711746
-2.5212207 -4.0609689 1.3844886 16711746
-0.4447450 -3.1155717 3.0328307 16711746
-0.4308702 -3.7143590 1.6526456 16711746
-0.2831422 -3.4669414 3.1943798 16711746
-0.6174411 -2.5629179 1.6968125 16711746
0.0150773 -2.7205627 2.8120837 16711746
-0.5179427 -3.4428065 3.3058043 16711746
-0.3207217 -2.2871628 2.0960789 16711746
-0.3069467 -2.8741512 1.8088694 16711746
0.1557090 -3.2031276 2.2131903 16711746
-0.2240206 -2.2739997 2.0468087 16711746
-0.5922346 -3.6599319 1.6394529 16711746
-3.4557590 -1.5083126 1.9132104 16711746
-0.3575716 -1.2384557 1.7784913 16711746
-2.1257493 -0.8759543 3.4972477 16711746
-2.6780934 -3.9609971 1.9093096 16711746
-0.8752244 -2.7926893 1.7015996 16711746
-1.8883877 -3.5331087 1.4920481 16711746
-2.2763453 -1.9652179 5.7131939 16711746
-2.6619344 -1.7707533 2.6182206 16711746
-3.1142869 -1.3595129 1.7188517 16711746
-2.7975938 -4.3843198 1.6436847 16711746
-4.2250032 -1.7992952 2.4746552 16711746
-2.0423257 -3.7968347 1.4402984 16711746
-0.7117523 -3.6280158 3.0816467 16711746
-0.3718284 -2.4772360 1.9611697 16711746
