# .PCD v.7 - Point Cloud Data file format
VERSION .7
FIELDS x y z rgb
SIZE 4 4 4 4
TYPE F F F F
COUNT 1 1 1 1
WIDTH 220
HEIGHT 1
VIEWPOINT 0 0 0 1 0 0 0
POINTS 220
DATA ascii

 0.0000000 0.0000000 0.0000000 16777215
 0.0151029 -0.0005220 0.0248872 16777215
 0.0187163 -0.0007643 0.0379001 16777215
 0.0255328 0.0053087 0.0427359 16777215
 0.0223574 0.0012914 0.0592850 16777215
 0.0329349 0.0001199 0.0701826 16777215
 0.0295780 -0.0015614 0.0803084 16777215
 0.0335918 0.0019792 0.0939541 16777215
 0.0357740 0.0017732 0.1025983 16777215
 0.0414117 0.0028771 0.1156738 16777215
 0.0451457 0.0049959 0.1237532 16777215
 0.0535947 0.0056379 0.1416914 16777215
 0.0615976 0.0035783 0.1510517 16777215
 0.0708761 -0.0002289 0.1672180 16777215
 0.0790945 0.0018612 0.1816924 16777215
 0.0845815 0.0035069 0.2016310 16777215
 0.0878780 0.0038066 0.2179429 16777215
 0.0955427 0.0016526 0.2353956 16777215
 0.1016169 0.0017927 0.2563878 16777215
 0.1109332 0.0033135 0.2797676 16777215
 0.1223763 0.0038124 0.3043070 16777215
 0.1397083 0.0026951 0.3262063 16777215
 0.1477048 0.0018967 0.3476502 16777215
 0.1560497 0.0045575 0.3729151 16777215
 0.1599246 0.0025368 0.4041742 16777215
 0.1731020 0.0019949 0.4256618 16777215
 0.1905135 0.0019512 0.4535994 16777215
 0.2082611 0.0051251 0.4777357 16777215
 0.2240924 0.0069643 0.5022779 16777215
 0.2330064 0.0100907 0.5311651 16777215
 0.2425334 0.0106229 0.5563976 16777215
 0.2550282 0.0118010 0.5825651 16777215
 0.2735353 0.0157237 0.6030133 16777215
 0.2864847 0.0178787 0.6167854 16777215
 0.2953922 0.0210924 0.6355962 16777215
 0.3050820 0.0221425 0.6602359 16777215
 0.3075998 0.0188154 0.6776400 16777215
 0.3117713 0.0229453 0.6979421 16777215
 0.3265871 0.0248030 0.7222838 16777215
 0.3411097 0.0247368 0.7436824 16777215
 0.3512632 0.0250919 0.7598410 16777215
 0.3568560 0.0302906 0.7798963 16777215
 0.3628716 0.0274030 0.8040967 16777215
 0.3658407 0.0270470 0.8256024 16777215
 0.3711714 0.0260420 0.8459016 16777215
 0.3789407 0.0301862 0.8636419 16777215
 0.3918815 0.0281863 0.8801825 16777215
 0.3971859 0.0270223 0.8984384 16777215
 0.4002756 0.0255432 0.9126005 16777215
 0.3982649 0.0234626 0.9310863 16777215
 0.4015603 0.0234798 0.9518552 16777215
 0.4066374 0.0251099 0.9723762 16777215
 0.4123988 0.0228973 0.9914484 16777215
 0.4238850 0.0200546 1.0056347 16777215
 0.4292898 0.0201039 1.0175924 16777215
 0.4360602 0.0204318 1.0346746 16777215
 0.4365427 0.0197276 1.0555323 16777215
 0.4437051 0.0181821 1.0726186 16777215
 0.4480765 0.0191505 1.0896816 16777215
 0.4534631 0.0202446 1.1047384 16777215
 0.4651118 0.0198596 1.1211739 16777215
 0.4760316 0.0168354 1.1372089 16777215
 0.4831804 0.0177794 1.1528844 16777215
 0.4857912 0.0172734 1.1693187 16777215
 0.4904518 0.0175395 1.1866266 16777215
 0.4977562 0.0159874 1.2034655 16777215
 0.5058278 0.0163754 1.2241775 16777215
 0.5172936 0.0180349 1.2401077 16777215
 0.5236112 0.0150306 1.2542790 16777215
 0.5318086 0.0154773 1.2741132 16777215
 0.5390812 0.0128560 1.2950842 16777215
 0.5420907 0.0098093 1.3126258 16777215
 0.5488250 0.0108946 1.3305881 16777215
 0.5568599 0.0098454 1.3460282 16777215
 0.5637831 0.0111761 1.3588775 16777215
 0.5725457 0.0092950 1.3701251 16777215
 0.5786135 0.0103195 1.3800478 16777215
 0.5862873 0.0108507 1.3944311 16777215
 0.5900755 0.0113837 1.4056745 16777215
 0.5967748 0.0096585 1.4169754 16777215
 0.6038549 0.0082275 1.4292494 16777215
 0.6126007 0.0088871 1.4403166 16777215
 0.6197072 0.0042589 1.4510767 16777215
 0.6206090 0.0066481 1.4697714 16777215
 0.6205522 0.0041451 1.4859091 16777215
 0.6230541 0.0026330 1.4977391 16777215
 0.6276922 0.0029576 1.5118227 16777215
 0.6332195 0.0006338 1.5300813 16777215
 0.6416528 -0.0016086 1.5454612 16777215
 0.6458838 -0.0016427 1.5651835 16777215
 0.6460131 -0.0003086 1.5856690 16777215
 0.6506624 -0.0031429 1.6035691 16777215
 0.6555464 -0.0021588 1.6177708 16777215
 0.6643453 -0.0027197 1.6322831 16777215
 0.6748840 -0.0043739 1.6447810 16777215
 0.6833646 -0.0048833 1.6589210 16777215
 0.6873672 -0.0043506 1.6785817 16777215
 0.6920028 -0.0062303 1.6934476 16777215
 0.6992821 -0.0069583 1.7076391 16777215
 0.7058786 -0.0059357 1.7243289 16777215
 0.7178662 -0.0062760 1.7370286 16777215
 0.7269464 -0.0072191 1.7516980 16777215
 0.7322931 -0.0066135 1.7669446 16777215
 0.7360484 -0.0056924 1.7837512 16777215
 0.7409955 -0.0075854 1.7996624 16777215
 0.7441864 -0.0073929 1.8114507 16777215
 0.7526320 -0.0037995 1.8298619 16777215
 0.7620454 -0.0041247 1.8454431 16777215
 0.7671908 -0.0047831 1.8588740 16777215
 0.7711529 -0.0046088 1.8704743 16777215
 0.7739511 -0.0064177 1.8868543 16777215
 0.7786416 -0.0057126 1.9009409 16777215
 0.7828209 -0.0062059 1.9157484 16777215
 0.7863508 -0.0054629 1.9281999 16777215
 0.7931673 -0.0058217 1.9432791 16777215
 0.8002936 -0.0059828 1.9566768 16777215
 0.8041109 -0.0064608 1.9712287 16777215
 0.8093958 -0.0073372 1.9887009 16777215
 0.8138486 -0.0073308 2.0015461 16777215
 0.8201733 -0.0075569 2.0146296 16777215
 0.8260435 -0.0080948 2.0277107 16777215
 0.8334560 -0.0077259 2.0390155 16777215
 0.8378861 -0.0078772 2.0487292 16777215
 0.8429347 -0.0076321 2.0625491 16777215
 0.8452231 -0.0076963 2.0752943 16777215
 0.8507837 -0.0100045 2.0876598 16777215
 0.8538113 -0.0086896 2.0972502 16777215
 0.8622915 -0.0099495 2.1102777 16777215
 0.8663483 -0.0107750 2.1207399 16777215
 0.8733576 -0.0109616 2.1307843 16777215
 0.8769317 -0.0113817 2.1473191 16777215
 0.8796340 -0.0115810 2.1569653 16777215
 0.8844297 -0.0124789 2.1681581 16777215
 0.8889409 -0.0114022 2.1798527 16777215
 0.8977042 -0.0128351 2.1909704 16777215
 0.9019915 -0.0141921 2.1984839 16777215
 0.9056563 -0.0142803 2.2094460 16777215
 0.9080267 -0.0147954 2.2224808 16777215
 0.9105343 -0.0138062 2.2337174 16777215
 0.9156470 -0.0160592 2.2425470 16777215
 0.9197453 -0.0142412 2.2528343 16777215
 0.9294734 -0.0150406 2.2621722 16777215
 0.9343022 -0.0164662 2.2722735 16777215
 0.9370278 -0.0162019 2.2837999 16777215
 0.9404227 -0.0171185 2.2955544 16777215
 0.9430075 -0.0169787 2.3054984 16777215
 0.9461255 -0.0156476 2.3161316 16777215
 0.9539266 -0.0169994 2.3277168 16777215
 0.9604907 -0.0188327 2.3345401 16777215
 0.9643213 -0.0174394 2.3461993 16777215
 0.9678597 -0.0185500 2.3603282 16777215
 0.9720397 -0.0188102 2.3719418 16777215
 0.9763424 -0.0172434 2.3821609 16777215
 0.9820602 -0.0187735 2.3939271 16777215
 0.9877089 -0.0191439 2.4006491 16777215
 0.9928099 -0.0192636 2.4091425 16777215
 0.9953833 -0.0185306 2.4201922 16777215
 1.0003153 -0.0193402 2.4296350 16777215
 1.0026149 -0.0193738 2.4367142 16777215
 1.0073850 -0.0192826 2.4464688 16777215
 1.0139339 -0.0197253 2.4574320 16777215
 1.0211319 -0.0215718 2.4693556 16777215
 1.0231766 -0.0208693 2.4816587 16777215
 1.0253718 -0.0224326 2.4924519 16777215
 1.0294641 -0.0212303 2.5005136 16777215
 1.0324616 -0.0210050 2.5104132 16777215
 1.0379024 -0.0200938 2.5184908 16777215
 1.0414950 -0.0237329 2.5268445 16777215
 1.0420700 -0.0240977 2.5337059 16777215
 1.0471467 -0.0270084 2.5433829 16777215
 1.0451382 -0.0266999 2.5516913 16777215
 1.0482798 -0.0280091 2.5618725 16777215
 1.0519071 -0.0296475 2.5709648 16777215
 1.0579661 -0.0325017 2.5791767 16777215
 1.0622052 -0.0306436 2.5833833 16777215
 1.0643872 -0.0313012 2.5916705 16777215
 1.0683975 -0.0313229 2.6003613 16777215
 1.0720744 -0.0312894 2.6098444 16777215
 1.0740229 -0.0313280 2.6180816 16777215
 1.0800359 -0.0314917 2.6266208 16777215
 1.0866326 -0.0320510 2.6343136 16777215
 1.0888965 -0.0323396 2.6418986 16777215
 1.0932674 -0.0334825 2.6486623 16777215
 1.0973151 -0.0334773 2.6555796 16777215
 1.1010784 -0.0325993 2.6619818 16777215
 1.1052905 -0.0334808 2.6673074 16777215
 1.1089787 -0.0348653 2.6732299 16777215
 1.1130006 -0.0349809 2.6768715 16777215
 1.1152128 -0.0340573 2.6810293 16777215
 1.1167523 -0.0339679 2.6868548 16777215
 1.1150485 -0.0361158 2.6923177 16777215
 1.1180415 -0.0354353 2.6958232 16777215
 1.1192135 -0.0364579 2.7007535 16777215
 1.1226732 -0.0358846 2.7053607 16777215
 1.1246824 -0.0356653 2.7100031 16777215
 1.1240337 -0.0361334 2.7145388 16777215
 1.1263680 -0.0358827 2.7170830 16777215
 1.1316137 -0.0350698 2.7225916 16777215
 1.1315894 -0.0353472 2.7293370 16777215
 1.1307782 -0.0345189 2.7334807 16777215
 1.1313990 -0.0356759 2.7385435 16777215
 1.1322130 -0.0354898 2.7429888 16777215
 1.1346912 -0.0363281 2.7479358 16777215
 1.1367908 -0.0363827 2.7518916 16777215
 1.1402640 -0.0358636 2.7552974 16777215
 1.1403341 -0.0363282 2.7585189 16777215
 1.1416959 -0.0372257 2.7618709 16777215
 1.1420126 -0.0357713 2.7618163 16777215
 1.1423485 -0.0352153 2.7623315 16777215
 1.1426860 -0.0353580 2.7632198 16777215
 1.1437788 -0.0348328 2.7629962 16777215
 1.1438055 -0.0346795 2.7631447 16777215
 1.1452181 -0.0327823 2.7623842 16777215
 1.1452367 -0.0328580 2.7626605 16777215
 1.1447746 -0.0327479 2.7626834 16777215
 1.1447719 -0.0328995 2.7630949 16777215
 1.1449786 -0.0327827 2.7630887 16777215
 1.1447432 -0.0328387 2.7631907 16777215
 1.1445076 -0.0329043 2.7631233 16777215
 1.1445415 -0.0328044 2.7630653 16777215
