# .PCD v.7 - Point Cloud Data file format
VERSION .7
FIELDS x y z rgb
SIZE 4 4 4 4
TYPE F F F F
COUNT 1 1 1 1
WIDTH 119
HEIGHT 1
VIEWPOINT 0 0 0 1 0 0 0
POINTS 119
DATA ascii

 0.0254673 -0.1065973 0.1891404 16777215
 0.0467451 -0.1718437 0.2070867 16777215
 0.0448793 -0.2607188 0.2034740 16777215
 0.0463338 -0.2535738 0.2483932 16777215
 0.0841171 -0.2779140 0.2433448 16777215
 0.0840208 -0.2768924 0.2438687 16777215
 0.0855518 -0.2957744 0.2913885 16777215
 0.1200449 -0.3056267 0.3192907 16777215
 0.1450513 -0.3076548 0.3541276 16777215
 0.1735397 -0.3604629 0.3744873 16777215
 0.2206521 -0.3819146 0.4196668 16777215
 0.2911099 -0.3686508 0.4485765 16777215
 0.3091130 -0.3959721 0.4719089 16777215
 0.3088759 -0.3933927 0.5331473 16777215
 0.3738069 -0.4531054 0.5736485 16777215
 0.4068125 -0.4880385 0.5930651 16777215
 0.1786956 -0.3962181 0.7622433 16777215
 0.3029997 -0.4852553 0.7341425 16777215
 0.3474569 -0.3119383 0.8141543 16777215
 0.4863864 -0.3886684 0.8248401 16777215
 0.1388370 -0.5470126 0.9339470 16777215
 0.1428536 -0.5802531 0.9463000 16777215
 0.1640437 -0.6476789 0.9796410 16777215
 -0.0131140 -0.3889169 1.0917372 16777215
 -0.0796576 -0.4799550 1.1854376 16777215
 0.0519091 -0.5592383 1.1544423 16777215
 -0.0182461 -0.4830261 1.2104785 16777215
 0.0026027 -0.5033325 1.2376096 16777215
 0.0304559 -0.4875829 1.2450908 16777215
 -0.0505405 -0.2832360 1.2913799 16777215
 0.0346066 -0.3289307 1.2870269 16777215
 0.0784875 -0.4184726 1.3260100 16777215
 0.0152305 -0.3095302 1.4322163 16777215
 0.0705322 -0.3943539 1.4563677 16777215
 -0.0488092 -0.3744474 1.6216292 16777215
 -0.0573498 -0.4363860 1.6362896 16777215
 -0.1132392 -0.3892614 1.7367750 16777215
 -0.1326272 -0.3722232 1.7871878 16777215
 -0.1514531 -0.3777372 1.8088505 16777215
 -0.0900789 -0.2906951 1.9126451 16777215
 -0.1218296 -0.4913409 1.9302394 16777215
 -0.2012253 -0.4894662 1.9800879 16777215
 -0.0677601 -0.4892977 2.0009575 16777215
 -0.0260375 -0.5126891 2.0127866 16777215
 -0.0019352 -0.5351238 2.0367820 16777215
 -0.0196587 -0.4684831 2.0739841 16777215
 0.0296036 -0.5190927 2.2224038 16777215
 0.0117467 -0.3967966 2.1729200 16777215
 0.1544971 -0.6048599 2.2972496 16777215
 0.1488497 -0.5360770 2.3096774 16777215
 -0.0128185 -0.4969447 2.4657824 16777215
 0.0065179 -0.5012724 2.4522047 16777215
 -0.0625781 -0.4936566 2.5611722 16777215
 -0.1064571 -0.4597808 2.5930612 16777215
 -0.0520677 -0.6107939 2.5981302 16777215
 0.0001377 -0.5927093 2.6455121 16777215
 0.0133954 -0.5712295 2.6423624 16777215
 -0.0211818 -0.5937114 2.6887822 16777215
 0.0097272 -0.6779861 2.7581584 16777215
 0.0351187 -0.6617174 2.7653484 16777215
 -0.0751426 -0.5338627 2.8583064 16777215
 -0.1501263 -0.5387836 2.9019165 16777215
 -0.1365225 -0.4468347 2.9959927 16777215
 -0.1166572 -0.5041475 3.0028396 16777215
 -0.0841356 -0.5528294 3.0563970 16777215
 -0.0734182 -0.5721872 3.1028399 16777215
 -0.0830827 -0.5802238 3.1196840 16777215
 -0.0817103 -0.5689852 3.1404924 16777215
 0.0224600 -0.5479375 3.1495578 16777215
 -0.0979882 -0.4387208 3.2161844 16777215
 -0.0617802 -0.4781678 3.2500298 16777215
 -0.0380947 -0.6187805 3.2836673 16777215
 -0.1257543 -0.5372469 3.4519987 16777215
 -0.1065458 -0.5573208 3.4587021 16777215
 -0.1448793 -0.6131929 3.4454014 16777215
 -0.1564458 -0.5631450 3.4342053 16777215
 -0.1279426 -0.5823266 3.4745872 16777215
 -0.1092756 -0.5969642 3.4830408 16777215
 -0.0989099 -0.6085359 3.5147476 16777215
 -0.0926315 -0.6358936 3.5216618 16777215
 -0.1702878 -0.4685683 3.5864007 16777215
 -0.1378990 -0.5054196 3.6134777 16777215
 -0.1445357 -0.4592367 3.6289954 16777215
 -0.2654372 -0.4688523 3.7429872 16777215
 -0.2998582 -0.4413420 3.8112364 16777215
 -0.2344534 -0.5305184 3.7601838 16777215
 -0.2133293 -0.5812228 3.7283740 16777215
 -0.2120833 -0.5514703 3.8039384 16777215
 -0.1809554 -0.6196730 3.8477871 16777215
 -0.1251424 -0.6231645 3.9187441 16777215
 -0.1383001 -0.6076167 3.8953872 16777215
 -0.1278050 -0.6122799 3.9153194 16777215
 -0.1090401 -0.6478970 3.9167709 16777215
 -0.1849125 -0.5081095 3.8873920 16777215
 -0.1883795 -0.5318294 3.9326959 16777215
 -0.1598060 -0.5569245 3.9357433 16777215
 -0.1738827 -0.5497110 3.9609637 16777215
 -0.1684288 -0.5633838 3.9769626 16777215
 -0.1760985 -0.5893261 3.9939289 16777215
 -0.1425384 -0.5969958 4.0151153 16777215
 -0.1197476 -0.6217126 4.0158491 16777215
 -0.1194739 -0.6277003 4.0380492 16777215
 -0.1659216 -0.5876800 4.0784516 16777215
 -0.1016608 -0.6674298 4.1261473 16777215
 -0.0677016 -0.5382284 4.1542230 16777215
 0.0214158 -0.6948822 4.0820923 16777215
 -0.0115198 -0.7348140 4.1116195 16777215
 -0.0248154 -0.7363660 4.1402040 16777215
 -0.0380743 -0.7302507 4.1694412 16777215
 -0.1528980 -0.6151084 4.1968455 16777215
 -0.1642881 -0.5893490 4.2500134 16777215
 -0.1333999 -0.6185126 4.2452908 16777215
 -0.1550583 -0.6274221 4.2676392 16777215
 -0.1604378 -0.6340579 4.2874236 16777215
 -0.1556335 -0.6460054 4.2969446 16777215
 -0.1569018 -0.6447245 4.3110504 16777215
 -0.1450560 -0.6714969 4.3207316 16777215
 -0.1438484 -0.6661656 4.3239994 16777215
 -0.1841594 -0.6763877 4.3403845 16777215
