# .PCD v.7 - Point Cloud Data file format
VERSION .7
FIELDS x y z rgb
SIZE 4 4 4 4
TYPE F F F F
COUNT 1 1 1 1
WIDTH 78
HEIGHT 1
VIEWPOINT 0 0 0 1 0 0 0
POINTS 78
DATA ascii

1.5865670 -0.3127896 2.4980311 16711746
0.1329847 -0.3979753 0.9663351 16711746
-0.6106613 -0.3972635 1.0752609 16711746
0.1783052 -0.2909414 0.8663605 16711746
0.4858021 0.0667738 2.7270076 16711746
0.0604498 -0.3288128 1.0087059 16711746
0.2839749 -0.3685944 1.1066126 16711746
0.0661915 -0.2653909 0.8537019 16711746
1.4696726 -0.3798949 2.1872797 16711746
0.8314723 -0.3795789 1.0933760 16711746
0.6321847 -0.3593538 0.9680490 16711746
0.2801620 -0.3337164 0.8148140 16711746
0.0940059 -0.3181548 1.3365750 16711746
1.4767129 -0.2854374 2.1344516 16711746
1.0643851 -0.2874033 1.7937154 16711746
1.6953963 -0.3092341 1.9311746 16711746
0.2796969 -0.3788348 1.4905791 16711746
-0.1128659 -0.2269380 1.6155933 16711746
-0.1570085 -0.1187179 2.1125398 16711746
0.2408907 -0.0731519 1.9007423 16711746
0.1733363 -0.4307971 1.5742071 16711746
0.0871554 -0.3032676 0.7455347 16711746
0.9050646 -0.2610955 2.1683648 16711746
1.1882097 -0.2712218 2.6385891 16711746
0.7331028 -0.2692952 1.8639693 16711746
-0.6035042 -0.3480657 1.0649979 16711746
-0.0581135 -0.3197531 0.9505708 16711746
-0.3299446 -0.3032025 0.7591559 16711746
0.0640294 -0.3248736 0.8089181 16711746
0.0719781 -0.3370426 0.8120514 16711746
0.8212849 -0.3992222 1.5763791 16711746
0.2860397 -0.4218481 1.1283783 16711746
-0.4985758 -0.3445992 0.8815175 16711746
-0.5519074 -0.3439609 0.8301561 16711746
0.7440127 0.0432560 2.5600543 16711746
0.6996522 0.0249542 2.5374029 16711746
0.0170807 -0.3492849 0.9296574 16711746
-0.4545995 -0.3613238 0.8905964 16711746
0.5239424 -0.3543878 1.6108655 16711746
0.2994784 -0.3201740 1.3344450 16711746
0.3106724 -0.3343503 1.3459617 16711746
1.9310435 -0.0627343 1.8873934 16711746
0.4630555 -0.4746466 1.6125753 16711746
1.2877178 -0.2041052 2.6947136 16711746
0.7213925 -0.1959122 2.0401993 16711746
-0.1749767 -0.2043379 1.3306801 16711746
0.9947528 0.0379718 2.3171418 16711746
-0.6112113 -0.3645047 1.0275179 16711746
-0.4473536 -0.3508877 0.8431066 16711746
0.6686493 -0.4186929 1.5393076 16711746
0.3006610 -0.3168279 0.8834407 16711746
0.2532008 -0.3191011 0.8868095 16711746
0.3726463 -0.1970140 1.8160708 16711746
0.2959429 -0.2551342 1.3003031 16711746
0.5360528 -0.1422027 2.1573348 16711746
0.9210925 -0.1146183 2.0478606 16711746
-0.3364217 -0.2335547 1.5905517 16711746
0.4336519 -0.3921071 1.1831579 16711746
0.7702355 0.1042180 2.1839085 16711746
0.0752494 -0.1237704 1.8060958 16711746
-0.0713115 -0.3120003 0.8407215 16711746
0.0675312 -0.3302059 0.9402072 16711746
-0.0664884 -0.3206901 0.8943115 16711746
-0.1636988 -0.2920113 0.7872051 16711746
0.5598916 -0.1701173 1.7070171 16711746
1.3424759 0.0557120 2.5548363 16711746
0.6579197 -0.2926094 1.6381109 16711746
1.0956296 -0.2635502 2.0030344 16711746
-0.0830866 -0.2957893 1.3136054 16711746
0.2601017 -0.2941740 1.6016257 16711746
1.3606786 -0.2922721 1.8642691 16711746
-0.6066712 -0.3625965 1.0610286 16711746
-0.4157006 -0.3461121 0.8381801 16711746
-0.3930602 -0.3295823 0.7886016 16711746
-0.7260749 -0.3874772 1.2815225 16711746
1.2607054 0.3486964 -1.6116663 16711746
-0.0709588 -0.3502781 1.4937677 16711746
-0.1464699 -0.2654887 1.5901760 16711746
