# .PCD v.7 - Point Cloud Data file format
VERSION .7
FIELDS x y z rgb
SIZE 4 4 4 4
TYPE F F F F
COUNT 1 1 1 1
WIDTH 197
HEIGHT 1
VIEWPOINT 0 0 0 1 0 0 0
POINTS 197
DATA ascii

 0.0000000 0.0000000 0.0000000 16777215
 -0.0152844 -0.0174727 0.1023734 16777215
 -0.0087232 -0.0214444 0.1249792 16777215
 0.0001276 -0.0241031 0.1393617 16777215
 0.0075471 -0.0257956 0.1574623 16777215
 0.0086916 -0.0287639 0.1639440 16777215
 0.0128544 -0.0377880 0.1841973 16777215
 0.0163168 -0.0381247 0.1960138 16777215
 0.0166429 -0.0417121 0.2109002 16777215
 0.0151954 -0.0421240 0.2314705 16777215
 0.0159755 -0.0490486 0.2598068 16777215
 0.0143316 -0.0566952 0.2782750 16777215
 0.0159786 -0.0647667 0.2968779 16777215
 0.0216230 -0.0663211 0.3214148 16777215
 0.0231361 -0.0688419 0.3365910 16777215
 0.0316720 -0.0678217 0.3582591 16777215
 0.0494597 -0.0700678 0.3919130 16777215
 0.0549782 -0.0764392 0.4259643 16777215
 0.0513278 -0.0778039 0.4573184 16777215
 0.0481151 -0.0841360 0.4903657 16777215
 0.0514377 -0.0848974 0.5175989 16777215
 0.0521512 -0.0927228 0.5494506 16777215
 0.0598296 -0.0937719 0.5777704 16777215
 0.0686014 -0.1057437 0.6109420 16777215
 0.0776090 -0.1059502 0.6336068 16777215
 0.0809722 -0.1094400 0.6643047 16777215
 0.0767164 -0.1131620 0.6968772 16777215
 0.0704503 -0.1177749 0.7258723 16777215
 0.0707372 -0.1202556 0.7609882 16777215
 0.0742083 -0.1221952 0.7947416 16777215
 0.0757889 -0.1306547 0.8358312 16777215
 0.0843108 -0.1351287 0.8601265 16777215
 0.0872137 -0.1399581 0.8835965 16777215
 0.0855754 -0.1434800 0.9093428 16777215
 0.0797583 -0.1468695 0.9390942 16777215
 0.0697103 -0.1551465 0.9782921 16777215
 0.0657341 -0.1574116 1.0163406 16777215
 0.0615789 -0.1611995 1.0672956 16777215
 0.0637615 -0.1685595 1.0986353 16777215
 0.0661510 -0.1725295 1.1224022 16777215
 0.0686183 -0.1784800 1.1515677 16777215
 0.0610083 -0.1816064 1.1776892 16777215
 0.0543961 -0.1837295 1.2043213 16777215
 0.0472917 -0.1889859 1.2312760 16777215
 0.0429878 -0.1934708 1.2582374 16777215
 0.0407438 -0.1979392 1.2880626 16777215
 0.0418905 -0.2061434 1.3255849 16777215
 0.0463988 -0.2092560 1.3543049 16777215
 0.0472666 -0.2126743 1.3797045 16777215
 0.0420417 -0.2142963 1.4084003 16777215
 0.0311213 -0.2219487 1.4388518 16777215
 0.0218904 -0.2282298 1.4697771 16777215
 0.0168681 -0.2343347 1.5079058 16777215
 0.0186432 -0.2428342 1.5571687 16777215
 0.0235260 -0.2481567 1.5815362 16777215
 0.0240230 -0.2501726 1.6057255 16777215
 0.0183656 -0.2532360 1.6331415 16777215
 0.0065836 -0.2669945 1.6752671 16777215
 0.0062465 -0.2707510 1.6957787 16777215
 0.0052228 -0.2752122 1.7199956 16777215
 0.0117578 -0.2757402 1.7443982 16777215
 0.0176335 -0.2838292 1.7798154 16777215
 0.0218636 -0.2877681 1.8091091 16777215
 0.0186658 -0.2926676 1.8561394 16777215
 0.0223386 -0.2935725 1.8788675 16777215
 0.0222467 -0.2967625 1.8987345 16777215
 0.0212399 -0.3013210 1.9209055 16777215
 0.0249489 -0.3037752 1.9437710 16777215
 0.0333720 -0.3104646 1.9719832 16777215
 0.0355255 -0.3198131 1.9954920 16777215
 0.0303080 -0.3213674 2.0312660 16777215
 0.0207581 -0.3235850 2.0642099 16777215
 0.0088661 -0.3261074 2.0953028 16777215
 0.0040614 -0.3287824 2.1349087 16777215
 0.0058551 -0.3338928 2.1670871 16777215
 0.0010733 -0.3428731 2.2085330 16777215
 -0.0033979 -0.3445506 2.2332337 16777215
 -0.0115480 -0.3489226 2.2582796 16777215
 -0.0195485 -0.3555560 2.2899597 16777215
 -0.0189607 -0.3615839 2.3298609 16777215
 -0.0131428 -0.3694712 2.3585091 16777215
 -0.0099491 -0.3765588 2.3977585 16777215
 -0.0172314 -0.3771769 2.4278665 16777215
 -0.0204866 -0.3838160 2.4572709 16777215
 -0.0239222 -0.3900220 2.4853685 16777215
 -0.0246733 -0.3904264 2.5095479 16777215
 -0.0217610 -0.3941357 2.5352702 16777215
 -0.0181091 -0.3981767 2.5580931 16777215
 -0.0166561 -0.4014841 2.5802462 16777215
 -0.0213113 -0.4008451 2.6127000 16777215
 -0.0255492 -0.4069042 2.6412864 16777215
 -0.0282729 -0.4107710 2.6691010 16777215
 -0.0301889 -0.4148044 2.7039809 16777215
 -0.0272413 -0.4183802 2.7283089 16777215
 -0.0267923 -0.4206694 2.7491269 16777215
 -0.0273090 -0.4247932 2.7825453 16777215
 -0.0337102 -0.4267216 2.8069050 16777215
 -0.0396118 -0.4332450 2.8466949 16777215
 -0.0401214 -0.4380506 2.8763666 16777215
 -0.0342617 -0.4416207 2.9168324 16777215
 -0.0335560 -0.4452989 2.9377894 16777215
 -0.0307783 -0.4495175 2.9648116 16777215
 -0.0368951 -0.4537666 2.9965518 16777215
 -0.0441618 -0.4577041 3.0323787 16777215
 -0.0447636 -0.4594800 3.0535650 16777215
 -0.0470349 -0.4615280 3.0759587 16777215
 -0.0404713 -0.4657090 3.0990441 16777215
 -0.0396808 -0.4687599 3.1245611 16777215
 -0.0390615 -0.4715129 3.1472037 16777215
 -0.0462578 -0.4753219 3.1831250 16777215
 -0.0501977 -0.4791256 3.2086630 16777215
 -0.0504329 -0.4824734 3.2307370 16777215
 -0.0509695 -0.4845383 3.2540939 16777215
 -0.0476984 -0.4905593 3.2874672 16777215
 -0.0496025 -0.4954267 3.3201001 16777215
 -0.0572181 -0.4944571 3.3439023 16777215
 -0.0631747 -0.4992493 3.3670063 16777215
 -0.0689224 -0.5054321 3.3973489 16777215
 -0.0716150 -0.5071414 3.4250784 16777215
 -0.0676662 -0.5123814 3.4529045 16777215
 -0.0694342 -0.5183024 3.4834616 16777215
 -0.0709842 -0.5187880 3.5070915 16777215
 -0.0784037 -0.5229242 3.5415442 16777215
 -0.0803640 -0.5274351 3.5673180 16777215
 -0.0813023 -0.5310992 3.5956140 16777215
 -0.0781900 -0.5372009 3.6238594 16777215
 -0.0758450 -0.5405512 3.6463599 16777215
 -0.0778533 -0.5436026 3.6745126 16777215
 -0.0811006 -0.5468234 3.7032700 16777215
 -0.0883954 -0.5495164 3.7258663 16777215
 -0.0874467 -0.5531296 3.7515147 16777215
 -0.0866131 -0.5572066 3.7785077 16777215
 -0.0775718 -0.5631267 3.8097105 16777215
 -0.0761103 -0.5654337 3.8368092 16777215
 -0.0820864 -0.5677546 3.8699996 16777215
 -0.0819998 -0.5735134 3.9010584 16777215
 -0.0836472 -0.5750797 3.9328597 16777215
 -0.0822188 -0.5809934 3.9577410 16777215
 -0.0814820 -0.5846317 3.9823494 16777215
 -0.0856952 -0.5860491 4.0023341 16777215
 -0.0897525 -0.5898374 4.0227971 16777215
 -0.0942882 -0.5925656 4.0487928 16777215
 -0.0960845 -0.5937114 4.0685749 16777215
 -0.0960001 -0.5962584 4.1028938 16777215
 -0.0963745 -0.5986673 4.1193862 16777215
 -0.0981528 -0.6020575 4.1376214 16777215
 -0.1019437 -0.6032097 4.1518011 16777215
 -0.1076679 -0.6047511 4.1706281 16777215
 -0.1149454 -0.6083493 4.1957145 16777215
 -0.1177632 -0.6128606 4.2182493 16777215
 -0.1195328 -0.6149747 4.2424951 16777215
 -0.1183141 -0.6192470 4.2622137 16777215
 -0.1196263 -0.6230624 4.2777324 16777215
 -0.1217091 -0.6283448 4.3014235 16777215
 -0.1250914 -0.6303394 4.3186955 16777215
 -0.1296252 -0.6318834 4.3340878 16777215
 -0.1309320 -0.6346314 4.3494177 16777215
 -0.1295151 -0.6372790 4.3750138 16777215
 -0.1285760 -0.6409016 4.3969932 16777215
 -0.1241389 -0.6448535 4.4167833 16777215
 -0.1263305 -0.6479514 4.4317703 16777215
 -0.1246447 -0.6478454 4.4478092 16777215
 -0.1251428 -0.6545345 4.4699244 16777215
 -0.1306190 -0.6529053 4.4822578 16777215
 -0.1266499 -0.6577091 4.4979439 16777215
 -0.1226841 -0.6567531 4.5149336 16777215
 -0.1265051 -0.6595732 4.5291524 16777215
 -0.1234614 -0.6580324 4.5429225 16777215
 -0.1254777 -0.6623302 4.5564151 16777215
 -0.1258399 -0.6654210 4.5714545 16777215
 -0.1214492 -0.6653301 4.5856743 16777215
 -0.1165337 -0.6683964 4.5980005 16777215
 -0.1109192 -0.6700933 4.6063328 16777215
 -0.1101375 -0.6746809 4.6154485 16777215
 -0.1091677 -0.6763873 4.6259217 16777215
 -0.1137581 -0.6792063 4.6401320 16777215
 -0.1103058 -0.6816096 4.6532903 16777215
 -0.1121091 -0.6820128 4.6710234 16777215
 -0.1070334 -0.6869566 4.6910472 16777215
 -0.1082484 -0.6877986 4.7045879 16777215
 -0.1122106 -0.6903001 4.7171035 16777215
 -0.1191515 -0.6931851 4.7301321 16777215
 -0.1202868 -0.6949230 4.7435513 16777215
 -0.1228733 -0.6940842 4.7573385 16777215
 -0.1290273 -0.6973886 4.7719412 16777215
 -0.1290883 -0.6981087 4.7859807 16777215
 -0.1336839 -0.6985786 4.7972903 16777215
 -0.1406967 -0.6982705 4.8089094 16777215
 -0.1485921 -0.7012993 4.8183894 16777215
 -0.1487328 -0.7021584 4.8275852 16777215
 -0.1480567 -0.7005962 4.8363600 16777215
 -0.1489752 -0.7013670 4.8473911 16777215
 -0.1499222 -0.7031694 4.8538651 16777215
 -0.1512666 -0.7038684 4.8590178 16777215
 -0.1521840 -0.7034123 4.8613138 16777215
 -0.1532528 -0.7035237 4.8628569 16777215
 -0.1538578 -0.7038214 4.8643112 16777215
