# .PCD v0.7 - Point Cloud Data file format
VERSION 0.7
FIELDS x y z rgb
SIZE 4 4 4 4
TYPE F F F F
COUNT 1 1 1 1
WIDTH 1201
HEIGHT 1
VIEWPOINT 0 0 0 1 0 0 0
POINTS 1201
DATA ascii
-5.2741618 -14.233848 11.660021 16711746
-4.9092584 -15.828916 12.161065 16711746
15.331738 -10.538479 16.244217 16711746
-1.8359551 -11.032037 14.596445 16711746
0.60400265 -10.856384 10.771945 16711746
3.4131751 -12.660408 11.879683 16711746
8.2757254 -10.121012 12.309295 16711746
6.3101754 -10.143557 12.81541 16711746
-9.9442759 -14.312872 18.967882 16711746
0.7022773 -16.562191 19.231085 16711746
-1.8013819 -12.449776 17.151226 16711746
-1.0995668 -11.477799 12.169535 16711746
2.7792904 -12.731167 13.690049 16711746
-9.5915585 -12.638354 13.506117 16711746
3.8165207 -9.8202486 14.12015 16711746
5.0029187 -12.674394 12.669568 16711746
13.243218 -20.295742 17.660212 16711746
7.4133792 -15.404424 25.587021 16711746
4.3459601 -15.352255 17.020002 16711746
8.7996426 -17.323858 19.9921 16711746
14.205756 -14.048784 15.192507 16711746
0.98561567 -14.886952 18.00663 16711746
17.407772 -19.398678 13.628021 16711746
5.6194797 -11.188421 13.657301 16711746
10.588428 -19.911768 21.156721 16711746
6.5394936 -11.103607 10.748046 16711746
-9.4691153 -18.661442 31.060032 16711746
-1.5051132 -15.724692 32.828892 16711746
3.0473068 -16.663034 13.137355 16711746
3.5422308 -11.94546 16.947115 16711746
13.600225 -11.787703 18.25563 16711746
6.3472924 -14.317737 31.89152 16711746
10.173269 -16.850271 20.09836 16711746
29.151289 -16.143866 24.026857 16711746
9.2672596 -17.372938 14.818707 16711746
-4.6032267 -13.350885 12.84837 16711746
-8.0198517 -13.521959 19.598078 16711746
5.3459582 -12.60391 14.277893 16711746
3.6184125 -9.4273109 13.775476 16711746
1.4741148 -14.303188 19.187355 16711746
-6.3743277 -13.724972 13.889981 16711746
5.638413 -9.9019785 24.046339 16711746
2.1010714 -10.810658 18.887985 16711746
10.986629 -16.831831 20.578583 16711746
12.349092 -17.359303 21.847145 16711746
10.403792 -13.959678 14.970556 16711746
16.132822 -14.383574 16.233725 16711746
14.587334 -17.375374 16.309708 16711746
-6.3165436 -15.622663 12.254513 16711746
17.013285 -16.803476 15.442236 16711746
2.1021895 -13.103865 19.994844 16711746
3.4603622 -12.244519 14.714378 16711746
-16.127468 -9.8006392 17.499678 16711746
-9.6714067 -13.35861 22.76227 16711746
17.742043 -16.408468 32.655666 16711746
10.428443 -17.128767 21.983875 16711746
28.464153 -15.075421 22.047533 16711746
20.214922 -13.385592 15.618166 16711746
1.7315989 -15.055419 18.933041 16711746
-3.2362025 -10.101587 15.023088 16711746
3.5539739 -10.553834 15.053281 16711746
-6.3783126 -13.635373 11.601746 16711746
-1.4033157 -13.529038 11.838323 16711746
12.802153 -15.107187 15.755205 16711746
1.3825551 -13.718754 13.671059 16711746
9.4249372 -15.30075 14.578693 16711746
15.715189 -16.196514 16.134804 16711746
3.9502046 -10.953677 14.815479 16711746
16.265778 -10.589485 15.93486 16711746
4.6647887 -9.787303 15.107052 16711746
16.93457 -14.475837 16.727945 16711746
18.781551 -12.420667 19.011808 16711746
5.8773742 -12.281761 17.706524 16711746
6.6231618 -12.521436 18.10791 16711746
13.824211 -13.802532 17.857052 16711746
17.74835 -16.54812 16.833149 16711746
9.6095133 -16.022028 14.375068 16711746
7.7648044 -12.963493 12.018486 16711746
-3.7640927 -15.115495 12.758746 16711746
13.173859 -19.091604 21.193911 16711746
17.521965 -12.523139 16.5397 16711746
4.4771552 -13.940857 14.487391 16711746
2.64957 -11.728397 17.986828 16711746
7.1854472 -11.008787 13.842401 16711746
10.487417 -18.118465 20.243589 16711746
19.698029 -15.97506 16.365381 16711746
15.318094 -13.433922 18.1021 16711746
8.6396112 -16.748528 19.768421 16711746
-6.7480145 -13.940935 16.413851 16711746
1.9424877 -15.2614 20.956976 16711746
2.1039963 -11.723419 17.72802 16711746
8.4239502 -11.046331 18.062122 16711746
13.431706 -10.57385 16.145241 16711746
2.9661994 -11.550303 14.685211 16711746
9.8227243 -17.044806 21.152498 16711746
14.321363 -17.251638 17.74375 16711746
14.185781 -16.416929 31.755726 16711746
16.37451 -13.97774 17.957674 16711746
10.3066 -14.949957 22.030657 16711746
-9.3759127 -16.026815 15.88219 16711746
16.176754 -15.555653 38.493385 16711746
18.615902 -17.79747 27.763786 16711746
16.381315 -14.000674 27.294724 16711746
14.035434 -21.706427 42.154434 16711746
17.148487 -16.700054 27.697039 16711746
15.13932 -55.05146 39.23243 16711746
20.460096 -16.041147 12.75185 16711746
1.5436909 -9.1266356 19.615211 16711746
12.467328 -15.24081 17.429178 16711746
2.1037333 -8.6650801 17.310524 16711746
7.6460361 -13.931315 19.87826 16711746
3.3626466 -11.788234 13.863241 16711746
3.0923722 -12.413828 14.327089 16711746
4.4362407 -10.353647 12.851559 16711746
8.8917665 -13.293559 14.996839 16711746
3.7099643 -12.233047 13.410418 16711746
-5.8236527 -14.296256 12.718809 16711746
4.6435947 -10.355855 15.442073 16711746
14.803566 -19.082466 19.715021 16711746
11.052574 -18.013874 22.064308 16711746
16.995384 -15.063854 22.045624 16711746
5.1054478 -12.806538 12.934737 16711746
6.6070924 -9.0484581 12.889068 16711746
2.6258349 -15.384604 19.847183 16711746
2.7348983 -13.221387 15.298034 16711746
16.379408 -14.167789 19.161594 16711746
19.162567 -18.171135 26.520952 16711746
-0.4979021 -14.595004 22.905525 16711746
15.325905 -10.785105 15.559932 16711746
13.834375 -15.981667 31.137423 16711746
13.979756 -12.35418 18.760353 16711746
11.832282 -16.522739 28.807137 16711746
14.655111 -15.208526 27.632074 16711746
16.126535 -14.229734 21.446566 16711746
17.256556 -14.534156 25.938379 16711746
18.136667 -16.880352 30.088076 16711746
19.321205 -14.214507 16.334356 16711746
9.3245573 -14.58721 15.594069 16711746
16.796446 -11.090889 15.795107 16711746
25.911512 -16.965357 26.298557 16711746
-2.0451169 -15.983916 29.804186 16711746
9.9060335 -17.659 19.690073 16711746
-2.3221636 -14.654575 37.079777 16711746
9.0773125 -16.605553 14.657102 16711746
18.495897 -18.896688 16.809425 16711746
12.706906 -24.286537 16.606537 16711746
18.152967 -18.695528 16.607401 16711746
10.263659 -13.533645 14.370417 16711746
16.821205 -13.194551 17.969522 16711746
16.816118 -11.941514 16.182501 16711746
21.293999 -16.395079 14.432503 16711746
20.378794 -17.161293 13.808577 16711746
0.022151366 -15.302813 19.715351 16711746
-5.4126377 -11.018679 16.983932 16711746
20.370749 -18.142391 16.751934 16711746
21.990013 -12.73748 18.986565 16711746
17.870392 -28.512762 22.859646 16711746
6.688005 -9.2952566 13.001706 16711746
10.512187 -5.6325927 13.189025 16711746
3.6073372 -11.792627 13.553596 16711746
11.077631 -19.085817 21.379129 16711746
10.840909 -15.781137 28.646809 16711746
17.903511 -16.053823 16.411777 16711746
13.299232 -14.492004 27.916355 16711746
-2.8028176 -16.929337 31.67244 16711746
-2.8843286 -15.613564 38.228699 16711746
17.632215 -15.430622 18.87719 16711746
22.255558 -16.335714 33.505802 16711746
14.773731 -8.5869265 15.188794 16711746
9.0929737 -21.526661 22.982546 16711746
12.174301 -20.496487 35.219471 16711746
15.073158 -14.841165 27.841988 16711746
-0.68919504 -10.330313 16.699896 16711746
5.890439 -7.0343428 16.376896 16711746
2.9742579 -12.633785 14.479435 16711746
15.36198 -23.402889 24.037289 16711746
12.72006 -22.895355 24.896875 16711746
-3.1228869 -8.5187902 14.731407 16711746
15.654892 -15.970113 18.620176 16711746
17.624752 -14.569802 20.527685 16711746
5.9389572 -9.7082129 19.326235 16711746
0.40757179 -9.254426 14.889396 16711746
10.105988 -12.387404 15.226059 16711746
10.181241 -11.233031 14.408519 16711746
2.8816998 -9.8686571 13.747956 16711746
0.78696769 -15.114384 15.697809 16711746
15.335683 -9.4048557 15.197674 16711746
16.105955 -14.540036 19.204954 16711746
3.703371 -8.6549349 13.546484 16711746
2.7299898 -10.473183 14.000283 16711746
15.896821 -12.794696 18.89954 16711746
10.145149 -12.91538 21.755491 16711746
5.5557408 -10.932022 19.821556 16711746
14.956201 -13.513827 19.101143 16711746
12.435037 -13.012642 16.615738 16711746
-4.1195984 -10.718601 15.799738 16711746
14.396934 -12.966635 18.564539 16711746
19.539528 -15.704272 22.375221 16711746
6.901258 -12.750397 18.856638 16711746
13.216384 -17.693968 18.008207 16711746
28.473223 -15.393338 30.934607 16711746
16.092577 -18.531139 32.32885 16711746
11.043893 -17.174749 30.859413 16711746
-6.4028797 -13.22135 18.485888 16711746
-0.73456979 -8.6240492 15.196975 16711746
-1.4465755 -10.563169 16.36846 16711746
-1.9337494 -13.526024 20.833321 16711746
5.3655071 -9.6630297 16.978504 16711746
18.080896 -14.387896 21.505316 16711746
17.318783 -13.604758 20.76325 16711746
-6.9937844 -12.464473 18.784948 16711746
0.9590838 -8.1531668 14.282692 16711746
5.4997897 -7.4912009 16.059736 16711746
11.420936 -12.097823 16.24526 16711746
9.262723 -11.740675 20.371574 16711746
15.788743 -14.743676 18.541796 16711746
13.741536 -14.768655 25.852356 16711746
20.494902 -22.291103 21.822592 16711746
18.115181 -9.3102331 18.716671 16711746
19.015055 -13.207826 15.150827 16711746
-9.9305334 -14.406503 16.193203 16711746
-6.0568104 -12.727118 14.448491 16711746
7.902451 -15.787339 18.335501 16711746
-7.2056546 -12.642635 18.098171 16711746
15.516799 -11.442573 16.243635 16711746
9.880517 -11.958717 15.085768 16711746
9.3239689 -10.98848 20.757416 16711746
19.128845 -15.394233 22.197611 16711746
6.9688058 -18.309465 17.847012 16711746
14.358626 -8.9669456 16.88147 16711746
17.949945 -15.819442 15.920321 16711746
20.115503 -12.888433 14.976044 16711746
14.580282 -17.407972 27.881485 16711746
-11.306769 -13.875277 34.567406 16711746
15.666273 -11.710841 15.233335 16711746
3.6639423 -9.6199627 14.756419 16711746
12.348202 -15.805184 17.792606 16711746
13.9936 -10.461244 17.056978 16711746
19.825745 -13.071536 15.790791 16711746
2.3843062 -12.586028 17.189442 16711746
5.2244086 -12.699867 16.266356 16711746
-17.522984 -11.207292 26.72921 16711746
11.054101 -4.6900663 13.701009 16711746
6.8056984 -18.073505 17.84984 16711746
12.398785 -16.064339 19.386532 16711746
10.614235 -13.948374 20.416357 16711746
2.2902958 -6.726624 19.988934 16711746
13.023209 -11.332478 16.467232 16711746
-4.0537238 -9.2110167 17.623999 16711746
-6.0917778 -11.679165 14.496541 16711746
10.694258 -15.538579 24.865454 16711746
12.704043 -11.261234 15.868049 16711746
8.7827673 -11.846218 18.372864 16711746
12.152485 -11.621142 16.572311 16711746
14.220307 -15.939662 28.343988 16711746
10.198423 -13.446355 25.366358 16711746
13.240619 -14.465057 26.668856 16711746
13.621001 -9.6862631 15.712348 16711746
11.390231 -16.103262 18.83786 16711746
10.84035 -10.812058 18.142351 16711746
13.81006 -9.9336519 15.845573 16711746
10.948756 -12.689827 17.516699 16711746
11.717052 -12.087716 16.177334 16711746
17.23518 -12.022798 19.917017 16711746
12.255459 -16.111153 21.800436 16711746
-3.1742692 -10.3136 18.648352 16711746
8.2419167 -10.074215 18.893713 16711746
7.520226 -9.8436165 18.49548 16711746
-7.7005482 -7.0756793 19.440447 16711746
12.290542 -9.9429722 16.455784 16711746
-10.272915 -8.7016172 22.11729 16711746
17.801296 -11.954458 24.4275 16711746
11.929789 -11.897183 16.377079 16711746
16.274025 -19.246939 31.686485 16711746
15.939712 -14.690457 28.740309 16711746
12.714227 -5.6560979 16.243511 16711746
1.6704119 -10.893106 17.029716 16711746
12.112561 -17.838306 21.086321 16711746
19.966415 -9.7295532 22.705662 16711746
0.9661997 -14.654034 17.888756 16711746
22.213896 -12.587809 23.939537 16711746
23.983034 -13.192132 19.768211 16711746
19.830954 -12.270845 20.16556 16711746
13.470661 -17.599041 28.595922 16711746
10.944817 -12.07545 23.97304 16711746
15.261577 -12.783483 19.090014 16711746
15.424235 -13.374691 20.703672 16711746
24.082155 -13.828093 19.666668 16711746
10.580261 -11.036671 16.181372 16711746
8.0234108 -6.0660219 18.205898 16711746
16.0082 -9.2522564 17.185837 16711746
16.664993 -15.545809 26.69866 16711746
11.643905 -11.720329 15.949408 16711746
14.9513 -8.4408646 17.084618 16711746
-2.5716088 -8.2900429 20.050268 16711746
-6.2138357 -10.798648 19.026999 16711746
13.399737 -8.1582537 16.248083 16711746
20.499479 -12.500019 22.697771 16711746
12.313769 -7.7394156 14.919054 16711746
9.5796843 -13.400668 18.262983 16711746
9.2690144 -9.5923452 24.012333 16711746
16.405296 -12.050777 24.690613 16711746
9.5582123 -10.313431 23.394754 16711746
12.231853 -14.567966 25.639318 16711746
14.437251 -16.251343 27.01153 16711746
8.381959 -9.4161568 19.023415 16711746
12.248777 -7.2545843 22.229856 16711746
13.119473 -9.0762482 15.5935 16711746
11.60565 -8.207036 15.15564 16711746
10.804138 -12.917109 19.72517 16711746
5.8865275 -5.493567 19.354164 16711746
17.516735 -9.8500919 18.960661 16711746
12.655731 -5.4844151 16.349567 16711746
12.107249 -10.594699 20.764925 16711746
-0.20334418 -6.3368211 14.358651 16711746
-0.19802423 -9.6129932 25.109459 16711746
14.643807 -7.8332958 17.060343 16711746
13.88917 -11.839396 25.10944 16711746
11.282263 -8.583312 16.877069 16711746
13.743281 -11.841325 17.82369 16711746
12.543957 -8.3849707 15.262711 16711746
13.935249 -18.305464 21.921906 16711746
8.237462 -4.367033 14.368576 16711746
4.8992205 -6.751533 19.690872 16711746
8.899929 -13.181135 19.923153 16711746
14.300555 -9.2063961 20.109919 16711746
11.233488 -6.3944769 18.023819 16711746
14.95805 -7.4856658 16.972313 16711746
15.740408 -10.164792 22.313585 16711746
14.445448 -7.052958 16.662144 16711746
7.9672127 -7.9355321 17.774263 16711746
16.904945 -11.374953 23.561745 16711746
6.3604593 -1.792845 13.245522 16711746
13.924184 -15.747315 27.332806 16711746
9.5564651 -11.925693 23.442183 16711746
11.125266 -15.439755 25.111399 16711746
26.346004 -19.029133 38.43589 16711746
12.135026 -6.7958665 20.820385 16711746
16.975424 -10.545362 20.011417 16711746
12.834653 -7.8047285 17.170427 16711746
6.3730583 -9.4944429 16.749979 16711746
13.450507 -8.0939846 17.672174 16711746
21.22637 -16.88933 26.374226 16711746
8.5620651 -35.720387 27.450388 16711746
14.623479 -7.1292152 21.71578 16711746
11.717336 -6.3404746 18.105497 16711746
16.652433 -12.202643 25.36577 16711746
12.33674 -7.5645928 21.093752 16711746
8.9533014 -11.348905 26.766586 16711746
2.9220822 -4.7066555 16.676596 16711746
16.370079 -12.388896 30.239397 16711746
13.519048 -6.1422796 20.589073 16711746
13.136035 -9.1835957 20.611877 16711746
12.175471 -4.9191642 16.125635 16711746
8.815999 -10.438616 17.292679 16711746
8.1661739 -6.1682439 18.155054 16711746
9.7653742 -6.9769082 19.015539 16711746
8.9745569 -10.622769 17.440718 16711746
11.239939 -7.4340076 16.976593 16711746
3.5322559 -8.5383492 27.885159 16711746
10.95478 -7.3576374 24.801523 16711746
10.583872 -7.3510842 18.779533 16711746
8.1151705 -6.0291629 18.025217 16711746
9.2683458 -6.1204634 19.504416 16711746
10.45494 -6.2142725 18.341427 16711746
6.24296 -5.2615418 18.109211 16711746
9.791131 -6.1148586 19.266865 16711746
8.2771873 -6.0286813 17.804832 16711746
14.656294 -9.6310577 20.625937 16711746
5.7944479 -7.1073933 17.246769 16711746
6.2987313 -5.644835 16.872494 16711746
10.118704 -7.0279207 16.446829 16711746
6.8753042 -8.0595226 17.437325 16711746
7.4536629 -5.2370515 17.940266 16711746
11.801305 -4.157784 23.412062 16711746
10.367321 -5.6264887 27.290186 16711746
12.079637 -3.7681553 18.527794 16711746
6.578661 -4.5401211 17.120607 16711746
6.2714734 -6.1294193 19.140051 16711746
8.8552618 -6.6478791 17.945627 16711746
8.9563074 -7.5015144 18.624722 16711746
7.5971389 -4.1928244 15.697178 16711746
6.0222158 -6.6946158 18.876873 16711746
9.2639894 -6.2436733 18.273041 16711746
7.9026546 -5.5270166 17.66658 16711746
24.527071 -20.475315 46.52845 16711746
14.338925 -8.7349834 26.229061 16711746
12.620308 -5.2701139 17.018248 16711746
10.103528 -10.850781 17.615173 16711746
6.672266 -2.624361 14.424026 16711746
9.7698097 -5.64955 19.940849 16711746
12.832547 -6.0538282 19.69228 16711746
5.4263964 -5.2280588 18.024599 16711746
7.215363 -7.373909 19.199072 16711746
8.7045403 -11.434783 17.687469 16711746
10.319139 -6.6437693 20.878725 16711746
9.3755188 -6.4427614 18.977888 16711746
11.394396 -7.809598 19.549103 16711746
7.5948658 -6.6362934 19.889599 16711746
3.6579869 -7.9739165 20.904123 16711746
10.24206 -6.7659502 19.029858 16711746
7.8375821 -6.3776951 18.155472 16711746
7.8635035 -6.6296306 22.238392 16711746
8.2271338 -6.3929119 18.531118 16711746
9.6402311 -5.207128 19.758976 16711746
7.5547142 -5.8491697 17.457834 16711746
10.257613 -8.0571136 17.401266 16711746
9.1709576 -5.8386192 19.451664 16711746
9.215641 -8.6968107 18.722773 16711746
2.8044541 -8.6759748 26.173798 16711746
13.550848 -6.2553749 20.584499 16711746
6.0289054 -7.909184 19.670713 16711746
13.396688 -7.2860489 20.122963 16711746
2.1481202 -6.9284601 25.346483 16711746
5.179275 -7.1949401 25.18659 16711746
8.2421417 -5.204495 18.868864 16711746
10.706047 -6.0291166 18.319304 16711746
12.505419 -4.5713611 20.848629 16711746
10.060966 -5.4220309 19.279446 16711746
11.317875 -7.2219996 18.567797 16711746
9.280427 -6.1206021 19.783697 16711746
9.2558489 -4.8946967 21.933268 16711746
10.65753 -6.5205402 20.311586 16711746
8.0491419 -5.9558096 18.673544 16711746
9.8188629 -5.4928265 23.202778 16711746
12.510127 -5.2601433 16.827429 16711746
8.2053108 -9.4332342 17.114929 16711746
9.1823521 -10.211766 17.790977 16711746
5.4806976 -6.5124073 19.412086 16711746
9.9943981 -6.06217 18.381817 16711746
12.474851 -8.7264986 34.469654 16711746
15.206149 -10.674652 25.260773 16711746
8.5940418 -14.304933 19.615299 16711746
10.560575 -6.4798827 19.506432 16711746
11.359563 -8.1072016 18.429485 16711746
10.408618 -6.5769958 17.579733 16711746
10.186748 -4.3506451 19.100529 16711746
10.118548 -7.2436552 18.26017 16711746
12.759032 -6.988678 17.672243 16711746
7.4848104 -6.1711006 18.368275 16711746
10.368355 -6.5334086 17.577625 16711746
9.3739576 -6.2322879 19.561907 16711746
12.549679 -5.36906 24.072153 16711746
8.2864847 -6.8255553 18.238138 16711746
10.436879 -7.5689082 18.532394 16711746
5.000751 -5.1383824 15.887835 16711746
9.3517084 -6.4248595 18.408447 16711746
9.1256313 -8.4236431 17.667551 16711746
9.4666653 -7.541965 17.393738 16711746
12.107385 -6.3573217 17.221708 16711746
2.0908709 -7.1752272 25.854675 16711746
-7.1272478 -6.5852938 25.739622 16711746
9.1773548 -6.024672 20.895887 16711746
7.2465549 -5.5870996 17.495584 16711746
13.281342 -6.9468908 16.338303 16711746
7.4247322 -5.8245955 19.273729 16711746
9.7713299 -10.623661 29.32111 16711746
8.3644686 -6.9244056 23.596159 16711746
5.0585723 -5.160789 17.224705 16711746
8.7960787 -7.1058474 23.436903 16711746
10.186991 -6.2582884 18.183058 16711746
8.3217411 -6.0223703 21.306568 16711746
10.533384 -6.6817827 17.657579 16711746
13.052406 -6.6937246 21.181789 16711746
10.780896 -5.9642358 17.135599 16711746
10.253532 -6.751924 18.431028 16711746
10.016562 -5.8875794 23.869638 16711746
10.188974 -6.7012672 18.364162 16711746
10.529209 -7.4391532 18.564835 16711746
9.1257238 -8.4157248 18.54929 16711746
1.1527178 -11.746991 27.321491 16711746
10.837456 -6.1041651 17.640568 16711746
7.6506553 -6.6603251 20.341934 16711746
7.9147239 -7.4003687 17.386839 16711746
13.047805 -6.31107 19.882727 16711746
12.273901 -5.6798983 21.967527 16711746
9.565093 -6.803719 19.375895 16711746
7.3259926 -5.2430658 18.434301 16711746
5.9585724 -6.7008018 19.518192 16711746
6.5553145 -24.918823 31.7962 16711746
7.0957565 -6.4493532 20.23246 16711746
11.219072 -6.3862834 17.138281 16711746
8.0285683 -6.5845795 17.267136 16711746
7.9759626 -6.7976069 17.180647 16711746
7.5458188 -5.0632381 19.185749 16711746
13.428308 -5.6507964 17.768776 16711746
10.259121 -5.8865333 19.237307 16711746
1.2214334 -7.020875 19.707544 16711746
16.054789 -6.2983465 21.179008 16711746
7.8417401 -6.492691 18.204832 16711746
13.922914 -6.9965167 23.21699 16711746
12.097899 -6.3560944 17.241615 16711746
6.004312 -4.959373 21.383219 16711746
11.807265 -6.4642172 17.055241 16711746
-0.53137314 -8.0445385 20.878279 16711746
14.467587 -6.1641464 20.309423 16711746
7.858706 -6.5141878 17.958418 16711746
5.2206926 -7.1308136 25.718582 16711746
8.7001076 -4.8675947 20.444689 16711746
7.7296457 -6.4025097 27.014118 16711746
-3.8436096 -9.775692 20.00989 16711746
12.852383 -7.9032397 19.105434 16711746
12.942224 -6.4480247 19.7351 16711746
9.9474192 -6.4558711 18.150312 16711746
8.3359585 -8.5352077 24.92535 16711746
11.359739 -7.0686731 17.45886 16711746
-1.0583205 -7.1654224 17.51268 16711746
9.4308014 -4.9522195 18.098221 16711746
-5.6076779 -9.3689899 20.306589 16711746
17.788202 -10.534473 29.290445 16711746
12.390544 -10.471039 35.099091 16711746
7.9802904 -6.4536462 20.652046 16711746
8.0218573 -6.5755615 21.279234 16711746
6.4031305 -3.3164113 17.654266 16711746
1.0614212 -5.7920771 17.101685 16711746
8.5492315 -7.1188593 17.786739 16711746
9.5297289 -4.7045393 19.132231 16711746
7.5756803 -5.8879542 17.760046 16711746
1.7328949 -7.5655489 18.923746 16711746
13.210732 -4.101572 18.770781 16711746
8.9589624 -5.0972371 19.109335 16711746
0.7834124 -6.1555715 17.287376 16711746
8.5222225 -6.2569184 21.25379 16711746
-3.8896801 -7.5843024 19.492191 16711746
12.935045 -7.296628 16.951857 16711746
10.898958 -5.1273623 20.843052 16711746
10.024867 -6.3030844 17.012598 16711746
-8.6176491 -7.2887125 26.9678 16711746
6.4844975 -7.1827669 19.912766 16711746
22.772076 -17.445822 40.598026 16711746
10.894554 -6.5000129 18.487324 16711746
10.707396 -6.8220019 19.27589 16711746
8.8950949 -6.0094938 20.110104 16711746
5.6224542 -6.7047253 23.873268 16711746
8.5049639 -6.1178741 22.220335 16711746
10.827578 -5.6085901 19.152754 16711746
7.6219707 -8.8784122 22.476696 16711746
-0.39330986 -6.575592 17.637383 16711746
7.9865522 -5.8887081 19.446125 16711746
11.612514 -6.6253004 17.393192 16711746
9.6244211 -5.1326861 23.485867 16711746
10.89903 -5.7409835 17.588575 16711746
7.2568941 -5.6892924 17.861279 16711746
14.411716 -11.07399 37.574718 16711746
4.6706839 -9.0743561 29.36825 16711746
4.9101019 -5.7386851 21.729876 16711746
1.2589606 -4.8439322 24.629131 16711746
6.8491597 -5.3735847 17.729557 16711746
5.2967997 -7.8358126 25.511082 16711746
6.3571005 -5.3107238 19.061367 16711746
6.0508676 -5.8592257 19.282455 16711746
6.0094585 -4.3338099 17.929398 16711746
13.562069 -6.6350894 23.364304 16711746
3.7779462 -8.0720224 30.905222 16711746
12.483972 -6.6539083 25.142775 16711746
12.540195 -4.9316392 16.812878 16711746
11.30205 -7.0578671 19.007366 16711746
6.8474398 -8.0950632 19.219694 16711746
12.163867 -5.1163745 22.251505 16711746
15.06702 -4.1041965 25.496338 16711746
9.9227009 -5.3245268 18.472403 16711746
9.3398724 -4.341948 18.400143 16711746
9.6473236 -7.7243714 24.893404 16711746
2.9138207 -6.4213324 31.110035 16711746
-4.0704398 -25.311989 45.284039 16711746
6.607163 -2.6933146 17.767242 16711746
1.4997847 -11.058404 26.359612 16711746
-3.311702 -27.193619 46.067123 16711746
7.5417414 -5.7696171 20.916981 16711746
8.7360582 -6.4383121 21.400455 16711746
9.8466425 -4.2795458 20.437244 16711746
9.6624908 -4.8240819 20.576 16711746
5.9141359 -5.0121093 19.29273 16711746
6.0759468 -5.9319611 18.06024 16711746
8.2205906 -9.6581554 23.313103 16711746
10.912055 -5.1686792 19.860302 16711746
8.3924417 -4.4471564 19.447311 16711746
5.0886583 -3.3137512 17.529881 16711746
-3.3223441 -23.701258 39.71323 16711746
10.976053 -7.2943769 18.705841 16711746
4.1781006 -6.1010184 21.679506 16711746
4.8873258 -3.1568515 17.643076 16711746
3.0968099 -7.4837346 20.539158 16711746
12.831544 -17.492565 32.280785 16711746
11.804541 -3.3486154 24.686434 16711746
12.135022 -5.1251159 21.572737 16711746
8.9982796 -3.6731873 19.86235 16711746
8.6136703 -4.9202895 20.382158 16711746
8.4510756 -4.4969268 21.519955 16711746
7.413444 -5.0601463 20.522032 16711746
10.407516 -4.245512 21.2824 16711746
8.3728676 -5.3958321 22.006458 16711746
8.9880257 -5.5298815 21.687302 16711746
7.4750767 -6.8244977 21.42621 16711746
7.9339075 -8.4808884 22.877871 16711746
13.180372 -6.8278651 19.762583 16711746
7.8294477 -5.5778794 18.733864 16711746
3.4610238 -5.5523338 19.308645 16711746
6.3177834 -9.3732805 22.524059 16711746
9.9828691 -4.1460943 21.946411 16711746
7.36377 -3.7888901 19.706045 16711746
13.744184 -1.9100778 22.211178 16711746
13.599773 -7.1547823 22.421408 16711746
3.7429075 -5.6353903 23.110107 16711746
8.3187571 -1.9114299 17.665762 16711746
6.1742153 -4.4058638 18.993973 16711746
6.470871 -1.5960534 17.12653 16711746
8.2021666 -6.5372581 18.628317 16711746
12.917869 -6.2182946 21.867132 16711746
-15.377851 -8.5085249 28.482838 16711746
4.4760695 -7.5021057 19.647776 16711746
4.4523678 -7.5753765 19.696095 16711746
11.404245 -3.2398698 23.483156 16711746
9.3178043 -1.8753667 20.753849 16711746
7.3862629 -6.7883749 28.736887 16711746
5.8134708 0.42421576 16.386354 16711746
7.1708646 -5.0486221 25.379869 16711746
11.061124 -4.4526825 20.68224 16711746
11.521176 -3.3248856 24.370699 16711746
5.6590357 -6.9596715 19.84479 16711746
13.837217 -5.4481502 33.675903 16711746
6.3261409 -4.0895305 18.753963 16711746
9.7003269 -3.3569207 19.198118 16711746
7.7379212 -1.2868261 18.987179 16711746
9.4083471 -1.6354433 19.567047 16711746
10.593619 -2.66134 22.997686 16711746
9.4211254 -1.5836864 21.858566 16711746
9.1570959 -2.5957143 23.276608 16711746
12.259531 -3.9278507 25.318354 16711746
6.427753 -0.61718184 16.922976 16711746
5.8120103 -1.8473977 20.596184 16711746
5.6404743 -1.7223779 18.203234 16711746
9.8081417 -2.191936 21.205704 16711746
8.638238 -1.2768964 18.888065 16711746
6.0080333 -1.3142501 19.602966 16711746
8.8720179 -2.0254695 23.16917 16711746
7.4665251 -1.7537028 21.073864 16711746
8.444849 -1.5724605 21.964226 16711746
10.711977 -2.5141754 23.261478 16711746
8.8515625 -1.9882718 22.828876 16711746
8.3888884 -1.7728527 21.536631 16711746
5.8210235 -0.38654086 18.251003 16711746
5.6952796 -1.6879393 17.953253 16711746
11.251539 -6.0394993 19.285471 16711746
7.9129872 -5.2626138 21.268223 16711746
7.6670265 -1.1914712 18.882811 16711746
7.7595716 -1.0695703 18.804621 16711746
8.8033829 -1.499022 20.402834 16711746
5.2288084 -0.16277231 18.126059 16711746
4.0522251 -1.9982083 21.835575 16711746
5.1015887 -3.3226771 20.754099 16711746
10.323154 -1.9213307 20.46312 16711746
8.7995348 -1.4879855 18.89584 16711746
5.5719519 -1.1925517 18.124458 16711746
9.2809925 -1.8763428 20.730896 16711746
4.8237343 -1.3589299 19.803106 16711746
4.1756496 -1.5617096 20.353775 16711746
4.1807303 -1.4566282 19.870195 16711746
5.3596902 -0.98636979 19.106802 16711746
4.3402591 -1.419366 19.453209 16711746
4.7619925 -2.0603831 21.515512 16711746
4.4886484 -1.3980819 19.335356 16711746
2.9803796 -1.967731 21.427164 16711746
7.8025031 -1.8251482 21.064728 16711746
12.300899 -2.9458494 25.599461 16711746
4.495286 -2.1057394 20.039005 16711746
4.7540212 -2.0169756 20.867283 16711746
4.4433537 -2.2543521 20.205557 16711746
4.6972566 -2.2800221 21.220732 16711746
4.649652 -1.1738824 19.390198 16711746
4.3922 -2.0234041 21.340483 16711746
10.22103 -1.8191377 20.308319 16711746
4.1227713 -1.6226175 20.150206 16711746
8.0443602 -1.5570964 18.247065 16711746
8.0026569 -1.3388137 19.338179 16711746
4.4180317 -1.5012186 21.00551 16711746
9.8613243 -4.4548144 24.037327 16711746
8.6476259 -1.931615 21.985277 16711746
6.9943428 -1.1777996 19.783329 16711746
4.1072402 -1.6206503 19.543512 16711746
9.306612 -2.3086967 24.597427 16711746
4.4279809 -1.6638887 20.182829 16711746
12.198145 -2.4066451 22.410219 16711746
8.8158569 -2.0803001 20.575434 16711746
3.7231274 -2.2327125 21.487377 16711746
4.2268939 -1.4979435 19.967798 16711746
7.7662606 -1.5098245 20.071066 16711746
2.4468389 -2.8837566 18.27738 16711746
7.7570081 -1.4300048 20.159073 16711746
7.8728762 -1.8239924 20.797575 16711746
8.6475754 -2.4497185 22.073965 16711746
8.5727663 -1.7857852 22.452539 16711746
7.0105987 -1.2121778 19.689041 16711746
7.6676378 -1.834602 21.082869 16711746
7.390861 -1.5576847 19.822422 16711746
7.2659206 -1.7133874 21.402716 16711746
10.181723 -1.3745202 20.356558 16711746
4.8111916 -0.99835104 19.545591 16711746
4.3238387 -1.3858767 19.946629 16711746
4.2700543 -2.0981226 19.602644 16711746
7.9044991 -1.9214805 19.513313 16711746
9.0894518 -1.5842391 20.987862 16711746
8.1512604 -1.3457173 19.414577 16711746
4.4412117 -1.9235554 19.532711 16711746
7.1206794 -1.0403547 20.444561 16711746
9.3859196 -2.1134522 21.032066 16711746
5.9458337 -2.0243726 21.225674 16711746
7.9903202 -1.5598274 19.532629 16711746
7.7149901 -2.1401327 20.762939 16711746
6.3597269 -2.5563178 21.421637 16711746
6.9905829 -1.3555546 21.009827 16711746
7.4801474 -1.7853036 20.195332 16711746
9.4333191 -2.1129673 21.003901 16711746
9.5661383 -2.230129 21.211229 16711746
6.3707571 -1.9111271 20.850868 16711746
8.6938419 -1.1690451 20.573681 16711746
6.5820966 -1.931488 22.639456 16711746
8.5109224 -1.9537913 21.857412 16711746
9.249959 -1.8163927 21.498295 16711746
9.2756367 -2.5289264 23.236895 16711746
5.0293827 -7.2680731 25.170391 16711746
7.5829148 -1.7546605 20.024536 16711746
7.2944355 -1.4628541 20.816622 16711746
7.0187783 -1.5773915 18.967817 16711746
6.6523786 -1.5819379 19.30126 16711746
2.5282035 -1.7094648 21.956553 16711746
7.1427503 -1.5084853 20.625977 16711746
4.6244836 -2.0091197 21.921032 16711746
9.1730194 -2.0374343 23.869186 16711746
6.8075604 -1.4394855 19.638744 16711746
7.119113 -1.5927072 19.049036 16711746
6.8007011 -1.8297033 19.993834 16711746
7.8810129 -1.409645 19.399591 16711746
6.751924 -1.6829512 20.385485 16711746
6.3795753 -2.2991312 20.801956 16711746
3.4679508 -2.0469863 21.16923 16711746
5.773211 -1.7093936 20.38188 16711746
7.0752592 -1.7094625 19.051647 16711746
6.8563261 -2.5375731 19.170996 16711746
7.9999347 -2.1164904 19.312086 16711746
6.6375089 -1.1274605 19.093109 16711746
4.0719256 -1.706961 19.76339 16711746
6.8556666 -1.5142697 19.311497 16711746
3.8605497 -1.7054862 20.907331 16711746
7.556787 -1.7159352 19.989985 16711746
3.8238444 -2.3810861 21.668402 16711746
7.5223246 -1.6834898 21.107426 16711746
7.0939207 -2.3180838 21.171062 16711746
6.6762972 -1.6872143 19.098787 16711746
7.8502522 -1.9081645 19.454407 16711746
7.468224 -2.4228764 21.859663 16711746
7.1107059 -1.2138563 18.710072 16711746
6.2953706 -1.4948461 21.981285 16711746
8.4306593 -2.0077353 22.030329 16711746
11.150686 -1.8925494 21.302088 16711746
6.3474541 -1.8197099 19.868282 16711746
7.8519254 -1.643127 20.183996 16711746
7.5699177 -1.494162 20.083076 16711746
7.4967184 -2.3855968 19.497187 16711746
6.6978478 -1.6503539 19.18688 16711746
7.4167252 -1.3716372 19.165724 16711746
7.4951968 -1.5229445 19.989061 16711746
8.2563858 -1.8967801 18.834318 16711746
6.3432198 -1.9941304 19.422873 16711746
5.3776088 -1.5422612 19.01688 16711746
5.9184456 -0.65104187 18.557938 16711746
9.1759968 -1.6876926 19.042891 16711746
8.9203901 -1.5548533 19.438429 16711746
9.0253572 -2.5617886 19.439331 16711746
6.280972 -1.5792229 22.16906 16711746
9.7317705 -1.5496142 19.974659 16711746
2.2849736 -1.8041831 21.461781 16711746
3.1621175 -2.1650054 21.289833 16711746
8.007021 -1.8974686 21.393538 16711746
6.94416 -1.4363503 20.641161 16711746
8.520052 -1.7605656 22.29582 16711746
6.7130122 -1.5666988 19.319235 16711746
3.4621375 -1.7672657 20.778107 16711746
9.6861391 -1.9204731 20.774313 16711746
3.6258192 -1.8437433 19.101971 16711746
6.7646899 -1.4045622 19.676376 16711746
6.3583851 -1.9448696 20.001375 16711746
4.7279181 -2.760149 22.639908 16711746
5.7884731 -1.213447 18.822384 16711746
10.021291 -2.3614483 21.188387 16711746
6.3651633 -2.4122968 24.398466 16711746
10.24579 -1.3446379 20.71254 16711746
10.27569 -2.3850753 21.718798 16711746
7.0671706 -2.5289509 19.035166 16711746
8.2633486 -0.8194508 22.353951 16711746
10.487506 -1.2539585 21.063223 16711746
6.6068192 -1.8703625 19.968975 16711746
7.4185681 -1.5150658 21.219164 16711746
7.0845442 -1.335879 20.415714 16711746
7.0618463 -1.2638152 20.532026 16711746
8.9575825 -2.2306201 18.734903 16711746
8.198596 -2.2631271 21.485693 16711746
7.093019 -2.7507071 19.163332 16711746
7.1737847 -1.0703137 20.460529 16711746
6.9040856 -2.290302 18.866322 16711746
5.8804669 -1.3499912 18.543856 16711746
6.8674793 -2.251215 19.292717 16711746
5.2120275 -2.1010799 19.527143 16711746
5.4484921 -1.7758209 20.87009 16711746
6.1256328 -1.1772157 18.537788 16711746
6.1755962 -1.5180975 19.122063 16711746
4.9271226 -1.3376286 18.412567 16711746
3.5591917 -1.5645086 20.191261 16711746
7.4726896 -1.4110457 19.76786 16711746
6.1016335 -0.94928533 18.714804 16711746
6.7213159 -1.6165423 18.750666 16711746
7.0683694 -2.9180398 18.932169 16711746
7.5803614 -1.9293699 19.596619 16711746
3.6114075 -2.3383272 21.139063 16711746
6.2760744 -3.0391726 21.149759 16711746
5.0147061 -2.8689256 21.576262 16711746
6.9263639 -1.6313236 19.167603 16711746
7.5221305 -2.0688274 20.035027 16711746
7.502027 -1.724497 22.119625 16711746
6.6680546 -2.1307888 18.930956 16711746
8.7721252 -1.9494474 22.567892 16711746
6.6299996 -1.819949 23.090933 16711746
5.9167771 -1.4148983 20.35784 16711746
5.6279159 -1.9149938 20.350586 16711746
6.0217423 -1.2472659 18.802725 16711746
4.2986131 -1.3150215 19.764168 16711746
8.1358366 -1.2547245 21.806133 16711746
3.4145253 -2.1790357 21.615892 16711746
5.5438519 -0.9180336 21.351801 16711746
5.9942026 -1.8702568 21.17222 16711746
6.7413201 -2.1636329 18.988478 16711746
8.4434729 -1.704621 21.857006 16711746
8.2805538 -1.7657714 19.158405 16711746
7.2103682 -1.9940044 18.878864 16711746
5.2196255 -1.2811862 20.49431 16711746
5.2369919 -1.4840769 22.643307 16711746
5.8885336 -0.84549034 18.69343 16711746
6.8768439 -1.4495823 19.089939 16711746
8.074748 -1.8371477 19.248304 16711746
7.3787975 -2.5358968 19.122034 16711746
5.7913141 -1.3495183 18.61989 16711746
2.7510638 -3.3845115 18.910847 16711746
5.5483966 -2.3083532 21.095333 16711746
5.4054217 -0.41532546 18.994064 16711746
6.5237494 -2.3496232 19.834261 16711746
5.4217157 -1.6211555 19.511169 16711746
5.7783122 -1.3611192 18.625782 16711746
6.2747865 -1.8347744 19.831055 16711746
4.0125184 -2.6157131 22.701675 16711746
7.3530936 -1.567649 20.855303 16711746
6.7792559 -1.672029 19.581514 16711746
7.5094752 -2.0393329 19.354992 16711746
5.0074477 -2.0263183 22.113985 16711746
8.8522186 -2.0186195 22.41466 16711746
7.2361622 -2.1896131 24.584795 16711746
5.3172956 -1.2606962 22.196173 16711746
7.4268684 -1.9193118 22.026073 16711746
9.5399342 -1.5452132 19.845144 16711746
8.9539337 -2.5898612 23.051989 16711746
10.657905 -2.4022882 21.087748 16711746
8.8847609 -2.4594266 22.827679 16711746
7.7019906 -1.7830876 20.2166 16711746
6.9068947 -1.9469802 19.320635 16711746
6.9610267 -1.3461149 20.368547 16711746
4.8179646 -0.91760159 20.340616 16711746
7.0075588 -1.4948827 20.555233 16711746
9.8559895 -3.0261261 19.670794 16711746
6.6167641 -1.8556223 23.154621 16711746
8.8282375 -2.2674742 19.308205 16711746
6.7281895 -2.2013056 19.328871 16711746
6.8653622 -1.4540027 19.170267 16711746
4.8708844 -1.1766748 19.10503 16711746
7.6438565 -1.9478259 19.795738 16711746
8.7673092 -1.7470739 19.389431 16711746
6.836133 -2.254921 20.274374 16711746
7.5429654 -1.3956826 19.550282 16711746
7.4567509 -1.8382359 19.993017 16711746
8.9692478 -1.5650526 21.087111 16711746
6.1067252 -1.479691 22.09828 16711746
6.6820679 -1.8094728 20.294552 16711746
7.5132651 -1.8888681 20.283041 16711746
8.1929302 -1.4029074 19.966198 16711746
9.812418 -1.522981 20.439386 16711746
4.328867 -1.6085861 20.083838 16711746
8.8833399 -1.827415 23.529612 16711746
6.8673472 -0.37809876 19.839037 16711746
7.8231206 -1.7854351 20.720682 16711746
8.1441402 -2.6736691 21.898821 16711746
8.6644611 -2.035089 22.354406 16711746
7.4593997 -1.6772403 19.954918 16711746
8.3341389 -1.8501643 19.26017 16711746
4.7369428 -1.3849295 21.494345 16711746
6.7061424 -1.6349047 22.035833 16711746
8.3368492 -1.9962603 21.240108 16711746
8.5246544 -1.7802863 20.174862 16711746
9.7882786 -0.87862855 20.492731 16711746
7.6559677 -1.7626017 20.507214 16711746
8.1920042 -1.7107921 19.990181 16711746
4.785399 -1.2888581 21.371262 16711746
7.8817506 -2.3743689 20.574326 16711746
8.1201763 -1.8525647 20.84944 16711746
7.2615476 -1.0811862 20.376036 16711746
6.2693052 -1.6579384 22.392603 16711746
6.2952719 -2.4759111 19.305599 16711746
7.5821133 -2.0823276 19.597033 16711746
9.0437136 -1.6558288 19.40332 16711746
7.5132461 -1.1961199 20.458261 16711746
9.2556725 -1.748691 19.073799 16711746
8.3660126 -1.6738682 22.748541 16711746
8.6861734 -1.2612888 21.23558 16711746
8.1023598 -3.1234453 25.054407 16711746
6.176291 -1.560937 22.781076 16711746
2.5380936 -2.1314666 22.154682 16711746
9.6051769 -3.4552739 23.428743 16711746
8.1162167 -1.9227248 20.084522 16711746
7.9074574 -1.5929279 19.473894 16711746
7.8717484 -1.5258942 19.437544 16711746
3.3299856 -2.5913134 22.283936 16711746
6.8249135 -1.5792003 20.683939 16711746
6.6694217 -1.1373279 19.072556 16711746
2.1273477 -1.5114599 21.388357 16711746
7.731946 -1.3622977 20.173906 16711746
10.343308 -1.6967078 22.994608 16711746
8.2162666 -1.3962342 21.824978 16711746
7.6303678 -1.6578672 20.081633 16711746
7.0089927 -1.1222774 20.350714 16711746
6.6667194 -1.4814266 19.928135 16711746
7.7482347 -2.1723337 23.924973 16711746
12.4596 -1.6821949 22.784369 16711746
5.0507865 -1.2553418 20.553158 16711746
5.7496891 -1.3644794 21.735596 16711746
8.4177103 -2.2706213 18.802942 16711746
5.870554 -1.886124 21.395605 16711746
7.2224813 -1.4996241 20.734238 16711746
7.6239219 -2.1718261 22.91691 16711746
7.9497499 -2.2844326 21.50177 16711746
5.0030413 -2.0573256 19.548548 16711746
8.5699902 -1.6785299 22.581631 16711746
12.793042 -3.1799898 26.161276 16711746
6.9866171 -1.8227414 20.321962 16711746
6.6548095 -1.6715119 20.153448 16711746
9.9329309 -2.0264726 21.807022 16711746
5.1878681 -1.38456 20.267702 16711746
9.6280107 -1.805325 20.724094 16711746
7.5432196 -2.1343172 22.550335 16711746
9.3668356 -0.8141793 20.1847 16711746
7.255939 -1.2739713 19.866035 16711746
8.3389578 -1.1461891 20.081293 16711746
7.6821036 -1.0206285 19.084295 16711746
8.6842413 -1.3667061 19.642071 16711746
6.0806165 -2.1084251 20.70126 16711746
5.9144545 -3.5223107 21.782009 16711746
9.3869352 -1.4632895 21.318911 16711746
8.4041224 -0.9526822 22.377207 16711746
6.5755849 -1.2544745 20.539019 16711746
8.2627001 -1.9276612 21.665758 16711746
8.2078257 -1.1071944 22.275711 16711746
8.4707193 -0.8327108 22.71138 16711746
7.581017 -0.65829349 20.240379 16711746
7.8961473 -2.500355 19.412262 16711746
4.4510779 -1.5993166 20.667471 16711746
7.527513 -1.7780401 22.746796 16711746
10.142757 -1.5025158 20.422186 16711746
8.6208344 -1.6483036 22.118193 16711746
5.0625811 -0.68474776 19.451664 16711746
7.5946054 -1.5382073 20.060167 16711746
9.1775999 -1.3722072 21.534508 16711746
7.5476117 -0.70959139 19.065332 16711746
5.9141264 -1.2277628 19.515642 16711746
8.8092728 -1.6973845 20.103771 16711746
7.2846303 -1.6342647 22.094391 16711746
9.0181723 -1.5104601 19.920822 16711746
7.9615078 -2.6473172 20.251167 16711746
5.9508843 -1.4555281 20.639204 16711746
5.6654034 -2.3779163 22.824741 16711746
7.1541877 -2.0122881 22.155767 16711746
6.8880205 -0.63549137 20.04962 16711746
7.3560824 -1.498718 20.810745 16711746
8.7773476 -1.3289818 21.20022 16711746
5.2496638 -1.5031687 22.411266 16711746
7.2437305 -1.2904139 20.590952 16711746
3.5443609 -2.1255658 21.202181 16711746
7.342135 -1.4566023 19.344841 16711746
5.2545724 -0.82501322 19.292992 16711746
5.6504335 -0.78734475 19.641331 16711746
8.1408815 -1.2556694 19.609501 16711746
4.9907002 -1.0322402 20.374237 16711746
5.3519268 -1.3964928 20.254156 16711746
9.3383236 -0.83405209 20.071987 16711746
9.5953293 -1.805019 22.600916 16711746
9.3423357 -1.2794884 20.398697 16711746
6.9261651 -1.0632645 19.539576 16711746
8.1630001 -1.3732318 21.787382 16711746
8.3111963 -1.600199 21.163628 16711746
9.9471951 -2.0722694 23.525915 16711746
7.4575748 -1.5648317 20.881111 16711746
9.7146482 -1.8346387 20.87735 16711746
7.8589516 -1.8984231 20.219187 16711746
10.557158 -2.1872959 22.953049 16711746
10.266847 -1.781199 20.726006 16711746
7.9143448 -1.4674867 21.208717 16711746
6.2506747 -1.6647968 20.552881 16711746
3.1753366 -1.7913907 21.12212 16711746
6.9973583 -1.4228609 20.195316 16711746
6.429419 -2.3750291 23.105593 16711746
9.3585587 -1.8708192 23.856302 16711746
9.5549173 -1.3530573 20.270344 16711746
8.8316774 -1.3995676 21.016832 16711746
8.7904053 -1.8921131 22.415089 16711746
6.2622838 -1.3697562 20.424541 16711746
7.9170527 -1.0838839 20.550386 16711746
8.215332 -1.8424537 21.608042 16711746
8.9052343 -1.4145815 19.661306 16711746
9.1323681 -1.3454404 19.966379 16711746
7.3578186 -1.2476398 20.002256 16711746
10.705085 -1.2669868 20.839798 16711746
5.1959753 -0.48717061 20.145102 16711746
6.4050069 -1.8329828 19.506439 16711746
9.398263 -1.2142539 20.122686 16711746
6.8523374 -1.7345605 20.059467 16711746
9.507473 -1.7039562 22.4573 16711746
8.529953 -2.0052485 23.386543 16711746
8.1531677 -1.3264145 19.742908 16711746
7.5697813 -2.175055 19.850351 16711746
8.3313932 -1.7218089 22.838438 16711746
9.4461451 -1.6378307 20.272274 16711746
11.613106 -6.1943331 22.282036 16711746
7.2991428 -1.294804 20.807161 16711746
9.7549667 -1.8348477 21.702402 16711746
14.152099 -5.3449583 27.09173 16711746
3.7431877 -1.5924755 20.875158 16711746
7.0669122 -0.89968526 20.067337 16711746
7.4150343 -1.4339167 19.873104 16711746
6.2967701 -2.6045768 25.474817 16711746
8.4622993 -0.88704801 20.074514 16711746
7.5768309 -1.0718036 20.616631 16711746
4.9816647 -0.99874425 20.484825 16711746
7.197032 -1.3352046 20.901827 16711746
7.04737 -0.87055486 20.199863 16711746
6.6964827 -1.0715418 20.155878 16711746
7.5902004 -1.6706996 20.392405 16711746
5.2415771 -1.6023386 20.932449 16711746
5.917068 -1.0717001 19.722897 16711746
5.2920895 -0.94929391 20.705515 16711746
5.1522341 -0.61408013 20.099689 16711746
9.5423012 -2.0642421 21.507048 16711746
9.4822617 -1.7194195 20.96492 16711746
8.795577 -1.0010304 19.760401 16711746
6.9266768 -0.91340101 20.154625 16711746
2.3389509 -1.110822 22.296314 16711746
5.1557741 -1.154642 20.157574 16711746
5.0511127 -1.1737078 19.818171 16711746
9.2533073 -2.0986042 24.268858 16711746
10.542991 -0.4657346 23.411564 16711746
6.4885006 -1.4383715 19.67569 16711746
5.5056419 -26.756651 30.526369 16711746
7.9088068 -3.418046 25.275352 16711746
6.8815703 -2.9848914 23.554522 16711746
8.0011873 -2.1921504 22.877672 16711746
7.1379433 -1.2322693 21.062094 16711746
4.7087445 -1.7166873 21.764051 16711746
7.3956747 -3.7412605 24.729012 16711746
7.453608 -1.1514369 20.014908 16711746
4.8216882 -1.53064 20.886038 16711746
8.5352612 -1.2856401 19.640144 16711746
8.3811073 -0.85998386 19.255384 16711746
8.9521761 -1.225177 20.465576 16711746
7.7700987 -1.4882139 20.413805 16711746
8.6531935 -0.97675347 20.207897 16711746
6.3385682 -1.7821879 19.583519 16711746
8.0099974 -1.2693614 19.682915 16711746
9.1415272 -1.5805448 21.768238 16711746
8.5202188 -1.0119914 19.334002 16711746
9.1122036 -1.2888871 19.974476 16711746
6.3385906 -0.86239612 19.123404 16711746
8.8778524 -0.92693901 19.493807 16711746
7.3433843 -1.5645409 19.330853 16711746
7.6300702 -1.2733949 19.882124 16711746
7.831893 -2.0562546 20.033863 16711746
7.2144055 -1.0133638 20.320961 16711746
6.7364511 -0.80920845 20.090252 16711746
6.7916398 -0.71824473 19.468752 16711746
7.5761123 -1.1187847 20.365805 16711746
5.8154569 -0.66660303 19.400368 16711746
11.67951 -2.108238 22.251764 16711746
7.9369359 -3.3563764 25.206583 16711746
9.450757 -1.9109418 21.458309 16711746
-0.87228721 -27.297531 35.325813 16711746
8.6533318 -1.5865855 21.251335 16711746
8.0357218 -1.009828 19.353342 16711746
8.3290205 -0.83369017 19.228571 16711746
7.8248997 -0.94305503 19.533077 16711746
8.159461 -0.85051942 20.021116 16711746
8.3790607 -1.0175192 19.393803 16711746
7.3698282 -1.8830709 21.404535 16711746
8.7136993 -1.0748525 19.9785 16711746
4.6624022 -0.56566626 19.813734 16711746
7.2324753 -1.3317064 20.588413 16711746
13.008931 -5.2001004 33.590694 16711746
7.2177992 0.019877084 19.726467 16711746
5.8628159 -1.804504 19.557898 16711746
6.5022368 -1.1624193 19.687489 16711746
8.8835697 -0.87486643 19.55603 16711746
11.143357 -3.149869 22.480089 16711746
8.8098488 -1.9372238 19.932747 16711746
7.9724998 -1.0134695 20.69923 16711746
8.607378 -0.9364692 19.578947 16711746
8.5774298 -1.5897509 22.587194 16711746
7.4651012 -1.0297093 20.301664 16711746
7.145793 -0.95379084 21.174044 16711746
6.6387234 -1.5948608 21.762325 16711746
7.4157362 -2.2535162 20.055876 16711746
7.3120227 -1.9718164 19.854578 16711746
6.4038558 -0.794424 21.209694 16711746
8.7799015 -1.326324 23.103785 16711746
8.6812363 -0.39992154 23.362389 16711746
6.5520144 -1.0999644 22.041719 16711746
6.540638 -1.330683 21.887362 16711746
6.6396995 -1.2904612 21.337269 16711746
7.2082472 -1.3977426 21.150517 16711746
7.6845117 -0.48811871 21.089478 16711746
8.2223692 -1.0811269 21.256323 16711746
6.7597275 -1.2584424 21.38332 16711746
6.581893 -0.88970792 20.17041 16711746
7.0644031 -0.97905791 20.938677 16711746
6.2060227 -1.4548334 23.373739 16711746
7.2872772 -1.2825179 21.123648 16711746
7.3524714 -1.5858788 21.160582 16711746
7.2468758 -1.5976888 22.402302 16711746
7.9795351 -2.1022456 19.994165 16711746
7.2167983 -1.6303 19.666216 16711746
7.8616939 -1.1073582 20.951525 16711746
7.024169 -0.58621562 20.049604 16711746
6.8170934 -1.9423659 21.782679 16711746
6.6565037 -0.44822446 19.194412 16711746
10.34261 -2.7490578 20.200686 16711746
9.0033493 -1.5360763 19.947969 16711746
5.5845265 -1.1058834 22.951866 16711746
6.1292939 -0.36714104 20.004864 16711746
7.1119118 -0.083044194 20.329338 16711746
6.5670209 -1.6641924 20.895323 16711746
6.9121475 -1.4716389 20.476862 16711746
5.9236269 -1.4793247 22.892315 16711746
7.9453273 -0.81081581 21.448893 16711746
7.3387756 -0.55319488 20.359884 16711746
8.6534643 -1.4646749 22.108194 16711746
7.7497234 -0.96224481 20.571224 16711746
8.647893 -1.8039709 22.968838 16711746
8.8339672 -1.338554 21.486601 16711746
7.1325011 -0.53272307 20.045134 16711746
6.7955155 -0.62691027 19.777575 16711746
8.2782183 -0.73116964 21.045637 16711746
7.5586061 -0.72467428 20.398481 16711746
7.9755683 -0.99783063 20.712025 16711746
8.1671028 -0.9990018 20.676466 16711746
7.1897244 -0.67032635 20.217596 16711746
9.0312634 -1.3231006 21.845877 16711746
8.8018618 -1.3235531 21.455893 16711746
7.35779 -0.77123517 19.638763 16711746
7.6387329 -1.028465 20.448439 16711746
7.0919075 -1.2941468 20.321375 16711746
8.0987806 -1.2075409 24.268021 16711746
7.2308664 -1.3645107 21.653913 16711746
7.0405512 -1.0192009 20.852781 16711746
6.7573261 -0.70648646 19.675611 16711746
7.3451576 -0.71611363 19.589588 16711746
9.0379257 -1.1250871 23.911373 16711746
6.8838496 -0.64929867 19.729967 16711746
6.8779483 -1.021793 19.936758 16711746
7.8009462 -1.0099432 19.503527 16711746
7.6064291 -1.1746764 20.152727 16711746
6.7496643 -1.1582867 19.786459 16711746
8.1886215 -1.1079712 21.252779 16711746
6.6420131 -0.47484037 19.181379 16711746
5.6145449 -2.4541056 23.907494 16711746
6.0505443 -1.7322303 21.990522 16711746
7.9307318 -1.1959475 20.583492 16711746
8.2994766 -1.1291045 20.062944 16711746
8.5880775 -1.0582753 19.617786 16711746
8.4083652 -0.86250597 19.333385 16711746
7.7788682 -0.93549955 20.714575 16711746
7.8882794 -1.1197274 19.497057 16711746
7.9903903 -0.51450187 21.419468 16711746
9.0984697 -1.3367603 21.289034 16711746
8.6640739 -1.2013515 20.039824 16711746
8.7682581 -0.80613798 20.950897 16711746
8.5752497 -0.89143604 19.329556 16711746
8.0396252 -0.69584763 20.020525 16711746
5.01401 -0.63832158 19.391785 16711746
8.2098589 -1.0056468 20.004002 16711746
6.8296342 -0.51851285 19.690575 16711746
8.2674313 -1.4663308 19.694712 16711746
7.8695946 -2.1590393 20.303585 16711746
7.2515087 -0.67447305 19.499722 16711746
7.1599722 -0.79875165 19.446442 16711746
6.6143093 -0.96504587 19.800365 16711746
6.5149283 -1.7524993 19.717108 16711746
7.384481 -1.2049348 19.996645 16711746
6.384449 0.62592667 18.740583 16711746
8.2478285 -0.69816935 20.283598 16711746
7.9715204 -1.3585539 21.043533 16711746
