# .PCD v0.7 - Point Cloud Data file format
VERSION 0.7
FIELDS x y z rgb
SIZE 4 4 4 4
TYPE F F F F
COUNT 1 1 1 1
WIDTH 1236
HEIGHT 1
VIEWPOINT 0 0 0 1 0 0 0
POINTS 1236
DATA ascii
13.963492 4.0453997 42.390533 16711746
14.143547 4.8887162 41.708099 16711746
14.604634 4.8911257 41.516254 16711746
14.800822 4.9671664 42.2104 16711746
13.413377 4.882585 41.528378 16711746
14.528873 4.8698406 41.463055 16711746
14.291115 4.8122101 41.405609 16711746
13.106801 4.8400397 41.363132 16711746
14.567391 4.8830585 41.493507 16711746
14.396188 4.912219 41.593704 16711746
14.301988 4.8804474 41.509052 16711746
14.019714 4.7616568 42.00423 16711746
11.377815 4.1885343 43.020222 16711746
14.033997 4.8926735 41.53783 16711746
14.573061 4.606462 41.656967 16711746
13.803947 3.9572105 42.935577 16711746
13.519169 4.8756022 41.407986 16711746
13.921888 4.8781557 41.809315 16711746
14.024978 4.8923445 41.863796 16711746
14.275342 4.6143279 41.417835 16711746
14.180744 4.9202833 41.885715 16711746
13.793782 5.0529056 42.515125 16711746
13.442846 4.8315654 41.39082 16711746
13.523442 4.851203 41.484261 16711746
13.619184 4.8465929 41.353935 16711746
13.445765 4.8288522 41.380215 16711746
13.45267 4.8121991 41.333752 16711746
13.408879 4.7767549 41.409576 16711746
13.699339 4.3166628 41.525711 16711746
13.788308 4.8630652 41.439976 16711746
14.217437 4.6899338 42.03746 16711746
14.411651 3.9323006 42.546234 16711746
13.522439 4.8523183 41.484886 16711746
14.65116 4.1661468 41.602806 16711746
14.968217 4.0022278 41.818272 16711746
14.980375 4.359293 41.930351 16711746
14.905776 4.0306511 41.780937 16711746
13.341021 4.8325343 41.622456 16711746
13.472241 4.8358369 41.38887 16711746
14.325598 4.8861222 41.530327 16711746
11.883837 4.7670078 48.47971 16711746
14.535306 4.6376143 41.463909 16711746
14.432791 4.633513 41.409672 16711746
13.522753 4.8509364 41.346508 16711746
13.797724 4.8749647 41.471664 16711746
13.863469 4.8408995 41.430042 16711746
13.475408 3.9270918 42.466049 16711746
11.772644 4.8376784 45.360027 16711746
13.334685 4.839664 41.645958 16711746
13.175203 4.8336935 41.667107 16711746
13.364589 4.8419924 41.301323 16711746
13.433965 4.6903353 41.572842 16711746
13.175569 4.8345346 41.667717 16711746
13.538379 4.1962471 41.810841 16711746
13.6179 4.84445 41.348129 16711746
13.606991 4.8371773 41.425907 16711746
13.470429 4.8502355 41.619003 16711746
13.525756 4.8367553 41.317333 16711746
13.67275 4.8093739 41.558575 16711746
13.347127 4.8282957 41.612328 16711746
13.618535 4.1516275 42.712345 16711746
13.186507 4.6575866 41.977436 16711746
13.510226 4.3209586 41.782898 16711746
13.256968 4.8408518 41.48193 16711746
13.519441 4.8686996 41.534035 16711746
13.136254 4.8523607 41.741707 16711746
13.499048 4.7693338 42.153427 16711746
12.949811 4.8396015 41.624161 16711746
13.018956 4.6470857 42.308865 16711746
13.486261 3.9560621 42.405609 16711746
13.473549 3.9420607 42.450779 16711746
13.362392 4.5970054 41.724232 16711746
13.614017 4.1288018 42.847717 16711746
13.571248 3.9605317 42.634796 16711746
14.100396 4.2580194 42.953709 16711746
10.411901 4.4940472 44.409569 16711746
12.751748 4.9845371 43.874508 16711746
12.998325 5.4055142 42.721195 16711746
13.337443 4.8296533 41.390034 16711746
13.33087 4.8378167 41.292248 16711746
13.42504 4.4995947 41.664429 16711746
13.69487 4.3397589 41.800545 16711746
13.018725 4.7436867 42.056831 16711746
12.78583 5.0121112 46.710304 16711746
13.680564 4.1352382 44.66605 16711746
13.876119 4.8420625 41.386253 16711746
13.715313 4.8270216 41.266888 16711746
14.23856 4.8335419 41.308819 16711746
13.665977 4.7995067 41.522572 16711746
13.82938 4.1799264 41.933907 16711746
14.074489 4.8865385 41.825024 16711746
13.770591 4.8116961 41.433186 16711746
13.646747 4.8221974 41.276703 16711746
13.788911 4.827323 41.477848 16711746
13.52004 4.3949332 41.580112 16711746
13.641536 4.8068495 41.244549 16711746
13.764011 4.8425546 41.336086 16711746
13.81858 4.8556409 41.561722 16711746
14.505535 4.8850737 41.908001 16711746
13.714239 4.5068102 41.726509 16711746
13.575221 4.5054822 41.348808 16711746
13.466949 4.8545218 41.632633 16711746
13.764326 4.8062172 41.419704 16711746
9.9792185 4.467351 44.864361 16711746
11.34925 3.7460794 43.743649 16711746
13.648349 4.8368812 41.403656 16711746
13.671138 4.8334937 41.321056 16711746
14.81673 3.7943218 42.427376 16711746
13.869111 4.8441782 41.387959 16711746
13.445742 4.9590302 41.760372 16711746
13.816607 4.8528175 41.550198 16711746
13.744923 4.8471999 41.416851 16711746
13.994424 4.2378211 41.796501 16711746
13.846029 4.8306994 41.355541 16711746
11.911321 4.3445296 42.388878 16711746
11.792089 4.3249397 42.494724 16711746
14.326231 4.0822916 42.879814 16711746
14.021575 4.8115592 41.637085 16711746
13.228946 4.165226 42.502079 16711746
12.545806 4.8702435 42.472046 16711746
12.619514 4.8552732 42.37114 16711746
11.695897 3.7438495 46.022873 16711746
11.185201 3.8387215 45.911976 16711746
13.441928 4.8770652 41.935951 16711746
13.732239 4.8382888 41.394138 16711746
13.858072 4.8352709 41.315651 16711746
14.361357 4.505765 41.821358 16711746
13.703507 4.8238578 41.471054 16711746
12.961171 4.7971082 41.538719 16711746
13.778573 4.8467469 41.467609 16711746
13.300912 4.8492951 41.677502 16711746
12.849553 4.9041734 42.382725 16711746
13.36001 4.8386269 41.519398 16711746
13.868442 4.8416691 41.430626 16711746
14.010553 4.8231444 41.521732 16711746
13.906866 4.7816162 41.392784 16711746
13.256421 4.8296089 41.468903 16711746
14.596706 4.032918 42.113064 16711746
13.303308 4.8480759 41.673046 16711746
12.8918 4.8655472 42.471935 16711746
12.671245 4.8799334 42.68858 16711746
14.229075 3.9410768 42.393284 16711746
14.146662 4.0528169 42.170109 16711746
10.849299 4.509264 46.329727 16711746
13.619564 4.5512819 41.214489 16711746
13.408512 4.8114133 41.27029 16711746
14.016732 4.8361068 41.282951 16711746
13.040442 4.775723 41.461189 16711746
13.774137 4.8395181 41.327637 16711746
14.563684 4.9267921 43.368343 16711746
12.80055 4.4987202 42.804211 16711746
14.098225 4.3687606 42.460903 16711746
13.534796 4.2251859 42.276501 16711746
11.376218 4.0098591 44.584476 16711746
13.780338 4.8464603 41.341541 16711746
14.360777 4.5028915 41.830242 16711746
13.799921 4.8243256 41.27264 16711746
14.00354 4.833725 41.281563 16711746
13.091164 4.5984163 41.728817 16711746
14.24123 4.8574734 41.561314 16711746
13.808156 4.841454 41.367786 16711746
14.216907 4.8494167 41.543571 16711746
14.050304 4.8565803 41.318726 16711746
14.077248 4.8692966 41.340153 16711746
14.08414 4.8725128 41.342545 16711746
14.193614 4.8421016 41.522366 16711746
13.817634 4.8397384 41.409443 16711746
13.898602 4.8359513 41.379658 16711746
13.663664 4.8204689 41.381229 16711746
14.214443 4.8491688 41.545418 16711746
13.817324 4.8411674 41.411636 16711746
13.941174 4.8596773 41.543072 16711746
13.103294 4.6777091 42.331043 16711746
13.908055 4.8451805 41.273403 16711746
13.380378 4.8468332 41.454357 16711746
13.124833 4.6617923 42.266918 16711746
13.398746 4.5960717 41.78698 16711746
13.902346 4.8389707 41.389084 16711746
13.54306 4.7896085 41.330593 16711746
12.957321 4.9131045 42.530895 16711746
12.835362 4.8820114 42.584442 16711746
13.347785 4.8222823 41.370831 16711746
13.87317 4.8065538 41.521465 16711746
13.994013 4.8381462 41.741615 16711746
13.037224 4.8077092 42.325497 16711746
14.23667 4.8798885 41.606876 16711746
12.863384 4.8610196 42.738522 16711746
14.093813 4.3396144 42.798687 16711746
13.917332 4.8469739 41.399601 16711746
13.811741 4.8379612 41.308998 16711746
13.831497 4.8516264 41.432339 16711746
13.801122 4.8505597 41.417873 16711746
14.282261 4.8722334 41.536949 16711746
13.91121 4.8430185 41.393169 16711746
14.256872 4.863842 41.515766 16711746
14.080606 4.8901091 41.684139 16711746
12.999788 4.4154034 41.47541 16711746
13.908476 4.8397212 41.494812 16711746
13.679926 4.8331275 41.408699 16711746
13.784012 4.8597202 41.433826 16711746
13.404231 4.8148322 41.277142 16711746
14.241117 4.858182 41.502781 16711746
14.195891 4.8640265 41.574535 16711746
13.65403 4.8025613 41.46011 16711746
12.933304 4.587656 43.225754 16711746
13.953267 4.8483829 41.313171 16711746
12.910777 4.8463249 41.855995 16711746
14.305921 4.8785 41.55719 16711746
14.008585 4.8395386 41.384407 16711746
13.806538 4.8302598 41.388744 16711746
11.687021 4.7968864 44.852398 16711746
12.175763 3.9007525 43.688938 16711746
14.056683 4.8789973 41.65704 16711746
13.798786 4.8291702 41.416656 16711746
13.468811 4.6367507 41.470592 16711746
14.406591 4.8499064 41.779568 16711746
12.423708 4.8508477 42.253357 16711746
13.019332 4.2493505 42.187321 16711746
13.803132 4.8521628 41.362095 16711746
13.88886 4.8508015 41.458939 16711746
14.045016 4.802443 41.648678 16711746
14.104059 4.8169994 41.459 16711746
14.258789 4.6284723 43.069672 16711746
13.44845 4.8669295 41.447536 16711746
13.430751 4.843821 41.413418 16711746
13.05753 4.8562751 41.737904 16711746
13.643069 4.8519979 41.604641 16711746
12.851992 4.8356776 42.340355 16711746
12.95622 4.8327594 41.799572 16711746
12.944438 4.8363447 41.815018 16711746
14.25988 4.863894 41.518059 16711746
13.927801 4.8540344 41.415558 16711746
13.941356 4.868082 41.612034 16711746
13.61918 4.8406038 41.401779 16711746
13.607021 4.8389983 41.403893 16711746
13.136985 4.82795 41.64035 16711746
13.676947 4.8303928 41.401104 16711746
13.711022 4.8356962 41.501835 16711746
12.504828 4.8390875 42.164852 16711746
11.996982 4.3950167 43.570957 16711746
13.376911 4.8265042 41.485249 16711746
13.374934 4.8287435 41.492775 16711746
12.000178 4.3800292 42.764465 16711746
13.714628 4.840837 41.514034 16711746
13.836712 4.8561716 41.440594 16711746
13.152342 4.7833824 41.621433 16711746
13.594958 4.8500066 41.734936 16711746
13.793744 4.8434086 41.402348 16711746
13.212127 4.83604 41.508911 16711746
14.04489 4.8844175 41.362568 16711746
13.589791 4.9130716 41.955502 16711746
13.723226 4.8224339 41.628494 16711746
13.616721 4.375998 42.177464 16711746
13.129086 4.790647 41.639091 16711746
13.598906 4.5595751 41.300224 16711746
13.99089 4.84516 41.562847 16711746
13.527672 4.8920097 41.881718 16711746
14.044036 4.8525567 41.363003 16711746
13.945861 4.8498659 41.360275 16711746
12.507864 4.9206233 43.251717 16711746
13.754778 4.8313136 41.655411 16711746
13.677727 4.6853366 41.438896 16711746
12.005993 4.7067246 43.901237 16711746
13.551102 4.8490024 41.587799 16711746
13.606953 4.8346148 41.420155 16711746
13.746642 4.8414989 41.493568 16711746
13.245726 4.836545 41.485794 16711746
14.214205 4.8740215 41.590595 16711746
13.59463 4.8710537 41.806873 16711746
14.241299 4.8834391 41.617588 16711746
13.918713 4.7855382 41.224163 16711746
14.229039 4.8786888 41.604195 16711746
13.686141 4.7720509 41.572346 16711746
15.535486 4.1470804 42.442112 16711746
13.655112 4.8097935 41.489132 16711746
13.862661 4.867568 41.765518 16711746
13.677995 4.6972013 41.440712 16711746
14.610831 4.6797991 41.732346 16711746
14.392524 4.6301122 41.616615 16711746
12.602182 4.6410465 42.291725 16711746
14.508334 3.9958613 42.918167 16711746
14.360473 3.789048 42.849434 16711746
13.884562 4.810936 41.38118 16711746
13.653973 4.8231921 41.506672 16711746
13.640368 4.8694153 41.631153 16711746
12.938609 4.8374805 41.81604 16711746
13.968264 4.8782725 41.581783 16711746
13.747747 4.8405628 41.493862 16711746
13.654859 4.8508463 41.646118 16711746
13.624718 4.4004493 42.295189 16711746
14.237796 4.2910967 42.067364 16711746
14.364936 4.9208412 42.8904 16711746
14.403766 5.3256364 43.147263 16711746
13.545293 4.3302765 41.985237 16711746
13.955383 4.8073835 41.390171 16711746
13.948341 4.8047504 41.384655 16711746
13.81426 4.8485179 41.425301 16711746
13.901656 4.5251203 42.071186 16711746
13.513483 4.2061157 42.328987 16711746
14.134431 4.8864474 41.736744 16711746
13.801648 4.7139745 41.745758 16711746
14.256455 4.8178725 41.660664 16711746
13.957317 3.5360932 43.630943 16711746
13.669839 4.1396618 43.20462 16711746
13.978761 4.8207459 41.41502 16711746
13.466668 4.6377864 42.162834 16711746
13.615998 4.4307919 42.209839 16711746
14.094617 4.193059 42.69577 16711746
13.507238 4.6416473 41.953678 16711746
14.927106 4.3204851 41.969791 16711746
14.083037 4.8192925 41.709793 16711746
13.683091 4.7811131 41.609325 16711746
14.824194 4.7292838 41.81546 16711746
13.910205 4.8438988 41.394222 16711746
13.573562 4.51583 41.625259 16711746
13.891425 4.6518917 41.901966 16711746
14.872822 4.0715518 43.123528 16711746
14.251504 4.8960485 41.84901 16711746
14.772018 4.4358087 43.741665 16711746
14.903019 4.230885 42.341515 16711746
13.657432 4.4823604 41.611305 16711746
14.194428 4.8721924 41.774635 16711746
13.477382 4.8439655 41.598461 16711746
13.591777 4.8568339 41.703869 16711746
13.554552 4.8471627 41.614491 16711746
13.969604 4.8819485 41.583038 16711746
13.583121 4.8773408 41.826759 16711746
13.678973 4.7317061 41.426884 16711746
13.823985 4.2590847 43.019054 16711746
14.266998 4.8648272 41.575356 16711746
13.681816 4.1851521 42.142212 16711746
13.890083 4.8878565 41.828289 16711746
13.414582 4.9283252 42.671986 16711746
13.432058 4.9060817 42.560417 16711746
13.921103 4.8241744 41.36208 16711746
13.932112 4.830646 41.371445 16711746
13.747007 4.8119602 41.588638 16711746
14.071706 4.7853756 41.83065 16711746
13.903354 4.8504224 41.679214 16711746
13.830865 4.8185711 41.925095 16711746
13.517538 4.8331056 41.450542 16711746
13.599991 4.8348045 41.486778 16711746
13.896287 4.5306749 42.0341 16711746
13.595706 4.8453245 41.507942 16711746
13.712001 4.8316317 41.491901 16711746
13.554944 4.844389 41.577114 16711746
13.485546 4.8361712 41.576672 16711746
13.475883 4.1898694 42.349396 16711746
13.583175 4.7003427 41.755638 16711746
12.802938 3.8377709 42.651966 16711746
13.367323 4.8349857 41.508652 16711746
13.474892 4.8459587 41.603172 16711746
13.731868 3.9414873 42.832645 16711746
13.752231 3.7190006 43.377308 16711746
13.771297 4.6257095 41.710365 16711746
13.529991 4.8380704 41.497551 16711746
13.447217 4.8103614 41.508072 16711746
13.438538 4.8246918 41.450054 16711746
14.471147 3.6806052 43.047359 16711746
14.110231 4.8741937 41.707542 16711746
13.678372 4.7265139 41.403702 16711746
13.189724 4.8421292 41.757553 16711746
13.509507 4.8287897 41.745426 16711746
13.943648 4.5978303 41.415268 16711746
13.596753 4.8723054 41.827492 16711746
13.22434 4.8683152 42.275051 16711746
13.533195 4.8333035 41.488457 16711746
13.468407 4.8197937 41.42551 16711746
13.479762 4.8419108 41.590496 16711746
13.534408 4.844346 41.68111 16711746
13.410664 4.8366652 41.671757 16711746
13.245888 4.815084 41.614109 16711746
13.964673 4.8428354 41.426434 16711746
13.50837 4.8315911 41.749935 16711746
13.187173 4.84305 41.759815 16711746
13.770297 4.8575568 41.739311 16711746
13.904197 4.8661718 41.48283 16711746
14.489696 4.0194821 42.860897 16711746
14.578764 3.9132175 43.094738 16711746
14.874096 3.6846788 43.693695 16711746
13.621848 4.8538561 41.594398 16711746
13.713857 4.8369446 41.502598 16711746
13.518493 4.8202906 41.711449 16711746
13.677662 4.7317801 41.423294 16711746
13.20228 4.8391137 41.743801 16711746
13.51529 4.8239136 41.730034 16711746
13.535574 4.8403964 41.517132 16711746
13.392693 4.844276 41.631039 16711746
13.685145 4.6338091 41.420315 16711746
13.744603 4.4381738 41.653488 16711746
13.186106 4.8840585 42.367001 16711746
13.507205 4.8906803 42.159973 16711746
13.473963 4.856617 42.270409 16711746
13.464543 4.8325267 41.513672 16711746
13.485067 4.8361902 41.577438 16711746
13.237524 4.883225 42.163177 16711746
13.308339 4.8425603 41.758118 16711746
14.428052 4.3411899 42.856472 16711746
14.366868 4.9124947 41.767044 16711746
13.902793 4.6586537 41.909256 16711746
13.797301 4.8261657 41.634506 16711746
13.979985 4.8610401 41.730145 16711746
13.340835 4.5516553 41.54805 16711746
13.461253 4.8478656 41.683609 16711746
13.805893 4.8540783 41.56435 16711746
13.309464 4.842906 41.749825 16711746
13.403803 4.814734 41.462826 16711746
14.078791 4.4784479 41.696503 16711746
13.304558 4.8107901 41.768608 16711746
13.739322 4.8356075 41.509613 16711746
12.993394 4.449842 41.711464 16711746
13.243093 4.8160491 41.614361 16711746
13.443337 4.8209028 41.441021 16711746
13.903418 4.8385568 41.55555 16711746
13.722566 4.4051552 41.78376 16711746
13.984654 4.8395591 41.572571 16711746
13.515169 4.8425179 41.527622 16711746
13.348007 4.6761856 41.722492 16711746
13.956448 4.7789388 41.582508 16711746
12.821716 4.8531165 42.693253 16711746
13.865516 4.8464546 41.666679 16711746
13.677639 4.7298183 41.4165 16711746
13.209826 4.1030374 42.874172 16711746
14.137626 4.8778844 41.635979 16711746
13.676976 4.7331963 41.42746 16711746
14.019045 4.879539 41.822594 16711746
13.790711 4.7855144 41.473183 16711746
13.494172 4.8357997 41.501526 16711746
13.734849 4.8542542 41.694592 16711746
13.582266 4.8440986 41.61824 16711746
14.802814 4.4741211 42.446079 16711746
13.875095 4.878437 41.751698 16711746
13.805647 4.8300543 41.535732 16711746
13.732491 4.8375492 41.523911 16711746
12.713105 4.8713589 42.892838 16711746
12.727831 4.9127626 43.165657 16711746
14.773124 4.7412715 42.352913 16711746
13.685421 4.633204 41.423702 16711746
14.015906 4.8769617 41.609207 16711746
13.534051 4.8377337 41.565922 16711746
14.035369 4.5172486 42.369415 16711746
13.919004 4.8656187 41.630775 16711746
13.67767 4.7304854 41.417957 16711746
13.677939 4.7273054 41.40469 16711746
13.96682 4.8815179 41.581467 16711746
13.93606 4.8893728 41.746582 16711746
13.962073 4.851059 41.756855 16711746
12.905596 4.2803125 43.068142 16711746
13.970052 4.8856373 41.821079 16711746
14.018122 4.5333786 42.315849 16711746
13.096226 3.7002392 43.328007 16711746
13.921044 4.8792434 41.719799 16711746
13.827829 4.7596335 41.866932 16711746
15.013695 3.9861994 43.383778 16711746
13.523086 4.8541856 41.709766 16711746
13.695037 4.8540192 41.710487 16711746
13.513058 4.8659759 41.740902 16711746
13.713756 4.8531628 41.650528 16711746
13.52644 4.8423066 41.505989 16711746
13.568572 4.8427801 41.534103 16711746
13.805293 4.8399625 41.498615 16711746
14.032934 4.8656116 41.630531 16711746
13.690905 4.8032565 41.568027 16711746
13.417011 4.8488932 41.654964 16711746
13.321354 4.8348012 41.811325 16711746
13.461081 4.8480444 41.68446 16711746
12.659221 4.1827908 43.554531 16711746
13.82134 4.8681912 41.745934 16711746
16.178776 4.1178751 43.318344 16711746
13.88102 4.8101354 41.57312 16711746
15.691318 4.2397795 42.907036 16711746
13.485507 4.8356037 41.576355 16711746
13.331323 4.8054442 41.633827 16711746
13.312072 4.6356082 41.784485 16711746
13.687985 4.8708296 41.74448 16711746
14.042257 4.8941307 41.640125 16711746
13.41772 4.8834834 42.162308 16711746
13.269103 4.8329039 41.715706 16711746
13.542239 4.8378615 41.684666 16711746
13.304036 4.8475623 41.757538 16711746
13.553058 4.8468723 41.581486 16711746
13.579762 4.8456817 41.623596 16711746
12.463716 4.7382169 44.258945 16711746
13.056256 4.8432069 42.56303 16711746
13.862771 4.8861022 42.011452 16711746
14.062067 4.488276 42.458435 16711746
14.027619 4.8851771 41.839695 16711746
13.500803 4.833982 41.762394 16711746
14.795977 4.9616451 42.351242 16711746
11.282631 4.3434439 46.056137 16711746
13.309277 4.842473 41.769741 16711746
13.864507 4.88906 41.697933 16711746
13.286096 4.5630813 42.318577 16711746
13.330189 4.5710344 42.209637 16711746
13.934167 4.8862739 41.677124 16711746
13.413751 4.8866749 42.176399 16711746
13.347489 4.8513603 41.747742 16711746
14.154611 4.8996058 41.767689 16711746
14.431283 4.8633294 41.832077 16711746
13.184565 4.6825576 42.05534 16711746
13.189413 4.8426418 41.759235 16711746
11.737949 4.5941429 43.453655 16711746
13.806771 4.8340211 41.662724 16711746
11.762317 4.5931668 43.430599 16711746
11.243982 4.5560584 45.043816 16711746
11.711207 4.6991615 44.305721 16711746
13.968407 4.8648734 41.616524 16711746
13.473639 4.8400841 41.659973 16711746
14.054621 4.8889551 41.701096 16711746
14.04401 4.782474 41.657181 16711746
14.069382 4.8900871 41.698395 16711746
13.200474 4.8598404 41.795876 16711746
13.983866 4.8758893 41.639015 16711746
14.426881 4.8502192 41.788601 16711746
13.95406 4.8912888 41.801533 16711746
13.91083 4.8471017 41.616062 16711746
13.387503 4.8591986 41.830395 16711746
13.856959 4.5540609 41.885384 16711746
14.143468 4.8574715 42.006744 16711746
13.495629 4.8349051 41.501205 16711746
13.963716 4.8551545 41.760117 16711746
13.45668 4.8197489 41.535778 16711746
14.399627 4.5472174 41.993298 16711746
12.787338 4.8358536 42.217541 16711746
13.505838 4.8226986 41.503044 16711746
13.520643 4.8499937 41.588821 16711746
13.301584 4.8474588 41.774063 16711746
13.553876 4.8480783 41.612961 16711746
13.84273 4.8832874 41.784969 16711746
13.849394 4.871592 41.731098 16711746
13.756797 4.8577266 41.696571 16711746
13.477397 4.841939 41.586498 16711746
13.689079 4.6376109 41.41156 16711746
13.68654 4.8847351 41.782398 16711746
13.947158 4.8516116 41.57658 16711746
13.68929 4.6370153 41.41367 16711746
13.094659 4.8050356 42.14854 16711746
12.815192 4.8297954 42.189693 16711746
14.176397 4.8393259 41.787228 16711746
14.234093 4.8828268 41.970448 16711746
12.977196 4.802423 42.037228 16711746
13.847557 4.8688364 41.653748 16711746
13.226365 4.7756543 41.945259 16711746
13.44462 4.5919628 41.846668 16711746
12.737808 4.2184887 43.377785 16711746
13.732687 4.8530302 41.695721 16711746
13.735745 4.8606596 41.7104 16711746
13.726811 4.8564639 41.661091 16711746
13.491683 4.7627935 41.729076 16711746
12.94909 4.8562622 42.127872 16711746
13.455283 4.8493838 41.643345 16711746
12.932782 4.8595853 42.145977 16711746
13.115683 4.8410292 42.129295 16711746
13.951381 4.8742008 41.712734 16711746
13.689214 4.6371951 41.413113 16711746
13.896589 4.8590989 41.585968 16711746
13.732561 4.8711514 41.739883 16711746
13.255541 4.8232088 41.69685 16711746
13.67135 4.8632007 41.637146 16711746
13.671464 4.1587224 43.112221 16711746
13.890697 3.4769816 43.987076 16711746
13.863208 4.889513 42.017921 16711746
14.045501 4.9086485 41.817101 16711746
13.666745 4.8717971 41.783413 16711746
12.870463 4.8771334 42.58736 16711746
13.971354 4.8532829 41.593071 16711746
13.918451 4.8581467 41.650974 16711746
13.222996 4.4884849 42.035858 16711746
12.939197 4.2731566 42.536198 16711746
14.224022 4.9263039 41.777264 16711746
13.651091 4.853951 41.658031 16711746
13.40229 4.8667507 41.71286 16711746
13.646534 4.8653302 41.682552 16711746
13.943134 4.8765364 41.68615 16711746
12.621838 4.5358415 42.279728 16711746
13.96475 4.848546 41.583698 16711746
13.445739 4.8611751 41.622463 16711746
13.859249 3.837832 43.404793 16711746
13.765886 4.8990493 41.783951 16711746
13.80914 4.8813829 41.77903 16711746
14.305042 4.8741026 41.983864 16711746
13.759108 4.865171 41.716507 16711746
13.805369 4.8661013 41.743996 16711746
14.586204 3.6771493 43.749096 16711746
14.020702 4.8815713 41.825165 16711746
14.252495 4.8924799 42.002445 16711746
14.292365 4.9078455 42.053665 16711746
14.258704 4.9329128 42.279205 16711746
13.760923 4.6480656 41.671585 16711746
14.282111 4.8869042 41.741978 16711746
13.66744 4.8669963 41.77153 16711746
13.980744 4.8600588 41.602863 16711746
13.691128 4.8803735 41.888336 16711746
13.980578 4.8777328 41.685421 16711746
13.929021 4.0938029 43.142864 16711746
13.688236 4.8858352 41.904316 16711746
13.395452 4.8970265 42.224201 16711746
14.337866 4.2025137 43.08976 16711746
13.802578 4.8676438 41.749615 16711746
15.300694 3.9303427 43.943581 16711746
13.726245 4.8580451 41.726303 16711746
13.805642 4.8668528 41.7458 16711746
14.205418 4.8990993 41.883976 16711746
13.879417 4.8822556 41.75861 16711746
13.655836 4.8730893 41.849964 16711746
13.667784 4.869946 41.777485 16711746
13.733587 4.8491082 41.685112 16711746
13.668024 4.8680944 41.773098 16711746
11.986414 4.8574219 43.024845 16711746
13.541952 4.8372641 41.684696 16711746
13.899878 4.8735089 41.722351 16711746
14.105609 4.1518564 42.589787 16711746
13.833125 4.7349219 41.873333 16711746
14.004054 4.87497 41.746601 16711746
13.991143 4.6203046 42.057926 16711746
13.88577 4.8748035 41.801819 16711746
14.374885 4.2385979 42.624512 16711746
14.966983 4.2315249 43.22887 16711746
16.866922 4.7119131 43.564342 16711746
13.92065 4.8704066 41.711895 16711746
13.565409 4.8607373 41.860199 16711746
14.272461 4.8830395 41.737976 16711746
13.925818 4.874517 41.720592 16711746
13.994901 4.8768487 41.759117 16711746
13.570784 4.856771 41.84568 16711746
13.944676 4.8651991 41.639797 16711746
14.09081 4.4880152 41.804417 16711746
13.955684 4.8922358 41.806892 16711746
13.977258 4.9072762 41.741905 16711746
13.977917 4.8921208 41.837112 16711746
13.253294 4.6463552 43.883274 16711746
13.709586 4.8618393 41.75267 16711746
13.946038 4.8484535 41.646748 16711746
14.181712 4.5857167 41.705635 16711746
13.699145 4.8789215 41.976616 16711746
14.342306 4.9417996 42.370594 16711746
14.296818 4.9410062 42.056332 16711746
13.982696 4.9213023 41.866199 16711746
14.049524 4.4800324 42.265488 16711746
13.994602 4.9015794 41.797604 16711746
13.691994 4.8708501 41.716888 16711746
13.487268 4.8626547 41.865032 16711746
13.350666 4.8775144 42.127106 16711746
13.605141 4.8565559 41.778206 16711746
14.160054 4.7666159 42.126842 16711746
13.812051 4.1341009 42.66148 16711746
13.983713 4.8384795 41.608349 16711746
13.599977 4.8580265 41.677322 16711746
13.546659 4.835639 41.679379 16711746
14.148564 4.8734479 41.606369 16711746
14.023365 4.5565686 42.353695 16711746
14.002811 4.8728251 41.634682 16711746
14.066522 4.3592896 42.349667 16711746
14.672992 4.1077471 43.194141 16711746
14.512591 4.3046713 42.632 16711746
14.007843 4.8221622 41.605888 16711746
14.633611 4.6458416 42.22229 16711746
13.476467 4.8642359 41.870182 16711746
13.667277 4.8647094 41.730724 16711746
13.97791 4.8701735 41.682304 16711746
14.203701 4.8582406 41.68652 16711746
13.979614 4.8944707 41.838955 16711746
13.985651 4.8762589 41.652149 16711746
13.564044 4.8503594 41.663582 16711746
13.673181 4.8472843 41.694057 16711746
14.182157 4.7521744 42.157887 16711746
13.979956 4.4939823 42.057671 16711746
14.337093 4.9005213 42.523094 16711746
14.174517 4.7524424 42.148548 16711746
14.296445 4.9080348 42.053551 16711746
14.135774 4.754611 42.087105 16711746
13.92602 4.9078736 41.845444 16711746
13.923644 3.883049 43.571808 16711746
13.988949 4.7521005 41.560677 16711746
13.876408 4.8716154 41.782173 16711746
13.476759 4.8680115 41.879951 16711746
13.626232 4.870708 41.831467 16711746
13.56534 4.8563676 41.836746 16711746
13.585319 4.8470831 41.662521 16711746
14.523525 4.9819055 42.191738 16711746
13.546717 4.8351212 41.679379 16711746
13.327757 4.8868675 42.163322 16711746
13.399616 4.3256259 42.448235 16711746
13.605705 4.847743 41.717869 16711746
13.544158 4.8371825 41.682537 16711746
13.596369 4.8576431 41.736103 16711746
13.602657 4.8506594 41.7211 16711746
13.600141 4.6679997 41.90432 16711746
13.974392 4.9091792 41.969685 16711746
14.220459 4.3078113 42.345867 16711746
13.873613 4.8873706 41.95134 16711746
13.22533 4.7718711 41.877937 16711746
13.348841 4.8779101 42.126854 16711746
13.601218 4.8270569 42.603642 16711746
13.482506 4.8639011 41.868519 16711746
14.23307 4.8819084 41.973621 16711746
13.476142 4.8662271 41.872257 16711746
13.707206 4.8715472 41.776245 16711746
14.530544 4.8981175 42.186737 16711746
13.582083 4.9103756 42.371193 16711746
13.890789 4.8784814 41.809608 16711746
13.786216 4.8693657 41.838825 16711746
13.871022 4.8638363 41.763737 16711746
13.074286 4.8880544 43.062183 16711746
13.627417 4.8702879 41.82996 16711746
13.707589 4.8671093 41.766148 16711746
13.883174 4.8815584 41.80291 16711746
14.230484 4.9557314 41.93911 16711746
13.818946 4.891995 42.048084 16711746
13.687829 4.8723941 41.968769 16711746
13.299026 3.9646976 43.137146 16711746
12.685271 4.3829288 43.820557 16711746
13.121942 4.8767724 42.949253 16711746
14.379509 4.1548891 42.624161 16711746
14.920119 4.4854136 42.95966 16711746
13.578332 4.867692 41.858345 16711746
13.607671 4.8658242 42.02813 16711746
13.48146 4.8774958 42.425831 16711746
12.967212 4.6295204 43.294601 16711746
13.425799 4.8813605 42.152382 16711746
13.018649 4.6370559 43.157223 16711746
13.101797 4.6378531 42.942497 16711746
14.894717 4.6638317 42.25502 16711746
13.110683 4.8258739 43.012234 16711746
14.188754 4.8843637 41.860336 16711746
13.925067 4.9264002 42.148273 16711746
13.027893 4.5756111 44.246223 16711746
13.832019 4.8736253 41.824783 16711746
13.403167 4.8427839 41.761848 16711746
13.526335 4.8638515 41.885445 16711746
13.545436 4.8535366 42.36731 16711746
13.93004 4.8942642 41.836048 16711746
13.522216 4.2943201 42.439869 16711746
12.645276 4.3788867 43.876812 16711746
13.003196 4.574285 44.338078 16711746
15.153378 4.3487382 43.940887 16711746
13.274025 4.8384624 42.251049 16711746
13.098763 4.8371568 42.041363 16711746
13.54751 4.8527303 42.365585 16711746
13.500878 4.8626308 41.815239 16711746
14.031952 4.8905878 41.789871 16711746
13.854636 4.750473 41.992023 16711746
12.896889 4.6187606 43.353985 16711746
13.832908 4.7368984 41.873253 16711746
13.581693 4.8635812 41.849625 16711746
12.962491 4.4734645 44.495594 16711746
13.141843 4.8189983 42.947647 16711746
13.219647 4.865756 42.19278 16711746
14.020152 4.8740067 41.795586 16711746
13.457042 4.8519797 41.93132 16711746
13.976145 4.914042 41.851727 16711746
13.552217 4.8570867 42.293949 16711746
13.488749 4.6944957 42.153801 16711746
13.941488 4.8317447 42.165703 16711746
14.467016 4.2810411 42.515644 16711746
14.697762 4.3385015 42.780853 16711746
13.976243 4.8692508 41.794575 16711746
14.294352 4.9326282 42.337181 16711746
14.125857 4.1372075 42.632805 16711746
14.024214 4.8645744 41.744781 16711746
13.51754 4.7894545 42.244949 16711746
13.280933 4.5177755 42.493767 16711746
13.830218 4.7643471 41.865059 16711746
14.370202 4.2981939 42.694023 16711746
13.780803 4.8935537 42.035969 16711746
14.020648 4.8745003 41.798168 16711746
14.172751 4.8860316 41.778004 16711746
13.558004 4.8597775 41.778717 16711746
14.159069 4.8719635 41.787991 16711746
13.907963 4.8970118 42.071877 16711746
13.963761 4.8451233 42.261559 16711746
14.454445 4.9674459 42.844189 16711746
14.009289 4.854681 41.728176 16711746
13.465797 4.8575363 41.906582 16711746
13.911359 4.8604469 41.760391 16711746
14.017009 4.8768487 41.819946 16711746
13.529594 4.4616909 42.119511 16711746
13.483092 4.8620315 41.866734 16711746
13.010126 4.874382 42.293858 16711746
13.125476 4.8480005 42.165836 16711746
13.975923 4.8701081 41.795467 16711746
14.139259 4.6896544 41.743328 16711746
14.514421 4.0976658 43.00811 16711746
13.466589 4.8571439 41.906097 16711746
13.948833 4.887023 41.823765 16711746
13.806313 4.8697371 41.882732 16711746
13.48507 4.8502584 41.885048 16711746
13.474479 4.8611274 41.853809 16711746
14.922827 4.1032262 43.316856 16711746
14.040857 4.525908 42.379875 16711746
14.405424 4.2968311 43.208488 16711746
14.419217 4.2661738 43.298847 16711746
13.655317 4.6842165 41.83149 16711746
13.978053 4.8889642 41.922466 16711746
13.869257 4.8579297 41.762856 16711746
14.066995 4.8110452 41.77084 16711746
13.996553 4.846837 41.714828 16711746
13.233974 4.8325081 42.566757 16711746
14.240187 4.8938742 41.761288 16711746
13.836879 4.868217 41.831612 16711746
13.998989 4.8828454 41.803001 16711746
13.515186 4.8547549 41.797207 16711746
14.622583 5.0193119 42.290867 16711746
13.570738 4.8510089 41.764698 16711746
13.578704 4.8563657 41.792736 16711746
13.896715 4.8829546 41.893059 16711746
14.674713 4.0979004 43.338951 16711746
13.909029 4.452632 42.439518 16711746
14.007753 4.6170316 42.196121 16711746
13.997085 4.8810644 41.79985 16711746
14.727399 4.0514889 43.524891 16711746
14.278142 4.9156051 42.078842 16711746
16.184286 4.6233225 43.20417 16711746
13.837514 4.8440228 41.910027 16711746
13.809898 4.8256125 41.8559 16711746
13.863873 4.8929415 42.044849 16711746
13.820033 4.8835168 42.022594 16711746
13.828839 4.76193 41.847145 16711746
15.039374 4.6901484 42.461803 16711746
13.157862 4.8795099 42.509754 16711746
13.829648 4.7606802 41.873077 16711746
14.121637 4.826539 41.810299 16711746
13.178774 4.8757424 42.484688 16711746
13.732717 4.8781986 41.867691 16711746
13.889091 4.8806319 41.839432 16711746
13.728981 4.8776641 41.899548 16711746
13.938725 4.3997927 42.541946 16711746
13.21452 4.8018923 42.288307 16711746
13.819042 4.8915124 42.045494 16711746
14.135571 4.9063907 41.842693 16711746
12.432256 4.7390561 43.089966 16711746
12.916004 4.8946834 42.38792 16711746
14.271222 4.0267177 42.893421 16711746
14.24313 4.604929 42.890217 16711746
13.716698 4.8929491 42.234474 16711746
14.300288 4.91466 41.887981 16711746
13.494532 4.8604708 41.856228 16711746
13.210751 4.803514 42.297703 16711746
13.834063 4.7122698 41.847401 16711746
14.23904 4.8903012 41.836281 16711746
14.411476 4.584703 42.280502 16711746
14.546443 4.5211167 42.428329 16711746
12.587371 4.5238924 42.619884 16711746
13.546016 4.8554783 42.372711 16711746
14.026814 4.8165059 41.677567 16711746
13.857322 4.6870828 41.955261 16711746
14.440933 4.968925 42.24855 16711746
13.349154 4.6374407 43.397594 16711746
13.776667 4.888391 41.987034 16711746
14.543376 4.5181932 42.433491 16711746
13.922082 4.8829231 41.999718 16711746
14.279938 4.9143896 42.076416 16711746
14.639731 4.483252 42.549328 16711746
14.753994 4.6889057 42.869503 16711746
13.830499 4.7342596 41.837227 16711746
14.294465 4.9305663 42.336113 16711746
13.7267 4.8823204 41.910255 16711746
15.460355 4.7074618 42.630306 16711746
12.634851 4.6937413 42.458397 16711746
13.506822 4.8473678 41.823929 16711746
13.692648 4.8772426 41.879982 16711746
14.203084 4.8902678 41.824635 16711746
13.609148 4.882215 42.250259 16711746
13.438091 4.8765788 42.290264 16711746
13.539153 4.8701324 42.087543 16711746
13.250986 4.8792138 43.032696 16711746
13.606032 4.8826032 42.249844 16711746
13.827278 4.75703 41.826218 16711746
14.092217 4.8311825 41.915962 16711746
13.659266 4.8611717 41.896107 16711746
13.599268 4.7108679 41.959961 16711746
13.421381 4.909462 42.594563 16711746
12.955578 4.7556639 44.054726 16711746
14.243059 4.9246173 42.06638 16711746
13.424582 4.8843899 42.312523 16711746
13.717655 4.872148 41.920265 16711746
13.626423 4.8706317 42.19553 16711746
13.203738 4.5505328 43.599468 16711746
14.894223 3.9766359 43.185284 16711746
13.339419 4.6380043 43.445507 16711746
14.769749 4.0318384 43.576374 16711746
15.208109 4.1317582 43.974358 16711746
17.816282 4.6090231 44.431694 16711746
13.376794 4.6441803 43.249607 16711746
13.74632 4.8859982 42.201763 16711746
13.452803 4.8935723 42.514736 16711746
13.453168 4.8963957 42.521755 16711746
13.836284 4.7109456 41.869572 16711746
13.459015 4.8540988 41.939453 16711746
13.988475 4.5500522 42.10619 16711746
13.621162 4.8568282 41.922108 16711746
14.30224 4.8933558 41.982788 16711746
13.114535 4.5196266 43.623356 16711746
14.677899 4.1449833 43.390755 16711746
13.781171 4.8923759 42.034382 16711746
14.307376 4.9222617 42.184811 16711746
13.904015 4.6396112 41.882755 16711746
13.45707 4.2705102 43.730778 16711746
13.570503 4.9207935 42.386646 16711746
13.54049 4.8703728 42.085651 16711746
13.227551 4.5479035 43.058498 16711746
13.841944 4.6910214 41.838272 16711746
13.658711 4.8579931 41.962833 16711746
13.826973 4.7553029 41.808514 16711746
13.58644 4.8769932 42.077026 16711746
13.844185 4.6885176 41.873154 16711746
13.242233 4.8837585 43.041595 16711746
13.840782 4.692205 41.824749 16711746
13.439708 4.8785977 42.295998 16711746
13.739807 4.9052 42.267349 16711746
13.414899 4.836874 42.625957 16711746
14.240882 4.9263835 42.069904 16711746
13.908416 4.8924022 42.101402 16711746
14.039983 4.8873925 41.922993 16711746
14.418401 4.1225071 42.795097 16711746
13.695004 4.8659444 41.909142 16711746
13.829183 4.7642269 41.855034 16711746
13.268107 4.8584237 42.227448 16711746
13.820551 4.2660151 42.645412 16711746
13.582803 4.8967009 42.323116 16711746
13.814816 4.2988687 42.413624 16711746
13.5432 4.8687887 42.080502 16711746
13.667645 4.8601232 41.891716 16711746
13.948527 4.8854251 41.993439 16711746
13.78734 4.6629162 42.345085 16711746
13.594252 4.8907008 42.284843 16711746
13.898816 4.2560277 42.932262 16711746
13.658877 4.8624382 41.899399 16711746
13.874249 4.8968248 42.029606 16711746
13.430031 4.8805766 42.303829 16711746
14.358621 4.9113774 42.068562 16711746
13.708894 4.8690863 41.95229 16711746
13.62388 4.8542581 41.91721 16711746
13.224531 4.8875866 43.07843 16711746
13.980019 4.9017105 42.022125 16711746
14.408273 4.9281883 42.048687 16711746
14.4704 4.9538527 42.103382 16711746
14.186407 4.3074026 43.917656 16711746
13.432359 4.4944301 43.578934 16711746
13.843039 4.6710787 41.827969 16711746
13.84109 4.7315192 41.794266 16711746
13.841319 4.7305727 41.791885 16711746
13.658379 4.8504782 41.828201 16711746
13.417198 4.8861666 42.323944 16711746
13.910922 4.8942528 42.107361 16711746
13.740501 4.7882266 42.249947 16711746
14.075085 4.8837051 41.957764 16711746
13.483033 4.6647243 43.129757 16711746
13.615184 4.8411846 41.834896 16711746
13.873233 4.9098191 42.097538 16711746
13.844136 4.7339587 41.836266 16711746
13.591182 4.8743544 42.067966 16711746
14.64765 4.6060071 42.823631 16711746
13.597125 4.7093153 41.95076 16711746
13.880043 4.8783836 41.963531 16711746
14.304877 4.8915458 41.977161 16711746
13.433417 4.673595 42.402996 16711746
14.317367 4.9058399 42.041058 16711746
14.303391 4.9277797 42.33374 16711746
14.387486 4.2873487 42.626633 16711746
13.435588 4.8792028 42.295929 16711746
13.700427 4.4591575 42.391178 16711746
14.569263 4.7081146 42.208771 16711746
14.288212 4.9222026 42.09491 16711746
13.93862 4.8767066 41.972435 16711746
13.580756 4.850709 42.025009 16711746
13.657692 4.8067627 42.38015 16711746
13.964318 4.8817177 41.979229 16711746
14.322054 4.8764162 42.057331 16711746
13.660678 4.8621516 41.900711 16711746
14.797057 4.9903841 42.558559 16711746
13.406973 4.6457467 43.468483 16711746
13.620605 4.2650366 42.620705 16711746
13.613562 4.4741745 42.78083 16711746
14.296903 4.8963847 42.025291 16711746
13.961495 4.8788214 41.973625 16711746
13.690212 4.8662033 41.979164 16711746
13.546821 4.8677454 42.075455 16711746
13.709989 4.4971499 42.303715 16711746
14.092404 4.8690524 41.916962 16711746
14.343638 4.9091086 42.052105 16711746
14.459849 4.8835869 42.166538 16711746
13.609553 4.8321047 41.893227 16711746
13.517093 4.3650904 43.299355 16711746
12.944738 4.863265 42.495392 16711746
13.50505 4.8483496 42.037849 16711746
13.835702 4.7038488 41.807304 16711746
13.534136 4.6695766 42.306561 16711746
13.691451 4.8659387 41.976852 16711746
13.569817 4.8763943 42.068092 16711746
13.577702 4.4284029 42.36573 16711746
14.270218 4.9007249 42.073185 16711746
13.607783 4.4630132 42.276134 16711746
13.5223 4.8734093 42.382439 16711746
13.537884 4.8029757 42.36779 16711746
13.619061 4.7005463 42.220837 16711746
13.599329 4.830966 42.369877 16711746
13.627915 4.8240967 41.873108 16711746
13.464316 4.861362 42.085278 16711746
13.837977 4.685751 41.832603 16711746
13.657657 4.6702943 42.118938 16711746
14.318021 4.877718 42.053341 16711746
14.78886 4.7680378 42.346264 16711746
13.955323 4.8413858 42.221584 16711746
14.638919 4.7614365 42.231609 16711746
14.560941 4.9030027 42.163956 16711746
13.633856 4.8519626 41.900658 16711746
13.712165 4.8640251 41.941963 16711746
13.639662 4.8730249 42.037193 16711746
13.871011 4.8927121 42.060402 16711746
13.252348 4.6679626 42.917389 16711746
13.693923 4.8673348 41.911907 16711746
13.228973 4.8622422 42.881405 16711746
13.943834 4.6841645 42.128925 16711746
13.417397 4.6027932 42.77314 16711746
13.820515 4.8837776 42.031006 16711746
13.640545 4.7861114 42.222622 16711746
13.566236 4.627594 41.954933 16711746
13.456677 4.8659515 42.094788 16711746
13.718088 4.8723974 42.076687 16711746
13.443861 4.8698368 42.440323 16711746
13.862576 4.8887997 42.133354 16711746
13.573726 4.8741546 42.061283 16711746
13.651522 4.8865976 42.22382 16711746
13.689511 4.8636074 41.935322 16711746
13.445686 4.8686442 42.105923 16711746
13.57897 4.8720927 42.055027 16711746
13.483894 4.854661 42.063824 16711746
13.532635 4.8779712 42.14629 16711746
13.66574 4.8561831 41.885624 16711746
13.827132 4.755578 41.806992 16711746
13.465459 4.2912946 42.686481 16711746
13.440754 4.872283 42.111897 16711746
13.45832 4.6476426 42.597713 16711746
13.212528 4.8753176 42.780319 16711746
13.983626 4.9061852 42.028301 16711746
13.447975 4.8741064 42.238972 16711746
13.700638 4.8609796 41.900322 16711746
13.42172 4.8851013 42.279251 16711746
13.699139 4.8584757 41.962669 16711746
13.576345 4.8740273 42.058651 16711746
13.444448 4.8936372 42.336243 16711746
13.081735 4.9064331 43.011967 16711746
14.308154 4.9162722 42.107712 16711746
14.158654 4.6974382 42.646626 16711746
14.040648 4.8984785 42.159893 16711746
14.271394 4.8995194 42.07095 16711746
14.838312 4.3281441 42.524288 16711746
12.994702 4.3337913 43.189545 16711746
14.468151 4.512361 42.265381 16711746
13.039524 4.4154515 43.392067 16711746
14.342869 4.881793 42.073616 16711746
14.159959 4.754859 42.230724 16711746
13.084025 4.457612 43.313713 16711746
13.837911 4.6511297 41.87521 16711746
13.630262 4.8709059 42.20961 16711746
12.906198 4.8644114 42.776928 16711746
14.290665 4.4292459 42.338612 16711746
13.655153 4.8611093 41.97023 16711746
14.280925 4.8442407 42.07819 16711746
14.295917 4.8979621 42.236446 16711746
13.061671 4.8398881 42.608704 16711746
13.819596 4.8867598 42.034134 16711746
14.03592 4.8944192 42.056629 16711746
14.431751 4.8731337 42.101379 16711746
13.863507 4.8877716 42.129284 16711746
13.92039 4.9206786 42.172482 16711746
13.128692 4.8957653 42.934258 16711746
13.304306 4.8470631 42.184429 16711746
13.277325 4.852706 42.20705 16711746
14.151109 4.8858466 42.029057 16711746
14.076221 4.8812423 42.060513 16711746
14.314509 4.8781691 42.033009 16711746
13.819459 4.8846817 42.030197 16711746
14.072134 4.8801661 41.951809 16711746
13.518417 4.88451 42.224003 16711746
13.29186 4.8527212 42.202244 16711746
14.067845 4.5828409 42.433292 16711746
14.21209 4.6361446 42.921623 16711746
14.165115 4.68998 42.667938 16711746
14.046555 4.8590565 42.013538 16711746
14.123094 4.7717695 42.072609 16711746
14.093384 4.8937979 42.087692 16711746
14.508741 4.8922334 42.152557 16711746
14.373946 4.926846 42.308979 16711746
14.140998 4.891551 42.008987 16711746
14.437116 4.9423375 42.052811 16711746
14.373537 4.9248805 42.461639 16711746
13.869548 4.7261214 41.735443 16711746
13.447095 4.8865843 42.311752 16711746
14.309005 4.3772278 42.769142 16711746
14.5774 4.6564608 43.456253 16711746
14.039036 4.8968673 42.15279 16711746
14.047092 4.4371271 42.403042 16711746
14.089482 4.891592 42.082127 16711746
14.012749 4.8779378 41.975525 16711746
14.155128 4.7123618 42.112949 16711746
14.077544 4.880928 42.062145 16711746
13.515947 4.8856153 42.228123 16711746
13.466404 4.8825159 42.296669 16711746
14.306687 4.880362 42.032818 16711746
14.031789 4.522872 42.346905 16711746
14.240576 4.9168954 42.306976 16711746
14.344253 4.4600396 42.705902 16711746
13.223033 4.4960628 42.661125 16711746
13.323728 4.8596373 42.385071 16711746
14.193104 4.7577457 42.288368 16711746
14.242807 4.2908268 42.816143 16711746
14.261818 4.5046778 42.659069 16711746
13.908342 4.6948767 41.942673 16711746
14.155465 4.8600531 41.964256 16711746
13.791946 4.8822536 42.177307 16711746
14.107365 4.4509883 42.399223 16711746
13.571496 4.8558445 42.050907 16711746
14.042766 4.9000649 42.162079 16711746
13.839071 4.7262363 41.781403 16711746
14.283762 4.9012184 41.990276 16711746
14.234538 4.9112797 42.295368 16711746
14.139074 4.8532705 41.953045 16711746
14.202814 4.8987074 42.180214 16711746
13.72186 4.8877349 42.219799 16711746
14.156668 4.8944135 42.0564 16711746
14.35246 4.8612366 42.157085 16711746
14.384847 4.8708501 42.186199 16711746
13.918232 4.8791952 42.152584 16711746
14.15682 4.8455615 42.089626 16711746
13.608546 4.8831582 42.24995 16711746
13.983315 4.8923259 42.054321 16711746
14.225258 4.8780913 42.436504 16711746
14.417495 4.9406128 42.356571 16711746
14.58815 4.5383582 42.968025 16711746
14.158707 4.8962574 42.057362 16711746
13.829336 4.8729401 42.093864 16711746
13.864457 4.8702197 42.086555 16711746
14.064779 4.9048247 42.584751 16711746
14.294783 4.8957415 42.355682 16711746
14.055671 4.8920803 42.528526 16711746
15.216493 4.3717709 42.611465 16711746
14.177429 4.6633177 42.425915 16711746
14.267331 4.8931823 42.687191 16711746
14.170433 4.8523073 42.452896 16711746
13.244327 4.6137366 43.581581 16711746
14.325768 4.5902486 42.203949 16711746
14.106463 4.7671137 42.051952 16711746
13.819469 4.8885207 42.31131 16711746
14.287449 4.9271641 42.329121 16711746
14.148884 4.9237185 42.477161 16711746
14.155833 4.902657 42.492096 16711746
14.324306 4.9189296 42.302181 16711746
14.353164 4.9405789 42.758522 16711746
14.271585 4.8964648 42.528839 16711746
14.036479 4.8950257 42.153713 16711746
14.864008 4.3415451 43.138844 16711746
14.535479 4.1869941 43.31937 16711746
14.41773 4.479352 42.840965 16711746
14.118958 4.8331089 42.327339 16711746
13.77685 4.7728291 42.122105 16711746
14.09385 4.8294702 41.915085 16711746
14.089531 4.8277354 41.912346 16711746
13.792618 4.8814993 42.175354 16711746
13.388976 4.9284806 43.001514 16711746
14.493611 4.0884161 43.311546 16711746
14.585894 4.5468125 42.860065 16711746
13.456038 5.0596676 44.568321 16711746
14.395495 4.6620913 42.670776 16711746
13.579061 4.8999147 42.302231 16711746
13.735479 4.8762813 42.185909 16711746
13.452518 4.875175 42.278782 16711746
14.317835 4.9315681 42.349003 16711746
13.653768 4.3516765 42.754627 16711746
14.318099 4.9159379 42.293419 16711746
14.578395 4.0594587 43.227722 16711746
13.816714 4.8915439 42.320042 16711746
13.238177 5.1697321 45.550392 16711746
14.141997 4.8868952 42.042191 16711746
14.381903 4.2089891 43.02459 16711746
14.005859 4.8891487 42.136356 16711746
14.037482 4.895854 42.149696 16711746
14.007259 4.891109 42.14101 16711746
14.275882 4.9113336 42.159431 16711746
14.349641 4.8845987 42.167007 16711746
14.235788 4.9139833 42.301308 16711746
14.227886 4.9012928 42.077507 16711746
14.142172 4.8861022 42.040024 16711746
14.082829 4.9035764 42.089153 16711746
14.376238 4.9278722 42.278477 16711746
14.20695 4.8563657 42.346695 16711746
13.461013 4.903811 42.523571 16711746
14.058394 4.8828325 42.053539 16711746
14.046001 4.8958564 42.121178 16711746
14.123656 4.8816471 41.994465 16711746
14.260992 4.9050536 42.148766 16711746
13.759855 4.8713918 42.165295 16711746
14.032864 4.8907967 42.141323 16711746
14.522675 4.9107347 42.308128 16711746
13.53281 4.8783097 42.415226 16711746
14.591175 4.9261765 42.343353 16711746
13.761286 4.8723793 42.165401 16711746
14.139347 4.8453155 41.982048 16711746
14.085723 4.8977757 42.200943 16711746
14.067731 4.9073668 42.276539 16711746
13.71957 4.8555965 42.038269 16711746
13.895772 4.7184887 41.872025 16711746
13.722972 4.88377 42.203625 16711746
13.719429 4.8864217 42.212921 16711746
13.462641 4.5282288 43.047836 16711746
14.348533 4.8921967 42.506451 16711746
13.300609 4.886435 43.075569 16711746
13.414274 4.5010018 42.947987 16711746
14.527291 4.2795157 42.904488 16711746
14.068761 4.9082751 42.278469 16711746
14.439548 4.5694494 42.892895 16711746
14.259686 4.9025183 42.063465 16711746
13.471893 4.8289151 42.6129 16711746
13.796954 4.8701825 42.142902 16711746
13.794802 4.8741951 42.152222 16711746
13.770728 4.6535482 42.259048 16711746
13.749411 4.7919102 42.018845 16711746
13.468181 4.8991323 42.807167 16711746
13.88938 4.6763802 41.981178 16711746
13.72331 4.8864422 42.577312 16711746
13.759522 4.8729119 42.168362 16711746
14.119599 4.8391795 42.084351 16711746
14.333139 4.8854394 42.476177 16711746
12.998538 4.8473387 43.617306 16711746
14.391101 4.5878763 42.790771 16711746
14.393815 4.960526 42.846882 16711746
14.071986 4.6015801 42.484322 16711746
13.663511 4.8807302 42.348324 16711746
13.529772 4.890316 42.541355 16711746
13.967025 4.8894749 42.176151 16711746
14.53748 4.9125519 42.316555 16711746
13.605065 4.9010148 42.426632 16711746
13.927837 4.8730969 42.122143 16711746
13.163237 4.6731496 42.725109 16711746
15.223279 4.0369864 43.309147 16711746
