# .PCD v0.7 - Point Cloud Data file format
VERSION 0.7
FIELDS x y z rgb
SIZE 4 4 4 4
TYPE F F F F
COUNT 1 1 1 1
WIDTH 1212
HEIGHT 1
VIEWPOINT 0 0 0 1 0 0 0
POINTS 1212
DATA ascii
14.13168 2.8306186 39.943985 16777215
14.138513 2.8765864 39.953102 16777215
14.157868 2.8975425 39.964115 16777215
14.196849 2.8991051 39.98745 16777215
14.243329 2.8577158 40.089756 16777215
14.269007 2.8342264 40.106972 16777215
14.282549 2.8698313 40.084236 16777215
14.255077 2.8099821 40.177544 16777215
14.29088 2.8586257 40.195812 16777215
14.258163 2.8322515 40.258808 16777215
14.272141 2.8430023 40.242901 16777215
14.296995 2.8670595 40.287891 16777215
14.318913 2.8737054 40.308613 16777215
14.319667 2.8938386 40.340641 16777215
14.318444 2.8911316 40.371704 16777215
14.335416 2.9562953 40.39864 16777215
14.343251 2.9419866 40.421291 16777215
14.347763 2.9526396 40.453133 16777215
14.368489 2.9698884 40.50034 16777215
14.377408 2.9548826 40.527885 16777215
14.403039 2.9521623 40.549644 16777215
14.423387 2.967967 40.555145 16777215
14.401722 2.9878509 40.570194 16777215
14.420584 3.0253124 40.616467 16777215
14.450646 3.0466592 40.622898 16777215
14.430439 3.0870368 40.645226 16777215
14.417257 3.0841484 40.677738 16777215
14.446068 3.1214068 40.717937 16777215
14.456223 3.1206415 40.736797 16777215
14.466455 3.1111164 40.752563 16777215
14.482114 3.1124682 40.75568 16777215
14.487499 3.1122017 40.782124 16777215
14.49637 3.1266804 40.789089 16777215
14.521526 3.1057966 40.825611 16777215
14.51216 3.155664 40.843266 16777215
14.523629 3.1402476 40.857452 16777215
14.535519 3.2038229 40.858299 16777215
14.56671 3.2196701 40.889259 16777215
14.550578 3.2155833 40.914795 16777215
14.56511 3.2284942 40.948154 16777215
14.585929 3.2083294 40.961056 16777215
14.572882 3.2139673 40.980633 16777215
14.588411 3.2542231 41.018658 16777215
14.599183 3.2610836 41.044628 16777215
14.571659 3.2906773 41.101475 16777215
14.579618 3.2721653 41.128708 16777215
14.590537 3.2487588 41.14344 16777215
14.600052 3.2597189 41.158577 16777215
14.612466 3.2685003 41.193092 16777215
14.633284 3.2464955 41.22654 16777215
14.634999 3.2308095 41.245415 16777215
14.626165 3.260673 41.274197 16777215
14.670482 3.2202654 41.280369 16777215
14.649504 3.2465327 41.323631 16777215
14.62093 3.2854717 41.361786 16777215
14.686333 3.2715366 41.3643 16777215
14.743383 3.2550812 41.406219 16777215
14.723225 3.2745564 41.420399 16777215
14.709086 3.2676702 41.47541 16777215
14.746846 3.2665477 41.465763 16777215
14.710183 3.2411516 41.488247 16777215
14.725947 3.2338641 41.511711 16777215
14.746574 3.235754 41.529011 16777215
14.764795 3.2327194 41.549755 16777215
14.766896 3.2232871 41.561581 16777215
14.774052 3.2318892 41.560669 16777215
14.751738 3.2315564 41.629898 16777215
14.778135 3.2358243 41.63847 16777215
14.739023 3.2501829 41.631382 16777215
14.764791 3.2339084 41.664886 16777215
14.773429 3.2468228 41.665722 16777215
14.763972 3.3038208 41.66795 16777215
14.76076 3.304997 41.673546 16777215
14.719358 3.3514972 41.67252 16777215
14.77962 3.3481059 41.676331 16777215
14.774821 3.3453505 41.694206 16777215
14.793412 3.3471293 41.70723 16777215
14.769279 3.3344276 41.721188 16777215
14.77602 3.3344276 41.719746 16777215
14.834476 3.339792 41.765854 16777215
14.837792 3.3445296 41.788734 16777215
14.827058 3.3493409 41.789669 16777215
14.844374 3.3412085 41.787964 16777215
14.847668 3.3672872 41.804752 16777215
14.877481 3.3563344 41.834442 16777215
14.890022 3.3603563 41.839252 16777215
14.895939 3.3386679 41.840687 16777215
14.900145 3.3473442 41.849705 16777215
14.906019 3.3581412 41.874741 16777215
14.916233 3.3611107 41.890968 16777215
14.91948 3.3673239 41.902336 16777215
14.911563 3.390368 41.902267 16777215
14.877628 3.3902404 41.945503 16777215
14.884928 3.4031732 41.961983 16777215
14.890618 3.3933654 41.985477 16777215
14.88716 3.3951645 41.989098 16777215
14.906044 3.3921134 41.991169 16777215
14.926557 3.4089463 42.007504 16777215
14.943085 3.4414799 42.055733 16777215
14.954864 3.4610345 42.098145 16777215
14.98221 3.4696238 42.128529 16777215
-49.517559 -45.256752 44.082996 16711746
-20.797483 -32.927044 23.43235 16711746
-4.6909027 -62.870838 35.26268 16711746
-5.9566293 -11.702432 14.488223 16711746
-24.057524 -17.964298 46.496326 16711746
-221.08241 -203.89455 116.02122 16711746
-34.508831 -80.19648 43.005497 16711746
-3.4074836 -20.291847 15.07911 16711746
3.771764 -8.4263124 3.5270824 16711746
-53.35001 -32.339912 74.483078 16711746
-0.27458429 -4.4035578 2.742089 16711746
-4.6055245 -35.209751 16.417522 16711746
6.4967928 -8.0917282 4.9683719 16711746
1.3398052 -6.4579887 2.4257512 16711746
2.3276138 -7.4780521 4.5806704 16711746
4.0971961 -11.297431 4.6360593 16711746
-2.8557575 -7.4754262 2.3812001 16711746
-6.0554647 -17.17864 7.2029757 16711746
-27.105085 -78.084679 46.589035 16711746
-5.5118451 -15.872978 8.6121292 16711746
2.8038411 -13.619499 7.5089087 16711746
0.063118532 -20.47323 10.194142 16711746
9.7446327 -14.061392 4.8443761 16711746
-9.3157768 -20.753012 8.1759577 16711746
1.28503 -6.8463449 3.6256413 16711746
-217.67659 -96.115807 211.1823 16711746
-28.777828 -112.51209 89.748413 16711746
-46.565269 -150.60774 107.959 16711746
-24.315746 -29.967585 45.32132 16711746
-70.416443 -35.631069 95.094154 16711746
5.9366646 -12.391869 4.2746081 16711746
-10.002419 -28.65266 11.519756 16711746
15.554697 1.9949553 43.093262 16711746
14.559181 2.0895979 42.690399 16711746
14.638057 2.069679 42.653595 16711746
14.641186 2.2944105 42.577644 16711746
15.287683 2.014142 43.043987 16711746
15.598475 2.2473519 43.064857 16711746
15.149805 2.0103254 42.650257 16711746
15.463599 2.2544396 43.277077 16711746
14.158254 1.8580877 42.701611 16711746
14.464796 1.8855399 42.874851 16711746
14.391887 2.3561201 42.7551 16711746
15.534591 2.1740704 43.224892 16711746
15.697792 2.3587143 43.18829 16711746
15.051767 2.1130803 42.520515 16711746
15.156538 1.9500471 42.673038 16711746
14.428057 2.5362761 42.357025 16711746
14.4427 1.9477597 43.299717 16711746
15.61937 2.2918198 42.760418 16711746
14.131329 2.0595033 42.978046 16711746
14.629726 2.304899 42.643219 16711746
14.236868 1.8749758 42.811581 16711746
15.165536 2.0079677 43.321743 16711746
14.549479 1.9496237 42.713131 16711746
15.349804 2.0010149 43.24926 16711746
14.6167 1.8014151 42.716537 16711746
14.293441 2.2210441 42.386272 16711746
15.402544 1.9906727 43.222321 16711746
14.19222 1.9097673 42.435303 16711746
15.09171 2.6602702 42.377003 16711746
14.377242 1.9943562 43.456337 16711746
13.94454 2.0513763 42.79707 16711746
15.025045 2.6290677 42.841602 16711746
15.221816 2.523556 43.340439 16711746
15.075998 2.4351838 43.328785 16711746
14.300439 2.5267901 42.553623 16711746
14.000616 1.9965752 42.729691 16711746
15.342169 2.2056186 43.32843 16711746
14.16198 2.1141343 42.945927 16711746
14.608418 2.2463181 42.637695 16711746
14.190377 2.5928099 42.358852 16711746
15.39139 1.7406192 43.000259 16711746
13.838652 2.5665023 43.415161 16711746
15.346016 2.5331585 43.187057 16711746
14.222992 2.0172431 43.484367 16711746
14.120265 2.4004569 42.684879 16711746
14.469403 2.803242 42.566738 16711746
14.733883 2.5829594 42.399254 16711746
14.060762 2.4641986 42.498199 16711746
14.105226 2.2489328 42.69165 16711746
15.260615 2.2078061 42.897655 16711746
15.529701 3.0285079 42.815674 16711746
14.28492 2.4945965 42.527287 16711746
14.557979 2.0680206 42.70369 16711746
15.198088 2.4023893 43.284325 16711746
14.80001 2.3890181 42.587025 16711746
15.001981 2.9020896 43.048534 16711746
15.627748 2.1505957 43.061764 16711746
14.557833 2.0309415 42.506645 16711746
15.418024 2.3706765 43.165024 16711746
14.991333 2.3451121 42.481255 16711746
15.634915 2.0386283 42.8797 16711746
15.18784 2.6253898 43.074623 16711746
14.395406 2.0791283 44.320518 16711746
13.551803 2.4383807 43.805187 16711746
14.037606 2.7267931 43.176453 16711746
15.339864 1.6187109 43.414238 16711746
16.192696 2.8847227 44.082027 16711746
15.835211 2.9235229 44.057308 16711746
14.004706 2.3660831 44.429512 16711746
14.525696 1.8972468 42.733688 16711746
15.644933 1.5641651 43.296852 16711746
15.972355 1.7911377 44.086227 16711746
15.840808 2.5838916 43.954094 16711746
16.006491 2.294749 43.515968 16711746
15.606393 1.4723442 43.265583 16711746
15.640669 1.8631709 43.403767 16711746
15.813635 1.8343465 43.628216 16711746
13.462873 1.7207372 43.03949 16711746
14.934247 2.1621342 42.559887 16711746
15.846087 1.7536278 43.232643 16711746
14.143006 2.1948936 44.208179 16711746
16.839207 1.6468104 43.752258 16711746
15.79412 1.8692139 43.586735 16711746
15.440458 1.7652349 43.333302 16711746
14.074094 2.0828819 44.395115 16711746
15.066329 2.2433984 44.232254 16711746
15.537942 2.624861 43.882908 16711746
15.357512 2.15733 43.983334 16711746
15.862545 1.6591442 43.168915 16711746
15.577216 2.0052218 44.057774 16711746
17.668381 1.2244818 43.472977 16711746
15.840728 2.0759273 43.275772 16711746
13.437758 1.7251252 42.881023 16711746
14.129443 1.932863 44.023964 16711746
13.138414 2.6495712 42.928059 16711746
15.030069 2.3641992 44.226742 16711746
15.370251 2.0295029 44.174362 16711746
15.571729 2.5006933 43.557575 16711746
14.438591 1.9485493 43.339336 16711746
13.380803 1.6633657 42.912445 16711746
15.855533 1.7515734 43.235043 16711746
16.442217 2.2797303 42.794392 16711746
16.843327 1.6625468 43.316532 16711746
15.327506 2.00892 42.752827 16711746
13.908164 2.4953804 43.87252 16711746
15.047958 2.3543487 44.004314 16711746
15.667719 2.1837747 44.256241 16711746
15.437234 2.6533637 43.999428 16711746
15.45393 2.4961333 44.006176 16711746
14.055338 1.8653787 42.616714 16711746
15.673255 1.4474049 43.468346 16711746
15.452678 1.7389253 43.455589 16711746
13.54215 2.4528539 43.947895 16711746
14.326954 2.2629087 43.614738 16711746
15.610162 2.2827389 44.087494 16711746
14.736785 1.8394169 44.438332 16711746
14.673534 2.0915008 43.636383 16711746
14.666865 1.8617988 43.774265 16711746
16.207712 2.1181839 43.605679 16711746
15.893869 1.964267 43.109867 16711746
14.564494 2.4570351 44.147976 16711746
14.720237 2.2158222 43.53278 16711746
14.544188 2.0230513 43.407421 16711746
14.720725 2.233119 43.50861 16711746
14.729166 2.9116275 42.516502 16711746
14.752755 3.0763359 42.424019 16711746
14.736265 2.1900322 43.352436 16711746
14.061326 2.260586 44.283779 16711746
13.94068 1.9518204 42.600246 16711746
14.838178 3.0746107 42.226742 16711746
16.056713 1.8364267 44.15765 16711746
15.842493 2.5793667 43.524731 16711746
15.148421 2.6772065 42.446373 16711746
13.950799 2.9901512 42.821575 16711746
10.069705 -2.2362256 45.299751 16711746
19.897442 -2.2958953 45.888386 16711746
20.58551 -9.4702349 44.759933 16711746
24.064394 -12.749541 51.620384 16711746
16.600163 -15.046399 38.684132 16711746
17.939672 -15.593592 46.246063 16711746
17.946087 -12.386759 47.79372 16711746
14.461607 -6.3539524 39.536125 16711746
13.048275 -23.251072 47.373932 16711746
28.320219 -30.390471 60.167435 16711746
10.541168 -4.9692116 36.475098 16711746
18.885008 -18.930519 50.683537 16711746
13.862956 -19.894119 49.185551 16711746
18.332344 -9.4581499 43.842449 16711746
19.903996 -13.10467 42.644478 16711746
23.419695 -8.8062201 47.20969 16711746
19.189129 -7.9211116 43.116901 16711746
17.621033 -9.3593769 37.291355 16711746
20.723667 -20.879351 44.940964 16711746
22.923996 -15.012041 52.931862 16711746
16.740398 -32.149113 53.410507 16711746
14.817076 -30.396175 53.174576 16711746
15.347474 -6.132668 42.080475 16711746
2.3146439 -4.7686949 43.059517 16711746
9.4073296 -7.6449332 39.136009 16711746
20.258497 -10.839613 52.333115 16711746
10.635597 -14.19323 41.853432 16711746
7.1087217 -1.3403341 37.813656 16711746
8.899147 -13.261591 47.180397 16711746
9.7953911 -8.5465031 39.901745 16711746
16.860218 -20.695143 41.205219 16711746
19.210995 -13.529594 37.347134 16711746
15.071121 -13.391358 38.033352 16711746
8.7981567 -13.656926 37.655708 16711746
10.706295 -14.896443 40.596245 16711746
26.389326 -8.957408 38.037685 16711746
19.913074 -2.6060572 40.581596 16711746
16.831175 -14.518512 45.67728 16711746
23.107431 -10.36032 38.707611 16711746
28.109058 -2.394876 44.673988 16711746
-0.98747563 -16.176048 46.800457 16711746
10.281566 -7.0663834 37.741596 16711746
23.643496 -21.213634 50.241718 16711746
8.4458418 -3.5528629 34.423988 16711746
3.3959374 -21.650326 48.695126 16711746
18.341398 -21.144585 43.400307 16711746
18.751192 -5.1563144 39.717354 16711746
11.922047 -14.635544 43.071617 16711746
5.0230546 -16.957296 41.373631 16711746
20.022703 -14.018982 44.355797 16711746
12.488075 -26.276093 42.858067 16711746
22.32394 -18.494411 48.228249 16711746
16.788034 -12.861779 38.599216 16711746
15.856236 -15.390012 38.0826 16711746
23.921078 -13.140541 35.243683 16711746
17.840353 -18.588421 43.7141 16711746
15.094422 -10.157829 40.90427 16711746
25.03356 -8.540885 37.241119 16711746
17.722366 -10.554213 38.158218 16711746
14.240986 -10.65032 43.933231 16711746
12.387338 -15.334013 38.805195 16711746
24.958487 -1.1854889 46.378574 16711746
10.214917 -7.6536684 38.491997 16711746
8.3545294 -15.089153 38.306633 16711746
6.7504988 -11.703041 40.523689 16711746
15.647116 -13.215048 39.287445 16711746
3.2372425 -9.9143276 41.09417 16711746
7.8771095 -8.5365334 38.996593 16711746
4.6048794 -10.358885 40.38998 16711746
19.337437 -14.597675 38.545929 16711746
16.282066 -7.3087721 54.158112 16711746
0.8394317 -13.45396 44.875843 16711746
2.29807 -14.208227 52.861996 16711746
10.282878 -21.516623 45.584789 16711746
10.50492 -4.589385 38.050976 16711746
16.874651 -17.354816 41.483158 16711746
5.8659611 -14.735744 39.249363 16711746
16.324907 -12.170268 36.160175 16711746
31.142143 -23.632431 50.028904 16711746
11.069633 -19.42458 39.500103 16711746
3.7746913 -14.343134 42.201096 16711746
10.492712 -11.013926 44.257675 16711746
19.166113 -6.1244597 50.404537 16711746
25.228764 -18.521646 57.618053 16711746
19.952168 -13.763592 44.19561 16711746
15.26883 -15.844865 37.544636 16711746
-2.0500412 -21.255268 37.990078 16711746
15.163487 -6.6337681 38.752888 16711746
31.017645 -12.824754 40.356426 16711746
-3.0929134 -27.225733 46.047085 16711746
22.876932 -19.474382 50.569565 16711746
20.500856 -12.645406 40.90733 16711746
23.918688 -13.802886 47.97509 16711746
6.2363844 -18.593418 40.788723 16711746
22.642204 -21.625423 53.901375 16711746
1.5045912 -18.39134 45.143879 16711746
21.379791 -1.6480975 42.033024 16711746
6.3055496 -19.881887 47.073818 16711746
8.5824766 -11.81811 40.53891 16711746
16.460938 -17.506247 42.577789 16711746
0.88275892 -15.23804 42.571415 16711746
6.0733547 -18.334213 48.744652 16711746
-8.0313883 -14.438363 47.754299 16711746
12.988983 -10.846652 36.452831 16711746
-3.4534366 -11.237656 54.644146 16711746
30.772308 -29.808641 64.643051 16711746
21.634539 -23.506718 47.804085 16711746
33.228748 -49.392021 59.926315 16711746
12.08184 -12.393059 37.749382 16711746
18.768476 -9.8772049 36.736286 16711746
6.4104862 -12.997412 46.821751 16711746
15.447164 -14.494877 41.531769 16711746
6.2090077 -19.551573 41.390049 16711746
18.289703 -20.289972 43.549488 16711746
16.223925 -15.237534 39.190845 16711746
11.310423 -21.598269 40.621651 16711746
5.3579578 -14.258731 48.440662 16711746
4.1655345 -12.515911 40.027325 16711746
9.7157907 -10.434691 43.750061 16711746
10.112405 -10.81831 40.501591 16711746
23.330935 -17.299282 39.034489 16711746
5.4003143 -11.238732 36.311676 16711746
5.9039698 -10.252174 35.976891 16711746
6.6474314 -7.6512475 37.139111 16711746
14.406988 -7.2113152 41.735706 16711746
4.067606 -12.004351 40.371674 16711746
3.8280206 -15.52299 42.298393 16711746
8.4447899 -7.0472264 39.34866 16711746
27.669731 -13.611586 46.276375 16711746
30.825668 -8.9907465 49.498741 16711746
25.803354 -7.7670116 45.530121 16711746
15.724457 -18.826015 38.470421 16711746
14.978051 -16.869188 38.803936 16711746
25.478754 -7.4643073 45.388763 16711746
-12.729488 -19.201424 46.617851 16711746
25.438982 -14.944321 35.686474 16711746
14.927535 -22.388012 77.341179 16711746
20.432484 -17.068068 52.587246 16711746
4.9965248 -4.2667251 43.306248 16711746
5.5362964 -2.6899157 41.123966 16711746
11.126974 -26.785719 50.846714 16711746
15.357508 -21.448811 65.313004 16711746
15.894651 -26.97444 71.778938 16711746
11.27898 -13.83655 44.114594 16711746
-0.98156029 -19.175264 45.358974 16711746
17.702265 -10.724842 36.386593 16711746
19.904104 -5.627305 42.90498 16711746
8.0878296 -8.9176865 38.168308 16711746
10.501731 -22.52281 44.92218 16711746
12.268292 -17.204798 38.850323 16711746
14.64671 -16.326733 38.21418 16711746
20.574331 -17.629889 52.86726 16711746
19.930983 -16.029377 51.151279 16711746
9.6721573 -9.5547485 39.460415 16711746
16.053373 -17.544056 38.416218 16711746
2.5710824 -27.087421 42.323559 16711746
9.2133551 -14.896375 43.901684 16711746
-9.3154774 -24.908997 51.243816 16711746
17.777617 -15.712111 41.761353 16711746
9.4980736 -4.7038026 35.962624 16711746
-53.339764 -74.56456 68.514557 16711746
-14.303555 -21.180283 63.484509 16711746
17.113529 -14.013144 40.703983 16711746
9.5224533 -9.3052464 38.773537 16711746
23.191498 -18.482706 42.923218 16711746
15.388893 -15.370027 52.610256 16711746
6.6420765 -22.983717 42.374664 16711746
14.493739 -13.920844 38.227688 16711746
7.7089949 -20.172132 43.939816 16711746
20.428701 -16.542356 41.57616 16711746
6.0359321 -21.596598 40.005383 16711746
6.1151915 -13.692834 42.961502 16711746
9.8553629 -18.145531 41.557766 16711746
12.973715 -7.3391204 39.583298 16711746
22.881716 -33.128868 49.621243 16711746
8.4264259 -20.462971 44.049664 16711746
23.469555 -16.942146 41.189461 16711746
26.981001 -7.1790481 42.524673 16711746
24.854038 -10.65506 40.988136 16711746
25.687077 -31.038383 57.667034 16711746
7.1174364 -21.0275 41.494572 16711746
17.35535 -22.534801 41.927559 16711746
24.426245 -15.593552 46.038803 16711746
16.429937 -15.500974 42.531017 16711746
21.41333 -13.965542 42.649342 16711746
8.0678053 -19.750687 44.19986 16711746
3.2066412 -41.309914 78.142113 16711746
6.5588002 -18.011618 58.012093 16711746
23.960979 -13.976424 57.444992 16711746
24.686525 -10.420002 41.046898 16711746
17.483049 -29.580946 43.058758 16711746
0.9732706 -31.627544 43.651695 16711746
8.0419617 -25.229637 45.395649 16711746
23.814432 -11.861781 55.681931 16711746
23.834484 -18.405827 54.416878 16711746
25.501738 -18.746708 54.016193 16711746
21.757786 -14.95763 41.815395 16711746
24.551344 -6.6761522 39.648586 16711746
23.529997 -4.919673 48.957539 16711746
2.0300891 -29.93718 43.006565 16711746
24.875044 -10.520581 41.112099 16711746
25.089331 -15.428994 59.642754 16711746
6.2507467 -30.269735 42.312759 16711746
14.681809 -17.636648 54.824722 16711746
18.61088 -15.793859 45.592018 16711746
5.8733001 -20.370293 61.084667 16711746
22.550425 -6.6034646 58.441753 16711746
15.052171 -14.371587 52.484818 16711746
17.32889 -16.559032 45.037186 16711746
13.545497 -17.752426 43.524693 16711746
21.293747 -19.849201 51.778728 16711746
23.716753 -9.5687723 41.144672 16711746
21.27368 -10.49336 38.367474 16711746
25.876726 -15.465464 56.697254 16711746
18.980246 -10.776268 40.182087 16711746
16.31432 -11.911379 44.157631 16711746
21.077841 -22.361664 47.259167 16711746
23.209627 -12.481968 40.067448 16711746
23.285963 -15.072447 40.859406 16711746
10.435017 -14.661875 55.131294 16711746
25.462744 -13.808207 58.728825 16711746
14.377851 -9.7711945 55.729939 16711746
22.706455 -21.576597 60.171253 16711746
24.745218 -13.510827 41.438522 16711746
23.978231 -7.9340186 50.05452 16711746
24.5987 -6.8472495 47.376572 16711746
25.190165 -13.128667 43.608814 16711746
27.418081 -9.0685339 42.976933 16711746
14.107667 -15.848837 43.821014 16711746
23.225342 -10.780748 54.061138 16711746
17.200731 -8.1299992 54.795708 16711746
14.473907 -18.772724 61.529583 16711746
23.715412 -11.700339 55.416691 16711746
14.134993 -17.037048 65.723076 16711746
6.3676901 -17.152033 40.458103 16711746
22.699358 -21.108006 59.592392 16711746
3.2210014 -14.6413 42.332504 16711746
22.166595 -21.734838 78.665215 16711746
18.276999 -10.987029 38.309734 16711746
12.256207 -9.4938335 40.447639 16711746
2.5890267 -16.678024 40.386524 16711746
19.006269 -12.180599 44.804821 16711746
14.581473 -6.8305774 41.01189 16711746
16.055529 -8.8424673 47.876366 16711746
18.478008 -14.611712 41.704273 16711746
19.992882 -16.353752 41.155506 16711746
20.168842 -15.824204 46.468307 16711746
21.154045 -22.050333 49.849506 16711746
12.611239 -10.102663 42.337353 16711746
24.76013 -20.755732 54.118912 16711746
26.747108 -12.706117 61.155647 16711746
17.286407 -14.019626 42.875675 16711746
20.756205 -9.4511223 43.150574 16711746
11.438797 -11.708026 46.599091 16711746
16.372423 -16.769352 42.538067 16711746
19.898798 -11.232249 40.822132 16711746
-0.12757769 -11.79367 40.796928 16711746
21.659576 -5.8117957 56.348923 16711746
24.522669 -9.7038918 39.784218 16711746
20.663506 -9.4280453 42.938122 16711746
20.231462 -11.657834 40.999359 16711746
18.123045 -9.4011202 38.966808 16711746
19.253313 -10.919717 45.449379 16711746
14.066094 0.5260765 35.053501 16711746
12.322915 -12.300486 43.968304 16711746
19.611107 -11.478231 41.916912 16711746
20.268986 -8.2780323 43.476627 16711746
18.934565 -12.121866 39.695435 16711746
20.99357 -13.112841 40.124542 16711746
21.019379 -9.5982656 53.708107 16711746
9.5556355 -11.91633 44.168198 16711746
5.3288116 -26.979744 54.536079 16711746
6.9771662 -19.035694 48.112228 16711746
10.448493 -6.1104465 38.197762 16711746
12.778053 -6.7967548 38.812523 16711746
20.546001 -16.898026 40.984539 16711746
8.1880331 -15.714266 43.034786 16711746
23.105242 -10.619147 51.659584 16711746
17.561167 -12.010082 42.23526 16711746
-3.3042073 -27.145824 53.529701 16711746
13.431226 0.19236785 35.527092 16711746
-51.297745 -45.746338 151.54277 16711746
15.629624 -17.227722 42.113827 16711746
16.56988 -14.72402 41.682259 16711746
17.263151 -14.008338 39.601448 16711746
18.068083 -7.0039139 44.735203 16711746
14.257113 -19.019602 41.603832 16711746
17.541206 -12.59356 38.888763 16711746
9.3030939 -18.691216 52.27306 16711746
17.070061 -13.822774 40.689186 16711746
18.681726 -12.157456 50.993107 16711746
14.314606 -10.475343 41.957962 16711746
13.35304 -8.0583897 39.813736 16711746
22.286648 -7.2143817 38.682545 16711746
13.845798 -17.086227 41.846333 16711746
10.721525 -14.510001 43.445889 16711746
21.566547 -10.528412 52.619061 16711746
13.195841 -0.34768078 36.573788 16711746
26.862432 -15.990046 42.310719 16711746
18.585806 -14.64085 44.66288 16711746
19.6339 -13.748418 39.092133 16711746
14.981833 -12.291525 41.305534 16711746
27.264814 -13.372902 62.46323 16711746
16.591408 -7.3030696 45.546249 16711746
22.254374 -11.511473 54.168568 16711746
6.8022132 -1.7872694 40.348579 16711746
20.201988 -6.1357856 41.212906 16711746
14.286434 -9.5316191 40.812244 16711746
21.542431 -16.411301 41.546066 16711746
13.585063 -6.5821028 39.670353 16711746
12.95794 -7.7880487 40.425549 16711746
17.179461 -6.0899582 41.418171 16711746
18.536423 -6.7512364 43.116955 16711746
18.316387 -3.8937795 39.413506 16711746
21.468376 -10.80879 38.353947 16711746
22.053589 -6.4088869 36.304573 16711746
23.814213 -11.417316 39.818996 16711746
17.554476 -7.7396441 48.761684 16711746
19.639471 -12.352007 46.325485 16711746
19.770964 -11.896691 46.361771 16711746
11.599597 -1.2687298 36.933121 16711746
21.551859 -7.7318039 39.071213 16711746
20.1873 -6.9593034 41.441738 16711746
17.215086 -2.4306293 40.65213 16711746
25.911856 -12.913887 41.085007 16711746
11.643806 -8.5444012 41.231873 16711746
13.155673 -3.6042874 38.330544 16711746
15.444029 -1.7293283 37.507835 16711746
8.9873247 -3.2384019 38.926979 16711746
4.5786657 -8.705348 43.507416 16711746
7.5677352 -19.721233 73.070511 16711746
11.019541 -12.737528 39.878895 16711746
-2.4765582 -12.776149 48.200451 16711746
16.914057 -5.7002025 39.871922 16711746
6.06741 -21.052454 44.885937 16711746
17.833645 -12.316845 39.672871 16711746
8.8150129 -18.988585 44.947136 16711746
18.048615 -3.4054198 40.995178 16711746
22.526123 -11.578808 39.817543 16711746
19.019003 -10.612198 40.528027 16711746
18.165806 -3.6371098 41.567863 16711746
13.386405 -14.48984 42.427162 16711746
19.25087 -10.959521 40.669998 16711746
12.91912 -20.745798 44.365391 16711746
12.897696 -10.272081 41.73468 16711746
9.519208 -10.753572 41.816544 16711746
11.903907 -17.308655 44.101624 16711746
10.604281 -19.812681 47.972958 16711746
12.962205 1.4378687 35.794899 16711746
11.649623 -7.9461522 40.693745 16711746
16.113668 -10.79647 53.736084 16711746
17.0408 -1.4407755 40.26836 16711746
-0.019140443 -13.767377 44.945774 16711746
16.379536 -20.591249 44.238407 16711746
7.9634452 -21.031229 48.918068 16711746
17.270481 -13.587304 42.433289 16711746
4.3289394 -9.538372 55.835342 16711746
3.2715883 -30.084051 48.142979 16711746
17.747063 -32.424358 45.410828 16711746
17.373356 -20.944435 42.859344 16711746
19.296425 -15.615757 42.870476 16711746
18.431084 -2.4533184 48.299274 16711746
21.681202 -16.02821 51.306904 16711746
17.961603 -2.0976288 47.172272 16711746
20.10807 -11.316148 43.283978 16711746
6.2944198 -20.964569 47.644951 16711746
16.530981 -13.018738 39.494247 16711746
17.959524 -15.499064 67.774422 16711746
19.908178 -9.1115284 56.935181 16711746
-19.442884 -51.493317 55.875034 16711746
17.606277 -1.7896769 46.39204 16711746
2.298316 -17.914505 45.601475 16711746
18.571671 -9.4894848 46.653973 16711746
15.287594 -4.8932099 48.116287 16711746
16.286011 -6.4711156 57.558952 16711746
-1.9582555 -18.439966 49.109364 16711746
15.5006 -3.1567733 47.277161 16711746
1.7795583 -12.554155 46.03685 16711746
-2.198638 -23.083324 47.112896 16711746
11.434349 -3.7087696 38.852016 16711746
17.384281 -7.8591928 40.616749 16711746
20.528276 -10.930312 49.452911 16711746
6.7880788 -13.007562 50.976265 16711746
19.145102 -8.2843342 54.871098 16711746
-12.73393 -31.918671 54.417858 16711746
18.14448 -14.102322 44.522129 16711746
6.6593933 -12.593046 42.333282 16711746
7.1370111 -10.818461 43.415398 16711746
-4.8853993 -35.552345 51.78508 16711746
-10.02078 -28.350859 52.371159 16711746
14.940141 -8.2761402 39.184013 16711746
18.007805 -8.5300531 42.045742 16711746
10.567085 -9.672328 43.766193 16711746
14.307721 -7.6200175 40.547142 16711746
10.853235 -10.792105 43.014866 16711746
18.627363 -21.865089 50.281891 16711746
17.592907 -11.534839 45.403934 16711746
20.36079 -12.808286 47.379345 16711746
21.414566 -14.870551 49.068489 16711746
-1.434631 -20.857485 44.09034 16711746
18.722075 -9.918189 40.294529 16711746
17.120237 -6.0903554 39.339378 16711746
2.5507438 -10.607281 49.394539 16711746
15.79435 -10.523247 42.46666 16711746
16.226833 -8.0419102 43.946938 16711746
17.764029 -14.88689 41.501324 16711746
10.37089 -12.64811 43.727737 16711746
10.525673 -11.810623 41.86042 16711746
16.493595 -13.635108 44.07476 16711746
22.324263 -5.23423 42.078793 16711746
-9.1195555 -34.12294 51.044533 16711746
20.937984 -15.037752 52.090954 16711746
19.187218 -8.9627018 45.811134 16711746
15.355146 -3.144536 42.544971 16711746
16.316359 -4.8818078 45.317501 16711746
30.171183 -23.513466 92.231247 16711746
19.77648 -27.148115 44.517544 16711746
14.685184 -13.255376 48.591648 16711746
25.405537 -11.531993 42.701488 16711746
20.219267 -20.398109 48.981285 16711746
25.921211 -9.8136482 42.768051 16711746
24.167774 -8.1343508 41.784775 16711746
18.092915 -13.367785 46.879292 16711746
17.467447 -13.306393 42.412991 16711746
11.492043 -9.3744383 40.042622 16711746
17.091747 -6.1747947 38.963818 16711746
10.310616 -2.9947462 39.076511 16711746
14.138676 -6.5389071 39.856628 16711746
17.50993 -4.3673482 39.624432 16711746
16.44611 -3.2839537 39.023895 16711746
-7.8282733 -35.735828 53.213367 16711746
26.970676 -20.320757 42.36314 16711746
23.073944 -16.268618 54.580479 16711746
15.595963 -9.0913506 41.273148 16711746
15.259356 -6.179812 41.465714 16711746
12.296438 -26.695211 78.540901 16711746
21.049463 -20.222723 53.391987 16711746
15.469141 -25.661242 57.182869 16711746
16.374773 -18.370825 42.420029 16711746
41.178894 -13.666368 52.03614 16711746
14.16258 -14.849288 42.73999 16711746
22.153009 -11.60405 40.383171 16711746
17.772436 -9.8279438 43.418823 16711746
29.797552 -8.6189041 45.471443 16711746
14.076446 -11.456677 42.031708 16711746
18.178076 -8.2545404 41.979015 16711746
14.458216 -25.856716 58.414078 16711746
22.665941 -20.002016 51.781864 16711746
25.639671 -21.086546 68.892265 16711746
16.635691 -2.8563106 39.357571 16711746
27.470432 -23.105928 63.252075 16711746
13.572615 -13.89921 42.871109 16711746
14.45166 -9.8435535 42.24218 16711746
22.05846 -7.9307771 45.146484 16711746
10.624485 -9.3984156 48.472153 16711746
12.431323 -11.553063 44.515942 16711746
11.136895 -11.374569 43.18145 16711746
12.466782 -7.3470974 44.442295 16711746
3.4608812 -6.4090772 47.590984 16711746
9.8073082 -6.8210506 47.378857 16711746
13.464128 0.32753253 38.739239 16711746
14.006959 -17.995396 49.041687 16711746
19.715647 -17.038107 42.37606 16711746
8.9324408 -12.954198 47.467197 16711746
18.675413 -20.386921 44.176388 16711746
7.2259712 -15.736059 59.642437 16711746
9.1234035 -14.700057 61.653957 16711746
28.179092 -16.659798 51.267494 16711746
12.538502 -24.347948 54.4981 16711746
13.568561 -20.622486 50.339737 16711746
0.71952242 -26.927361 55.211189 16711746
12.432378 -19.693445 50.165268 16711746
12.318593 -21.028545 50.311642 16711746
12.763958 -30.728621 55.391525 16711746
31.825573 -30.05937 69.87883 16711746
27.165684 -35.225872 66.624786 16711746
14.908141 -28.454765 55.728119 16711746
20.176134 -37.072704 60.821514 16711746
9.3193331 -12.943482 48.618942 16711746
12.065183 -4.506 42.151001 16711746
12.336089 -1.6543458 42.808517 16711746
25.643381 -11.965457 41.981651 16711746
13.688392 -0.017762834 38.786186 16711746
27.403048 -18.511314 62.085106 16711746
31.657879 -23.003204 64.164589 16711746
14.697633 -11.452796 44.555805 16711746
13.817328 -3.4899535 41.359226 16711746
48.009262 -25.324871 106.38548 16711746
17.202044 -8.340169 42.661919 16711746
10.450226 -11.08174 43.20784 16711746
17.724197 -15.872635 43.531895 16711746
15.484081 -17.350071 42.672611 16711746
22.188467 -8.8356943 46.714455 16711746
14.617167 -7.9823918 44.042282 16711746
19.134638 -4.5460653 42.698811 16711746
14.768553 -0.40498376 40.792774 16711746
29.060492 -13.16342 41.790684 16711746
14.132014 -0.84765118 39.868877 16711746
21.020758 -12.856412 45.769985 16711746
14.552663 -2.8299899 41.589104 16711746
23.268011 -5.1267376 48.71833 16711746
14.948178 -13.275512 47.398796 16711746
30.139656 -14.221849 42.192429 16711746
17.042202 -19.369549 45.553627 16711746
17.895487 -6.5723138 42.155815 16711746
14.59666 -3.6922898 41.35854 16711746
14.124699 -11.953694 42.157665 16711746
8.1636162 -19.614834 50.484726 16711746
23.44137 -9.0423689 39.566746 16711746
23.281757 -11.358159 40.555462 16711746
25.426991 -12.497908 51.767376 16711746
3.4891193 -4.0247893 45.661686 16711746
13.047759 -6.1065159 40.8447 16711746
27.874163 -13.847371 56.858681 16711746
26.128605 -22.87145 63.647442 16711746
21.270193 -7.6656046 44.607124 16711746
21.62501 -12.234743 53.764416 16711746
14.287925 1.8547665 39.61039 16711746
20.618887 -12.175335 49.9501 16711746
18.919302 -8.2549105 48.223709 16711746
20.297316 -4.98911 44.772697 16711746
13.782874 -10.328199 47.873241 16711746
16.523272 -11.226157 44.618275 16711746
11.526031 -6.5213718 52.202545 16711746
18.761642 -5.6065412 42.470097 16711746
17.062319 -7.2740993 50.387856 16711746
18.071648 -12.91909 47.121426 16711746
18.68787 -14.995239 44.255177 16711746
12.492752 -12.973444 52.288265 16711746
14.870346 -8.0438623 46.491726 16711746
19.374084 -11.217857 48.9058 16711746
23.221138 -9.0703239 41.671284 16711746
22.03091 -5.5074077 42.349983 16711746
17.066679 -10.925666 45.762402 16711746
15.719295 -9.7953825 44.889774 16711746
12.34024 -7.3404446 56.853901 16711746
14.564478 -9.5399466 45.422825 16711746
11.098509 -4.8311028 49.190773 16711746
17.779602 -3.3649478 41.340134 16711746
18.197792 -7.3225489 48.32362 16711746
13.587127 2.1389627 39.431126 16711746
17.177801 -4.7383652 44.705616 16711746
17.094793 -11.71238 44.372433 16711746
16.824135 -5.2020607 43.497608 16711746
19.358549 -13.423298 47.711037 16711746
18.567087 -5.5097485 41.825039 16711746
17.946171 -1.4242166 41.643414 16711746
10.715449 -3.045958 51.364441 16711746
32.38081 -8.5421133 65.906754 16711746
10.758677 -34.192894 89.028221 16711746
27.386227 -5.2321644 46.682743 16711746
14.502064 -1.1439776 42.807137 16711746
13.745407 2.2969291 39.463512 16711746
15.784022 -4.7138214 42.751919 16711746
13.287899 -2.002929 41.182892 16711746
12.9313 -2.8403819 42.156284 16711746
15.718785 -1.1734787 40.580704 16711746
15.114525 -2.1849601 46.544598 16711746
12.65091 -1.2740461 41.933273 16711746
12.215768 -3.8964128 43.390984 16711746
18.750177 -6.3382716 47.144951 16711746
16.865028 -1.1226293 40.404713 16711746
11.340825 -4.7498002 48.80307 16711746
11.841625 -1.1178493 41.881523 16711746
14.689976 0.3748391 43.456047 16711746
16.253485 0.18518023 40.278404 16711746
14.655024 -3.0936201 41.605286 16711746
16.258911 -1.8878348 43.890575 16711746
16.629482 -2.9848609 44.27063 16711746
19.929449 -10.304643 49.845001 16711746
10.944918 -0.77640939 41.654549 16711746
14.320602 1.1568902 42.278839 16711746
18.271589 -2.1674857 41.420826 16711746
20.442743 0.15445678 44.668114 16711746
14.003048 0.46462038 40.236217 16711746
15.729862 -0.23716511 40.7565 16711746
13.210257 -1.3678752 40.701393 16711746
17.307486 -14.5337 42.391834 16711746
16.882597 -10.717298 41.100689 16711746
17.947289 -14.955486 43.45895 16711746
10.271973 -15.695033 45.433983 16711746
11.236552 -12.856734 45.12196 16711746
15.988122 -13.228566 42.864666 16711746
11.432487 -8.8145761 44.116467 16711746
17.04348 -18.248035 43.537868 16711746
17.896469 -3.3443706 44.48542 16711746
-5.2096462 -7.415534 56.514645 16711746
8.6227446 -23.980078 62.944153 16711746
12.121964 -17.75466 51.009441 16711746
23.038458 -16.554285 55.246105 16711746
8.0063829 -16.783129 48.574028 16711746
10.452003 -16.513472 49.881741 16711746
18.505066 -15.800134 44.037098 16711746
14.569651 -17.373011 44.760265 16711746
3.2809525 -14.739964 53.689682 16711746
8.3478804 -14.282057 49.983105 16711746
10.955917 -15.816611 53.16272 16711746
8.9530849 -12.10822 49.725567 16711746
9.2810593 -16.70933 52.031334 16711746
10.573669 -19.554304 44.91853 16711746
18.638584 -16.680248 44.300465 16711746
10.02249 -15.330453 51.159943 16711746
14.23032 -23.349054 48.190918 16711746
6.5968075 -18.766022 54.586658 16711746
10.232247 -16.41408 47.22641 16711746
8.6854143 -13.154339 47.333141 16711746
4.6506157 -15.622835 54.037617 16711746
6.8671756 -12.177365 54.105141 16711746
19.133219 -20.248196 47.759308 16711746
9.9235392 -25.329838 46.814613 16711746
14.182345 -15.228364 68.119682 16711746
25.07909 -10.661505 40.096924 16711746
16.153324 -6.5916243 47.68615 16711746
23.351059 -7.8688231 44.070553 16711746
18.672646 -18.882227 46.984436 16711746
24.176123 -18.822096 52.973568 16711746
-3.4065516 -13.104304 49.989639 16711746
15.855202 -14.180017 44.259197 16711746
7.1487923 -16.977562 57.619987 16711746
22.491447 -18.765999 57.024563 16711746
3.7372479 -8.7908859 58.182869 16711746
31.044376 -9.0275955 46.983883 16711746
14.590747 -20.929672 45.461994 16711746
16.273735 -4.5569329 41.438587 16711746
13.109026 -20.948944 44.597767 16711746
17.221231 -11.664502 43.957661 16711746
17.831411 -16.110306 43.75782 16711746
20.434303 -12.688064 50.464851 16711746
15.951627 -17.085867 43.28809 16711746
21.678389 -15.636786 52.863331 16711746
20.279285 -6.267633 40.422939 16711746
23.085752 -10.759722 70.317223 16711746
14.245736 -7.8735719 42.611004 16711746
18.935312 -5.2312827 43.167477 16711746
25.44611 -5.8674088 44.576675 16711746
22.792749 -6.8849826 48.907341 16711746
20.490335 -4.3595796 42.115463 16711746
26.785978 -8.9911566 43.868958 16711746
19.517332 -4.5207043 45.183254 16711746
27.815407 -7.5875211 45.798756 16711746
14.689015 -4.9349747 53.172363 16711746
20.377199 -9.1366119 53.684753 16711746
21.200924 -8.4014044 55.98782 16711746
24.397001 -12.481355 59.776493 16711746
25.198328 -7.7360196 44.810509 16711746
21.528776 -6.0293322 58.634003 16711746
11.398905 -13.871556 44.985249 16711746
21.342022 -17.16737 49.40062 16711746
13.440849 -13.275859 57.003922 16711746
19.619545 -4.9042492 53.228348 16711746
22.500225 -6.7942991 42.630146 16711746
20.529642 -7.5232468 44.402885 16711746
30.108061 -9.8236933 56.974373 16711746
3.8148341 -16.597111 50.219978 16711746
14.342555 -4.5339699 47.843616 16711746
19.208107 -5.687345 42.883034 16711746
23.080322 -8.2587681 43.393055 16711746
31.835123 -24.554516 55.594452 16711746
25.598188 -17.827473 57.283241 16711746
13.053591 -5.0389943 42.900002 16711746
20.133736 -17.904678 46.961506 16711746
13.415312 1.8791975 39.278973 16711746
9.6286192 -7.9751282 42.689064 16711746
20.023315 -9.1696024 49.058125 16711746
17.293974 -6.1826539 49.670681 16711746
14.586717 -2.0812917 40.998829 16711746
17.221823 -0.9215557 41.399097 16711746
16.181999 -0.88061208 41.165604 16711746
15.477187 -1.6743644 40.997337 16711746
14.922492 0.51681232 40.5424 16711746
14.64148 0.2440328 40.332066 16711746
16.525305 -0.32327583 41.002453 16711746
14.982557 -0.21282117 41.272701 16711746
14.013651 -0.77418852 42.019215 16711746
21.20672 -2.773421 41.684124 16711746
14.886851 1.0723882 40.197422 16711746
15.014951 -0.01102457 40.541199 16711746
13.924652 -0.42328656 42.555428 16711746
16.66095 -1.9528172 44.510132 16711746
13.573556 0.0050888322 40.602951 16711746
15.061516 -3.6057482 42.084976 16711746
14.993946 -1.0025647 40.760715 16711746
14.5171 -1.3570225 41.365059 16711746
15.363309 -0.76750761 41.304527 16711746
13.614623 0.57650256 40.360256 16711746
14.765279 -0.63620573 41.408836 16711746
14.759517 -0.93515426 40.66058 16711746
16.839914 -0.15653336 41.113148 16711746
16.42556 0.53015018 40.861801 16711746
14.297555 0.85848337 40.702835 16711746
13.567966 -3.1501648 41.212177 16711746
16.774672 -0.62895709 41.132984 16711746
13.622278 -1.9139353 40.890991 16711746
15.317965 0.37932882 41.770641 16711746
16.364042 0.26654607 40.855618 16711746
14.917061 -1.7035365 42.507187 16711746
14.107875 -1.6203752 42.341454 16711746
16.722925 -0.060041565 41.050339 16711746
16.515562 -2.447057 43.968334 16711746
13.788125 0.63302892 42.768898 16711746
14.761436 -0.82125467 40.873821 16711746
15.374774 -3.4633756 41.801384 16711746
14.519447 -0.63643503 41.42979 16711746
16.794859 0.9568373 41.508076 16711746
15.388395 0.63391465 41.793911 16711746
15.782511 -0.32689092 40.466206 16711746
14.335784 -0.23858894 41.118584 16711746
15.507521 -1.3716992 42.016735 16711746
14.927816 -0.23958008 41.22274 16711746
13.90595 -0.42590123 41.937187 16711746
14.079233 -0.19527283 45.984562 16711746
16.687727 -0.31565368 45.210373 16711746
15.875115 -0.4044013 40.642586 16711746
15.90979 -0.0090034613 40.489498 16711746
16.08213 -0.9924351 40.793617 16711746
14.919694 1.0268587 40.210785 16711746
6.6300902 -5.8534236 43.357685 16711746
13.103561 -2.2834618 41.390495 16711746
15.362014 -2.7536278 42.241467 16711746
22.028156 -3.7194333 52.726677 16711746
12.652299 -1.8707266 41.536186 16711746
14.045948 -0.81002116 42.002922 16711746
15.127794 -3.6605234 41.781307 16711746
14.468088 0.059209451 41.081535 16711746
14.024611 -1.4840603 43.527161 16711746
14.042248 -0.70614576 42.902733 16711746
14.123014 0.41540366 44.290874 16711746
15.410967 1.1772658 41.762833 16711746
14.966885 -0.35146412 41.272774 16711746
13.977808 -1.5969374 46.984402 16711746
15.979784 0.27581212 40.98951 16711746
15.251511 0.84390664 41.181473 16711746
16.170668 -0.35955226 40.590572 16711746
15.491793 0.19721444 40.646046 16711746
14.787882 1.1279566 40.656235 16711746
16.441023 -1.1910697 40.698662 16711746
16.926582 -1.2460705 41.981697 16711746
14.906565 1.1928985 40.436302 16711746
15.924435 0.99269396 40.304798 16711746
14.417305 0.94778579 41.018623 16711746
14.8589 -0.70054466 41.079674 16711746
14.806918 1.5477022 40.333103 16711746
13.668609 0.54742301 42.466202 16711746
14.115753 -1.6700708 42.382759 16711746
16.230452 -0.60412872 40.786026 16711746
14.116496 2.0373359 39.989929 16711746
13.693269 2.3544171 39.908653 16711746
14.025546 2.0936811 39.824734 16711746
14.296676 -0.79669076 41.285233 16711746
14.749126 1.055267 40.340805 16711746
16.505112 -0.93349189 40.925335 16711746
14.901728 1.2212476 40.34037 16711746
14.661767 0.90033871 41.039143 16711746
15.859952 0.31347352 40.313938 16711746
9.9583397 -1.2345226 41.947678 16711746
15.294003 1.3414768 41.580963 16711746
14.3344 0.79915005 41.462505 16711746
13.734891 0.063144416 41.128548 16711746
13.74862 -0.64872068 41.23914 16711746
15.942106 1.1178271 41.53508 16711746
14.811268 -0.63658106 40.914722 16711746
18.359467 -0.69994557 43.414253 16711746
15.29286 0.16769847 42.21122 16711746
15.551077 1.7546726 42.345451 16711746
15.775179 0.30333102 43.307468 16711746
15.388643 1.0938087 42.267841 16711746
14.962523 0.2896899 41.920898 16711746
15.507987 0.9201448 42.068535 16711746
14.314948 1.9288208 42.826889 16711746
16.048523 1.3647335 41.448414 16711746
14.704636 1.6115825 42.054428 16711746
16.351225 1.2396483 42.612419 16711746
14.267103 0.84567815 42.164867 16711746
14.506023 1.0623696 41.986961 16711746
15.740749 1.0599287 41.625626 16711746
16.224344 1.2247258 44.562996 16711746
12.933941 2.0426319 44.663948 16711746
14.428957 1.2636132 42.254002 16711746
14.484356 1.1700227 41.922012 16711746
14.216415 1.2399738 42.171223 16711746
14.289626 0.66494501 42.131725 16711746
15.104154 1.7730771 42.353554 16711746
14.349933 0.62017369 42.458225 16711746
15.655239 1.3043832 42.765739 16711746
12.293974 1.7895473 43.739395 16711746
16.248287 1.4729543 42.373447 16711746
17.244858 1.2965963 41.751331 16711746
14.251506 0.26398316 42.359982 16711746
15.136148 1.5285912 41.629745 16711746
14.418104 1.1281656 42.119068 16711746
14.690214 0.23795839 42.622154 16711746
14.645585 1.8176931 43.680817 16711746
13.279801 1.7118781 43.876236 16711746
16.315546 1.5158839 41.302139 16711746
14.455235 1.2463645 41.872406 16711746
15.129788 1.5225888 41.632271 16711746
16.214016 1.1905241 41.546505 16711746
14.739736 1.4896594 43.714748 16711746
13.284489 1.7118577 43.875416 16711746
15.672692 1.5500727 42.158817 16711746
14.641281 0.77165151 43.211422 16711746
16.783857 0.56043172 41.820328 16711746
14.442045 1.139719 41.938908 16711746
14.098373 1.6929909 41.943886 16711746
14.687602 1.6310225 41.936886 16711746
14.969913 1.286561 41.776306 16711746
16.435717 1.0969651 43.559299 16711746
14.639453 1.0103717 42.055618 16711746
14.653003 0.87634051 43.095619 16711746
14.332369 2.0352483 41.917786 16711746
14.971631 1.286929 41.623577 16711746
16.62081 1.3732542 44.077682 16711746
14.667159 1.0260173 43.067448 16711746
14.147587 0.9978956 42.518368 16711746
13.556143 1.884401 43.738037 16711746
15.383456 2.1641479 42.568764 16711746
14.271796 0.51739115 42.235012 16711746
13.467881 2.4742634 41.994797 16711746
14.194361 2.0081563 42.64109 16711746
15.149409 1.7485446 42.302711 16711746
14.332393 1.3405652 41.918514 16711746
15.73608 0.3258073 43.501244 16711746
13.099978 2.4668207 42.81636 16711746
16.029068 1.5445844 43.781937 16711746
14.18381 1.187229 42.576233 16711746
14.232159 2.5280716 41.070621 16711746
16.066597 1.5143049 44.234825 16711746
13.456997 0.43137839 42.525803 16711746
13.755655 0.3604565 42.198341 16711746
16.141033 0.70227921 42.603802 16711746
13.753044 0.90578252 43.233219 16711746
13.773229 2.728169 41.971558 16711746
14.044546 1.9227132 41.446411 16711746
13.999382 0.79188293 42.658825 16711746
15.296122 1.774011 44.155052 16711746
15.072344 2.075563 41.376503 16711746
14.221981 2.3549497 41.206173 16711746
14.935373 2.1016321 41.339245 16711746
14.221274 1.8522887 41.362728 16711746
14.165696 -2.6175349 43.417076 16711746
15.754296 0.2509948 43.568924 16711746
14.880465 -2.4468758 42.978134 16711746
14.946133 1.9325876 41.402145 16711746
14.176934 1.1836842 41.824127 16711746
14.203846 1.0747329 41.607193 16711746
14.665142 1.340974 41.602264 16711746
15.240076 0.53807372 41.817474 16711746
15.494633 1.0034356 41.460197 16711746
14.023131 1.7082223 41.805218 16711746
14.272785 1.6999954 41.393448 16711746
14.229681 2.4851308 41.17469 16711746
13.897556 0.98635697 41.865509 16711746
14.421039 0.97131425 41.843285 16711746
14.879689 1.7845695 41.344685 16711746
14.968733 1.2478549 41.793949 16711746
14.294774 0.7741257 41.809566 16711746
13.418421 0.011645881 42.999809 16711746
14.972665 2.0580387 41.464317 16711746
13.813618 1.5328093 42.186424 16711746
14.896867 0.24277724 45.91502 16711746
13.888389 1.137661 42.232029 16711746
12.37148 1.6844516 42.506123 16711746
15.825969 1.7191821 42.898796 16711746
14.382195 1.6450481 41.474861 16711746
15.656937 1.2677683 42.874664 16711746
12.909106 1.9857392 42.908382 16711746
15.675448 1.152946 41.699768 16711746
14.233575 1.3197309 41.547306 16711746
15.361336 1.4465561 42.459759 16711746
14.453547 2.4842155 41.245461 16711746
15.798119 1.1091954 41.877094 16711746
15.952393 1.2066616 42.909428 16711746
16.169304 1.3545392 41.89748 16711746
14.92835 1.8892049 42.016029 16711746
15.128448 1.9122804 42.694645 16711746
14.756736 2.1423244 41.595837 16711746
16.295975 1.4729747 43.536945 16711746
18.081499 0.15002625 47.755646 16711746
14.940114 1.7610799 41.455772 16711746
16.186422 1.2781696 43.768211 16711746
17.262739 1.4777714 45.567822 16711746
16.283695 1.2217543 41.976646 16711746
15.37569 1.989432 42.586285 16711746
14.937226 1.8430078 41.872318 16711746
14.762193 1.6744422 42.973579 16711746
14.118865 1.8965534 42.628597 16711746
14.721866 0.96610337 44.40102 16711746
14.3442 1.2150918 42.673641 16711746
13.757755 2.1674376 41.48111 16711746
14.130516 2.0422509 42.846489 16711746
14.668154 1.8869212 42.864941 16711746
16.622948 1.6401092 44.581394 16711746
14.888571 2.1747713 41.991768 16711746
15.665893 0.8067556 44.267666 16711746
16.255096 1.7334446 44.035015 16711746
15.367549 1.8270609 42.080135 16711746
16.885933 0.88424563 45.407948 16711746
16.326004 1.1418936 43.700294 16711746
16.090563 0.58990514 44.833248 16711746
15.806726 1.5953729 41.750523 16711746
17.283463 1.6694642 45.981312 16711746
14.904275 1.7334981 41.422497 16711746
14.788001 2.7821655 41.385784 16711746
15.60885 1.4621221 43.189777 16711746
15.937701 1.4749366 41.637268 16711746
14.420915 2.6686099 41.97163 16711746
14.49037 2.2701592 41.512348 16711746
14.162108 1.7254045 42.230862 16711746
14.97314 1.4361029 41.521057 16711746
15.02438 1.5367867 42.069225 16711746
15.164797 1.7285258 42.165249 16711746
15.347781 0.61613518 42.789227 16711746
16.641006 1.9406534 44.339264 16711746
16.566317 1.7587426 44.486115 16711746
14.37569 2.0724804 41.64732 16711746
13.838188 1.2608802 44.221176 16711746
15.686604 1.3527713 41.497486 16711746
13.383857 2.1741407 41.884548 16711746
15.545702 1.2417582 43.023754 16711746
13.958208 1.2002524 43.620167 16711746
17.583122 1.0564246 46.832668 16711746
16.0567 1.7217339 44.615692 16711746
15.363747 1.5551984 42.51926 16711746
16.037483 0.99382192 43.952667 16711746
14.105528 1.7196221 41.86869 16711746
15.621506 1.0689451 43.194107 16711746
14.220708 1.2136421 42.38485 16711746
15.63586 0.58035433 42.808514 16711746
15.122839 2.1720159 42.629551 16711746
13.23276 1.2079875 43.109238 16711746
14.097306 1.1722436 43.885357 16711746
15.416142 1.3474995 42.759995 16711746
12.194855 1.4211414 46.305859 16711746
13.084806 0.45892501 44.012268 16711746
16.734119 1.8315284 43.584286 16711746
16.491734 1.7452568 43.387299 16711746
14.490304 1.9834334 42.068417 16711746
13.836592 2.3984544 41.641735 16711746
16.128185 1.3901296 43.11005 16711746
15.288334 1.3999596 42.447186 16711746
15.356938 2.2732563 43.126007 16711746
14.021752 1.7454935 42.606419 16711746
15.771588 1.5651969 42.974308 16711746
15.047471 1.6739023 43.298737 16711746
15.96375 0.68235105 43.589825 16711746
