# .PCD v.7 - Point Cloud Data file format
VERSION .7
FIELDS x y z rgb
SIZE 4 4 4 4
TYPE F F F F
COUNT 1 1 1 1
WIDTH 1173
HEIGHT 1
VIEWPOINT 0 0 0 1 0 0 0
POINTS 1173
DATA ascii
-0.0945355 -0.4850972 3.6629941 16711746
0.9186872 -1.0171911 4.6144423 16711746
0.1155781 -0.4941268 3.7443359 16711746
-0.1662703 -0.4885366 3.7172892 16711746
-0.0985948 -0.5014806 3.7672505 16711746
0.0520461 -0.5140767 3.7884972 16711746
-0.1447076 -0.5305712 3.9973121 16711746
-0.2213580 -0.5325836 3.6449120 16711746
-0.1582213 -0.5395058 4.0640354 16711746
0.6172611 -1.0792686 4.9710569 16711746
-0.0053833 -0.4945544 3.7554991 16711746
0.2669446 -1.0223402 4.8255973 16711746
0.0706695 -0.5497895 3.8016531 16711746
-0.1325232 -0.5119808 3.8793030 16711746
0.6461347 -1.2357152 5.3976617 16711746
-0.2120623 -0.5819221 4.3442435 16711746
-0.1431797 -0.5472572 4.1968508 16711746
0.3622344 -1.0581536 4.6144958 16711746
0.7461494 -1.0993747 4.6737094 16711746
0.1008238 -0.5804024 3.9443958 16711746
0.2699388 -1.0183671 4.7653623 16711746
0.9528577 -1.1224424 4.5911484 16711746
0.0859386 -0.5568413 3.8091731 16711746
-0.1585396 -1.0563390 4.7663493 16711746
-0.5415739 -0.8724532 4.9124618 16711746
-0.1423709 -0.5878236 4.5304542 16711746
0.9110190 -1.4231714 6.5023913 16711746
-0.2037488 -1.0271707 5.0887265 16711746
1.0286502 -1.5110544 7.0248318 16711746
0.0441494 -0.4924759 3.7643986 16711746
-0.1188119 -0.4862283 3.6852105 16711746
-0.2055331 -0.4873946 3.6280234 16711746
-0.0401306 -0.4978718 3.7597706 16711746
-0.0575677 -0.5040528 3.8077130 16711746
-0.1584173 -0.4850942 3.6351161 16711746
-0.1875923 -0.4984952 3.7325122 16711746
-0.1434971 -0.4955735 3.7039189 16711746
-0.2355844 -0.4807905 3.6245868 16711746
-0.1321304 -0.4961137 3.7228830 16711746
-0.2611894 -0.4830452 3.6356802 16711746
-0.1023294 -0.4824581 3.6540833 16711746
-0.1124993 -0.4838855 3.6638408 16711746
-0.0009328 -0.4810165 3.6960909 16711746
-0.0371509 -0.4836173 3.7001529 16711746
-0.0105711 -0.4884344 3.7197931 16711746
0.0298240 -0.4908590 3.7269399 16711746
0.0412952 -0.4935019 3.7605126 16711746
-0.1497575 -0.5045333 3.7941763 16711746
-0.1014843 -0.4995790 3.8078012 16711746
-0.1842967 -0.4930287 3.6661532 16711746
-0.2093623 -0.4903536 3.6832876 16711746
-0.0404899 -0.4944753 3.7340007 16711746
-0.1792611 -0.4925026 3.6620972 16711746
-0.2369836 -0.4773647 3.6169486 16711746
0.0926341 -0.5115202 3.8181567 16711746
-0.2390847 -0.4853695 3.6423357 16711746
-0.2563333 -0.4925919 3.6924653 16711746
-0.1067444 -0.4836361 3.6680298 16711746
-0.3663401 -0.4851724 3.7227063 16711746
-0.2347064 -0.5049727 3.7489045 16711746
-0.3180645 -0.4827588 3.6658854 16711746
-0.1051296 -0.4922915 3.7142084 16711746
0.0044474 -0.4891703 3.7739954 16711746
0.0207541 -0.4864146 3.7304845 16711746
-0.3513846 -0.4848324 3.6601586 16711746
0.4144700 -0.5213313 4.0046759 16711746
-0.2005117 -0.4849025 3.6256580 16711746
0.0354677 -0.5034321 3.8013799 16711746
0.0754262 -0.4909486 3.6879699 16711746
-0.1233561 -0.4887181 3.6799417 16711746
-0.2107344 -0.4894111 3.6860487 16711746
0.0749229 -0.5033593 3.7939951 16711746
-0.1957452 -0.4918097 3.7043884 16711746
-0.3242079 -0.4811595 3.6705658 16711746
-0.3951118 -0.5110726 3.7981656 16711746
-0.1429482 -0.4989024 3.7359376 16711746
-0.0248454 -0.4974351 3.8281553 16711746
-0.1944645 -0.4929478 3.7013535 16711746
-0.0875342 -0.4881423 3.6909509 16711746
-0.1376507 -0.4869429 3.6596131 16711746
-0.1690380 -0.4871602 3.6445127 16711746
-0.2018375 -0.4835777 3.6276040 16711746
-0.2586955 -0.4817065 3.5988398 16711746
-0.1595862 -0.4938795 3.7309234 16711746
-0.2516758 -0.4827639 3.6426666 16711746
-0.2284401 -0.4886974 3.6690078 16711746
-0.0787332 -0.4979897 3.7928588 16711746
0.1096907 -0.4981889 3.7149270 16711746
0.0586100 -0.5060155 3.7509882 16711746
-0.2020692 -0.4899038 3.6607394 16711746
-0.0290947 -0.4912007 3.7352157 16711746
-0.1504959 -0.5082797 3.7735944 16711746
-0.0383284 -0.5023910 3.7690499 16711746
0.0456573 -0.4946079 3.7420390 16711746
-0.2222807 -0.4849415 3.6240613 16711746
-0.2022878 -0.5000735 3.7764275 16711746
-0.2363153 -0.5005236 3.6716187 16711746
-0.1542978 -0.4903117 3.6641157 16711746
-0.5302914 -0.5214260 3.7762818 16711746
-0.0127026 -0.5016131 3.7690489 16711746
-0.1785000 -0.4934936 3.6589313 16711746
-0.1983636 -0.4902540 3.6797814 16711746
-0.2377197 -0.5087171 3.6670699 16711746
-0.1790778 -0.4918143 3.6869707 16711746
-0.2673117 -0.4915537 3.6531148 16711746
-0.3932263 -0.5013571 3.6879938 16711746
-0.0870619 -0.4986995 3.7239971 16711746
0.0103361 -0.4961426 3.7515061 16711746
-0.2159307 -0.4911600 3.6955349 16711746
-0.2040678 -0.5079055 3.7930524 16711746
-0.1529130 -0.4889359 3.6824658 16711746
-0.0277822 -0.5010485 3.7833946 16711746
-0.0364917 -0.4845508 3.6996481 16711746
0.0744569 -0.5097025 3.8250887 16711746
-0.1715894 -0.4894923 3.6400256 16711746
-0.9631901 -0.5634653 4.2854981 16711746
0.0017930 -0.5280856 3.9975038 16711746
-0.2164300 -0.5099070 3.7896669 16711746
-0.1726542 -0.5267947 3.9525292 16711746
-0.1965454 -0.4925104 3.7169380 16711746
-0.9032052 -0.5596896 4.2546177 16711746
-0.1082888 -0.4979473 3.7629254 16711746
-0.1702996 -0.4952796 3.7257774 16711746
-0.2553956 -0.5107906 3.8018880 16711746
-0.2013254 -0.4907153 3.6853423 16711746
-0.1392635 -0.4873543 3.6713355 16711746
-0.0968355 -0.5307912 3.9547620 16711746
-0.2278416 -0.5116893 3.8175371 16711746
0.0926537 -0.5267247 3.9295316 16711746
-0.2157270 -0.4812028 3.6221526 16711746
-0.2249042 -0.4862095 3.6543052 16711746
-0.2239478 -0.4917745 3.6874590 16711746
-0.0285844 -0.4845386 3.6997950 16711746
-0.1098271 -0.4839845 3.6766055 16711746
-0.3245786 -0.4969755 3.7477646 16711746
-0.1729773 -0.4868138 3.6255000 16711746
0.0629475 -0.5361186 3.9586098 16711746
-0.1706084 -0.4947518 3.7066355 16711746
-0.2073653 -0.4951052 3.7180483 16711746
-0.4102657 -0.4827900 3.7023714 16711746
-0.2019301 -0.4894383 3.6759667 16711746
-0.1969542 -0.4966932 3.7362330 16711746
-0.1552757 -0.4896789 3.6652763 16711746
-0.1788162 -0.4932217 3.6840391 16711746
-0.1267271 -0.5128531 3.8450339 16711746
-0.1290232 -0.4953546 3.7579508 16711746
0.0756393 -0.5004851 3.6532190 16711746
-0.2619320 -0.5223177 3.8729830 16711746
-0.0649917 -0.5363404 4.0059443 16711746
0.0141738 -0.5250922 3.9494092 16711746
-0.2244832 -0.5181474 3.9164026 16711746
-0.0066808 -0.4982888 3.7733459 16711746
-0.2513074 -0.4821682 3.6432798 16711746
-0.0382105 -0.5036116 3.7685642 16711746
-0.1440902 -0.5900034 3.7437232 16711746
-0.1327188 -0.5205339 3.8935428 16711746
0.6363234 -1.0627433 4.5516586 16711746
0.7989450 -1.1294839 4.9526792 16711746
0.6192042 -0.9746823 4.2988386 16711746
-0.2561927 -0.5528606 4.0599632 16711746
-0.1606478 -0.4911718 3.7003591 16711746
-0.2755900 -0.4870738 3.6611731 16711746
-0.2404067 -0.5663102 3.9499412 16711746
0.4694801 -1.0778922 4.9392986 16711746
-0.0304577 -0.6690387 3.9703057 16711746
-0.2325826 -0.5082333 3.8061652 16711746
-0.2600276 -0.5523424 3.9937630 16711746
0.5267377 -1.1401700 5.0552454 16711746
-0.1077545 -0.4956360 3.7759011 16711746
-1.4773579 -0.5823283 4.3164148 16711746
-0.1375760 -0.5471311 4.0867500 16711746
-0.8686043 -0.8653592 4.8520470 16711746
-0.1838502 -0.5599260 4.2721033 16711746
-0.4398661 -1.2220591 5.1525555 16711746
-0.2055004 -0.9302197 4.7385616 16711746
-0.0343683 -1.2771106 5.3364172 16711746
-0.3234534 -0.4873064 3.7097762 16711746
-0.1592502 -0.4939342 3.7024455 16711746
0.0499794 -0.4844190 3.7041781 16711746
-0.0293783 -0.4951954 3.7869678 16711746
-0.0085629 -0.5054142 3.8253021 16711746
-0.0874507 -0.4944579 3.7362466 16711746
-0.1811872 -0.4942236 3.6988490 16711746
-0.1921302 -0.4895956 3.6973991 16711746
-0.2263905 -0.4959115 3.7142344 16711746
-0.0298099 -0.4798801 3.6943295 16711746
0.0428435 -0.4855360 3.6677599 16711746
0.1278988 -0.5023140 3.8656950 16711746
-0.0301242 -0.4925347 3.7295053 16711746
0.0254875 -0.4826798 3.7114213 16711746
0.0023637 -0.4970762 3.7738795 16711746
0.0406285 -0.4866202 3.7189851 16711746
-0.1370281 -0.4892493 3.7008986 16711746
0.0538701 -0.4897194 3.6702926 16711746
-0.0527015 -0.5044086 3.7918591 16711746
-0.1576234 -0.4929875 3.6981030 16711746
0.1129757 -0.4963689 3.7535899 16711746
-0.1911803 -0.4917773 3.6924019 16711746
-0.1563217 -0.4968547 3.7254043 16711746
-0.0737787 -0.4915156 3.7243102 16711746
0.0165785 -0.4892090 3.7242696 16711746
-0.0125006 -0.5072308 3.8188486 16711746
-0.1633697 -0.4930372 3.7008798 16711746
-0.1246173 -0.4917664 3.7085509 16711746
-0.3675811 -0.4949063 3.7455463 16711746
-0.0500669 -0.4847897 3.6990466 16711746
-0.0396357 -0.4893986 3.7296302 16711746
-0.1225391 -0.4952058 3.7197309 16711746
0.0007525 -0.4945219 3.7986817 16711746
0.0071507 -0.4841236 3.7048583 16711746
-0.1129789 -0.5242182 3.9105034 16711746
-0.1290071 -0.4999319 3.7462692 16711746
-0.0699461 -0.5034121 3.7879815 16711746
-0.1599904 -0.4900084 3.6649399 16711746
-0.1792270 -0.4924566 3.6615801 16711746
-0.1640402 -0.4901601 3.6844809 16711746
-0.1696866 -0.4992085 3.7396679 16711746
-0.2240360 -0.4918376 3.6622512 16711746
-0.1531049 -0.4901776 3.6792758 16711746
-0.1601460 -0.4899959 3.6649261 16711746
-0.0093040 -0.4999133 3.7768486 16711746
-0.1362467 -0.4959960 3.7293546 16711746
-0.0094209 -0.4792746 3.6935973 16711746
-0.1244294 -0.4918631 3.7086027 16711746
-0.1685190 -0.4997403 3.7369196 16711746
-0.1638927 -0.4920079 3.6799395 16711746
-0.4805219 -0.5040838 3.7264645 16711746
-0.0668419 -0.4993522 3.8048801 16711746
-0.1428866 -0.4845755 3.6955526 16711746
0.0855265 -0.4943473 3.7031934 16711746
0.0823957 -0.5009172 3.7471199 16711746
0.0864736 -0.5480531 3.8148758 16711746
-0.1248731 -0.4916514 3.6747563 16711746
0.0276053 -0.4756422 3.7627473 16711746
-0.0449771 -0.4994781 3.7527211 16711746
0.0347976 -0.6705644 3.8238699 16711746
-0.2510313 -0.5033674 3.6739516 16711746
-0.1216864 -0.4893468 3.7007964 16711746
0.0852780 -0.5540537 4.0201187 16711746
-0.3119005 -0.5051937 3.8782680 16711746
-0.1839626 -0.5076772 3.7812047 16711746
-0.1743759 -0.5119541 3.8217633 16711746
-0.1962045 -0.4888161 3.6964188 16711746
-0.1806180 -0.4905725 3.6651745 16711746
0.1121553 -0.5337180 3.9461479 16711746
0.0200726 -0.4926139 3.7663889 16711746
-0.1712741 -0.5043998 3.7784111 16711746
-0.0661208 -0.4982288 3.7642155 16711746
-0.1587762 -0.4936534 3.6888711 16711746
0.1084306 -0.4866880 3.7232597 16711746
-0.1302284 -0.4984529 3.7522144 16711746
-0.0734121 -0.5127668 3.9559717 16711746
0.0429495 -0.5946435 4.0762658 16711746
-0.0509531 -0.5262962 3.9782822 16711746
0.0328821 -0.5008906 3.7902031 16711746
-0.1129533 -0.5014861 3.7740777 16711746
-0.3814268 -0.5002370 3.7855301 16711746
-0.3882718 -0.4888847 3.6892338 16711746
-0.1066373 -0.4931659 3.7173588 16711746
0.0160760 -0.5331852 4.0817614 16711746
0.0235229 -0.5127941 3.8756506 16711746
-0.1519828 -0.4942674 3.7069743 16711746
-0.1713646 -0.4930614 3.7107561 16711746
0.0748043 -0.5535637 3.9993918 16711746
-0.1794709 -0.5080376 3.8601599 16711746
-0.0449597 -0.4979123 3.7534850 16711746
-0.1265883 -0.5077915 3.8244274 16711746
-0.1165415 -0.5043837 3.7896309 16711746
-0.2319214 -0.5039541 3.8105226 16711746
-0.1962732 -0.5157378 3.8557165 16711746
-0.2216571 -0.5301616 3.9731317 16711746
0.5390472 -1.0817113 4.5851793 16711746
-0.1486751 -0.5209068 3.9238966 16711746
0.0485341 -0.5067872 3.8155816 16711746
-0.3159715 -0.4847574 3.6634426 16711746
0.7999372 -0.9176093 4.3838263 16711746
-0.1251492 -0.5060529 3.7911730 16711746
-0.2441100 -0.5051436 3.8067696 16711746
-0.2487083 -0.5066275 3.7909987 16711746
-0.1523474 -0.4974378 3.7616472 16711746
-0.2065760 -0.5063139 3.7987611 16711746
-0.0906024 -0.5138702 3.8480988 16711746
0.7294846 -1.1254441 5.0708995 16711746
0.5892181 -0.9903203 4.5775499 16711746
-0.0517286 -0.5505868 4.0905490 16711746
0.6457918 -1.0338552 4.7178078 16711746
-0.0487967 -0.5354973 4.0026627 16711746
-0.2178524 -0.5188376 3.8999262 16711746
-0.3716435 -0.2898651 4.5235286 16711746
-0.1457075 -0.7533919 4.0059681 16711746
0.0943706 -1.1226392 5.1869764 16711746
-3.0074873 -0.7694634 5.4598746 16711746
0.3463892 -1.2309480 5.6330032 16711746
-1.0897614 -1.3440642 6.1033702 16711746
0.1906314 -1.0564600 5.4727101 16711746
-0.2738397 -1.2730978 5.5941715 16711746
-0.0630782 -0.4791721 3.6873550 16711746
-0.2371076 -0.4931531 3.6743779 16711746
0.0085856 -0.4825358 3.6911500 16711746
0.0303505 -0.4969396 3.7796986 16711746
0.0496194 -0.4896001 3.6983099 16711746
0.0466660 -0.5072969 3.8157084 16711746
-0.1369581 -0.4876496 3.7037661 16711746
-0.0804190 -0.4919554 3.7227824 16711746
-0.0743277 -0.4969184 3.7401555 16711746
0.0658287 -0.5260675 3.9228277 16711746
0.0875699 -0.4934623 3.7163434 16711746
-0.1603619 -0.4874520 3.6703682 16711746
-0.1688407 -0.4971000 3.7173872 16711746
0.0800462 -0.4964367 3.7369442 16711746
0.0909597 -0.4984720 3.7587035 16711746
-0.1966733 -0.5043942 3.7477310 16711746
0.0794721 -0.5721025 3.9928484 16711746
-0.3723812 -0.4939955 3.7494805 16711746
0.0553090 -0.4977440 3.7730761 16711746
0.0235340 -0.4997016 3.7695024 16711746
0.0313712 -0.5313953 3.9479041 16711746
-0.0083804 -0.4784987 3.6955650 16711746
-0.1141372 -0.4933209 3.7099812 16711746
-0.0744753 -0.4869511 3.7005894 16711746
-0.0825669 -0.5026156 3.7703509 16711746
-0.2030016 -0.4889595 3.6882465 16711746
-0.1245569 -0.4954605 3.7323132 16711746
-0.1068043 -0.4840167 3.6788599 16711746
-0.1178839 -0.4859807 3.6736720 16711746
-0.2033437 -0.5012626 3.7436993 16711746
-0.0707187 -0.5114353 3.8316605 16711746
-0.0445743 -0.5167496 3.8814173 16711746
0.0364156 -0.5037193 3.7980666 16711746
-0.0455446 -0.4972879 3.7524073 16711746
-0.1927755 -0.4920109 3.7115707 16711746
0.0272719 -0.5122733 3.8762889 16711746
0.0231550 -0.4842410 3.7074754 16711746
0.0109387 -0.5205162 3.9188454 16711746
0.1130560 -0.5001455 3.7469230 16711746
0.1322512 -0.5245486 3.9329326 16711746
-0.0690132 -0.5209683 3.9495614 16711746
-0.1542231 -0.4994896 3.7389884 16711746
0.1436863 -0.5084829 3.8238864 16711746
0.1061337 -0.5430449 3.8173006 16711746
-0.1202623 -0.4907001 3.6880829 16711746
0.0023718 -0.4972173 3.7751930 16711746
-0.1371493 -0.4993601 3.7456427 16711746
-0.1068105 -0.4879962 3.6931465 16711746
-0.0706808 -0.4923465 3.7502563 16711746
0.0270016 -0.5067856 3.7651849 16711746
0.0836213 -0.5447504 3.7892227 16711746
-0.0999361 -0.4860302 3.6935997 16711746
0.0379871 -0.5050101 3.7595696 16711746
-0.0622546 -0.5006300 3.7248712 16711746
0.0870797 -0.4949844 3.7413971 16711746
-0.1758687 -0.4898576 3.6895506 16711746
-0.0851385 -0.4950135 3.7433374 16711746
-0.0739225 -0.4910046 3.7240303 16711746
-0.0132766 -0.5023635 3.7679470 16711746
-0.0447243 -0.4970594 3.7449946 16711746
-0.0716372 -0.4820536 3.7077708 16711746
-0.2187173 -0.4867602 3.6896541 16711746
-0.1698487 -0.4958395 3.7260654 16711746
-0.0971368 -0.4872192 3.6990664 16711746
0.1904276 -0.4751571 3.8340003 16711746
0.0494761 -0.5018491 3.7896099 16711746
-0.0347271 -0.5033392 3.7990181 16711746
-0.0730893 -0.4892763 3.7082765 16711746
-0.1446433 -0.4992588 3.7992432 16711746
-0.1056930 -0.4919652 3.7153406 16711746
0.0921332 -0.4912232 3.7092276 16711746
-0.1121349 -0.4861510 3.6885238 16711746
-0.1146981 -0.5107722 3.8291762 16711746
-0.1836742 -0.4946041 3.7252581 16711746
-0.0838623 -0.4824274 3.6782260 16711746
-0.2279084 -0.5062922 3.7775285 16711746
-0.0761153 -0.4879555 3.6972177 16711746
-0.1368603 -0.4996884 3.7640126 16711746
-0.0716447 -0.5040580 3.7828808 16711746
0.1169212 -0.4964089 3.7475986 16711746
-0.2738853 -0.5283909 3.8123155 16711746
-0.1553547 -0.4927849 3.7204068 16711746
-0.2014842 -0.4905478 3.6730704 16711746
-0.1689064 -0.4996598 3.7396858 16711746
0.0359051 -0.5848327 4.3400593 16711746
-0.2867326 -0.5140334 3.8298593 16711746
0.0207458 -0.5258926 4.0499997 16711746
0.0715371 -0.4988550 3.7868378 16711746
-0.1922389 -0.5040717 3.7554460 16711746
-0.1118078 -0.4857785 3.6896875 16711746
-0.2866402 -0.5245458 3.8387434 16711746
-0.1351883 -0.4965216 3.7263520 16711746
-0.1570352 -0.5147176 3.8457983 16711746
-0.1796812 -0.5065798 3.7731602 16711746
0.3735727 -0.5226339 3.9330866 16711746
-0.1058297 -0.4949281 3.7308836 16711746
0.0020617 -0.4821290 3.7072558 16711746
-0.1387212 -0.4859290 3.6733491 16711746
-0.2041945 -0.5060675 3.7946641 16711746
-0.0619477 -0.4851657 3.6982253 16711746
-0.0819829 -0.5186532 3.9071894 16711746
-0.0969616 -0.5304651 3.9477963 16711746
0.0430287 -0.5380475 3.9667108 16711746
0.0008164 -0.4984519 3.7915814 16711746
-0.1541235 -0.5001628 3.7361031 16711746
-0.1717455 -0.5019137 3.7442031 16711746
-0.1229219 -0.4951603 3.7193265 16711746
-0.1240299 -0.5024888 3.7898402 16711746
-0.1543094 -0.5000038 3.7372825 16711746
-0.2934229 -0.5311037 3.9046862 16711746
0.0194186 -0.5544834 4.2718968 16711746
0.0678805 -0.4842979 3.7161915 16711746
-0.1655094 -0.5022218 3.7531035 16711746
-0.2468367 -0.5070934 3.7840152 16711746
0.0788388 -0.4837129 3.8681202 16711746
-0.1335755 -0.5279801 4.0521593 16711746
-0.1843120 -0.5020005 3.7505336 16711746
-0.1565887 -0.5056493 3.7813237 16711746
-0.3023281 -0.4895539 3.6508102 16711746
-0.1926625 -0.4920754 3.7129087 16711746
-0.1960667 -0.4979956 3.7311788 16711746
-0.1931152 -0.4913254 3.7146204 16711746
-0.2637134 -0.5440223 4.1031642 16711746
0.9440184 -0.6787125 5.1617455 16711746
-0.0680896 -0.5073819 3.8013990 16711746
-0.2517534 -0.5142197 3.8016846 16711746
-0.1651008 -0.5133437 3.8530691 16711746
-0.2224599 -0.5451391 4.0818472 16711746
-0.1915720 -0.5406503 4.0482230 16711746
-0.6659698 -0.6681771 4.6777339 16711746
-0.1506163 -0.5077435 3.8257973 16711746
-0.1457196 -0.5014803 3.7854042 16711746
0.8634116 -1.1445410 5.3211446 16711746
0.0229793 -0.5733824 4.2830653 16711746
-0.0953218 -0.5276938 3.9803278 16711746
0.3167938 -1.0899615 5.3199525 16711746
-0.8579134 -0.8600779 4.8305812 16711746
0.3182434 -1.0875967 5.4075165 16711746
-0.2335092 -0.6551434 3.8032045 16711746
1.0501946 -1.0490727 4.7972336 16711746
-0.0871301 -1.0831441 5.4527564 16711746
-0.1154722 -0.5080561 3.8119817 16711746
-0.0701455 -0.5001427 3.7608879 16711746
0.0552976 -0.5161561 3.8160179 16711746
-0.1719786 -0.5049900 3.7493608 16711746
-0.2226873 -0.4867533 3.6813576 16711746
-0.0569112 -0.4891770 3.7211754 16711746
-0.1363672 -0.4904556 3.6969187 16711746
-0.0908468 -0.5109916 3.8077695 16711746
-0.2615248 -0.5203749 3.8658562 16711746
0.0848822 -0.5080536 3.7951651 16711746
-0.1133640 -0.5029702 3.7687080 16711746
-0.1268780 -0.5013679 3.7702262 16711746
-0.1495372 -0.5019356 3.7456355 16711746
-0.1896584 -0.4873801 3.6905971 16711746
0.0605937 -0.5019327 3.8369114 16711746
-0.0501263 -0.4987409 3.7588961 16711746
-0.2156969 -0.4890167 3.7117493 16711746
-0.1828748 -0.4955505 3.7234664 16711746
0.0393868 -0.5008268 3.7327297 16711746
-0.1159180 -0.5053380 3.7850130 16711746
0.0621549 -0.5141389 3.8283477 16711746
-0.2043697 -0.5047857 3.7729537 16711746
0.0174196 -0.4838043 3.6777735 16711746
-0.1241124 -0.4918415 3.7067921 16711746
-0.0771405 -0.5034617 3.7889161 16711746
-0.1504121 -0.4885501 3.6911123 16711746
-0.0910253 -0.5154728 3.8393700 16711746
-0.0088831 -0.4916972 3.7214530 16711746
-0.2269513 -0.4952967 3.7162404 16711746
-0.0592555 -0.4914800 3.7160299 16711746
0.1558550 -0.5250167 3.9170983 16711746
-0.0866434 -0.4870448 3.6971719 16711746
-0.0116023 -0.4893064 3.7174389 16711746
-0.2304222 -0.5039866 3.7547581 16711746
-0.2094591 -0.4849816 3.6898923 16711746
-0.0971191 -0.5155932 3.8380234 16711746
-0.1322399 -0.5066856 3.8269091 16711746
-0.2224593 -0.5096743 3.7842960 16711746
0.0370866 -0.4877084 3.7151892 16711746
0.0544335 -0.5033776 3.7696061 16711746
-0.1744669 -0.5110681 3.8191035 16711746
0.0436389 -0.5100440 3.8279881 16711746
-0.1252504 -0.4972082 3.7374201 16711746
0.0046996 -0.4845286 3.7036798 16711746
-0.1753311 -0.5097906 3.8270774 16711746
-0.1026290 -0.4969033 3.7454810 16711746
0.0584592 -0.5109259 3.7912121 16711746
-0.0417629 -0.5093270 3.8065944 16711746
-0.1337819 -0.4940186 3.7071128 16711746
-0.1497249 -0.4964015 3.7058723 16711746
-0.0465205 -0.4894406 3.7381968 16711746
-0.2872866 -0.5137359 3.8304131 16711746
-0.1642001 -0.4918697 3.7038834 16711746
0.0468964 -0.4966889 3.7616079 16711746
0.0137732 -0.5463155 3.8642628 16711746
-0.2104517 -0.4895432 3.7108960 16711746
-0.0361546 -0.4894684 3.6914287 16711746
-0.1035351 -0.5006166 3.7660139 16711746
-0.0309221 -0.5168790 3.8447998 16711746
-0.3045537 -0.5160934 3.8086224 16711746
-0.0375282 -0.5069285 3.8600791 16711746
0.0266975 -0.5048018 3.7607210 16711746
-0.0596334 -0.4930852 3.7812049 16711746
0.0009307 -0.4873050 3.6826706 16711746
-0.1926580 -0.5037268 3.7558384 16711746
0.0341943 -0.5171013 3.9103484 16711746
-0.0717290 -0.5049779 3.7812831 16711746
-0.1504657 -0.5007123 3.7488258 16711746
0.0672291 -0.4883851 3.6970844 16711746
0.0446682 -0.5385649 3.9690144 16711746
0.0142601 -0.4782018 3.6995437 16711746
0.0713228 -0.4938919 3.7248952 16711746
-0.2315604 -0.5036361 3.7567365 16711746
0.0299156 -0.4844259 3.6831706 16711746
-0.0834045 -0.5212049 3.8891439 16711746
-0.1111513 -0.4955405 3.9101331 16711746
0.0761103 -0.5438545 4.1081147 16711746
0.0282739 -0.4860874 3.6800864 16711746
-0.2511030 -0.5138172 3.8038919 16711746
-0.1647793 -0.4914215 3.7132108 16711746
-0.1569307 -0.5014898 3.7333722 16711746
-0.0954070 -0.4932166 3.7432442 16711746
0.0075947 -0.5207432 3.9451141 16711746
0.1061212 -0.5120313 3.8740225 16711746
0.0371485 -0.5102729 3.8124177 16711746
-0.2326033 -0.5171961 3.7906947 16711746
-0.1795689 -0.4972079 3.7504945 16711746
0.0198352 -0.5048667 3.7816377 16711746
-0.1819819 -0.4971014 3.7212093 16711746
-0.2712652 -0.5204563 3.7991011 16711746
-0.1319914 -0.5182798 3.9093986 16711746
0.1290215 -0.4949298 3.7305198 16711746
0.0654651 -0.5537493 3.9726357 16711746
-0.0168724 -0.4856896 3.7072179 16711746
-0.0101600 -0.5399480 4.1117172 16711746
0.0604826 -0.5127786 3.7997730 16711746
0.0695643 -0.4974790 3.7716763 16711746
0.1052759 -0.5666234 4.1834507 16711746
0.0529142 -0.5360399 3.9893570 16711746
-0.0568027 -0.5150331 3.8512785 16711746
-0.2295990 -0.5183768 3.8642004 16711746
-0.0601455 -0.4857503 3.6965396 16711746
0.0034818 -0.5040646 3.8146231 16711746
-0.1587978 -0.4897578 3.6941392 16711746
-0.3966273 -0.5660250 4.0464644 16711746
-0.1541133 -0.5063044 3.7798541 16711746
-0.0743458 -0.4948866 3.7335067 16711746
0.0074586 -0.5178731 3.9532890 16711746
-0.1564766 -0.4969139 3.7240951 16711746
0.0166450 -0.4881048 3.7254674 16711746
-0.1506678 -0.5180922 3.8754420 16711746
-0.1115313 -0.5289121 4.0001159 16711746
0.0343273 -0.5077624 3.8197489 16711746
-0.1251269 -0.5049707 3.7947237 16711746
-0.2013474 -0.5097769 3.8298004 16711746
-0.0522871 -0.4997209 3.7562416 16711746
-0.0729198 -0.4894693 3.7085772 16711746
-0.1591035 -0.5043612 3.7541087 16711746
-0.1613600 -0.5074967 3.8020921 16711746
0.5688659 -0.9856110 4.4311848 16711746
-0.1639104 -0.5034853 3.7486041 16711746
-0.0818546 -0.5019265 3.7740595 16711746
-0.0273647 -0.5005666 3.7586439 16711746
-0.1946879 -0.4985822 3.7452319 16711746
-0.2046803 -0.4876702 3.6931314 16711746
-0.2020981 -0.5012373 3.7418332 16711746
0.0866586 -0.5187297 3.8471670 16711746
-0.1220727 -0.5357943 4.1126008 16711746
-0.2007145 -0.5273377 4.1092162 16711746
-0.1825925 -0.5078748 3.7879939 16711746
-0.2135292 -0.5367498 3.9922595 16711746
-0.1476136 -0.4951650 3.7108548 16711746
-0.5190683 -0.5817729 4.4869976 16711746
-0.5842154 -0.6435128 4.4174380 16711746
0.0304418 -0.6035814 4.4218473 16711746
-0.0379505 -0.7307125 4.3780565 16711746
0.0107022 -0.7416857 4.4058132 16711746
0.6031316 -1.0335115 4.7357159 16711746
-0.4744076 -0.5337498 4.0039210 16711746
-0.1210956 -0.5493253 4.2242880 16711746
0.0005138 -0.5308752 3.9959269 16711746
0.0020645 -0.7277908 4.4116507 16711746
-0.1129555 -0.5990424 4.4701910 16711746
0.7726777 -0.9566033 6.3835893 16711746
-0.1765234 -0.8281249 4.4783864 16711746
0.8972819 -1.0588409 4.6972485 16711746
0.6097949 -1.0993270 4.9696312 16711746
0.4416565 -1.1390635 4.8109155 16711746
-0.2045871 -0.5002974 3.7463982 16711746
-0.1218436 -0.4975089 3.7506871 16711746
-0.1719140 -0.4978786 3.7308609 16711746
-0.1493191 -0.5039644 3.7559021 16711746
-0.1859083 -0.4981546 3.7346623 16711746
-0.1809757 -0.5008845 3.7502439 16711746
-0.2124009 -0.4884801 3.7092307 16711746
0.0131600 -0.5259553 3.9453814 16711746
0.0217287 -0.5110260 3.8235955 16711746
-0.1149924 -0.5041227 3.7892623 16711746
-0.0366162 -0.5046062 3.7922122 16711746
-0.2049445 -0.5077038 3.7917590 16711746
-0.1789546 -0.5061337 3.7728434 16711746
-0.4748072 -0.5311479 3.9882402 16711746
-0.3096158 -0.5171397 3.8769364 16711746
0.0413582 -0.4852360 3.6924834 16711746
-0.2549559 -0.5132989 3.8054235 16711746
0.0574331 -0.4945017 3.7510254 16711746
-0.0814491 -0.5014436 3.7730021 16711746
-0.1285917 -0.5058370 3.8100069 16711746
0.0240483 -0.5091664 3.8400121 16711746
-0.0497635 -0.5094548 3.8797932 16711746
-0.0744956 -0.4931586 3.7210035 16711746
0.0115506 -0.5128344 3.8626330 16711746
0.0066768 -0.4984843 3.7469151 16711746
-0.0341866 -0.5027325 3.7993534 16711746
-0.3074755 -0.5173939 3.8742523 16711746
-0.0927409 -0.4929549 3.7194877 16711746
0.1056181 -0.5059045 3.7818711 16711746
0.3092295 -0.5108556 3.8835299 16711746
-0.0112977 -0.4852555 3.7096972 16711746
-0.3174495 -0.5078380 3.7914505 16711746
-0.2606988 -0.4977445 3.7388473 16711746
0.0567627 -0.4945629 3.7500973 16711746
-0.2820962 -0.5335131 3.8652427 16711746
0.0118553 -0.5142264 3.8178849 16711746
-0.1570345 -0.5149285 3.8470552 16711746
-0.2200260 -0.4865649 3.7047808 16711746
-0.1094693 -0.5107450 3.8213425 16711746
-0.1846566 -0.4889165 3.7099769 16711746
-0.1705452 -0.5004880 3.7372506 16711746
-0.2267127 -0.4955024 3.7158947 16711746
-0.2419145 -0.4972813 3.7282448 16711746
-0.2679453 -0.4992973 3.7475886 16711746
-0.0527647 -0.5130722 3.8268371 16711746
-0.2055186 -0.4982063 3.7330787 16711746
0.0059493 -0.4894741 3.7297688 16711746
-0.1375844 -0.4993629 3.7458179 16711746
-0.1375099 -0.5003660 3.7617319 16711746
-0.1502256 -0.5052139 3.7527032 16711746
-0.0119129 -0.5192399 3.8698087 16711746
0.1294885 -0.4980256 3.7587831 16711746
-0.0697213 -0.4997051 3.7619979 16711746
-0.0409307 -0.5291448 3.8979082 16711746
-0.2133892 -0.4854492 3.7158871 16711746
-0.0407549 -0.5035807 3.7605712 16711746
-0.1439720 -0.4927268 3.7117691 16711746
-0.1009277 -0.4974855 3.7638533 16711746
-0.2106205 -0.5113153 3.8194470 16711746
-0.1612576 -0.4895088 3.7351470 16711746
-0.1710277 -0.4945123 3.7270179 16711746
-0.0217916 -0.4960705 3.7691112 16711746
-0.1737017 -0.4980809 3.7514298 16711746
-0.2508634 -0.5086629 3.7229559 16711746
0.0588877 -0.4898262 3.7258360 16711746
-0.0086519 -0.5286999 3.8742511 16711746
-0.2401683 -0.5096260 3.8085542 16711746
0.0187623 -0.4828337 3.6790700 16711746
-0.1708066 -0.4939663 3.7301421 16711746
-0.1583853 -0.5043714 3.7521610 16711746
-0.1961953 -0.4964688 3.7516274 16711746
-0.2283183 -0.4942147 3.7168679 16711746
0.1007272 -0.5477485 3.8280888 16711746
-0.4634339 -0.5631146 3.9905546 16711746
0.0566815 -0.5511712 3.7840574 16711746
-0.0834746 -0.5044042 3.7671900 16711746
0.0054490 -0.5243779 3.9060953 16711746
-0.1472030 -0.5048221 3.7767684 16711746
-0.1967881 -0.5008750 3.7479124 16711746
0.0338381 -0.5126030 3.7964134 16711746
0.0650383 -0.5126585 3.8144691 16711746
0.0523721 -0.5008508 3.7952359 16711746
-0.1375546 -0.5593956 3.7502160 16711746
0.0354233 -0.4998985 3.7889795 16711746
-0.0494559 -0.4934237 3.7354453 16711746
0.0414001 -0.5074705 3.9087703 16711746
-0.1763099 -0.4933668 3.7457745 16711746
-0.1878506 -0.5220045 3.8963661 16711746
0.1142862 -0.5405989 3.8193233 16711746
0.0466958 -0.5670108 4.1023498 16711746
-0.0192327 -0.5313879 4.0192595 16711746
-0.0957220 -0.5069857 3.7964604 16711746
0.1127833 -0.5386707 4.0334082 16711746
0.0818918 -0.5407516 4.0176787 16711746
-0.1778864 -0.5301729 3.9294875 16711746
-0.0559845 -0.4970891 3.7246480 16711746
-0.2099568 -0.5394466 3.9724467 16711746
-0.1956830 -0.5503778 4.0459652 16711746
0.1357968 -0.5143281 3.8230312 16711746
-0.2191973 -0.4964159 3.7480283 16711746
0.0569093 -0.5443636 4.0321183 16711746
0.0001571 -0.4945350 3.7336771 16711746
-0.1129764 -0.4979917 3.7507474 16711746
-0.1438714 -0.5331410 3.9803481 16711746
-0.2497714 -0.5677618 4.0035610 16711746
-0.2452163 -0.5089511 3.7914274 16711746
-0.0514896 -0.4930294 3.7341881 16711746
-0.0249065 -0.4937975 3.7470894 16711746
-0.2006823 -0.4939292 3.7199516 16711746
-0.0725880 -0.4887891 3.7092938 16711746
0.0471032 -0.5699672 4.1101918 16711746
-0.2125863 -0.5386246 3.9855797 16711746
-0.0498407 -0.4922458 3.7325313 16711746
-0.0354118 -0.4957498 3.7350636 16711746
-0.2107568 -0.4890397 3.7112603 16711746
-0.0318165 -0.4936663 3.7273982 16711746
-0.2133091 -0.5374219 3.9938939 16711746
-0.1795741 -0.4906206 3.7267399 16711746
-0.1558322 -0.5436772 3.9930184 16711746
0.3244525 -0.5739458 4.3042884 16711746
-0.4681216 -0.5406232 4.0338030 16711746
0.1102430 -0.5275925 3.9214122 16711746
0.1151578 -0.5330437 3.9474936 16711746
-0.0596135 -0.5100043 3.7816749 16711746
-0.2394734 -0.5372662 3.9896894 16711746
-0.2320854 -0.5404670 3.9586301 16711746
0.0820282 -0.5557546 3.8028264 16711746
0.0085894 -0.5156393 3.8959730 16711746
-0.1113337 -0.5317612 3.9745383 16711746
0.0577190 -0.5304102 3.9442146 16711746
-0.0820165 -0.5194492 3.9025402 16711746
-0.4024585 -0.5620708 4.1257954 16711746
-0.0308207 -0.4968595 3.7837379 16711746
-0.2970771 -0.5213305 3.8530598 16711746
0.0029293 -0.5753511 4.2554369 16711746
-0.1865836 -0.5152407 3.8684411 16711746
-0.1694670 -0.5055027 3.7761714 16711746
-0.1185774 -0.5060284 3.7863159 16711746
0.0448522 -0.5544823 4.0689631 16711746
-0.0340593 -0.5025355 3.8015232 16711746
-0.1976535 -0.5213745 3.8900592 16711746
-0.1786117 -0.5309760 3.9264150 16711746
0.1322586 -0.4976169 3.7617917 16711746
0.0688085 -0.5454069 4.0930634 16711746
-0.2158278 -0.5174654 3.7611983 16711746
-0.2156890 -0.7307535 4.0454168 16711746
1.0015345 -1.0479984 4.5515552 16711746
-0.2116213 -0.5182586 3.8721309 16711746
0.0904618 -0.5861508 4.3965883 16711746
-0.5386110 -0.5636839 4.0547309 16711746
-0.0255637 -0.5324194 4.0338373 16711746
1.5415589 -0.5986180 4.8285007 16711746
0.9476337 -1.0134209 4.9121633 16711746
-1.4716312 -1.0215416 5.0582695 16711746
-1.4292378 -1.2091984 5.2906561 16711746
-0.0954392 -0.5304405 3.9634335 16711746
-1.7315859 -1.1765449 5.4257255 16711746
0.5658414 -1.1034555 4.8332314 16711746
0.0606153 -0.5984966 3.9963193 16711746
0.5877405 -1.0701050 4.9102998 16711746
-0.1532118 -0.6694497 3.9074450 16711746
-0.1306903 -0.4972545 3.7544224 16711746
-1.8331692 -1.2255433 5.5295162 16711746
-0.9731137 -0.9878998 5.4191785 16711746
0.1893630 -0.9980748 5.1222019 16711746
0.6051908 -1.1649084 5.0660386 16711746
-0.1057213 -0.5104681 3.8054755 16711746
-0.1547485 -0.5054070 3.7830124 16711746
-0.0830199 -0.5003594 3.7644210 16711746
-0.1125959 -0.5010642 3.7728198 16711746
-0.0097822 -0.5000607 3.7763593 16711746
-0.1798113 -0.5088979 3.7797272 16711746
-0.1243998 -0.4988070 3.7577868 16711746
-0.0594436 -0.5063276 3.7956722 16711746
-0.0736698 -0.5154669 3.7863798 16711746
0.0172697 -0.4873244 3.7263465 16711746
0.0104648 -0.5004181 3.8093443 16711746
-0.3654244 -0.5133665 3.8714597 16711746
-0.0480243 -0.4996158 3.7470250 16711746
0.0787217 -0.5218239 3.8854599 16711746
-0.0992770 -0.4982272 3.7514462 16711746
-0.1134358 -0.4982744 3.7499230 16711746
-0.0871563 -0.4939674 3.7365978 16711746
0.0942579 -0.5160588 3.8363447 16711746
-0.1601120 -0.5077817 3.8013959 16711746
-0.1720255 -0.5021285 3.7442768 16711746
-0.1976146 -0.5040994 3.7882524 16711746
-0.2200813 -0.5090999 3.7947206 16711746
-0.1244902 -0.4961795 3.7391202 16711746
-0.2171437 -0.4869940 3.7146244 16711746
0.0867465 -0.5492302 3.8096488 16711746
0.0583772 -0.5739151 3.9476116 16711746
-0.1291831 -0.4993250 3.7514255 16711746
-0.1133616 -0.4963649 3.7314415 16711746
-0.2382204 -0.5104332 3.8135574 16711746
0.0080230 -0.5133524 3.8619344 16711746
-0.2754647 -0.5148557 3.8360491 16711746
-0.0717391 -0.5124742 3.8261771 16711746
-0.0698203 -0.4990831 3.7621770 16711746
0.0787737 -0.5216258 3.8846693 16711746
-0.2289029 -0.5163100 3.8973835 16711746
-0.0902269 -0.5104120 3.8096073 16711746
-0.2071855 -0.5020499 3.7417719 16711746
-0.1993782 -0.5087200 3.8231149 16711746
-0.1248781 -0.5000379 3.7565238 16711746
-0.1430647 -0.4974400 3.7397950 16711746
-0.1043343 -0.5085063 3.8132977 16711746
0.1037147 -0.5334547 3.9381669 16711746
-0.1016106 -0.5017423 3.7946699 16711746
-0.1274832 -0.5103602 3.8449786 16711746
-0.1607044 -0.5064141 3.8057156 16711746
-0.1975257 -0.5027542 3.7486856 16711746
-0.1392085 -0.5015365 3.7675679 16711746
-0.1880558 -0.4989504 3.7287917 16711746
-0.1975587 -0.5102689 3.8179598 16711746
-0.2385451 -0.4875057 3.7160847 16711746
-0.0236583 -0.5139716 3.8625960 16711746
-0.1245296 -0.4984522 3.7607152 16711746
-0.1194806 -0.5193773 3.8485630 16711746
0.0067891 -0.5166327 3.8919091 16711746
-0.1771808 -0.5030620 3.7679155 16711746
-0.2278237 -0.4990152 3.7584805 16711746
-0.2146419 -0.5001811 3.7650194 16711746
-0.2378060 -0.4920793 3.6966248 16711746
0.0758447 -0.5400566 3.8950415 16711746
-0.2811702 -0.4933547 3.7623808 16711746
-0.1291072 -0.4990108 3.8351147 16711746
-0.1941952 -0.5021133 3.7606411 16711746
-0.1884872 -0.5011451 3.7776041 16711746
-0.2700369 -0.4994331 3.7472601 16711746
-0.0481767 -0.5173244 3.8828642 16711746
-0.2587234 -0.5235969 3.8619218 16711746
0.0725438 -0.4983167 3.7630417 16711746
0.0442789 -0.4940954 3.7420647 16711746
-0.1483115 -0.5008718 3.7611029 16711746
-0.0010572 -0.5001762 3.8105102 16711746
-0.1469843 -0.5057552 3.7744360 16711746
-0.2044448 -0.4973452 3.7294235 16711746
-0.1684695 -0.5059718 3.7546325 16711746
-0.1982963 -0.5037607 3.7490575 16711746
-0.1911436 -0.4982900 3.8157861 16711746
-0.1583876 -0.5034096 3.7538047 16711746
-0.0313046 -0.5250565 3.9322674 16711746
-0.0032352 -0.5072325 3.8018482 16711746
-0.0482142 -0.5284158 3.9165640 16711746
-0.1630262 -0.5157088 3.8473399 16711746
-0.1186881 -0.5047786 3.7903531 16711746
0.1361846 -0.5402923 3.9731059 16711746
-0.3225411 -0.4992423 3.8035502 16711746
-0.1756141 -0.5220740 3.9038064 16711746
-0.1853797 -0.4966732 3.7347703 16711746
-0.3463819 -0.5228667 3.8563790 16711746
-0.0904180 -0.5099716 3.8107374 16711746
-0.0958117 -0.5235348 3.8928206 16711746
-0.2356630 -0.5126963 3.7990150 16711746
-0.2382699 -0.5145841 3.8037565 16711746
-0.1924613 -0.5599557 3.9766755 16711746
-0.1185650 -0.5047728 3.7906797 16711746
-0.1697576 -0.5069206 3.7730954 16711746
-0.0260572 -0.5476859 4.0790310 16711746
-0.1423201 -0.5102450 3.8200853 16711746
-0.1435817 -0.4996659 3.7866993 16711746
-0.1993700 -0.5123746 3.8204858 16711746
-0.2393812 -0.5136391 3.8070836 16711746
-0.1656316 -0.5081431 3.7917068 16711746
-0.2020747 -0.5232588 3.9596629 16711746
0.0064793 -0.5359523 4.0323572 16711746
-0.2596792 -0.5225393 3.8631194 16711746
-0.1511777 -0.5021025 3.7470255 16711746
0.0349974 -0.5054469 3.8241096 16711746
-0.2128003 -0.5335480 3.9454079 16711746
-0.1171409 -0.5563520 4.1351390 16711746
0.0153160 -0.5448874 4.0281339 16711746
-0.0748496 -0.4956267 3.7310288 16711746
-0.5197077 -0.5221446 3.9029315 16711746
-0.0298199 -0.5239545 3.9428678 16711746
-0.1688977 -0.5162893 3.8577163 16711746
-0.2341388 -0.6067785 3.9991260 16711746
-0.1224696 -0.4985236 3.7483387 16711746
-0.0995619 -0.4988173 3.7503123 16711746
-0.2176631 -0.6081754 3.9718666 16711746
-0.1838584 -0.5175948 3.8510711 16711746
-0.2111690 -0.5032467 3.7611463 16711746
-0.1847616 -0.5021790 3.7423542 16711746
-0.1828940 -0.5024707 3.7484579 16711746
-0.1259444 -0.5123070 3.8442962 16711746
0.0905033 -0.5141611 3.8563015 16711746
-0.1300655 -0.5184387 3.8939924 16711746
0.0399052 -0.5152698 3.8576696 16711746
-0.3269651 -0.5028389 3.7680502 16711746
-0.1525409 -0.5424988 4.0371084 16711746
0.6159911 -1.1774873 5.0950103 16711746
0.2873622 -0.5136687 3.8583617 16711746
-0.0209354 -1.0591974 4.8462586 16711746
-0.3270453 -0.9370211 4.4816937 16711746
-0.2632382 -0.7836252 4.3656249 16711746
0.0968381 -0.5436537 3.8051176 16711746
0.7174360 -0.8868705 6.5600147 16711746
0.7060378 -0.9270635 6.2046833 16711746
0.7819409 -1.6492552 6.5459518 16711746
-0.8287138 -1.1347132 5.3954391 16711746
-0.4986993 -1.2483668 5.7720437 16711746
-0.1424223 -0.5032115 3.7751768 16711746
-0.1698842 -0.5018764 3.7347193 16711746
-0.1809845 -0.4994464 3.7280514 16711746
-0.1594948 -0.5065057 3.8043380 16711746
-0.2168604 -0.5188583 3.8964355 16711746
-0.2146456 -0.5208068 3.9446790 16711746
-0.4002022 -0.5159894 3.8708405 16711746
-0.0499268 -0.5120522 3.8319836 16711746
-0.5314687 -0.5320334 3.9449041 16711746
-0.5804970 -0.5404815 4.0192165 16711746
-0.1320296 -0.5031500 3.7832839 16711746
-0.2310079 -0.5176159 3.8665290 16711746
-0.2250141 -0.4948280 3.7027781 16711746
-0.1651125 -0.5072091 3.7717633 16711746
-0.1745333 -0.5243120 3.8896539 16711746
-0.1895109 -0.5182220 3.9043789 16711746
-0.1849451 -0.5073557 3.7655623 16711746
-0.0339364 -0.5102203 3.8594298 16711746
-0.3040461 -0.5195186 3.7982833 16711746
-0.1173822 -0.5044134 3.7704177 16711746
0.0593245 -0.5052557 3.8183362 16711746
-0.2212483 -0.5085968 3.7970827 16711746
-0.1712489 -0.5073960 3.7453325 16711746
-0.1804270 -0.5081379 3.7823427 16711746
-0.2850246 -0.5033126 3.7757137 16711746
0.1241101 -0.5423694 3.9547348 16711746
-0.4565720 -0.5174945 3.9011209 16711746
-0.5389023 -0.5383677 4.0455203 16711746
0.1221233 -0.5078266 3.8662376 16711746
-0.4929514 -0.5353788 3.9247918 16711746
-0.2041064 -0.4985120 3.7314293 16711746
-0.1289057 -0.5182220 3.8894680 16711746
-0.2063154 -0.5029073 3.7397444 16711746
-0.1222968 -0.5222511 3.8888686 16711746
-0.0799321 -0.5341309 3.9865224 16711746
-0.3329109 -0.5423566 4.0068164 16711746
-0.4947540 -0.5262643 3.8830142 16711746
-0.2304565 -0.5108836 3.8207114 16711746
-0.1998306 -0.5056681 3.7702141 16711746
-0.1036877 -0.5090018 3.8128855 16711746
-0.1331220 -0.5090595 3.7730293 16711746
-0.2711521 -0.5144545 3.7869823 16711746
-0.0432631 -0.5297991 3.8858492 16711746
-0.1053761 -0.5142798 3.8396394 16711746
-0.0123226 -0.5071679 3.8199980 16711746
-0.2419142 -0.5197507 3.7873309 16711746
-0.1829005 -0.5026516 3.7839718 16711746
-0.0488605 -0.5184175 3.8777180 16711746
-0.1935657 -0.5076684 3.7728052 16711746
-0.1160225 -0.5091124 3.8377004 16711746
0.0368787 -0.5016555 3.8043058 16711746
-0.0311786 -0.5228803 3.9260523 16711746
-0.2743458 -0.5146549 3.7876179 16711746
-0.3090057 -0.5058669 3.8490477 16711746
-0.3170893 -0.5117591 3.8256648 16711746
-0.1696017 -0.5025857 3.8096263 16711746
-0.0529417 -0.5113053 3.8318245 16711746
-0.2219336 -0.5137121 3.9088292 16711746
-0.1781846 -0.5224671 3.8906596 16711746
-0.4736483 -0.5399499 3.8882585 16711746
-0.2860543 -0.5174018 3.7768505 16711746
-0.4026843 -0.5151367 3.8641765 16711746
-0.2543799 -0.4968228 3.9089854 16711746
-0.2529484 -0.5051776 3.7016461 16711746
-0.2027149 -0.5084546 3.8346190 16711746
-0.2770194 -0.5140768 3.7869017 16711746
-0.0090231 -0.4986131 3.7771497 16711746
-0.2645148 -0.4965829 3.9298029 16711746
-0.2356999 -0.5115033 3.8026412 16711746
-0.2346217 -0.5025104 3.7597892 16711746
-0.1503351 -0.5045713 3.7553489 16711746
0.0945661 -0.5168277 3.8374264 16711746
-0.1569273 -0.5104300 3.8683302 16711746
0.0370676 -0.5958860 4.0725102 16711746
-0.0882137 -0.5291305 3.8614728 16711746
-0.2505690 -0.5144188 3.7911105 16711746
-0.1717329 -0.5296649 3.9300053 16711746
-0.6932538 -0.5560959 4.2753229 16711746
-0.1775699 -0.5053704 3.7650144 16711746
-0.2214584 -0.5020197 3.7633491 16711746
-0.3277844 -0.5274429 3.8823028 16711746
0.1205411 -0.5925968 4.2283506 16711746
0.0461178 -0.5884326 4.2220798 16711746
-0.1501599 -0.5407808 4.0622087 16711746
-0.1754364 -0.5266172 3.9511247 16711746
-0.5548900 -0.6149836 4.4909239 16711746
-0.2048950 -0.5835865 4.2735200 16711746
-0.0819253 -0.5363827 3.9736702 16711746
-0.1322948 -0.5494189 4.0542865 16711746
0.0044016 -0.5167998 3.8888309 16711746
-0.2444965 -0.5644377 4.0681138 16711746
-0.1690883 -0.5352340 3.9894903 16711746
-0.2225861 -0.5454040 4.0388784 16711746
-0.4789026 -0.5227525 4.0288219 16711746
-0.2472324 -0.5153614 3.8994520 16711746
-0.1016339 -0.5028659 3.7900281 16711746
-0.0812641 -0.5348812 3.9804919 16711746
-0.1463659 -0.5054207 3.7978427 16711746
-0.1256889 -0.5124457 3.8433707 16711746
-0.1994474 -0.5207474 3.8951144 16711746
-0.0718420 -0.5051756 3.7821712 16711746
-0.2142127 -0.5002576 3.7645152 16711746
-0.2200304 -0.5063723 3.8100276 16711746
-0.3098112 -0.5265883 3.9382184 16711746
-0.1517034 -0.5036934 3.7620816 16711746
-0.1561781 -0.5141403 3.8260999 16711746
-0.1776634 -0.5188464 3.8671427 16711746
-0.1601629 -0.5057546 3.7488074 16711746
-0.3686306 -0.5231615 3.8317966 16711746
0.1002695 -0.5081615 3.8257129 16711746
0.0999369 -0.5140949 3.8447962 16711746
-0.0220871 -0.5437512 4.0651350 16711746
-0.2341257 -0.5089813 3.8301914 16711746
-0.0569455 -0.5194400 3.8995326 16711746
-0.1378000 -0.5364165 4.0093060 16711746
-0.2305342 -0.5041904 3.7550662 16711746
-0.3280421 -0.5443195 3.9925857 16711746
-2.6292040 -0.7053971 5.2491498 16711746
-0.1986642 -0.5028812 3.7512627 16711746
-0.5275968 -0.7440139 4.3202395 16711746
-0.2069398 -0.6754602 4.0305367 16711746
1.4171110 -1.0282180 5.0257621 16711746
-0.2019216 -0.6547096 4.0002160 16711746
-0.1887826 -0.6423803 3.9366734 16711746
0.0249524 -0.5998102 4.4430947 16711746
-0.0972450 -0.5675437 4.3073955 16711746
-0.2099031 -0.5526830 4.0864372 16711746
1.1247181 -1.2606372 4.8496733 16711746
-0.2601184 -0.8130342 4.3181887 16711746
0.7130554 -1.2930033 5.5634804 16711746
-0.1461084 -0.6652831 3.8841510 16711746
1.0455183 -1.5111860 7.0929251 16711746
0.9744649 -1.4902775 6.7392297 16711746
0.7445346 -1.0769027 5.1115184 16711746
0.5476812 -1.1537877 5.0978351 16711746
0.8124043 -1.1434362 4.7683535 16711746
-0.1870822 -0.7155825 4.2228351 16711746
-0.3236648 -0.5094569 3.7681570 16711746
-0.3098855 -0.5084057 3.7503183 16711746
-0.0621891 -0.5055329 3.7964048 16711746
-0.2125907 -0.5211415 3.8917723 16711746
-0.2260170 -0.5128701 3.8152425 16711746
-0.1912136 -0.5054091 3.7528327 16711746
-0.2215007 -0.5157923 3.8433323 16711746
-0.1916127 -0.5089806 3.7744436 16711746
-0.2619759 -0.5246735 3.8649600 16711746
-0.0458799 -0.5052910 3.8148036 16711746
-0.2355486 -0.5145016 3.8212793 16711746
-0.2225620 -0.5174708 3.8362317 16711746
0.0011894 -0.5072258 3.8463593 16711746
-0.1565699 -0.5141904 3.8480468 16711746
0.1032576 -0.5231771 3.9122198 16711746
-0.1166424 -0.5187902 3.8613255 16711746
-0.1448045 -0.5069180 3.8125749 16711746
-0.2922558 -0.5032154 3.7607615 16711746
-0.3105379 -0.5082644 3.7504573 16711746
-0.1503415 -0.5190790 3.8697793 16711746
-0.0741973 -0.5012519 3.7811780 16711746
-0.0513883 -0.4977463 3.7744234 16711746
0.0598773 -0.5098779 3.7974706 16711746
-0.1738261 -0.5114294 3.8170688 16711746
-0.2951140 -0.5317218 3.9085147 16711746
-0.3004492 -0.5227709 3.8203924 16711746
-0.2973876 -0.5312887 3.9115109 16711746
-0.3581010 -0.5132695 3.7988732 16711746
0.0854982 -0.5288053 3.9189734 16711746
-0.2383877 -0.5128186 3.8274562 16711746
-0.0476067 -0.5068079 3.8103478 16711746
-0.2101732 -0.5034556 3.7389493 16711746
0.2845847 -0.5417713 4.1112728 16711746
-0.2571915 -0.5051194 3.7350574 16711746
-0.4802068 -0.5407783 4.0768929 16711746
-0.1630566 -0.5137819 3.8158092 16711746
-0.1428871 -0.5041177 3.7732089 16711746
-0.2074444 -0.5255814 3.8719168 16711746
-0.0217061 -0.4913836 3.7873554 16711746
-0.1968723 -0.5168639 3.8541996 16711746
-0.1931237 -0.5292639 3.9183083 16711746
-0.1975242 -0.5122060 3.7828705 16711746
-0.2423012 -0.5065268 3.7546904 16711746
-0.2236951 -0.5166627 3.8382082 16711746
-0.3620413 -0.5269046 3.8661616 16711746
-0.3023905 -0.5341943 3.8498752 16711746
-0.1566212 -0.5097374 3.8060589 16711746
-0.2234456 -0.5170644 3.8364363 16711746
-0.1491508 -0.5068642 3.7884784 16711746
-0.2157843 -0.5057650 3.7557940 16711746
-0.1814600 -0.5062544 3.8026812 16711746
-0.2088860 -0.5125365 3.8027630 16711746
-0.2353408 -0.5138276 3.7955053 16711746
-0.2159575 -0.5080930 3.8171613 16711746
-0.0582773 -0.4996728 3.7831481 16711746
-0.1815798 -0.5161535 3.8390460 16711746
0.0719692 -0.5171956 3.7980297 16711746
-0.2035424 -0.5003352 3.7467706 16711746
0.1236171 -0.4709722 3.8717871 16711746
-0.0368077 -0.5016441 3.7914481 16711746
-0.1494269 -0.5101983 3.8196707 16711746
-0.0504614 -0.5115148 3.8332722 16711746
0.0218479 -0.5144457 3.8713558 16711746
-0.0176746 -0.4910317 3.8030305 16711746
-0.1803178 -0.5062547 3.7740912 16711746
0.0511468 -0.4926070 3.7929571 16711746
-0.1295698 -0.5054004 3.8119063 16711746
-0.2212256 -0.5191452 3.8134573 16711746
0.0323659 -0.5153742 3.8324900 16711746
0.0123496 -0.5617551 3.8799152 16711746
-0.2401741 -0.5072422 3.8680565 16711746
0.0898137 -0.5013710 3.8652291 16711746
-0.3306023 -0.5371953 3.9482083 16711746
-0.0580484 -0.5066254 3.7849917 16711746
-0.3106972 -0.5055435 3.7544556 16711746
-0.1393930 -0.5268714 3.9169328 16711746
0.0045852 -0.5158113 3.8940272 16711746
0.0093023 -0.5205395 3.9158435 16711746
-0.3486701 -0.5222424 3.8589625 16711746
-0.0982711 -0.5123408 3.8254359 16711746
-0.1564610 -0.5121071 3.8329306 16711746
-0.2698623 -0.5640574 4.0341277 16711746
-0.1741970 -0.5111762 3.8179998 16711746
-0.0272273 -0.5229555 3.9465621 16711746
-0.2091762 -0.5050099 3.7711616 16711746
-0.1708201 -0.5272660 3.9487269 16711746
-0.5968497 -0.5540672 4.1241198 16711746
-0.1646728 -0.5105513 3.8250363 16711746
-0.1825330 -0.5077301 3.7867830 16711746
-0.2899845 -0.5330926 3.8998342 16711746
-0.1816309 -0.5286413 3.9298389 16711746
-0.0333617 -0.5406113 4.0456524 16711746
-0.1750971 -0.5062730 3.7606692 16711746
-0.1136963 -0.5351426 3.9456382 16711746
-0.1819768 -0.5153645 3.8415327 16711746
-0.7494561 -0.5907464 4.4912295 16711746
-0.3257111 -0.5162770 3.8591237 16711746
-0.3593282 -0.5476906 4.1574268 16711746
-0.1642780 -0.5414378 4.0598435 16711746
-0.2635571 -0.5108140 3.7812357 16711746
-0.1211236 -0.5383909 4.0556798 16711746
0.0251335 -0.4993834 3.7404478 16711746
-0.1644095 -0.5451922 4.1144900 16711746
-0.1357726 -0.5061253 3.7889609 16711746
0.0205795 -0.5353112 3.9233880 16711746
-0.1146609 -0.5034624 3.7901630 16711746
-0.0527772 -0.5032938 3.7944949 16711746
-0.2385831 -0.5391480 3.9837499 16711746
-0.1205831 -0.5209194 3.8867667 16711746
0.0666489 -0.5261765 3.9231355 16711746
-0.1309173 -0.5455585 4.1036282 16711746
-0.2535216 -0.5059847 3.7784882 16711746
-0.2320833 -0.5563866 4.2280955 16711746
-0.1395054 -0.5179345 3.8712487 16711746
-0.1847463 -0.5282623 3.9351323 16711746
-0.1671377 -0.5365745 3.9825199 16711746
-0.1640241 -0.5478723 4.0810175 16711746
0.0770778 -0.5224054 3.8838525 16711746
0.0256160 -0.4942197 3.7893538 16711746
-0.1997698 -0.5237489 3.9457707 16711746
-0.2272896 -0.5137051 3.8128757 16711746
-0.1341997 -0.5482072 4.0773859 16711746
-0.2981074 -0.5122695 3.7899265 16711746
0.0548791 -0.5896153 4.2671628 16711746
-0.3475330 -0.5573227 4.1235080 16711746
-0.1330609 -0.5813482 4.2360759 16711746
-0.0889270 -0.5655723 4.1464634 16711746
0.6569887 -0.5982233 4.5143857 16711746
-0.1773300 -0.5788612 4.3104596 16711746
-0.1789569 -0.5393817 4.0139346 16711746
0.0634406 -0.5194977 3.8620501 16711746
-0.0968370 -0.5465160 4.0364809 16711746
-0.2511242 -0.7965193 4.2613559 16711746
0.0041059 -0.5452905 4.0604930 16711746
-1.7303114 -1.1060604 5.3767986 16711746
-0.2303537 -0.6866848 4.1822433 16711746
-2.5369971 -0.7128548 5.1781645 16711746
-2.3330977 -0.6911767 5.0448551 16711746
-0.9234208 -0.9807093 4.6220837 16711746
-0.2366635 -0.6740627 4.0688133 16711746
-0.6169092 -0.7634562 4.3808126 16711746
-0.0026340 -0.5710131 4.2244430 16711746
-0.0137598 -0.7177520 4.2034693 16711746
1.0198050 -1.1161721 4.8173213 16711746
0.8894904 -1.2113209 5.1815877 16711746
0.8345826 -1.1342356 5.2884526 16711746
0.8038473 -1.1140749 5.2256169 16711746
0.6683822 -1.0958654 5.8068161 16711746
0.8767529 -1.2426521 6.4516115 16711746
