# .PCD v.7 - Point Cloud Data file format
VERSION .7
FIELDS x y z rgb
SIZE 4 4 4 4
TYPE F F F F
COUNT 1 1 1 1
WIDTH 179
HEIGHT 1
VIEWPOINT 0 0 0 1 0 0 0
POINTS 179
DATA ascii

0.5123285 -0.0087483 3.1240299 16711746
1.8727931 -0.5560273 1.8852247 16711746
1.0123932 -0.6531696 2.5157406 16711746
0.4198552 -0.6559297 2.6670425 16711746
1.8079262 -0.6431465 2.2569680 16711746
1.9883991 -0.7860250 2.4068224 16711746
0.7692805 -1.1033126 2.0881126 16711746
1.6183300 -0.1718779 2.5921197 16711746
1.6203182 -0.2769213 1.9590088 16711746
1.2263042 -0.4765459 2.5773823 16711746
0.3875778 0.2471800 2.7479753 16711746
2.0247023 -0.5768185 1.8683289 16711746
1.2295914 0.2370989 2.8420718 16711746
1.4572253 -0.1985775 2.6261730 16711746
1.6015435 0.0598900 2.6414294 16711746
1.6806296 0.0397009 2.6116612 16711746
1.3748614 -0.1125587 2.6742086 16711746
1.8341904 -0.2477961 2.5310764 16711746
1.6537318 -1.0597013 2.2736542 16711746
1.1076062 -1.0047500 2.2447991 16711746
1.3727798 -0.8565069 2.3621919 16711746
1.1957657 -1.0956061 2.1824596 16711746
1.1841335 0.3598101 2.9313250 16711746
1.1484333 0.3517798 2.9416440 16711746
0.7862249 0.1896622 2.3179030 16711746
1.3683966 -0.0549126 2.6925700 16711746
1.6300257 -0.0815451 2.6065457 16711746
1.7463411 -0.4897791 2.4979331 16711746
1.8646336 -0.5280830 2.4779303 16711746
2.0382767 0.1062304 2.4606733 16711746
1.9473387 0.1166633 2.5120788 16711746
2.0733871 0.0849086 2.4459479 16711746
1.2327083 0.2903040 2.8651338 16711746
1.3167604 0.0203424 2.7326460 16711746
1.3155863 0.1735776 2.7798707 16711746
1.2788030 0.1586220 2.7907102 16711746
2.0742414 -0.0631920 2.6071973 16711746
1.0784357 -0.8416582 2.3732882 16711746
0.8429804 -0.7290101 1.9967538 16711746
0.9870559 -0.5671356 2.5781593 16711746
1.7647762 -0.0728677 2.5705080 16711746
1.3846505 0.0927401 2.7269857 16711746
1.5337336 0.0559784 2.6636372 16711746
1.4478489 0.0442465 2.6908076 16711746
1.6297303 -0.1047657 2.6023622 16711746
2.3562918 -0.7533824 2.3937538 16711746
2.2347195 -0.8000919 1.8521709 16711746
1.5949389 0.0192099 1.9504904 16711746
2.0106950 0.1287792 2.4699979 16711746
1.4661771 0.0359137 2.0176070 16711746
2.1622579 -0.5635562 2.4378605 16711746
2.0945716 -0.0502415 2.4624755 16711746
2.1214714 -0.4216962 1.8587630 16711746
1.8989186 -1.1565409 2.2611578 16711746
1.3794456 -1.0381252 2.2524245 16711746
1.1458695 -0.9292741 1.9586504 16711746
1.4852935 -0.2346311 2.6091461 16711746
1.4055301 -0.2642525 2.6199443 16711746
1.8753474 -0.1412593 2.5332658 16711746
-0.2517733 -0.6604218 2.5502729 16711746
1.0148479 -0.4572205 3.0826204 16711746
1.1351618 -0.6171663 2.1537914 16711746
0.7456583 0.2371626 3.1056385 16711746
1.0145707 0.3339091 2.9979088 16711746
1.1987456 0.2169231 2.5248330 16711746
0.4468372 0.2691287 2.7372346 16711746
0.7611386 0.1940573 3.0754647 16711746
2.3428161 0.0763659 2.2976878 16711746
2.1293857 0.0971359 2.3970520 16711746
1.6540353 0.0174831 1.8962117 16711746
1.7720189 -0.0106491 1.8602641 16711746
2.0788722 0.1307877 2.4081352 16711746
1.5173085 0.2067744 2.7084455 16711746
1.2555702 0.0416926 2.0957534 16711746
1.4979869 0.1538091 2.7002885 16711746
1.5167451 0.2720738 2.7342484 16711746
1.2717462 0.0802367 2.0977895 16711746
1.9379711 0.1806618 2.4940259 16711746
1.3052003 0.1015729 2.0862117 16711746
1.7558634 0.2026840 2.6076643 16711746
2.3249385 -0.1676583 1.8868427 16711746
2.2297544 -0.0827404 1.8930874 16711746
1.3503350 -0.0551173 2.0507345 16711746
1.7194961 0.0813511 2.6048419 16711746
1.4419408 0.1413620 2.7184114 16711746
2.0525806 0.0711397 2.4630351 16711746
2.0764949 0.0249616 2.4602320 16711746
1.3694654 2.2270582 2.0329108 16711746
1.3444616 2.2244530 2.0346179 16711746
1.1467096 2.3647614 2.2144034 16711746
1.0361193 1.8068497 1.3710213 16711746
1.0232921 1.8175827 1.3886827 16711746
0.2328552 1.5255964 2.2275240 16711746
0.4310758 2.1746483 1.7770115 16711746
0.7712057 0.4904394 3.2531035 16711746
1.2806077 0.3680023 2.9013720 16711746
1.1599922 0.3924647 2.9723125 16711746
1.3140833 0.3276488 2.8513317 16711746
1.3025233 1.4565136 2.2824144 16711746
0.8921598 0.2066762 2.2893810 16711746
0.5088701 0.2639194 2.4920547 16711746
0.6306582 0.5414172 3.3832483 16711746
1.2054157 1.7349950 1.2767702 16711746
1.5683398 2.1116755 1.8663080 16711746
1.7417117 2.0185778 1.7228076 16711746
1.6109608 2.0765407 1.8006219 16711746
1.5829386 0.2898376 2.7162156 16711746
1.3394811 1.1184603 1.4685986 16711746
1.3227683 1.1253538 1.4762130 16711746
1.9327090 0.1872955 2.4696984 16711746
1.6172967 2.0886757 1.8407810 16711746
1.2069620 1.7449462 1.2958921 16711746
1.1464665 0.1525713 2.1625767 16711746
1.7598059 2.0124536 1.7136450 16711746
1.1732974 -0.8495699 2.7956204 16711746
1.0432793 -1.0159800 2.2278755 16711746
1.9073567 -0.8273572 1.8263353 16711746
2.0182168 -0.8968406 2.3706527 16711746
1.8051884 -0.8471648 2.3741236 16711746
1.5987561 -0.7247631 2.4207158 16711746
1.3256205 -0.7084371 2.4453704 16711746
2.3583598 -1.2461883 1.8250670 16711746
1.2812777 -1.1764534 2.1349130 16711746
1.9764758 -1.1052706 2.2908735 16711746
1.7005762 -0.9703369 1.8644124 16711746
1.1910471 -0.2147837 2.6997559 16711746
0.1626614 -0.2719533 3.1616273 16711746
0.9293897 -0.5821350 2.5811398 16711746
1.2808635 -0.4038087 2.5982618 16711746
1.9625931 -0.3142200 1.8772997 16711746
1.5653113 -0.2462787 2.5876191 16711746
1.4527482 -0.3065682 2.5954769 16711746
1.7564769 -0.3819257 2.5218642 16711746
2.2050738 -0.4739193 2.4375086 16711746
1.6594270 -0.6237999 2.4566495 16711746
1.4017712 -0.4786402 1.9398975 16711746
1.4579121 -0.4493518 2.5456986 16711746
1.9612913 -0.4832651 2.4754679 16711746
-0.5567212 -0.2255797 2.9104209 16711746
-4.1924796 -45.3106422 10.7997942 16711746
-2.0066931 -4.0667834 1.3945729 16711746
-1.9541203 -3.5431778 1.2297227 16711746
-2.8285763 -17.5687637 5.2337494 16711746
-3.9084373 -41.9560699 9.9832010 16711746
-2.3288429 -15.0761757 4.8503551 16711746
-2.7988369 -17.3060818 5.1803951 16711746
-2.2954779 -7.6606932 2.4393377 16711746
-3.8896344 -41.4393196 9.8543615 16711746
-2.3759589 -8.4787741 2.9852147 16711746
-3.5507674 -35.9500237 9.5069418 16711746
-1.8659782 -3.2892499 1.0574560 16711746
-2.5776188 -13.3525620 3.9380574 16711746
-1.8178703 -2.9099288 0.8934730 16711746
-1.9036111 -3.3399570 1.0804884 16711746
-2.7469544 -15.3502674 4.3502951 16711746
-3.2543025 -32.6676369 8.8110151 16711746
-2.0819588 -5.5456872 1.9199988 16711746
-2.0902047 -4.8192310 1.5868177 16711746
-2.0849566 -5.7126446 2.1715753 16711746
-1.7342627 -2.7377605 0.7624542 16711746
-1.7334781 -2.6265616 0.8845859 16711746
-2.2266109 -6.4899278 2.3145852 16711746
-3.4470224 -29.3984203 8.7969875 16711746
-2.4901655 -14.1921654 4.0710478 16711746
-4.4069557 -43.2900772 10.6025791 16711746
-2.2178688 -4.2217479 1.7293023 16711746
-2.2228048 -5.0198398 1.6899232 16711746
-1.8938278 -3.3373926 1.0808572 16711746
-1.6068866 -2.9063094 0.8614387 16711746
0.7682901 -2.0962451 2.0676303 16711746
-2.0644677 -4.8943648 1.9082726 16711746
-2.3115990 -8.2039108 2.9259346 16711746
-4.4593005 -44.2075729 10.7837791 16711746
-5.1258407 -48.3017845 9.6528692 16711746
-3.3885117 -29.4829121 8.8227510 16711746
-2.0993171 -5.5633898 1.7373847 16711746
-2.0500500 -4.5377607 1.6268725 16711746
-1.9503294 -3.9048584 1.4328634 16711746
-2.2086601 -4.9871097 1.6868825 16711746
