# .PCD v.7 - Point Cloud Data file format
VERSION .7
FIELDS x y z rgb
SIZE 4 4 4 4
TYPE F F F F
COUNT 1 1 1 1
WIDTH 352
HEIGHT 1
VIEWPOINT 0 0 0 1 0 0 0
POINTS 352
DATA ascii

 0.0000000 0.0000000 0.0000000 16777215
 -0.0142069 0.0136059 -0.0142134 16777215
 -0.0141966 0.0146198 -0.0154264 16777215
 -0.0154861 0.0140454 -0.0162623 16777215
 -0.0154308 0.0151695 -0.0173993 16777215
 -0.0157241 0.0148864 -0.0174506 16777215
 -0.0152648 0.0144161 -0.0176435 16777215
 -0.0146681 0.0132827 -0.0172564 16777215
 -0.0149364 0.0134237 -0.0171649 16777215
 -0.0133620 0.0119874 -0.0149734 16777215
 -0.0102907 0.0112590 -0.0133027 16777215
 -0.0099703 0.0108616 -0.0119896 16777215
 -0.0075991 0.0103658 -0.0087656 16777215
 -0.0047330 0.0089017 -0.0052086 16777215
 -0.0020537 0.0070473 0.0008310 16777215
 -0.0018856 0.0067300 0.0069194 16777215
 -0.0042900 0.0071782 0.0138489 16777215
 -0.0042057 0.0073115 0.0202598 16777215
 -0.0009131 0.0078056 0.0272386 16777215
 0.0043174 0.0084094 0.0347226 16777215
 0.0081279 0.0072103 0.0410204 16777215
 0.0136819 0.0044693 0.0533430 16777215
 0.0298957 0.0007290 0.0636628 16777215
 0.0383485 -0.0049138 0.0744527 16777215
 0.0494559 -0.0077975 0.0836499 16777215
 0.0545395 -0.0121861 0.0951664 16777215
 0.0607268 -0.0128298 0.1065358 16777215
 0.0674547 -0.0103136 0.1232291 16777215
 0.0700815 -0.0101608 0.1342144 16777215
 0.0766212 -0.0170180 0.1620102 16777215
 0.0772240 -0.0203027 0.1769913 16777215
 0.0789819 -0.0188740 0.1849702 16777215
 0.0859500 -0.0187109 0.1987535 16777215
 0.1075045 -0.0197164 0.2074527 16777215
 0.1125732 -0.0209749 0.2238714 16777215
 0.1311370 -0.0264424 0.2306178 16777215
 0.1341967 -0.0186889 0.2436169 16777215
 0.1434006 -0.0284392 0.2547810 16777215
 0.1506031 -0.0296763 0.2704276 16777215
 0.1555175 -0.0307294 0.2905111 16777215
 0.1621626 -0.0323706 0.3076006 16777215
 0.1676265 -0.0341224 0.3258638 16777215
 0.1732793 -0.0357040 0.3389932 16777215
 0.1808537 -0.0361803 0.3574743 16777215
 0.1892106 -0.0369383 0.3767475 16777215
 0.1971028 -0.0388006 0.3911209 16777215
 0.2106102 -0.0446672 0.4065666 16777215
 0.2202618 -0.0506281 0.4212661 16777215
 0.2261550 -0.0515741 0.4321867 16777215
 0.2341515 -0.0518144 0.4505039 16777215
 0.2371745 -0.0532461 0.4714985 16777215
 0.2422004 -0.0591050 0.4931542 16777215
 0.2456802 -0.0623094 0.5114826 16777215
 0.2505811 -0.0628836 0.5210743 16777215
 0.2624037 -0.0655558 0.5457183 16777215
 0.2747630 -0.0661728 0.5659766 16777215
 0.2894751 -0.0724123 0.5869465 16777215
 0.3030482 -0.0790268 0.6052433 16777215
 0.3091747 -0.0801206 0.6146626 16777215
 0.3131581 -0.0819244 0.6277034 16777215
 0.3154463 -0.0827395 0.6540182 16777215
 0.3186515 -0.0855025 0.6808243 16777215
 0.3219937 -0.0867362 0.7066193 16777215
 0.3283446 -0.0873903 0.7267017 16777215
 0.3370064 -0.0874591 0.7492290 16777215
 0.3477241 -0.0911426 0.7711548 16777215
 0.3569278 -0.0933623 0.7882808 16777215
 0.3698124 -0.0997127 0.8062371 16777215
 0.3803326 -0.1010018 0.8290899 16777215
 0.3834523 -0.1038599 0.8459473 16777215
 0.3835773 -0.1061462 0.8616721 16777215
 0.3860327 -0.1080476 0.8804068 16777215
 0.3974630 -0.1099811 0.9019219 16777215
 0.4090576 -0.1078992 0.9209892 16777215
 0.4201012 -0.1060357 0.9368755 16777215
 0.4303408 -0.1130078 0.9561819 16777215
 0.4434133 -0.1118116 0.9702399 16777215
 0.4487464 -0.1151281 0.9866286 16777215
 0.4538583 -0.1133174 1.0034794 16777215
 0.4540886 -0.1150935 1.0250534 16777215
 0.4548823 -0.1193419 1.0411432 16777215
 0.4568713 -0.1226851 1.0541888 16777215
 0.4651588 -0.1228807 1.0713488 16777215
 0.4723048 -0.1226009 1.0877637 16777215
 0.4880022 -0.1243054 1.1044980 16777215
 0.4944211 -0.1263144 1.1158345 16777215
 0.5033739 -0.1284768 1.1266274 16777215
 0.5122903 -0.1300375 1.1548035 16777215
 0.5155464 -0.1302013 1.1766332 16777215
 0.5229188 -0.1334301 1.1919067 16777215
 0.5235199 -0.1319759 1.2046466 16777215
 0.5327304 -0.1326503 1.2275703 16777215
 0.5383056 -0.1313917 1.2477870 16777215
 0.5528793 -0.1351623 1.2685045 16777215
 0.5645423 -0.1348102 1.2816846 16777215
 0.5723036 -0.1383462 1.2983629 16777215
 0.5776315 -0.1387731 1.3155144 16777215
 0.5832669 -0.1372226 1.3293750 16777215
 0.5865765 -0.1387380 1.3513018 16777215
 0.5943563 -0.1424319 1.3708463 16777215
 0.5949368 -0.1435636 1.3903303 16777215
 0.6007223 -0.1424514 1.4043354 16777215
 0.6076418 -0.1436012 1.4246036 16777215
 0.6214156 -0.1462711 1.4440979 16777215
 0.6318142 -0.1493018 1.4643003 16777215
 0.6420578 -0.1532185 1.4895961 16777215
 0.6491374 -0.1522732 1.5121036 16777215
 0.6540030 -0.1531315 1.5351490 16777215
 0.6525134 -0.1530658 1.5553589 16777215
 0.6574260 -0.1553601 1.5750412 16777215
 0.6628658 -0.1551040 1.5954888 16777215
 0.6786610 -0.1526629 1.6177021 16777215
 0.6852812 -0.1593522 1.6436143 16777215
 0.6996257 -0.1610907 1.6685377 16777215
 0.7047997 -0.1589225 1.6873029 16777215
 0.7057144 -0.1606599 1.6992550 16777215
 0.7132999 -0.1612953 1.7216411 16777215
 0.7169313 -0.1616217 1.7444779 16777215
 0.7232662 -0.1610409 1.7619568 16777215
 0.7297238 -0.1627123 1.7832763 16777215
 0.7453786 -0.1630654 1.8083953 16777215
 0.7548009 -0.1676475 1.8268850 16777215
 0.7651815 -0.1682506 1.8480104 16777215
 0.7708300 -0.1691667 1.8670315 16777215
 0.7764493 -0.1706631 1.8951273 16777215
 0.7831519 -0.1725511 1.9139886 16777215
 0.7921232 -0.1714370 1.9377327 16777215
 0.7985100 -0.1735023 1.9595091 16777215
 0.8129234 -0.1754897 1.9812223 16777215
 0.8243438 -0.1788181 2.0039659 16777215
 0.8312479 -0.1805760 2.0204356 16777215
 0.8345588 -0.1813449 2.0479054 16777215
 0.8392003 -0.1826260 2.0805428 16777215
 0.8392094 -0.1830818 2.0956900 16777215
 0.8448172 -0.1848628 2.1217437 16777215
 0.8563159 -0.1851152 2.1510882 16777215
 0.8654928 -0.1864934 2.1726301 16777215
 0.8749407 -0.1905265 2.1977715 16777215
 0.8838671 -0.1928870 2.2254069 16777215
 0.8898412 -0.1951560 2.2530725 16777215
 0.8954489 -0.1995301 2.2789497 16777215
 0.9012771 -0.2013690 2.3032942 16777215
 0.9102520 -0.2030511 2.3242431 16777215
 0.9193705 -0.2059223 2.3459053 16777215
 0.9297374 -0.2091230 2.3710828 16777215
 0.9348231 -0.2119763 2.3854876 16777215
 0.9403559 -0.2130347 2.4089732 16777215
 0.9453486 -0.2161773 2.4379683 16777215
 0.9460936 -0.2191907 2.4571478 16777215
 0.9540697 -0.2208164 2.4825070 16777215
 0.9650633 -0.2210444 2.5111578 16777215
 0.9862298 -0.2238837 2.5441432 16777215
 1.0000263 -0.2269076 2.5694146 16777215
 1.0066627 -0.2243524 2.5956976 16777215
 1.0155762 -0.2260089 2.6248569 16777215
 1.0243486 -0.2292843 2.6494477 16777215
 1.0329912 -0.2306444 2.6762233 16777215
 1.0500059 -0.2288614 2.7047119 16777215
 1.0667886 -0.2315944 2.7305551 16777215
 1.0756404 -0.2356391 2.7506738 16777215
 1.0805485 -0.2341538 2.7779562 16777215
 1.0839939 -0.2381479 2.8096788 16777215
 1.0861464 -0.2374445 2.8367815 16777215
 1.0918558 -0.2383351 2.8544405 16777215
 1.0995758 -0.2382956 2.8780403 16777215
 1.1148695 -0.2395548 2.9085171 16777215
 1.1301894 -0.2427279 2.9319005 16777215
 1.1312212 -0.2502552 2.9577270 16777215
 1.1350597 -0.2459360 2.9796078 16777215
 1.1440045 -0.2430580 3.0095987 16777215
 1.1470121 -0.2453326 3.0374584 16777215
 1.1582139 -0.2442815 3.0643525 16777215
 1.1700311 -0.2466255 3.0910673 16777215
 1.1774088 -0.2436580 3.1063223 16777215
 1.1871632 -0.2448731 3.1342170 16777215
 1.1932058 -0.2450299 3.1657736 16777215
 1.1990842 -0.2451405 3.1959770 16777215
 1.2025466 -0.2444786 3.2067721 16777215
 1.2144202 -0.2458848 3.2348449 16777215
 1.2359065 -0.2446488 3.2680960 16777215
 1.2442577 -0.2460356 3.2923520 16777215
 1.2499430 -0.2473120 3.3218853 16777215
 1.2523186 -0.2474864 3.3496041 16777215
 1.2602069 -0.2489745 3.3761270 16777215
 1.2710342 -0.2515073 3.4056973 16777215
 1.2892960 -0.2494194 3.4311574 16777215
 1.3050286 -0.2579765 3.4598200 16777215
 1.3140169 -0.2595490 3.4830723 16777215
 1.3205068 -0.2615024 3.5109015 16777215
 1.3243524 -0.2636045 3.5378482 16777215
 1.3355395 -0.2672391 3.5656760 16777215
 1.3533323 -0.2638219 3.5896158 16777215
 1.3641289 -0.2692372 3.6125596 16777215
 1.3666801 -0.2690115 3.6294901 16777215
 1.3724582 -0.2674654 3.6583526 16777215
 1.3710141 -0.2705449 3.6854270 16777215
 1.3745127 -0.2760294 3.7081211 16777215
 1.3800212 -0.2772050 3.7312331 16777215
 1.3856297 -0.2763079 3.7565839 16777215
 1.4015610 -0.2772155 3.7829764 16777215
 1.4053682 -0.2806108 3.7936947 16777215
 1.4151601 -0.2824776 3.8257420 16777215
 1.4172759 -0.2816434 3.8415744 16777215
 1.4185321 -0.2839349 3.8675251 16777215
 1.4252752 -0.2871706 3.8899961 16777215
 1.4306732 -0.2877200 3.9031556 16777215
 1.4408818 -0.2849151 3.9278061 16777215
 1.4549868 -0.2864798 3.9515193 16777215
 1.4655756 -0.2885318 3.9740322 16777215
 1.4725902 -0.2876041 3.9982693 16777215
 1.4799292 -0.2877548 4.0217018 16777215
 1.4844728 -0.2891542 4.0382481 16777215
 1.4893699 -0.2890535 4.0602479 16777215
 1.4977102 -0.2890761 4.0877352 16777215
 1.5139227 -0.2882996 4.1126442 16777215
 1.5183592 -0.2925707 4.1335506 16777215
 1.5232608 -0.2927911 4.1538105 16777215
 1.5261233 -0.2929665 4.1790848 16777215
 1.5266184 -0.2941871 4.2052608 16777215
 1.5318232 -0.2961750 4.2260327 16777215
 1.5392597 -0.2977455 4.2461743 16777215
 1.5475900 -0.2951942 4.2710738 16777215
 1.5608433 -0.2943406 4.2899709 16777215
 1.5701951 -0.2966917 4.3124657 16777215
 1.5747476 -0.2955806 4.3395338 16777215
 1.5791535 -0.2993665 4.3663392 16777215
 1.5871875 -0.3009065 4.3893723 16777215
 1.5981535 -0.2999909 4.4150395 16777215
 1.6132205 -0.3000824 4.4385552 16777215
 1.6231639 -0.3016055 4.4597387 16777215
 1.6304934 -0.3017707 4.4847207 16777215
 1.6339470 -0.3027038 4.5136929 16777215
 1.6377974 -0.3051854 4.5389738 16777215
 1.6453528 -0.3042127 4.5628099 16777215
 1.6531255 -0.3052484 4.5894241 16777215
 1.6711985 -0.3033113 4.6109614 16777215
 1.6759566 -0.3071061 4.6298633 16777215
 1.6821167 -0.3067557 4.6531072 16777215
 1.6819751 -0.3064941 4.6825571 16777215
 1.6826894 -0.3069081 4.7037115 16777215
 1.6840813 -0.3067486 4.7267303 16777215
 1.6895998 -0.3077895 4.7469020 16777215
 1.7034678 -0.3079832 4.7721429 16777215
 1.7135153 -0.3101265 4.7948084 16777215
 1.7171140 -0.3102111 4.8168478 16777215
 1.7204460 -0.3090575 4.8422093 16777215
 1.7222633 -0.3138933 4.8744917 16777215
 1.7254261 -0.3170491 4.8955464 16777215
 1.7304683 -0.3143883 4.9169903 16777215
 1.7417721 -0.3145637 4.9433002 16777215
 1.7515392 -0.3179632 4.9664822 16777215
 1.7600615 -0.3196998 4.9893260 16777215
 1.7669282 -0.3196451 5.0156312 16777215
 1.7695063 -0.3215747 5.0387459 16777215
 1.7744091 -0.3242512 5.0603456 16777215
 1.7811166 -0.3259262 5.0831957 16777215
 1.7917504 -0.3220094 5.1099386 16777215
 1.8062441 -0.3223319 5.1381125 16777215
 1.8103594 -0.3226088 5.1597242 16777215
 1.8168714 -0.3214869 5.1848154 16777215
 1.8200194 -0.3212990 5.2119803 16777215
 1.8266891 -0.3215549 5.2349715 16777215
 1.8315914 -0.3228711 5.2582617 16777215
 1.8406481 -0.3207619 5.2852054 16777215
 1.8497633 -0.3200701 5.3113003 16777215
 1.8568333 -0.3221581 5.3333459 16777215
 1.8609560 -0.3218746 5.3600879 16777215
 1.8614033 -0.3199539 5.3863063 16777215
 1.8661658 -0.3220155 5.4092031 16777215
 1.8741653 -0.3219480 5.4337606 16777215
 1.8886055 -0.3248558 5.4607530 16777215
 1.8989451 -0.3239293 5.4775801 16777215
 1.9099294 -0.3257633 5.5071335 16777215
 1.9177563 -0.3253850 5.5350561 16777215
 1.9254408 -0.3245096 5.5583162 16777215
 1.9320885 -0.3266323 5.5814586 16777215
 1.9402616 -0.3265118 5.6015897 16777215
 1.9573756 -0.3246047 5.6296248 16777215
 1.9618599 -0.3255491 5.6482716 16777215
 1.9680780 -0.3270855 5.6741304 16777215
 1.9727490 -0.3251077 5.7022824 16777215
 1.9719541 -0.3290221 5.7273889 16777215
 1.9794264 -0.3302592 5.7511206 16777215
 1.9866087 -0.3293225 5.7719908 16777215
 1.9971311 -0.3287391 5.7967834 16777215
 2.0044270 -0.3301135 5.8195500 16777215
 2.0118570 -0.3306761 5.8438730 16777215
 2.0180237 -0.3294452 5.8677292 16777215
 2.0211756 -0.3300236 5.8884373 16777215
 2.0318148 -0.3292685 5.9111533 16777215
 2.0412579 -0.3286716 5.9323411 16777215
 2.0606909 -0.3262560 5.9514942 16777215
 2.0599666 -0.3253632 5.9615436 16777215
 2.0694187 -0.3249132 5.9835200 16777215
 2.0722609 -0.3234283 6.0072680 16777215
 2.0766988 -0.3265597 6.0309258 16777215
 2.0796175 -0.3282561 6.0524054 16777215
 2.0867014 -0.3269123 6.0777087 16777215
 2.0991840 -0.3268495 6.1056528 16777215
 2.1040039 -0.3282710 6.1280251 16777215
 2.1076565 -0.3279963 6.1520414 16777215
 2.1068912 -0.3266610 6.1783266 16777215
 2.1097775 -0.3266176 6.2031946 16777215
 2.1135311 -0.3281711 6.2223268 16777215
 2.1213803 -0.3276480 6.2417469 16777215
 2.1290269 -0.3276914 6.2668648 16777215
 2.1403918 -0.3276771 6.2936192 16777215
 2.1431491 -0.3282968 6.3176332 16777215
 2.1456304 -0.3245826 6.3437233 16777215
 2.1512823 -0.3269898 6.3760319 16777215
 2.1594725 -0.3274904 6.4066911 16777215
 2.1632829 -0.3254343 6.4256830 16777215
 2.1806633 -0.3249712 6.4536586 16777215
 2.1851106 -0.3238430 6.4766860 16777215
 2.1886871 -0.3264983 6.4991531 16777215
 2.1944356 -0.3280532 6.5243821 16777215
 2.1926408 -0.3326028 6.5473948 16777215
 2.2012081 -0.3340908 6.5811014 16777215
 2.2145927 -0.3323014 6.6119542 16777215
 2.2192411 -0.3339890 6.6367779 16777215
 2.2236853 -0.3329581 6.6591539 16777215
 2.2231092 -0.3342861 6.6833034 16777215
 2.2248216 -0.3345557 6.7064476 16777215
 2.2285271 -0.3337377 6.7321358 16777215
 2.2380171 -0.3343467 6.7582731 16777215
 2.2436590 -0.3330053 6.7798142 16777215
 2.2472820 -0.3343273 6.7956820 16777215
 2.2449851 -0.3324762 6.8130808 16777215
 2.2521083 -0.3320040 6.8374963 16777215
 2.2556248 -0.3330711 6.8562789 16777215
 2.2639458 -0.3300298 6.8821955 16777215
 2.2732868 -0.3286708 6.9032536 16777215
 2.2774620 -0.3287767 6.9236774 16777215
 2.2806749 -0.3256845 6.9526558 16777215
 2.2806370 -0.3257326 6.9770560 16777215
 2.2801204 -0.3243190 6.9989405 16777215
 2.2848935 -0.3228911 7.0246692 16777215
 2.2952523 -0.3237996 7.0472302 16777215
 2.3028185 -0.3209729 7.0680256 16777215
 2.3059685 -0.3218294 7.0905089 16777215
 2.3081040 -0.3220737 7.1094017 16777215
 2.3139811 -0.3237389 7.1310101 16777215
 2.3129733 -0.3249587 7.1496878 16777215
 2.3155937 -0.3216750 7.1606359 16777215
 2.3234172 -0.3233920 7.1767740 16777215
 2.3286200 -0.3248003 7.1889820 16777215
 2.3303685 -0.3259000 7.1980391 16777215
 2.3289564 -0.3256623 7.2008796 16777215
 2.3267906 -0.3241340 7.2014904 16777215
 2.3256683 -0.3242952 7.2024283 16777215
 2.3258772 -0.3243960 7.2022910 16777215
 2.3272691 -0.3246804 7.2038755 16777215
