# .PCD v.7 - Point Cloud Data file format
VERSION .7
FIELDS x y z rgb
SIZE 4 4 4 4
TYPE F F F F
COUNT 1 1 1 1
WIDTH 1211
HEIGHT 1
VIEWPOINT 0 0 0 1 0 0 0
POINTS 1211
DATA ascii
0.3276077 0.3122113 0.8860453 16711746
-0.7484986 0.1560045 0.9323844 16711746
0.5212609 0.3354127 1.0304722 16711746
-0.5395347 0.3119441 0.7796516 16711746
0.0476832 0.2887606 0.9524254 16711746
0.2418282 0.3116342 0.9408388 16711746
0.2748843 0.3185221 0.6667196 16711746
0.2330287 0.3298180 0.7005628 16711746
0.5798093 0.3309683 0.7662629 16711746
-0.2798192 0.3095931 0.7422240 16711746
-0.4783044 0.2667486 1.7458087 16711746
0.0332491 0.2652223 1.1183584 16711746
-0.6808591 0.2155688 1.0343169 16711746
0.5502364 0.3438241 0.5920482 16711746
0.1826672 0.3124221 0.6068234 16711746
0.1304415 0.3235613 0.6274739 16711746
-0.4508057 0.3046618 0.8926083 16711746
0.3927165 0.3197224 0.7652472 16711746
-0.3976780 0.2930116 0.9525824 16711746
-2.2586372 -0.6864936 2.3777230 16711746
-0.3808480 0.3116255 0.7265444 16711746
0.0665321 0.2906172 1.0213358 16711746
-0.0867932 0.3151601 0.6219223 16711746
-0.7527397 0.2927037 1.0861468 16711746
0.5729553 0.3093859 1.0147433 16711746
-0.5356756 0.2101154 0.5508180 16711746
-0.6384855 0.1746585 0.6243490 16711746
-0.7093811 0.2197548 0.9457238 16711746
0.6783410 0.3375730 0.7030593 16711746
-0.8607086 -1.9734021 5.3905902 16711746
0.0893387 0.2383796 1.0969861 16711746
-0.6730193 0.2800981 1.0637871 16711746
-0.8136357 0.4319470 1.1999817 16711746
0.4079860 0.3372409 0.6404210 16711746
0.0994227 0.3101750 0.8981262 16711746
0.0009956 0.2809488 0.9433125 16711746
-0.4900239 0.1027057 0.9313166 16711746
0.1598359 0.2861103 1.1747209 16711746
0.7446269 0.3736155 0.5915129 16711746
0.2704051 0.2435904 1.8186227 16711746
0.8400398 0.2936045 2.9456861 16711746
0.1962580 0.3298909 0.7250562 16711746
-0.5545977 0.1622075 1.1238558 16711746
0.5862965 0.3325377 0.5892245 16711746
-0.5566930 0.3112614 0.7063032 16711746
0.8110695 0.3683865 0.6353972 16711746
-0.3387125 0.3066917 0.7170720 16711746
0.5052868 -0.2985388 2.7786279 16711746
-0.3379112 0.3198256 0.6488060 16711746
-0.0247610 0.3249937 0.7552230 16711746
-3.3409500 -0.7274595 4.1157017 16711746
0.5201759 0.3282216 0.7135972 16711746
0.5391475 0.2655732 0.7995324 16711746
0.6258371 0.3066814 0.7658324 16711746
0.1026992 0.0375067 1.2656825 16711746
-0.2898678 0.3082871 0.8444855 16711746
-0.2195840 0.3130705 0.9021346 16711746
0.3928664 0.3075310 0.9011061 16711746
0.2818670 0.3208839 0.7229524 16711746
0.2379420 0.3253599 0.7232692 16711746
0.2760001 0.3225800 0.6263496 16711746
0.4353789 0.3198547 0.5294813 16711746
-0.3588961 0.2988372 0.8984293 16711746
0.0914649 0.3247180 0.7394993 16711746
-0.8508095 0.1807883 0.9614881 16711746
0.1644670 0.3314151 0.7230063 16711746
0.2988197 0.3292482 0.7548604 16711746
0.2739105 0.3124247 0.7967410 16711746
-0.0580123 0.3259534 0.6822258 16711746
0.4316244 0.3320003 0.5641983 16711746
-0.3359161 0.3089663 0.7107401 16711746
0.0965506 0.3009093 0.9218366 16711746
0.1685044 0.3213067 0.8138636 16711746
0.4159331 0.2851768 1.0497571 16711746
-0.3393669 0.3221519 0.6529173 16711746
-0.0104257 0.1635803 1.2005461 16711746
-0.4042769 0.2990201 0.9610845 16711746
0.4369158 0.3025511 1.0206404 16711746
-0.1105204 0.2419525 0.5389701 16711746
-0.6754825 0.0802512 1.0788957 16711746
-0.4370402 0.2752691 1.1082354 16711746
-0.6762321 0.0728102 0.7131761 16711746
-0.3395470 0.2839818 1.1222003 16711746
0.0993778 0.3342083 0.6066816 16711746
-0.3926739 0.3099475 0.6318216 16711746
-0.2133422 0.2724246 0.9485240 16711746
-0.0235842 0.3180033 0.5867432 16711746
-0.0683213 0.2805641 0.9849215 16711746
-0.6437722 0.2749647 1.0306665 16711746
-0.2348185 0.3076347 0.8084537 16711746
0.0355366 0.3158706 0.6633865 16711746
0.0063481 0.2884704 0.9139745 16711746
0.3419153 0.3196217 0.6393983 16711746
-0.1567703 0.3213604 0.6503620 16711746
-0.0877677 0.2772678 1.1137025 16711746
0.0891555 0.2756386 1.0588962 16711746
-0.0561087 0.3133547 0.5795985 16711746
-0.5743469 0.0616783 0.6240322 16711746
-0.2571543 0.2881330 0.9139559 16711746
0.1877067 0.3323197 0.6307039 16711746
0.5412292 0.3318764 0.5350512 16711746
-0.5174720 0.3053915 0.7363150 16711746
0.3274995 0.3206953 0.7302092 16711746
-0.0886820 0.3196392 0.6916336 16711746
0.0305087 0.2977227 0.9956295 16711746
0.5432189 0.3452623 0.7238668 16711746
-0.3308492 0.3068158 0.7399541 16711746
0.2904815 0.3336208 0.5873570 16711746
0.3998623 0.3316848 0.6024033 16711746
-0.0011703 0.3203229 0.7950475 16711746
-0.1953511 0.2538669 0.8843389 16711746
-0.5896062 0.2788295 1.1296223 16711746
-0.4890491 0.2506454 1.0689350 16711746
-0.5843202 0.2780382 0.7142017 16711746
-0.0434397 0.3234528 0.6205876 16711746
-0.0271451 0.2743630 1.0978229 16711746
0.2857204 0.3078357 0.9745305 16711746
0.0207578 0.2337813 1.1224747 16711746
0.1521765 0.2741458 1.1056482 16711746
0.0527534 0.3093249 0.9316608 16711746
0.4250136 0.3242103 0.5511085 16711746
-0.2257666 0.3194196 0.9200360 16711746
-0.2892567 0.3391337 1.0829492 16711746
-0.0146682 0.3257786 0.7858282 16711746
0.4422278 0.3237005 0.6685652 16711746
-0.3719956 0.2997527 0.6573268 16711746
0.0684510 0.3234351 0.7163346 16711746
0.1032421 0.3323641 0.7699904 16711746
-0.7190023 0.3118210 1.0341702 16711746
-0.3339179 0.3176469 0.6461703 16711746
-0.1547353 0.3062487 0.9198397 16711746
-0.6615892 0.1644739 0.8118675 16711746
0.4549116 0.3214034 0.7425628 16711746
0.3833180 0.3855002 0.6901667 16711746
-0.7301481 0.1962569 0.8340705 16711746
0.0343207 0.3256643 0.6987028 16711746
0.2361850 0.3163445 0.8342832 16711746
-0.5109590 0.2998711 0.7265936 16711746
-0.6043883 0.3051670 0.8194948 16711746
0.2454049 0.3168984 0.7454172 16711746
-0.9886692 0.0964341 1.4487146 16711746
0.0477027 0.1037862 1.3864899 16711746
-0.3237198 0.2661321 1.0078186 16711746
-0.6681942 0.2165698 0.7573716 16711746
0.4200529 0.2991407 0.6348274 16711746
0.4568133 0.3101511 0.7057814 16711746
0.2263489 0.3296178 0.7923495 16711746
0.2716709 0.3373173 0.8264412 16711746
-0.5414130 0.3126365 0.7854182 16711746
-0.2430213 0.3175579 0.6378185 16711746
0.1297409 0.3313245 0.6902308 16711746
0.3833671 0.3162802 0.6551528 16711746
0.2768492 0.3370431 1.1458489 16711746
0.3593056 0.3279756 0.6772038 16711746
0.2964146 0.3310933 0.7100540 16711746
0.3515646 0.3078600 0.6802161 16711746
0.1186929 0.3138180 0.8161613 16711746
-0.4174574 0.2633783 1.0785152 16711746
0.1632111 0.3201374 0.7007284 16711746
-0.6187277 0.2921146 0.9375560 16711746
-0.0364899 0.2714722 1.2556890 16711746
-0.7806321 0.1443944 1.1046610 16711746
0.2600506 0.3326310 0.8598894 16711746
-0.4121935 0.2589857 1.0704576 16711746
0.2099715 0.6721092 1.6479467 16711746
-0.9826766 0.1424521 2.5494602 16711746
0.2014493 0.3075309 0.7558675 16711746
-0.1624316 0.3128673 0.7318525 16711746
0.0819293 0.3258067 0.6979401 16711746
0.1614865 0.3170889 0.6964160 16711746
-0.1584773 0.3241473 0.6579666 16711746
-0.1890523 0.3131681 0.6231960 16711746
0.4788982 0.2615797 0.3771893 16711746
0.3958607 0.3280182 0.5994943 16711746
-0.0770951 0.3190559 0.7459124 16711746
0.1651243 0.3241585 0.7108313 16711746
-0.3475419 0.3058439 0.6653250 16711746
0.5258538 -0.2904785 1.4708674 16711746
-0.5711781 -0.1396419 1.0846957 16711746
-0.3613283 0.2951549 0.8959969 16711746
-0.6839789 -0.2266815 1.8483254 16711746
-0.4799061 0.2472058 1.0526527 16711746
0.3554826 0.2854958 1.2009516 16711746
0.4332839 0.2985424 1.0099508 16711746
-0.2312419 0.3135315 0.6812685 16711746
0.5483964 0.3480098 0.6019298 16711746
0.4118809 0.3091644 0.7829439 16711746
-0.3591759 0.3015241 1.1265950 16711746
0.3840557 0.3191574 0.6597673 16711746
-0.9366104 0.0900412 1.3857901 16711746
-0.1931158 0.3022793 0.8939784 16711746
-0.4338315 0.2783080 1.0791337 16711746
0.3463458 0.2991824 0.9582551 16711746
0.3424512 0.3336954 0.5858207 16711746
0.3955118 0.3098498 0.9085252 16711746
0.4623056 0.2932086 0.7178394 16711746
0.3681035 0.3173289 0.8157941 16711746
0.4672232 0.3364200 0.6084273 16711746
-0.1523878 0.2808763 0.9637070 16711746
0.4728611 0.3359224 0.5842968 16711746
0.6732047 0.3335607 0.5279579 16711746
-0.1412922 0.2596936 1.5683073 16711746
0.6991411 0.3399892 0.7462587 16711746
-0.0528604 0.2270512 2.4343853 16711746
-0.6491418 0.2311795 2.2535658 16711746
-0.1909560 0.3129038 0.5695051 16711746
-0.4435322 0.2480627 0.9579136 16711746
-0.5995315 -0.1707805 0.8389557 16711746
-0.6691929 -0.0087369 1.6136358 16711746
0.4368450 0.3293755 0.5414379 16711746
0.0957881 0.3219680 0.6946849 16711746
-0.1671115 0.3158242 0.7936516 16711746
0.3509277 0.3044699 0.9712079 16711746
0.3348512 0.2858214 1.0174361 16711746
-0.5104902 0.2940106 0.6961104 16711746
0.0165985 0.3223888 0.6190228 16711746
0.1638208 0.3281710 0.7176507 16711746
0.2242247 0.3308929 0.6340467 16711746
0.4288812 0.3361067 0.6303673 16711746
0.3056139 0.3282343 0.6392080 16711746
0.1547152 -0.2706542 1.4899174 16711746
0.3036654 0.2984850 0.8459100 16711746
-0.4403985 0.3258733 0.7564228 16711746
-0.1461720 0.3270648 0.6303331 16711746
0.3952623 0.3180203 0.5525947 16711746
0.0673914 0.3113386 0.8105012 16711746
-0.4812730 -0.1017956 1.3544025 16711746
-0.1062502 0.3220662 0.5687739 16711746
0.2346925 0.3275425 0.6824211 16711746
0.0712819 0.3123568 0.7010821 16711746
0.1764614 -0.2544924 1.7375560 16711746
0.0570012 0.2693720 1.1155965 16711746
0.7496106 0.3041490 1.6182672 16711746
-0.3442882 0.2820259 2.0394616 16711746
-0.4542292 0.2555466 1.6792235 16711746
-0.2300455 0.2640513 1.7602898 16711746
0.3923926 0.2909995 1.5257124 16711746
0.1799389 0.2872640 0.9896864 16711746
-0.7770893 0.1627312 0.9638212 16711746
-0.9789634 -0.0163784 1.0082562 16711746
-0.4507655 0.2437615 1.0319260 16711746
-0.1003231 0.2887335 0.9712079 16711746
0.5194605 0.3081422 1.0957791 16711746
-0.5983194 0.2952076 0.9742802 16711746
0.3289150 0.3058951 1.7846837 16711746
-0.1797511 0.3195082 0.6017669 16711746
-0.0472161 0.3209393 0.7083393 16711746
-0.4128791 0.3025498 1.0154706 16711746
-0.7517983 0.1552374 1.3524240 16711746
0.3423050 0.3081834 0.6833658 16711746
-0.7557786 0.2603715 1.0077195 16711746
-0.0900479 0.3041832 0.9034281 16711746
0.3029432 0.3174677 0.5598547 16711746
0.2414689 0.3144450 0.8953094 16711746
0.4586726 0.3237144 0.7420306 16711746
0.6318942 0.3404274 0.6548775 16711746
0.3724450 0.3032245 0.7229736 16711746
0.1828023 0.2815096 1.1241102 16711746
-0.3973179 0.3000173 1.5299621 16711746
-0.2150771 0.3197435 0.6198041 16711746
-0.0753017 0.2816432 1.5158720 16711746
0.7561989 0.3289865 0.5735823 16711746
0.3599626 0.3287026 0.5890278 16711746
0.8477656 0.3286445 3.2439969 16711746
-0.7297972 0.1393916 1.0659522 16711746
-0.0137581 0.3193735 0.5611517 16711746
0.7296245 0.2326804 0.7770659 16711746
0.7285489 0.3277048 0.7260705 16711746
0.0023764 0.2934090 0.9284536 16711746
-0.6368906 0.2960665 0.7852727 16711746
0.1008833 0.3056690 1.0605921 16711746
0.3592033 0.3113907 0.8761151 16711746
0.2166137 0.3320677 0.5962633 16711746
0.1682215 0.3218639 0.8168879 16711746
0.1111455 -0.0548888 1.3138549 16711746
-0.2117529 0.3133467 0.6115853 16711746
-0.2245762 0.2669593 0.9657445 16711746
0.7471516 0.2614149 0.7331431 16711746
0.4002668 0.2734955 1.9619267 16711746
0.1031625 0.3273813 0.6458896 16711746
0.7892151 0.3277957 0.6445235 16711746
-0.0547336 0.3203821 0.6978305 16711746
0.5940117 0.3431649 0.5337490 16711746
-0.4829203 0.3118781 0.7179334 16711746
-0.6583134 0.3156379 1.0060799 16711746
0.2284570 0.3334099 0.7579038 16711746
0.3412687 0.3243892 0.7601809 16711746
0.2899322 0.3196988 0.7689623 16711746
0.3890186 0.3150637 0.8267353 16711746
0.6300697 0.3143049 0.4929557 16711746
-0.2823221 0.3102142 2.0390022 16711746
0.0770679 0.2605579 1.0744439 16711746
0.7335512 0.2450566 0.7445852 16711746
-0.6520750 0.3097385 1.0576569 16711746
-0.0250319 0.3039746 0.5975419 16711746
-0.1143721 0.2802475 1.2387673 16711746
0.1009838 0.3285822 0.6461248 16711746
0.5766672 0.3417524 0.5541844 16711746
0.1716176 0.3017390 0.9714829 16711746
0.4049781 0.3338472 0.6350452 16711746
-0.2055392 0.3066753 0.9204143 16711746
0.5485684 0.3352274 0.6372789 16711746
0.4939094 0.3394898 0.6568114 16711746
-0.2927866 0.3182370 0.8225675 16711746
0.7467381 0.3088914 0.7598655 16711746
-0.3578392 0.2615989 0.8485922 16711746
0.7338482 0.3075390 0.6102592 16711746
0.6149200 0.3134438 0.4972455 16711746
-0.7669530 0.1285473 1.2522941 16711746
0.3799556 0.3387873 0.9253982 16711746
0.5952305 0.3372820 0.7791054 16711746
0.6801261 0.3066584 0.7467971 16711746
-0.1703601 0.3096206 0.7940925 16711746
-0.7717650 -0.1171825 1.8453146 16711746
-0.3310109 0.3164541 0.6473406 16711746
-0.1517037 0.2782182 1.6759616 16711746
-0.3404270 0.2832086 1.1112380 16711746
-0.0456741 0.3158264 0.9950094 16711746
0.7987682 0.3349583 0.8156651 16711746
0.5994799 0.3354950 0.7065804 16711746
0.5698456 0.3196122 0.7027626 16711746
0.7990141 0.2532992 1.0170077 16711746
0.8792316 0.3759098 0.6743456 16711746
0.6128950 0.3030143 0.8578141 16711746
-0.8062742 0.2691221 0.8661144 16711746
0.7503350 0.3033285 0.6098841 16711746
-0.6679928 0.0143219 1.5119036 16711746
-0.4791479 0.3129204 0.9040400 16711746
-0.6209309 0.1112342 1.2403677 16711746
1.1534724 0.2750643 1.1840041 16711746
0.2141763 0.3270301 0.6111974 16711746
0.1353469 0.3329336 0.6051756 16711746
-0.5997103 0.1158754 1.2456194 16711746
0.0534500 0.3312099 0.6163567 16711746
0.4600327 0.3138504 0.8557690 16711746
-0.0492040 0.3216846 0.6255721 16711746
-0.0299368 0.2671754 1.2291610 16711746
0.9341893 0.2977472 2.5209944 16711746
0.5843024 0.2745030 2.2258260 16711746
0.4852004 0.3066095 0.9922175 16711746
0.3374073 0.3202653 0.6697136 16711746
-0.0752625 0.3239179 0.7823175 16711746
0.1278965 0.3086915 0.9259465 16711746
-1.2118355 0.1208825 1.3676611 16711746
0.1556344 -0.7602606 1.9625881 16711746
0.8370024 0.3208871 0.6444141 16711746
-3.7026033 -1.0369114 3.7433801 16711746
-0.0126206 0.3324310 0.7169761 16711746
0.6040725 0.3084598 0.9567141 16711746
0.6235612 0.2760136 0.7866358 16711746
-0.4192522 0.1747966 2.3485577 16711746
-0.6400824 0.2570810 2.3394930 16711746
-0.4242311 0.3110093 0.6661229 16711746
-5.0062013 -1.6457646 4.8583627 16711746
-0.0877101 0.3116840 0.6177499 16711746
-0.0381821 0.3253079 0.6954353 16711746
0.0073511 0.3419207 0.7702615 16711746
-0.3730765 0.2981536 0.5900888 16711746
0.2123769 0.0366620 0.9387555 16711746
-0.1322671 0.3205165 0.7133576 16711746
0.3467867 0.3156795 0.8050684 16711746
0.6413900 0.3254004 0.6290081 16711746
0.5470591 0.2957775 0.8014975 16711746
0.5320854 0.3356331 0.7044016 16711746
0.6930775 0.3275673 0.8415758 16711746
0.4101391 0.2944729 0.8341732 16711746
0.4166498 0.2679762 0.7938899 16711746
0.5869796 0.3144239 0.4382916 16711746
0.6140709 0.2543418 0.4192890 16711746
0.4312533 0.3369939 0.6318393 16711746
0.1808169 0.0242061 0.7486405 16711746
0.6335210 0.3011924 0.4601365 16711746
0.5675120 0.3466866 0.5318896 16711746
0.2882816 0.3154036 0.5983033 16711746
-0.4404523 0.3085940 0.6939235 16711746
-0.5671021 0.1562485 0.5726933 16711746
-0.1455508 0.2479731 1.0013491 16711746
0.0360986 0.2524443 1.1487200 16711746
0.1291825 0.3788131 0.8217338 16711746
0.5606897 0.3453281 0.6538951 16711746
0.0740506 0.2827768 0.9618340 16711746
0.7340269 0.2338329 0.7802415 16711746
0.0168822 0.2571816 1.1701170 16711746
-0.4410272 0.3105661 0.6951583 16711746
0.3292824 0.3082444 0.8981451 16711746
0.4484413 0.3207469 0.8244723 16711746
-0.2656526 0.2885061 1.1409280 16711746
-0.4166924 0.2525946 1.0844039 16711746
-0.6087371 0.2786430 1.0965530 16711746
0.4089232 0.3082509 0.7841579 16711746
0.3119685 0.3221051 0.9118741 16711746
0.6551502 0.3284862 0.7620701 16711746
0.3592886 0.2892132 1.2125969 16711746
0.5064055 0.3382389 0.5822483 16711746
-0.5980406 0.2281986 1.3134896 16711746
0.7462124 0.2380949 0.7942016 16711746
-0.2256917 0.2985326 1.2322611 16711746
0.4964105 0.3366919 1.2334478 16711746
0.1068582 0.4313467 0.8588870 16711746
0.7953802 0.2784986 0.7581210 16711746
0.2960620 0.3170058 0.8034386 16711746
0.8258842 0.1299090 0.5224584 16711746
0.4387509 0.2965620 1.3095968 16711746
-0.7778382 -0.2566218 1.6805658 16711746
0.1068470 -0.0518308 1.3222578 16711746
-0.4161700 0.2690012 1.0362211 16711746
0.4868472 0.3584691 1.0408064 16711746
0.1690291 0.3222598 0.6589674 16711746
0.6765423 0.3409484 0.7855429 16711746
0.4707837 0.2782612 1.0578594 16711746
-0.1728946 0.2726173 1.2289273 16711746
-0.0816639 0.3125339 0.6432792 16711746
0.3362736 0.3118283 0.8979442 16711746
0.1228219 0.3152501 0.6895551 16711746
0.1079186 0.2666143 0.6254054 16711746
-0.5511736 0.2417941 1.1886001 16711746
0.5668297 0.3049859 1.8987125 16711746
1.0432986 0.3073029 1.1659408 16711746
-1.1002386 -0.2986541 3.0121968 16711746
-0.6564822 0.2186355 1.5573703 16711746
0.7193485 0.2983331 0.9993612 16711746
-0.1726067 0.2911658 1.2513565 16711746
-0.2143868 0.2839754 1.1772410 16711746
0.5803574 0.3260974 0.7048784 16711746
-0.7180457 0.2272737 1.0802443 16711746
0.5952562 0.2515745 0.8034583 16711746
0.8579895 0.3106980 1.0878952 16711746
0.3484384 0.3176312 0.8101236 16711746
-0.3236321 0.2637735 1.0121990 16711746
-0.2807002 0.3095484 0.9720943 16711746
-0.4331213 0.2653683 1.1584444 16711746
0.4602704 0.3316320 0.5518970 16711746
0.7332371 0.3075646 1.0241361 16711746
0.5256099 0.3098109 1.0299177 16711746
0.4657438 0.3191656 0.8679949 16711746
0.6078389 0.2384751 0.7820274 16711746
0.1735270 0.3263183 0.6678212 16711746
-0.0624063 0.2829542 1.3914332 16711746
0.8280273 0.2638373 0.6277995 16711746
0.4805775 0.2858220 1.0838369 16711746
0.6127327 0.3288113 2.0360515 16711746
0.2749060 0.2545657 1.9068354 16711746
0.8271608 0.2916707 1.3082676 16711746
-0.1636395 0.2925830 1.5241216 16711746
-0.6743591 0.1575179 0.8325673 16711746
0.5930097 0.3457058 0.5688733 16711746
-0.1114545 0.3228006 0.7734085 16711746
0.2870113 0.2737506 1.9808168 16711746
-0.8139536 0.2071190 1.1384133 16711746
0.8641503 0.2184382 0.9909943 16711746
0.7161349 0.3485630 0.6295216 16711746
-0.9201649 0.0921828 3.1391532 16711746
-0.7661383 0.1397982 1.0778047 16711746
-0.3024528 0.3109284 0.6958118 16711746
-0.0189429 0.3223146 0.7279190 16711746
0.6545820 0.2806828 0.5315845 16711746
0.1307081 0.3114585 0.9280953 16711746
0.5219030 0.3287525 0.5870982 16711746
-0.6999009 0.2311599 0.9447507 16711746
0.9225961 0.3233638 1.3083199 16711746
0.6907555 0.3047176 1.1633145 16711746
0.2175113 0.3327580 0.5950178 16711746
0.4259986 0.3262602 0.6047720 16711746
0.0985989 0.3220687 0.5868850 16711746
-0.0219659 0.3003762 0.5391775 16711746
0.0642457 0.3292876 0.6172796 16711746
-0.0409733 0.2776656 0.5253069 16711746
0.3210098 0.3270586 0.5954909 16711746
1.1250433 0.3233187 1.1534694 16711746
-0.3657070 0.2640915 0.9046429 16711746
0.9374145 0.3418059 0.7534373 16711746
0.4221989 0.2900146 1.5803794 16711746
0.4387857 0.3175730 0.7760391 16711746
0.0909397 0.3273607 0.7458614 16711746
-0.7509481 0.2161264 1.0092194 16711746
0.0489169 0.3237926 0.8251696 16711746
-0.8548620 0.2479561 2.7542281 16711746
0.0122930 0.3286532 1.0223868 16711746
0.7607308 0.2949872 0.8792833 16711746
-0.0853074 0.3185030 0.7037557 16711746
0.2119165 0.3241640 0.8579126 16711746
0.5485874 0.3392113 0.6434528 16711746
-0.3225871 0.3009957 0.7555414 16711746
-1.0258685 0.2282998 2.7315195 16711746
0.8618630 0.2699164 1.4541321 16711746
-0.6579432 0.1951857 0.7979875 16711746
0.0875799 0.2689404 1.0357667 16711746
0.7419307 0.3257794 0.6025566 16711746
0.7340820 0.3314721 0.7269664 16711746
0.8730235 0.2829567 0.6614611 16711746
0.8151535 0.2137543 0.6232654 16711746
-0.5246475 0.1513917 0.6535761 16711746
-0.6311105 0.1684460 0.7429396 16711746
0.8481458 0.2753113 1.0623772 16711746
0.5372212 0.3253853 0.6812922 16711746
-0.9716837 0.2164416 2.6090164 16711746
0.4624911 0.3283198 0.6007172 16711746
1.0625213 0.1708501 0.8681327 16711746
1.0233502 0.3181719 0.8965816 16711746
0.9965485 0.3107622 0.8761636 16711746
0.9431713 0.2318554 2.8186650 16711746
-0.9204015 -0.3736337 0.9391958 16711746
0.3154584 0.3419797 0.6861617 16711746
-0.7922226 0.2241500 0.9706818 16711746
-0.6521628 0.1559673 0.6557410 16711746
0.6257441 0.3098384 0.7317985 16711746
-0.4635433 0.2428177 0.6184161 16711746
1.0283822 0.2946720 2.3274517 16711746
0.3938929 0.3085562 0.9047164 16711746
0.5865952 0.3246810 0.5748625 16711746
0.8943418 0.2025959 0.7762089 16711746
0.3964395 0.3139400 0.9681693 16711746
0.6688414 0.3287005 0.8134405 16711746
0.8118293 0.2114575 0.6200962 16711746
0.9512359 0.1973726 0.6230316 16711746
-0.0612884 0.2802063 1.0469927 16711746
0.7682575 0.3332116 0.4927605 16711746
0.5965680 0.3465107 0.6659001 16711746
-0.1173620 0.0108803 0.2080569 16711746
0.6183299 0.2886428 0.4469937 16711746
-0.1751261 0.0154631 0.2500402 16711746
-0.1108917 0.2992780 0.5740861 16711746
-0.1822502 0.3339205 0.6614190 16711746
-0.3195392 0.3144283 0.5970423 16711746
-0.6951938 0.2808406 2.9067607 16711746
1.5022058 0.3381431 2.2066007 16711746
1.1264435 0.3027810 2.1300299 16711746
0.5291343 0.2958076 1.4265558 16711746
1.1240338 0.3296815 1.1934739 16711746
0.0905013 0.2467337 1.1274446 16711746
0.2519826 0.3142667 1.0064478 16711746
-0.3456462 0.2786921 1.1197418 16711746
-0.2997572 0.3037928 0.8841110 16711746
0.4771084 0.3139631 0.8544397 16711746
0.7927381 0.3164455 0.6213754 16711746
0.4002560 0.3179041 0.7063407 16711746
0.7204241 0.3172866 0.5026355 16711746
-0.4222452 0.2690268 1.7041740 16711746
-0.5974638 0.2302765 1.3159449 16711746
0.8963745 0.1833058 0.5856946 16711746
0.8737012 0.2302189 0.6676967 16711746
-0.0796126 0.2662843 1.8319530 16711746
0.8187178 0.3586201 0.5402337 16711746
0.4564299 0.3313621 0.6443953 16711746
0.0648615 0.1307153 1.4882324 16711746
0.0444690 0.3922017 0.8481243 16711746
0.2470237 0.2990812 1.0289704 16711746
0.8118403 0.1804188 0.7033167 16711746
-0.4299649 0.2876198 1.0677366 16711746
0.5812318 0.3259831 0.7785446 16711746
-0.3606763 0.3059159 0.7762232 16711746
0.0936369 -0.0164827 1.2255628 16711746
-0.3733009 0.2682069 1.0082422 16711746
0.8020145 0.3152640 0.5416173 16711746
-0.2628173 0.2992524 1.2265381 16711746
-0.6671491 0.3161323 1.0863479 16711746
-0.1332271 0.3070028 0.5900014 16711746
0.2923710 0.3156236 0.7984654 16711746
-0.3122205 0.2506299 1.8723247 16711746
0.7481067 0.1134110 0.4216860 16711746
0.5633947 0.3093719 0.8108026 16711746
0.0737911 0.3265412 0.7648001 16711746
1.6174140 0.2813174 1.9955473 16711746
0.1308331 -0.2247152 1.7292244 16711746
0.1582628 -0.2952924 1.5798057 16711746
0.8681064 0.1782243 0.5732529 16711746
-0.2028817 0.2182393 1.7534294 16711746
0.8106555 0.2825086 0.9115038 16711746
1.9381484 0.2934385 2.5781775 16711746
-0.0789546 0.3183420 0.5511163 16711746
-0.1045657 0.3175663 0.5619641 16711746
-0.0590806 0.2799423 1.7323943 16711746
0.2609603 0.3369630 1.0761583 16711746
0.5535993 0.3369259 0.5164894 16711746
-0.2030268 0.3158348 0.5155873 16711746
0.8204573 0.3163593 3.1509624 16711746
0.0807839 0.3209134 0.5781725 16711746
-0.0343606 0.3275971 0.5843014 16711746
-0.0320043 0.3190014 0.5954236 16711746
-0.7672815 0.2497725 0.8226678 16711746
-0.4647638 0.3143903 0.8461898 16711746
1.1604774 0.1276232 1.9498904 16711746
-0.1003870 0.3173202 0.8110245 16711746
0.8060343 0.3165025 0.8483865 16711746
-0.4780584 0.3203071 0.8004637 16711746
1.7912242 0.3273886 5.9914250 16711746
-0.0235747 0.3021600 0.5995862 16711746
-0.1047357 0.3147422 0.5608523 16711746
-0.3384597 0.3095505 0.7244422 16711746
0.2779602 0.3020485 0.8821786 16711746
1.1150087 0.2722479 2.7278502 16711746
0.0907525 0.3267224 1.0794713 16711746
-0.1793226 0.3132734 0.5741960 16711746
-0.2999344 -0.7670126 3.2998338 16711746
-0.0766349 0.3303261 0.7368460 16711746
1.0674653 0.2940114 1.8635319 16711746
0.4088266 0.2954744 1.2549020 16711746
1.1503372 0.3327270 1.0270497 16711746
-0.7157689 0.2741318 0.8640672 16711746
-0.0135690 0.3182055 0.6132652 16711746
0.6653174 0.3109815 0.8395038 16711746
-0.6719063 0.2001670 0.8184768 16711746
1.2905189 0.2785502 0.8994385 16711746
0.0754699 0.2707061 1.1057322 16711746
0.2969194 0.3139466 0.6140875 16711746
-0.2406464 0.3169042 1.4499867 16711746
1.1103274 0.2308647 1.1678516 16711746
-0.6304926 0.3001233 1.5590248 16711746
0.8640786 0.3140606 1.6359524 16711746
-0.7646300 0.1614054 1.7226360 16711746
0.7733839 0.3031175 1.9758626 16711746
-0.7180314 0.2274643 1.0805969 16711746
0.4295330 0.2967662 1.0915794 16711746
-0.2576476 0.3134114 0.8583710 16711746
1.6354568 0.3290420 1.3909302 16711746
-0.4680391 0.3186731 0.7340111 16711746
1.3138461 0.2476648 2.1993122 16711746
0.1675695 0.3343120 0.7575209 16711746
1.3201799 0.3429646 1.3327174 16711746
-1.0640695 0.1258790 1.3931324 16711746
-1.0445379 0.2324952 2.7795680 16711746
0.7981914 0.2389150 0.5423028 16711746
1.0620846 0.2716610 1.5757529 16711746
0.7086720 0.0429041 0.4025325 16711746
-0.8019536 0.3253001 1.1015226 16711746
0.7913368 0.2907036 0.7259899 16711746
-0.6361553 0.1309360 1.1648145 16711746
0.1151379 -0.8461290 2.1821206 16711746
0.4793784 -0.2478433 2.5390663 16711746
0.0995876 0.0154813 1.1501185 16711746
1.6392646 0.2816995 2.0618136 16711746
1.4885484 0.3315606 2.2309642 16711746
1.1968145 0.4281045 4.1919470 16711746
0.4618476 0.3040288 1.3732466 16711746
-0.1494877 0.3141293 0.5873128 16711746
0.2238058 0.3358959 0.6790549 16711746
-0.1976046 0.3124788 0.7716274 16711746
-0.6667948 0.2677387 1.0724123 16711746
-0.1246500 0.3108509 0.7523670 16711746
0.9802140 0.3097992 1.6428832 16711746
-0.1948507 0.1803589 3.3117733 16711746
0.5207843 0.3216891 0.7118856 16711746
0.4354615 0.2835701 1.0567981 16711746
-0.8686457 0.2280241 1.1164509 16711746
0.4184865 0.3352498 0.5714516 16711746
-0.0004885 0.2835376 0.9029208 16711746
-0.2830957 0.2992180 0.8279353 16711746
0.5778960 0.3220416 0.6089463 16711746
0.6168983 0.3272613 0.6956893 16711746
0.7513739 0.3254020 0.5739504 16711746
0.7887235 0.3245892 0.6656596 16711746
-0.4409363 0.2616743 1.3896934 16711746
0.9357325 0.3137020 2.3325586 16711746
0.8908800 0.2446047 0.9978750 16711746
0.8026824 0.1797942 0.9161982 16711746
-0.7346873 0.1024795 1.3844002 16711746
-0.1416572 0.2954844 0.9788559 16711746
0.1292787 0.3334933 0.6270450 16711746
0.2907692 0.3196006 0.7692269 16711746
0.5919615 0.2961617 0.8804340 16711746
0.6256840 0.3193433 0.7552018 16711746
0.0810306 0.3127384 0.5646350 16711746
1.1897267 0.1806917 1.7773823 16711746
-1.3186848 0.0012137 1.7812608 16711746
-0.4054502 0.2997068 0.7437157 16711746
1.5350509 0.3082967 1.2705700 16711746
0.1678370 0.3329630 0.8955932 16711746
-0.0131101 0.3057042 0.8643998 16711746
0.7097904 0.3057460 0.6424696 16711746
0.7852274 0.3376185 0.6004891 16711746
0.3060349 0.3131254 0.7819145 16711746
0.1562161 -0.0365141 1.3398162 16711746
1.6074238 0.4031252 3.0214715 16711746
0.1900468 0.3378233 0.7105323 16711746
-0.4191037 0.2728552 1.0472317 16711746
0.0876672 0.3228265 0.8664690 16711746
0.6127373 0.2986647 0.5964538 16711746
-0.5466254 0.2453527 1.0345398 16711746
0.9532612 0.2588936 1.4960552 16711746
0.1504660 0.3225842 0.7824925 16711746
0.3897521 0.3280917 0.6537171 16711746
0.7699746 0.3154460 0.7330616 16711746
0.5632552 0.2683622 0.3892975 16711746
0.0164392 0.3301231 0.6335221 16711746
0.1319513 -0.0617882 0.2266727 16711746
0.4051195 0.3060198 1.6012435 16711746
-0.1890741 0.3010756 1.1896633 16711746
-0.1179225 0.2868473 0.5589386 16711746
-0.3079914 0.3049233 0.5813376 16711746
0.9247171 0.3127630 0.8966806 16711746
-0.1953418 0.3100084 0.6732732 16711746
-0.2153648 0.2787742 1.5382601 16711746
-0.3387890 0.2747100 0.9289531 16711746
0.5079165 0.3010669 1.0028924 16711746
0.0287697 0.3006715 0.8934844 16711746
0.6098839 0.3218197 0.4655010 16711746
0.2778175 0.3255265 0.6758582 16711746
-0.2148432 0.2848834 1.1866661 16711746
0.5024603 0.2999296 1.0722238 16711746
-0.2842964 0.2711824 0.8807977 16711746
0.7876631 0.3070065 0.6545131 16711746
0.7893652 0.3228148 0.5670936 16711746
0.6152926 0.3491105 0.7526614 16711746
0.1189346 -0.1252978 1.6306049 16711746
0.1190456 0.2827025 1.1905124 16711746
0.8841243 0.1821860 0.5226286 16711746
0.7831125 0.2894689 0.7266126 16711746
0.0129553 0.3107908 0.7067217 16711746
0.1706449 0.3096680 0.8729796 16711746
0.2562827 0.2082842 1.9489114 16711746
0.3239142 0.2913525 1.3882967 16711746
-0.7997401 0.1843988 1.1714648 16711746
0.1047764 0.3167768 0.6252100 16711746
-0.6585993 0.2751448 1.3441371 16711746
0.9314685 0.1443780 0.5708126 16711746
0.7965916 0.2354761 0.9147586 16711746
0.5553324 0.3012418 1.1790111 16711746
-0.7615720 0.2662058 1.0547017 16711746
1.1722295 0.3751265 1.0247533 16711746
-0.1033651 0.2327790 0.8667125 16711746
0.1120834 0.3132080 0.6792444 16711746
-0.0997754 0.3166339 0.7075503 16711746
0.1550331 0.3460228 0.8344526 16711746
0.1735597 0.3367457 0.8483372 16711746
0.0437447 0.2493134 1.1559806 16711746
0.1811737 0.1260073 1.3891461 16711746
1.1944445 0.2935244 2.2704511 16711746
0.1226525 -0.1911992 1.4904952 16711746
0.7056592 0.2982703 1.3471396 16711746
0.9517698 0.1588248 0.6028726 16711746
-0.3802022 0.0288299 2.4997144 16711746
0.4544045 -0.2515634 2.4233131 16711746
1.2999867 0.2786210 1.3802907 16711746
0.5902925 0.3300183 0.6921391 16711746
-0.6715809 0.1949402 1.1260136 16711746
0.8703723 0.3089147 3.0477333 16711746
0.4117428 0.2795513 0.9280714 16711746
1.6073804 0.1966663 0.9397992 16711746
0.1278139 -0.9813306 2.5347962 16711746
0.3219157 0.2855424 1.2645987 16711746
0.4204031 0.3161264 0.8880183 16711746
0.5101714 0.3083829 0.6244552 16711746
0.4197488 0.3156861 0.8927257 16711746
0.1792898 0.2796984 0.9846056 16711746
0.8604726 0.2747913 0.9662930 16711746
0.5505122 0.2992407 1.1727968 16711746
1.9769692 0.3417957 2.4591830 16711746
0.7357368 0.3069148 0.5628825 16711746
1.0772177 0.0725010 0.6005053 16711746
1.0163040 0.3016800 1.4039946 16711746
-0.1986630 0.3031597 1.0092757 16711746
1.1221385 0.2755390 2.7419925 16711746
0.0192932 0.3215123 0.6469560 16711746
0.9218517 0.3468974 0.7332138 16711746
1.9014603 0.1806899 1.4928229 16711746
-0.6164284 0.2824442 2.0046051 16711746
-0.7541376 0.2551544 1.0398897 16711746
-0.3967813 0.2138478 1.1075040 16711746
-0.1706779 0.3141710 0.7186410 16711746
0.4078927 0.2778835 1.9659337 16711746
0.0777298 0.3301192 0.7847626 16711746
0.0980787 0.2422519 1.0781165 16711746
-0.4277981 0.2931944 0.9275096 16711746
0.0231308 0.3225002 0.7214866 16711746
0.2404502 0.3305179 0.7362592 16711746
0.3013224 0.3094589 0.7765856 16711746
-0.3857481 0.2433754 1.0168153 16711746
0.3210878 0.3324673 0.6323674 16711746
1.0040009 0.2956956 1.3828192 16711746
-1.0823407 0.0242301 1.1809448 16711746
0.0425081 0.2817210 1.0780474 16711746
0.0161040 0.3183413 0.8330963 16711746
0.3565051 0.3302765 0.6272058 16711746
0.2298921 0.3099183 0.9100752 16711746
0.4800684 0.3318570 0.7391042 16711746
0.5449564 0.2939692 1.7671071 16711746
0.0357791 0.2190087 1.4073189 16711746
0.1854533 0.3209147 0.7714060 16711746
0.0934751 0.3167686 0.6986722 16711746
0.0260478 0.3278762 0.7727929 16711746
0.6588160 0.2989767 0.8884703 16711746
-0.0859820 0.3026500 1.6470827 16711746
-0.4046554 0.0186458 2.7086751 16711746
-0.9071612 0.2625277 2.8976803 16711746
-0.2895508 0.2995172 0.9728914 16711746
0.9800847 0.3118888 2.6349475 16711746
0.3407674 0.4601489 1.0190644 16711746
0.4750273 0.3317067 0.5557647 16711746
-0.2946279 0.3071551 1.0370308 16711746
-0.5056512 0.2363958 0.6540396 16711746
-0.3270513 0.1614984 0.4746906 16711746
0.1524316 0.3394680 0.8231074 16711746
-0.2120325 0.3053914 1.0054160 16711746
-0.0063126 0.3074621 0.8350084 16711746
-0.4340214 0.3113419 0.7938282 16711746
0.4815188 0.3299978 0.6353675 16711746
0.7813120 0.2788042 0.6560870 16711746
-0.3594275 0.2103342 0.5237398 16711746
0.8409626 0.2236331 0.6420771 16711746
-0.8492683 0.1266962 1.0402656 16711746
-0.5016657 0.2696443 1.1936854 16711746
0.3247185 0.2904336 1.2779697 16711746
0.9202976 0.2979334 1.5108650 16711746
0.8346549 0.2618661 0.9375029 16711746
0.5199115 0.2826537 0.8619009 16711746
-0.0621617 0.2778912 1.3685554 16711746
0.0522996 0.3102543 0.9268191 16711746
0.2416022 0.1689418 1.8695018 16711746
0.1975478 0.3284835 0.7250287 16711746
0.0079609 0.3341219 0.7605214 16711746
-0.2615340 0.2589431 2.0412827 16711746
0.9372498 0.3035515 1.4031345 16711746
-0.5743623 0.1544052 1.0670124 16711746
0.2514932 0.3267187 0.7150502 16711746
1.1071826 0.1621439 1.6529485 16711746
-0.1490135 0.3143731 0.8364446 16711746
0.8336342 0.3177406 0.6020565 16711746
-0.0257349 0.2733142 1.1287068 16711746
0.1464431 0.3224210 0.7113893 16711746
0.7338283 0.3133441 1.1992679 16711746
0.6199241 0.3109610 0.9593337 16711746
-0.4331635 0.3062737 0.8573596 16711746
-0.2588887 0.3015291 1.2987583 16711746
0.3969936 0.3048615 1.0248523 16711746
0.3002001 0.3243675 0.6575370 16711746
0.5876702 0.3333199 0.5425907 16711746
-0.7692076 0.2651204 1.0211191 16711746
0.4519463 0.3078739 1.3443648 16711746
0.6918623 0.3363481 0.7081431 16711746
-0.1303076 0.3187862 0.7620618 16711746
0.8208579 0.3071398 0.5877309 16711746
-0.1237385 0.2543666 0.9243714 16711746
0.8585259 0.1898544 0.7421999 16711746
1.6432683 -0.7398184 1.8089836 16711746
0.5919436 0.3097849 1.1087283 16711746
0.1719887 0.3203155 0.6465542 16711746
-0.2936106 0.2978020 0.8713136 16711746
0.3495943 0.3620051 0.7028483 16711746
-0.3075572 0.2830558 0.9180907 16711746
1.3664916 0.3007848 2.0284774 16711746
0.3370090 0.3150778 0.8151153 16711746
-0.5153819 0.2459739 0.6189234 16711746
-0.0761604 0.2632732 1.8085613 16711746
0.4473714 0.3050150 0.8310524 16711746
-0.5590038 0.3023938 0.7507650 16711746
0.4020716 0.2853621 0.8111764 16711746
1.1154493 0.2327054 2.1678429 16711746
-0.0411059 0.3212017 0.6660146 16711746
-0.0774337 0.3254605 0.7881467 16711746
0.3299525 0.3224160 0.6993051 16711746
0.7017242 0.3293354 0.6361495 16711746
-0.1837961 0.3214456 0.6062599 16711746
-0.4687419 0.2516230 1.1259097 16711746
-0.3231512 0.3188195 0.6062582 16711746
-0.6677545 0.0243820 0.7726513 16711746
-0.2476016 0.3381064 0.9696322 16711746
-0.1883785 0.2690067 1.2293760 16711746
-0.7681224 0.1502661 1.0698695 16711746
0.6397333 0.3484210 0.5257675 16711746
0.3339662 0.3187396 0.7808428 16711746
-0.1636250 0.3118599 0.7131208 16711746
0.1223939 0.3197503 0.6951841 16711746
-0.4040745 0.3622357 0.8871166 16711746
-0.1821546 0.3002768 0.6031089 16711746
-0.2567077 0.1585734 0.4100765 16711746
-0.6267421 0.1735871 1.0551890 16711746
0.5423530 0.3281386 0.5039040 16711746
0.9168422 0.1904445 0.6018416 16711746
-0.0778581 0.2946608 1.3927480 16711746
0.6514447 0.3345778 0.5265793 16711746
0.1281971 0.2872067 1.0067049 16711746
0.1331239 0.3187724 0.6092668 16711746
0.6956503 0.3460755 0.4605308 16711746
-0.6046616 0.0596535 1.3554181 16711746
-0.1426690 0.2447444 0.9768958 16711746
0.3145252 0.3246585 0.6212144 16711746
-0.0254290 0.3036146 0.5969409 16711746
0.4588683 0.3354405 0.6535266 16711746
-0.5333951 0.1577257 1.1687020 16711746
0.9271463 0.1926812 0.6060026 16711746
-0.2328735 0.3088532 1.4099517 16711746
1.1795043 0.2817401 1.2111660 16711746
0.8051589 0.3433351 0.5370377 16711746
0.2622427 0.3065967 0.9172720 16711746
0.7681685 0.3168744 1.1294280 16711746
-0.6089052 0.0802517 1.2577974 16711746
-0.2683855 0.3183359 0.7013826 16711746
0.0409969 0.3033765 0.9326013 16711746
-3.4841743 -0.9860483 3.7541683 16711746
0.4923076 0.3575103 0.6111944 16711746
-0.0715925 0.3205580 0.6465985 16711746
0.3227350 0.3290572 0.6430648 16711746
-0.3015268 0.2841420 1.0009815 16711746
0.4273864 0.3182448 0.7566388 16711746
0.2384338 0.3175850 0.8748381 16711746
0.3403544 0.3130081 0.8545577 16711746
0.5701675 0.3356966 0.5829194 16711746
0.6005232 0.3447098 0.6138362 16711746
0.2969880 0.3399226 0.8769634 16711746
0.7036186 0.3162509 0.5034242 16711746
-0.3293533 0.3153887 0.6445588 16711746
0.3156573 0.3170608 0.6241528 16711746
-0.0911555 0.3242254 0.5963079 16711746
0.4907497 0.1351306 0.2563097 16711746
0.4349914 0.0967778 0.2241103 16711746
-0.3227842 0.1856477 0.4478082 16711746
0.6113594 0.3085233 1.0880055 16711746
0.6530472 0.3283178 0.5065310 16711746
-0.2344591 0.3158562 0.9140409 16711746
-0.4735920 0.1282088 0.5806599 16711746
0.1094364 -0.1568226 1.2073212 16711746
0.2792135 0.3318597 0.6433910 16711746
-0.4703480 0.1382715 0.5805191 16711746
-0.3626245 -0.3400350 1.6720731 16711746
-0.9522891 -0.2857507 1.8824755 16711746
-0.0274942 0.3195298 0.9206439 16711746
-0.3534492 0.2836081 0.9523402 16711746
-0.9332276 0.1301180 1.3094116 16711746
0.0868489 0.3257848 0.6685440 16711746
-0.3311199 0.1632273 0.4542537 16711746
0.1141729 0.3014688 0.6974195 16711746
0.7901145 0.3179267 0.7055091 16711746
0.0428510 0.3006991 0.9234003 16711746
0.7559645 0.3111941 1.1136862 16711746
-0.3085305 0.2670205 0.8417079 16711746
0.9196460 0.3402822 0.6303982 16711746
-0.4353620 0.3136332 0.7986981 16711746
0.7941684 0.3058034 0.8715113 16711746
0.2963815 0.3247533 0.8509777 16711746
0.1662232 0.3249452 0.6955557 16711746
-0.2879747 0.2869349 0.7997369 16711746
-0.6885204 -0.5269948 1.6030422 16711746
0.6175932 0.3310673 0.6272163 16711746
0.1725354 0.2639124 1.0624851 16711746
0.1450736 0.3032674 0.9473740 16711746
0.4204212 0.2966778 0.6762224 16711746
-1.3265578 -0.3027234 1.4354669 16711746
-1.5415666 -0.5265442 1.6215203 16711746
-0.7210810 0.2585739 2.4442034 16711746
1.0051743 0.2792313 1.1329602 16711746
-0.5134273 0.2761848 0.6515298 16711746
0.4718689 0.3039418 0.8993596 16711746
-1.7948793 -0.7695587 1.8232551 16711746
-0.0193301 0.2738821 0.9944691 16711746
-0.3023871 0.2867072 0.9681165 16711746
-0.7595440 0.3078620 1.0551877 16711746
0.7704086 0.2236143 0.8991542 16711746
-0.3050204 0.2909307 0.9063252 16711746
-0.0225793 0.3488705 0.7763975 16711746
-1.0160812 0.1058384 1.1694009 16711746
0.0853139 0.2669210 1.0820266 16711746
-0.3437529 0.3406242 0.6355995 16711746
0.2468427 0.3193552 0.7544711 16711746
-0.5919930 0.1237921 1.0028814 16711746
0.6467049 0.3324168 0.5228184 16711746
0.6658436 0.3148405 0.7090555 16711746
0.0174694 0.2446143 1.1204708 16711746
0.5517373 0.3389301 0.5429720 16711746
0.0379949 -0.3913296 1.4803342 16711746
0.2599586 0.3166654 0.7273658 16711746
-1.5192900 -0.1643825 1.6017851 16711746
-1.2520422 -0.3641994 1.6612005 16711746
-0.9630804 0.2136240 2.5709980 16711746
0.7752826 0.3221681 0.7774105 16711746
0.5903087 0.1902439 0.3367727 16711746
0.7162439 0.1440353 0.3555094 16711746
0.6133510 0.2898866 0.4199131 16711746
0.4497726 0.1131512 0.2271353 16711746
0.6415055 0.1851491 0.3200080 16711746
0.2789851 0.3233476 0.6394908 16711746
0.5693285 0.3282594 0.4894513 16711746
0.3382583 0.3280830 0.6882628 16711746
0.2919086 0.3280186 0.7135378 16711746
0.2884777 0.3241528 0.7061700 16711746
0.5926108 0.2985223 0.4940023 16711746
0.4351643 0.3356641 0.7326897 16711746
0.4646987 0.2262610 0.6875969 16711746
0.6151920 0.1247541 0.3140540 16711746
0.4356273 0.1550861 0.2425744 16711746
0.6749049 0.2848593 0.5093421 16711746
0.6976330 0.2345471 0.3935515 16711746
0.6557302 0.1351176 0.3352666 16711746
-0.0577384 0.3154891 0.6171888 16711746
0.5746484 0.1208056 0.2925473 16711746
0.5477276 0.2204964 0.3364864 16711746
0.6038899 0.1763491 0.4606215 16711746
0.2164096 0.3269736 0.7069771 16711746
-0.0559602 0.3248889 0.7042798 16711746
0.6081629 0.3201536 0.4675944 16711746
0.8722951 0.2862808 0.6410780 16711746
0.8372470 0.2111497 0.6325087 16711746
-0.0318651 0.3016646 0.8901162 16711746
-0.0416940 0.3218729 0.6180837 16711746
-0.5382439 0.2308324 1.3448347 16711746
0.6544238 0.3130022 1.7458638 16711746
0.5059377 0.2935391 1.2138615 16711746
-0.4701600 0.3490951 0.8060744 16711746
0.0983387 0.3039154 0.9284673 16711746
0.2720497 0.2882395 1.4712890 16711746
0.4994152 0.2952600 0.9865196 16711746
-0.1421098 0.2906773 0.9673195 16711746
0.2444032 0.2937305 1.0202363 16711746
-0.5886007 0.2696094 0.7481324 16711746
-0.0704850 0.2778351 0.9784849 16711746
0.3819722 0.2880149 1.7768708 16711746
0.2892000 0.3086748 0.8742521 16711746
0.3204688 0.3046940 0.9440887 16711746
0.0522095 0.3118476 0.8979890 16711746
0.0541726 0.3247233 0.6506184 16711746
0.3869331 0.3260353 0.6474064 16711746
0.5184938 0.2917515 2.0657194 16711746
-0.2484346 0.2824415 0.9567840 16711746
-0.0976459 0.2493263 1.1126760 16711746
-0.5423476 0.1353371 0.9922208 16711746
0.3145849 0.2809325 1.3515697 16711746
-0.6838087 0.3127150 0.7584003 16711746
0.2153353 0.2472808 1.5640999 16711746
-0.4590983 0.1082054 1.1422473 16711746
-0.5952924 0.3119733 0.8731376 16711746
-0.4755319 0.3552747 0.7478487 16711746
0.1172355 0.3228328 0.7285771 16711746
0.3442255 0.3332429 0.7176398 16711746
-0.7041392 0.1630683 0.9342804 16711746
0.5533901 0.3163945 0.4980250 16711746
-0.0137851 0.3337868 0.6965366 16711746
0.6998679 0.2922385 0.4763280 16711746
-0.1172704 0.2159085 0.8817881 16711746
0.5488920 0.1740808 0.3146904 16711746
0.3742208 0.3407798 0.6262470 16711746
0.2299088 0.3083630 0.8175598 16711746
0.4953107 0.3336229 0.6609488 16711746
0.5463334 0.3102503 0.4893395 16711746
0.7930637 0.1490446 0.4489626 16711746
0.5706341 0.3486646 0.5356796 16711746
0.6033704 0.2869247 0.4091338 16711746
0.6411015 0.3173040 0.4694090 16711746
-0.2811783 0.3353146 0.7126898 16711746
0.2014478 0.3173261 0.8103192 16711746
0.6836884 0.2093678 0.4728659 16711746
0.9617161 0.2153911 0.6871546 16711746
0.4927897 0.3138369 0.9678461 16711746
-0.2268825 0.2847077 1.1169313 16711746
1.2065536 0.1978365 0.6679682 16711746
0.8403924 0.3071651 1.1631780 16711746
-0.2788590 0.3059932 0.8717940 16711746
-0.2520712 0.3129096 0.6563407 16711746
0.4714296 0.3255079 0.7289840 16711746
0.0509575 0.3066179 0.8700472 16711746
0.3800333 0.2965873 1.3311849 16711746
0.5444895 0.1812551 0.3080740 16711746
0.3575213 0.2763215 1.2511107 16711746
0.0745383 0.2617287 1.1010075 16711746
-0.7512726 0.1937163 1.0653861 16711746
0.1403090 0.2899084 0.9966095 16711746
0.1602206 0.3221092 0.7815965 16711746
-0.6248753 -0.5132359 1.3403772 16711746
0.5901654 0.2302067 0.7591335 16711746
-0.6840307 0.1033535 0.8567773 16711746
0.6507948 -0.0400480 0.7089685 16711746
-0.5920581 -0.0798196 0.7032791 16711746
0.3017940 -0.1546592 0.8208678 16711746
-0.2367546 0.2481679 1.3870950 16711746
0.1474082 0.2864843 1.0363235 16711746
-0.1510109 0.3172475 0.8387778 16711746
0.1087124 0.0430835 1.0703436 16711746
-0.8147616 -0.3673712 0.9459394 16711746
0.3355402 0.3193036 0.9811404 16711746
-0.0816240 0.2643814 1.8121076 16711746
-0.0112476 0.3261082 0.6823264 16711746
0.5328754 -0.1347585 0.4340508 16711746
-0.1008243 0.2869812 0.8364668 16711746
0.2949525 0.3246241 0.6128743 16711746
0.1420737 0.3294821 0.8537206 16711746
-0.2484377 0.3053859 0.7384987 16711746
-0.2653909 0.3125288 0.7791991 16711746
0.7218522 0.2868071 0.6526148 16711746
0.4205762 0.3218349 0.5748087 16711746
0.1637216 0.3250505 0.8681396 16711746
-0.5501094 0.1707730 0.9717185 16711746
-0.4814234 0.3775457 0.7934582 16711746
-0.4645170 0.0133513 1.1401426 16711746
-0.4577946 0.0816800 0.8890581 16711746
-0.2408768 0.2894410 1.0683284 16711746
-0.5224246 0.1629699 0.9288805 16711746
-0.4637989 0.3247696 0.9092843 16711746
0.1227189 0.3247527 0.8182433 16711746
0.7446092 0.2480421 0.7574954 16711746
1.1607690 0.2079309 0.9260235 16711746
-0.2250562 0.2736119 1.0124855 16711746
0.4973571 0.3197532 0.4947471 16711746
-0.0676352 0.2924708 1.1601555 16711746
0.5189571 0.3486813 0.8554494 16711746
0.0957621 0.3075652 1.0171894 16711746
0.6787624 0.3119951 0.8771124 16711746
0.6991116 0.3179731 0.5172024 16711746
0.3086358 0.3351086 0.6761819 16711746
-0.0153926 0.3255146 0.7839231 16711746
0.6359937 0.3088342 0.8969101 16711746
0.7479719 0.2510062 0.7560974 16711746
0.5136536 0.3340807 0.5383356 16711746
-0.5656702 0.3437940 0.7645046 16711746
0.8577613 0.3239325 0.5887021 16711746
0.1959425 0.1614826 1.6728429 16711746
-0.1889774 0.2432534 0.9799750 16711746
0.5472619 0.3026762 0.4230856 16711746
0.6570452 0.3174922 0.7592356 16711746
0.5207371 0.1020972 0.2636687 16711746
-0.0628171 0.3139715 0.6339895 16711746
0.0044175 0.3114262 1.1084008 16711746
-0.1354219 0.2751772 0.9957110 16711746
-0.3931627 0.2452749 1.1331348 16711746
-0.8640731 0.0624030 0.9994956 16711746
-0.2967471 0.2733001 1.0917774 16711746
-0.5522964 0.1377859 0.9690214 16711746
0.5748388 0.3088473 0.5557670 16711746
-0.3319072 0.2294263 1.0152527 16711746
0.0914282 0.3128085 0.7426032 16711746
-0.3662256 -0.3763982 0.9194446 16711746
-0.5796072 -0.1821852 0.8876554 16711746
-0.4851840 -0.1283624 1.2251952 16711746
0.8454525 0.3173182 1.7277588 16711746
0.3710533 0.2876361 1.0833498 16711746
0.8199416 0.2976514 0.6020055 16711746
0.7989399 0.2603142 0.7680399 16711746
0.6752318 0.3297010 0.6701819 16711746
0.2603927 0.3026970 1.1179171 16711746
0.4645787 0.3096243 1.6106572 16711746
0.4701512 0.3392117 0.6137375 16711746
0.3868999 0.2963979 0.9973382 16711746
0.5906182 0.3445872 0.6000358 16711746
1.1998588 0.1220339 1.6569846 16711746
-0.0400236 0.3170222 0.6523068 16711746
-0.6503921 0.3618124 0.9342863 16711746
0.6768569 0.3090692 0.8232375 16711746
-0.6577627 0.3031458 0.8196718 16711746
-0.1475375 0.2710428 0.9406956 16711746
-0.1617129 0.3324340 0.6686972 16711746
0.8420380 0.2275419 0.6273463 16711746
-0.8125944 -0.1643411 1.2253234 16711746
0.1672520 -0.2271441 0.7317330 16711746
-0.0105615 0.1176150 0.8337799 16711746
-3.7914286 -1.1199772 3.7505581 16711746
-2.5205004 -1.1280529 2.6011441 16711746
0.7173653 0.3638037 0.5868127 16711746
-0.3557356 -0.0185901 0.9283716 16711746
0.6012962 0.3062777 0.5983859 16711746
-0.7855911 -0.3340015 0.8585758 16711746
-0.1222571 0.3123867 0.6765139 16711746
-0.1149705 0.3232940 0.6993765 16711746
-0.4732493 0.3354949 0.8182035 16711746
-0.3408905 -0.1867757 0.9636298 16711746
1.1587660 0.3899112 0.7799886 16711746
-0.5711000 0.1047169 0.8491362 16711746
-0.1191961 0.3227979 0.9307250 16711746
-0.4926841 -0.2123618 0.8555241 16711746
0.9734075 0.4695334 0.7943508 16711746
0.8426645 0.2213634 0.6410413 16711746
-0.2348484 -0.0015906 0.3403578 16711746
0.1580469 0.3060353 0.7053025 16711746
0.0603371 -0.0288986 0.1046639 16711746
-0.0816216 -0.0025214 0.1984977 16711746
0.7576362 0.2555698 0.7619016 16711746
0.5118544 0.3275541 0.8783917 16711746
0.6679415 0.3291476 0.8545718 16711746
0.1504256 -0.0354678 0.1851403 16711746
0.7878633 0.2479396 0.8874539 16711746
0.8214465 0.2669508 0.7893013 16711746
-0.6727025 0.1414614 0.7811860 16711746
-0.0934514 0.3337244 0.7162440 16711746
0.7090431 0.3434745 0.5873187 16711746
-0.4555083 0.2935188 1.4869469 16711746
0.6038856 0.3093100 0.9577534 16711746
-0.0357374 0.3224520 0.7299861 16711746
0.3383225 0.3191428 1.8562366 16711746
0.7807140 0.2108914 0.6898803 16711746
0.7261316 0.2455141 0.4475585 16711746
-0.6484699 0.2111149 0.8662988 16711746
1.2063068 0.1252352 1.7137917 16711746
-0.7003732 0.1437782 1.4230291 16711746
-0.3235456 0.2900061 0.8250318 16711746
0.5177827 0.3235275 2.3458722 16711746
-0.5602264 0.1600930 1.1467657 16711746
0.6736557 0.3156157 0.8386244 16711746
0.1410267 -0.0319532 0.1794365 16711746
0.4540379 0.3304016 0.6447691 16711746
0.5887069 0.3149382 0.4317293 16711746
-0.1061523 -0.1186422 0.3827093 16711746
-0.6445180 -0.1594121 0.7592086 16711746
0.0274904 -0.0491540 0.1619779 16711746
0.5992599 0.1896843 0.4393408 16711746
-0.6417134 0.1478116 0.6820574 16711746
-0.0963484 -0.1392742 0.4226945 16711746
-0.3236314 -0.1781083 0.7427781 16711746
0.7646255 0.1675650 0.4461882 16711746
0.3040530 0.3294644 0.6676802 16711746
0.5153769 0.3343560 0.6692999 16711746
-0.7401798 0.3011916 0.8782027 16711746
0.6657188 0.3354252 0.5104370 16711746
-0.2881335 0.3372732 0.6783704 16711746
0.4829856 0.3776682 0.6234535 16711746
-0.6126097 -0.3799030 0.7642504 16711746
-0.2281805 -0.2391853 0.7866345 16711746
-0.0796651 -0.1305957 0.6282516 16711746
-0.1516238 -0.2200885 0.5924851 16711746
-0.3820951 0.1712326 2.2385526 16711746
-0.6745956 0.1674212 0.8060578 16711746
-0.0167880 0.3031942 2.1264620 16711746
0.0718003 -0.0711565 0.9271836 16711746
-0.6059232 0.3120638 0.7792040 16711746
-0.2644900 0.3102762 0.6332103 16711746
0.0941677 0.2931013 0.8754215 16711746
