# .PCD v.7 - Point Cloud Data file format
VERSION .7
FIELDS x y z rgb
SIZE 4 4 4 4
TYPE F F F F
COUNT 1 1 1 1
WIDTH 1186
HEIGHT 1
VIEWPOINT 0 0 0 1 0 0 0
POINTS 1186
DATA ascii
0.3662914 -0.0570829 0.9404915 16711746
0.3837911 -0.0413519 0.9326077 16711746
0.3798670 -0.0388072 0.9348251 16711746
0.3755295 -0.0401331 0.9356490 16711746
0.3708453 -0.0643822 0.9590884 16711746
0.3803736 -0.0567164 0.9449621 16711746
0.3715084 -0.0670322 0.9539293 16711746
0.3037561 -0.1422031 0.9714440 16711746
0.2701282 -0.1538574 0.9764127 16711746
0.3794634 -0.0472774 0.9351729 16711746
0.3818383 -0.0419768 0.9377428 16711746
0.2913441 -0.1324330 0.9916211 16711746
0.3356914 -0.0778419 0.9352691 16711746
0.2653647 -0.1665296 0.9735351 16711746
0.3505613 -0.0596162 0.9347731 16711746
0.3243749 -0.1308742 1.0080559 16711746
0.3969336 -0.0467873 0.9441991 16711746
0.3196804 -0.0883715 0.9414885 16711746
0.2744086 -0.1192147 1.0033206 16711746
0.3783514 -0.0422916 0.9324805 16711746
0.3714037 -0.0911046 0.9636154 16711746
0.2659279 -0.1581703 0.9783006 16711746
0.3338682 -0.0632530 0.9523658 16711746
0.3197543 -0.0996904 0.9889851 16711746
0.2988325 -0.1240879 0.9862879 16711746
0.3600727 -0.5636426 1.2415947 16711746
0.3795246 -0.0490739 0.9375196 16711746
0.3443904 -0.1034260 0.9639539 16711746
0.3769136 -0.0733127 0.9451197 16711746
0.1610246 -0.1861688 1.1745131 16711746
0.3181186 -0.1537527 0.9839291 16711746
0.4087526 -0.1049699 0.9633798 16711746
0.3299213 -0.1288810 0.9981714 16711746
0.2464179 -0.1396434 1.0025454 16711746
0.3459926 -0.0726603 0.9968389 16711746
0.3192990 -0.1102685 1.0013598 16711746
0.3210025 -0.1374286 1.0126796 16711746
0.3414880 -0.0929049 0.9519099 16711746
0.4084240 -0.0528144 0.9417430 16711746
0.3841299 -0.0429804 0.9341658 16711746
0.2655367 -0.1656349 0.9695431 16711746
0.4678607 -0.1527866 1.0416235 16711746
0.2943943 -0.1287316 0.9645953 16711746
0.2706998 -0.1579377 0.9670504 16711746
0.3663034 -0.1289971 0.9928305 16711746
0.3307242 -0.1311190 1.0004797 16711746
0.2176473 -0.1494314 0.9754516 16711746
0.2672086 -0.1063656 0.9833556 16711746
0.3150522 -0.1040717 0.9941910 16711746
0.4422335 -0.1880489 1.0209434 16711746
0.3002278 -0.1474117 0.9734585 16711746
0.2726716 -0.1575859 0.9703410 16711746
0.2167496 -0.1504379 0.9757015 16711746
0.3375808 -0.0972612 0.9733687 16711746
0.3341318 -0.1850976 0.9780139 16711746
0.2845408 -0.1418127 0.9622156 16711746
0.4612339 -0.1750479 1.0324516 16711746
0.3908002 -0.1151709 1.0009527 16711746
0.4246439 -0.1473152 0.9877877 16711746
0.3428575 -0.0953580 0.9851046 16711746
0.4139583 -0.1357937 1.0271691 16711746
0.3249535 -0.1052127 0.9952862 16711746
0.3458604 -0.0852847 0.9879162 16711746
0.2441141 -0.1482305 0.9867809 16711746
0.2734877 -0.1079568 0.9698305 16711746
0.2862418 -0.1407684 0.9624870 16711746
0.3386933 -0.1026485 0.9913995 16711746
0.3158328 -0.1212154 1.0072969 16711746
0.3220775 -0.1380633 1.0098771 16711746
0.4328434 -0.1530667 1.0413482 16711746
0.2817200 -0.1103234 0.9671596 16711746
0.3146709 -0.1450338 1.0081787 16711746
0.4147350 -0.1798931 1.0423187 16711746
0.4511920 -0.1280527 1.0126543 16711746
0.2829154 -0.1095332 0.9818616 16711746
0.2837825 -0.0993062 0.9758729 16711746
0.3221930 -0.1340524 1.0104976 16711746
0.4217732 -0.0903454 1.0113447 16711746
0.4264967 -0.1474487 1.0022213 16711746
0.2736356 -0.1078792 0.9723059 16711746
0.2662511 -0.2198092 0.9792219 16711746
0.3495216 -0.1342744 0.9954342 16711746
0.3248554 -0.1129638 0.9592978 16711746
0.3256816 -0.1371529 0.9989696 16711746
0.3976936 -0.0619586 0.9780592 16711746
0.3355165 -0.2094453 1.0175530 16711746
0.3501643 -0.0623967 0.9619906 16711746
0.4419010 -0.1176358 1.0020968 16711746
0.3150996 -0.1179727 0.9972466 16711746
0.4199812 -0.0657682 1.0025433 16711746
0.3985553 -0.0946728 1.0316869 16711746
0.4037963 -0.0966230 1.0492979 16711746
0.4781616 -0.1565050 1.0257429 16711746
0.4581288 -0.0854727 0.9864681 16711746
0.4226602 -0.0913421 1.0128163 16711746
0.4495218 -0.0858053 1.0104045 16711746
0.3953633 -0.1156372 1.0025104 16711746
0.4871792 -0.1132303 1.0534269 16711746
0.3359720 -0.0755191 0.9800949 16711746
0.3448947 -0.0798054 0.9533321 16711746
0.3425650 -0.0818463 0.9707045 16711746
0.1516025 -0.2188021 1.0302550 16711746
0.2597302 -0.2873593 1.1513292 16711746
0.4800721 -0.1207297 1.0999687 16711746
0.4306721 -0.0818695 1.0198909 16711746
0.3970681 -0.1549543 0.9682917 16711746
0.3993862 -0.1152356 0.9953733 16711746
0.3670304 -0.1091403 0.9852611 16711746
0.3688231 -0.0866456 0.9631582 16711746
0.4330721 -0.0943378 1.0018468 16711746
0.3727661 -0.0423812 0.9351114 16711746
0.3787335 -0.0390445 0.9370632 16711746
0.3927733 -0.0617582 0.9532043 16711746
0.3340659 -0.1042944 0.9731706 16711746
0.3737029 -0.0535762 0.9378223 16711746
0.3900720 -0.0575927 0.9459835 16711746
0.4229002 -0.0667004 1.0012079 16711746
0.3910159 -0.1484625 0.9840351 16711746
0.3436516 -0.0753014 1.0011027 16711746
0.3752846 -0.0581597 0.9583520 16711746
0.4005711 -0.0485727 0.9684091 16711746
0.3278087 -0.0900907 0.9468101 16711746
0.3890205 -0.0553155 0.9815185 16711746
0.3743841 -0.0600790 0.9620844 16711746
0.3650907 -0.0713032 0.9782980 16711746
0.3861511 -0.0488184 0.9433377 16711746
0.4360256 -0.1422951 0.9706828 16711746
0.3790934 -0.0586472 0.9553530 16711746
0.9320305 -0.3105771 1.5566109 16711746
0.3824434 -0.0351982 0.9382337 16711746
0.3907846 -0.0414208 0.9343305 16711746
0.3721708 -0.1943083 1.0293795 16711746
0.3731784 -0.0608066 0.9507453 16711746
0.4300012 -0.1275143 0.9719014 16711746
0.3776801 -0.0608022 0.9613756 16711746
0.3790094 -0.0564418 0.9595157 16711746
0.3971697 -0.0523135 0.9649331 16711746
0.3790396 -0.0609368 0.9555117 16711746
0.4397278 -0.1501139 0.9812984 16711746
0.3776090 -0.2773796 1.1360749 16711746
0.1583017 -0.4675327 1.2499133 16711746
0.3904510 -0.0411094 0.9412028 16711746
0.3872170 -0.0473970 0.9367146 16711746
0.3876625 -0.0376782 0.9414920 16711746
0.3942575 -0.0460797 0.9587951 16711746
0.3993073 -0.0516602 0.9712489 16711746
0.3963401 -0.0471342 0.9473274 16711746
0.3716326 -0.0432344 0.9317142 16711746
0.3596725 -0.0645959 0.9361372 16711746
0.3757229 -0.0753219 0.9490215 16711746
0.3757900 -0.0563378 0.9569926 16711746
0.3685017 -0.0718873 0.9427350 16711746
0.3798828 -0.0544757 0.9569565 16711746
0.4313197 -0.1412088 0.9717553 16711746
0.3957926 -0.0662365 0.9693437 16711746
0.3786545 -0.0795707 0.9502597 16711746
0.3952639 -0.0454299 0.9660105 16711746
0.3843535 -0.0475445 0.9379589 16711746
0.3968171 -0.0512276 0.9346731 16711746
0.4371938 -0.1928588 0.9580001 16711746
0.3898955 -0.0433782 0.9384206 16711746
0.3972379 -0.0422118 0.9556553 16711746
0.3871081 -0.0488524 0.9378885 16711746
0.3880762 -0.0393131 0.9323874 16711746
0.3921593 -0.0470669 0.9315782 16711746
0.3916277 -0.0301835 0.9200091 16711746
0.3448684 -0.1338878 0.9847724 16711746
0.3875906 -0.0423367 0.9323181 16711746
0.3864423 -0.0438225 0.9272671 16711746
0.3941219 -0.0429743 0.9346498 16711746
0.3877959 -0.0430205 0.9361910 16711746
0.3762417 -0.0336634 0.9193090 16711746
0.0261509 -0.1581641 0.1615497 16711746
-0.1115761 -0.1448391 0.2493787 16711746
0.4048520 -3.2408199 1.9402879 16711746
0.9880631 -0.6214054 0.7806320 16711746
0.0301638 -0.1158874 0.1420783 16711746
0.0284521 -0.1167115 0.1420292 16711746
0.0230068 -0.1399433 0.1697852 16711746
0.0340096 -0.1240757 0.1512347 16711746
0.0257378 -0.1199833 0.1594135 16711746
0.0144212 -0.1753691 0.1801738 16711746
0.0130734 -0.1706182 0.2873026 16711746
0.0340580 -0.1848608 0.1797928 16711746
0.0297184 -0.1306395 0.1503943 16711746
0.0057378 -0.1462821 0.1930538 16711746
0.0196281 -0.1661471 0.1679379 16711746
0.0312173 -0.1646010 0.1605035 16711746
0.0297035 -0.1283820 0.1643137 16711746
0.0240091 -0.1653977 0.1786073 16711746
0.0318877 -0.1742624 0.1552244 16711746
0.0283542 -0.1564567 0.1645485 16711746
0.0296337 -0.1496676 0.1810086 16711746
0.0166815 -0.1197176 0.1637300 16711746
-0.0579210 -0.1703509 0.2750091 16711746
0.0305915 -0.1273689 0.1618832 16711746
0.0086478 -0.1376099 0.1898420 16711746
-0.1482773 -0.1755653 0.3408200 16711746
0.0256031 -0.1687140 0.1789287 16711746
0.0350182 -0.1439735 0.1502538 16711746
0.0289984 -0.1345627 0.1722817 16711746
0.0336468 -0.2274708 0.1584392 16711746
0.0197356 -0.1747088 0.1815056 16711746
0.0286432 -0.1308961 0.1538725 16711746
0.0301795 -0.1698149 0.1647986 16711746
0.0238949 -0.1855337 0.1758112 16711746
-0.0573926 -0.3267307 0.1273793 16711746
0.0301207 -0.1602734 0.1669739 16711746
0.0317485 -0.2368738 0.1693958 16711746
0.0268592 -0.1221349 0.1557402 16711746
-0.0765053 -0.3650090 0.1386814 16711746
-0.1530495 -0.1717720 0.3275050 16711746
-0.1781614 -0.1591599 0.3376036 16711746
-0.1760034 -0.3993825 0.1803448 16711746
-0.1945029 -0.2340223 0.3895923 16711746
-0.0306156 -0.6153884 0.8295837 16711746
0.0312437 -0.2382585 0.1682665 16711746
-0.1579878 -0.5377569 0.3014732 16711746
-0.3771463 -0.5324882 0.3435259 16711746
0.0122458 -0.2918817 0.2204539 16711746
-0.1734228 -0.3979110 0.1679882 16711746
0.0329327 -0.1274582 0.1435963 16711746
0.0308473 -0.1499727 0.1760186 16711746
0.0282837 -0.1307134 0.1705353 16711746
-0.1716803 -0.1568651 0.3285429 16711746
0.0045735 -0.3070636 0.2267018 16711746
-0.1305515 -0.1661888 0.3157143 16711746
0.5415822 -0.5217597 0.4727234 16711746
0.0198931 -0.2666005 0.2000812 16711746
0.1868355 -0.5438264 0.2325840 16711746
-0.2358172 -0.2572900 0.3670099 16711746
1.0288476 -0.6219871 0.9281206 16711746
0.0882630 -0.1711916 0.1151326 16711746
-0.2374131 -0.1707505 0.3137304 16711746
0.0129601 -0.2071557 0.1786636 16711746
0.0265906 -0.1768273 0.1761703 16711746
0.0227839 -0.2566555 0.1903625 16711746
0.0322790 -0.1106543 0.1394213 16711746
0.0190547 -0.3297605 0.2149829 16711746
-0.0307780 -0.1498491 0.1115344 16711746
0.0300239 -0.4314503 0.4025153 16711746
0.0225382 -0.1600573 0.1801686 16711746
0.0295786 -0.1342766 0.1570978 16711746
0.0684592 -0.1619965 0.2180255 16711746
-0.3075732 -0.3793110 0.3198780 16711746
0.0152534 -0.3481883 0.3408133 16711746
0.2612433 -0.5316761 0.3040127 16711746
-0.1732354 -0.5580710 0.5142117 16711746
0.0347929 -0.1197094 0.1527549 16711746
-0.2231598 -0.2448917 0.2611654 16711746
0.3903002 -0.5047512 0.7086399 16711746
-0.2015910 -0.6113983 0.4818781 16711746
0.0313920 -0.1263428 0.1659286 16711746
-0.0870303 -0.4243078 0.2352093 16711746
0.0251479 -0.2581536 0.1934885 16711746
0.0159646 -0.1742789 0.1793175 16711746
-0.2699856 -0.5592915 0.5636205 16711746
-0.1458793 -0.1630128 0.2972683 16711746
-0.5742784 -0.5558083 0.5097052 16711746
-0.0002838 -0.5637690 0.2883000 16711746
0.5242317 -1.2659909 0.8693016 16711746
0.0363467 -0.2719488 0.3185882 16711746
-0.1331535 -0.1685389 0.3190288 16711746
-0.2883038 -0.6326314 0.3565257 16711746
-0.4531974 -0.4600948 0.4169376 16711746
-0.4025558 -0.7413074 0.4553945 16711746
0.1951463 -1.3805515 0.7504883 16711746
0.0270085 -0.1318420 0.1566749 16711746
0.0443540 -0.2914078 0.2743481 16711746
-0.0950705 -0.2024670 0.1481704 16711746
0.0281497 -0.1531511 0.1486110 16711746
0.0632227 -0.0889998 0.0662661 16711746
0.0316810 -0.1597242 0.1572485 16711746
0.0461715 -0.2013882 0.1558604 16711746
-0.1742214 -0.5181745 0.2714492 16711746
-0.0770227 -0.3692554 0.2243215 16711746
-0.1374128 -0.4812680 0.2513610 16711746
-0.1740719 -0.5069548 0.3151097 16711746
-0.1204009 -0.5250715 0.2731839 16711746
-0.2627321 -0.3751009 0.4292655 16711746
-0.4528355 -0.4139221 0.4848646 16711746
-0.0066470 -0.5175105 0.3797281 16711746
-0.2724833 -0.4245912 0.2827300 16711746
0.0857143 -0.5511208 0.2721847 16711746
0.3135204 -0.7977877 0.3723380 16711746
-0.3675247 -0.4259531 0.3097446 16711746
-0.1595536 -0.3525400 0.4175696 16711746
-0.2067914 -0.2317124 0.4284987 16711746
0.1482121 -0.4902703 0.2567896 16711746
-0.0943626 -0.5206652 0.2428048 16711746
0.2042985 -0.3742824 0.3638376 16711746
-0.0874867 -0.4464095 0.2346361 16711746
-0.3635702 -0.4989673 0.4171975 16711746
0.2001889 -0.6833428 0.8048576 16711746
-0.3288053 -0.5819249 0.3782082 16711746
0.1537370 -0.3806283 0.2738643 16711746
-0.1373121 -0.4055607 0.3084416 16711746
0.1858096 -0.6685086 0.4139387 16711746
0.0311034 -0.2262807 0.1732556 16711746
0.1073219 -0.5566325 0.3492626 16711746
-0.1446780 -0.5013941 0.2680142 16711746
0.0302298 -0.1830377 0.1743642 16711746
-0.1449525 -0.3802195 0.1799509 16711746
0.0058315 -0.4198366 0.2724757 16711746
-0.1813305 -0.4076476 0.2048052 16711746
0.1520525 -0.4568766 0.2354875 16711746
-0.3783590 -0.5105046 0.4622655 16711746
-0.3613143 -0.2405652 0.3863742 16711746
0.0270829 -0.1770309 0.1662383 16711746
0.0425042 -0.1465455 0.1326291 16711746
0.0351738 -0.2041223 0.1958269 16711746
0.0121531 -0.2366728 0.2064991 16711746
0.2093443 -0.2723133 0.3452532 16711746
0.0270110 -0.2614537 0.1872950 16711746
-0.4637526 -0.6141016 0.3517914 16711746
0.2836986 -0.2521517 0.1360144 16711746
-0.4923869 -0.5917464 0.3678894 16711746
-0.1246898 -0.4527453 0.2229793 16711746
-0.0667056 -0.2050515 0.3115662 16711746
-0.4073534 -0.5267844 0.3119482 16711746
-0.3665279 -0.5599068 0.3669255 16711746
-0.2749123 -0.4232221 0.3106824 16711746
-0.3319576 -0.4637263 0.3319503 16711746
-0.1708096 -0.4035383 0.2687010 16711746
0.1608811 -0.8292804 0.3176713 16711746
-0.0415208 -0.5377003 0.2149331 16711746
0.0900152 -0.4740003 0.2539278 16711746
0.0617802 -0.5651941 0.3019124 16711746
0.0380537 -0.5467607 0.2819727 16711746
0.1335028 -0.5752569 0.3774734 16711746
-0.4361744 -0.4677444 0.3698450 16711746
-0.0527930 -0.6605523 0.2485313 16711746
-0.1651945 -0.5886428 0.3799934 16711746
0.1810685 -0.9143204 0.5833272 16711746
-0.2975024 -0.4521724 0.3045013 16711746
0.2926902 -0.6514447 0.2307289 16711746
-0.3144276 -0.4086355 0.3460326 16711746
-0.4528484 -0.5452540 0.3134937 16711746
0.1522845 -0.5105189 0.1992377 16711746
-0.2348125 -0.3308595 0.3590971 16711746
0.0202591 -0.3291930 0.2141574 16711746
-0.3152038 -0.4198782 0.3430396 16711746
-0.4522502 -0.4970918 0.4177702 16711746
0.0152767 -0.3508320 0.2264983 16711746
0.1694666 -0.4894232 0.2344759 16711746
0.0353942 -0.1428866 0.1528425 16711746
-0.3787468 -0.2456312 0.3995122 16711746
-0.3922172 -0.5195968 0.3825009 16711746
-0.2067106 -0.4763250 0.2392412 16711746
-0.8477207 -0.7108021 0.7472445 16711746
-0.6650208 -0.5267787 0.4919154 16711746
-0.1296360 -0.3920382 0.2363577 16711746
-0.4462219 -0.5995511 0.3416283 16711746
-0.5570939 -0.6227269 0.5674906 16711746
-0.0014414 -0.6797391 0.2911469 16711746
0.4056607 -0.4714338 0.2714319 16711746
-0.5424095 -0.4381604 0.3817558 16711746
-0.3389660 -0.4687936 0.3685124 16711746
-0.4105557 -0.4570277 0.3554335 16711746
0.4426521 -0.6768191 0.4437893 16711746
0.1229349 -0.4709478 0.3211184 16711746
-0.6660410 -0.7067960 0.4656542 16711746
-0.3003585 -0.3909753 0.2887911 16711746
0.0168761 -0.4148177 0.3392892 16711746
-0.5668823 -1.0825355 0.7522191 16711746
-0.6401510 -0.5810093 0.5208358 16711746
-0.3325800 -0.7588831 0.3942898 16711746
-0.2909079 -0.2027319 0.3547564 16711746
-0.1927051 -0.2933432 0.3138089 16711746
-0.3027484 -0.4299178 0.3429290 16711746
0.1001566 -0.6440307 0.2858499 16711746
-0.2823652 -0.2870156 0.5373388 16711746
-0.3536158 -0.5304677 0.3628198 16711746
-0.2952617 -0.5386767 0.3506457 16711746
-0.2728923 -0.4237772 0.3082891 16711746
-0.5108503 -0.4287996 0.4063054 16711746
-0.3575935 -0.5756031 0.4528566 16711746
-0.4049028 -0.5392159 0.3070390 16711746
-0.3201361 -0.3017502 0.3652922 16711746
-0.1823666 -0.5922034 0.2702704 16711746
-0.3294717 -0.6958278 0.5016301 16711746
-0.1494941 -0.5241612 0.3216982 16711746
0.1126621 -0.6339119 0.2880894 16711746
0.0871471 -0.7063145 0.2945487 16711746
-0.3673217 -0.4115770 0.4510493 16711746
-0.4213371 -0.5122344 0.3600760 16711746
-0.0753274 -0.4076171 0.3267501 16711746
0.2193900 -0.6788523 0.6017018 16711746
-0.4246876 -0.5448424 0.3238250 16711746
0.1338256 -0.4866438 0.3578694 16711746
-0.2990678 -0.5402056 0.4326644 16711746
0.0534883 -0.1645223 0.1976011 16711746
0.0273961 -0.1536084 0.1628727 16711746
-0.1952791 -0.4566216 0.1979885 16711746
0.2557226 -0.4127774 0.1470759 16711746
0.0353285 -0.5762277 0.2208231 16711746
-0.0035755 -0.3582523 0.2527366 16711746
0.0792163 -0.2684797 0.4217278 16711746
-0.2434729 -0.4243943 0.3272747 16711746
-0.3036333 -0.3971632 0.3579439 16711746
0.3442219 -0.3115832 0.1966904 16711746
-0.1804168 -0.4640251 0.2273964 16711746
-0.0399351 -0.4751747 0.2507222 16711746
0.0622762 -0.5569865 0.3198054 16711746
-0.2925675 -0.1913510 0.4500338 16711746
-0.1588971 -0.3988839 0.1508698 16711746
0.0544312 -0.5805278 0.3034883 16711746
-0.2863689 -0.2831250 0.3446923 16711746
-0.4075045 -0.9718130 0.4523402 16711746
-0.3410768 -0.4285984 0.3195271 16711746
0.0404865 -0.5119486 0.3779528 16711746
-0.4220329 -0.5705554 0.4411045 16711746
0.0557556 -0.7890629 0.5108815 16711746
0.3408508 -0.7087393 0.3404157 16711746
0.3807813 -0.7299530 0.5658638 16711746
-0.4520435 -0.6032519 0.3782693 16711746
-0.5813587 -0.4608416 0.4013683 16711746
-0.3613748 -0.6088523 0.4543062 16711746
0.1465343 -0.5816186 0.3852152 16711746
0.2014523 -0.5833356 0.5113408 16711746
0.2549337 -0.6246330 0.5427361 16711746
0.3487083 -0.7226541 0.4138039 16711746
0.2164611 -0.5149335 0.5355912 16711746
0.1166432 -0.9714114 0.3706504 16711746
0.0706572 -0.5981226 0.7936869 16711746
0.0443810 -0.6880078 0.4138738 16711746
-0.5877624 -0.4483465 0.4618608 16711746
-0.3221038 -0.6695231 0.4592596 16711746
0.1502642 -0.6477428 0.3906352 16711746
-0.3998374 -0.5494841 0.3467603 16711746
0.4780900 -0.7273930 0.4685451 16711746
0.2189939 -0.5819423 0.4245349 16711746
0.4054380 -0.6079807 0.3311366 16711746
0.4191779 -0.7104639 0.6601665 16711746
-0.2912740 -0.6365092 0.4211882 16711746
-0.3167627 -0.6758083 0.4313300 16711746
-0.3599472 -0.6260469 0.4556039 16711746
-0.2895546 -0.5358272 0.4290951 16711746
0.0950038 -0.6767393 0.4453523 16711746
0.3152990 -0.8307546 0.4219159 16711746
-0.3140470 -0.5586478 0.4404924 16711746
0.2103179 -0.6020021 0.4111235 16711746
-0.2938372 -0.5456780 0.3483770 16711746
0.2123302 -0.5028738 0.5213129 16711746
-0.5459588 -0.4239766 0.4370705 16711746
0.2708122 -0.6375487 0.5060346 16711746
-0.4752500 -0.5742396 0.3729133 16711746
-0.0744362 -0.3848064 0.3484614 16711746
0.0384263 -0.1562019 0.1388600 16711746
-0.1454993 -0.2357005 0.2164666 16711746
0.1133868 -0.8660857 0.3323773 16711746
0.2995002 -0.7250758 0.2908062 16711746
0.1454796 -0.7545065 0.4405288 16711746
0.1209465 -0.3859510 0.3808558 16711746
-0.6271822 -0.5392655 0.4261852 16711746
-0.4168523 -0.4775662 0.4871338 16711746
0.3127444 -0.8129509 0.7401362 16711746
0.2604273 -0.6429239 0.5428767 16711746
-0.2983073 -0.5789390 0.3738889 16711746
0.0646775 -0.6084343 0.7709247 16711746
-0.1971527 -0.6057642 0.4779295 16711746
0.1998038 -0.5885392 0.4101517 16711746
0.2423816 -0.7049763 0.4659112 16711746
0.5486468 -0.8101668 0.7586978 16711746
0.1443559 -0.7479051 0.7103427 16711746
0.3335512 -0.6653819 0.4677328 16711746
-0.7738051 -0.5592511 0.4571382 16711746
-0.3781274 -0.3696724 0.2860819 16711746
-0.6141692 -0.5386245 0.4446016 16711746
0.2079730 -0.6238698 0.4548081 16711746
-0.6758010 -0.5253330 0.5398563 16711746
0.3491202 -0.6605740 0.5085809 16711746
0.3574066 -0.6365145 0.3085519 16711746
0.3111177 -0.7669281 0.3061043 16711746
-0.3828168 -0.2821229 0.4126699 16711746
0.0609462 -0.7193382 0.7078522 16711746
-0.3263264 -0.5108312 0.4334003 16711746
-0.4069302 -0.7626687 0.5157430 16711746
-0.3833587 -0.5123958 0.3768348 16711746
-0.5757017 -0.6321216 0.3764864 16711746
0.5561327 -0.5700076 0.8938088 16711746
0.0686275 -0.6239529 0.7866992 16711746
0.0295061 -0.2457085 0.2324742 16711746
-0.0756306 -0.1813951 0.3032949 16711746
0.0118968 -0.3270807 0.2263053 16711746
0.0221172 -0.1735108 0.1851837 16711746
0.0296259 -0.2751523 0.2231133 16711746
0.0095595 -0.1958688 0.2001087 16711746
-0.3173526 -0.5643876 0.3662401 16711746
0.3460773 -0.6296095 0.4145674 16711746
-0.0210796 -0.5788152 0.7931655 16711746
0.1962539 -0.6586716 0.4163360 16711746
-0.5040956 -0.4487115 0.3892061 16711746
-0.4149966 -0.5944000 0.3613737 16711746
-0.6598202 -0.5362456 0.4938103 16711746
-0.5718246 -0.6249775 0.6090150 16711746
0.0942377 -0.6676909 0.4429510 16711746
0.3273718 -0.8211267 0.4397976 16711746
0.0933316 -0.6481133 0.4290579 16711746
0.2757928 -0.4709025 0.5580139 16711746
0.2030295 -0.6303524 0.4318083 16711746
0.1142081 -0.4309574 0.3095819 16711746
0.3584439 -0.6204632 0.4460691 16711746
0.3571408 -0.7632762 0.4938587 16711746
0.2720524 -0.6847168 0.6224641 16711746
0.0002628 -0.5118219 0.8254081 16711746
-0.4989788 -0.5854348 0.3356575 16711746
0.3201183 -0.7286564 0.5077170 16711746
0.2208909 -0.6251572 0.4134557 16711746
0.5318298 -0.7661208 0.8279206 16711746
-0.4885153 -0.5424324 0.3451528 16711746
0.3444853 -0.7026532 0.3729950 16711746
0.1687841 -0.6192002 0.3949214 16711746
0.4244955 -0.5395885 0.3313993 16711746
0.1092024 -0.7011308 0.2443889 16711746
0.3600055 -0.6869126 0.4214424 16711746
0.0147506 -0.9553305 0.3777860 16711746
0.1727659 -0.5624279 0.4285828 16711746
0.3736072 -0.7648030 0.4191167 16711746
-0.3585699 -0.7445994 0.5337284 16711746
-0.0164492 -0.8770193 0.3419762 16711746
0.5336248 -0.6546884 0.4666904 16711746
0.2174598 -0.6142061 0.4078783 16711746
0.3370602 -0.7827545 0.3930579 16711746
0.1944215 -0.2992810 0.6571087 16711746
0.6019344 -0.7541326 0.8319138 16711746
0.3261703 -0.5681241 0.7307308 16711746
-0.8003065 -0.5832158 0.4749108 16711746
-0.1110906 -0.3162418 0.3623566 16711746
0.3334059 -0.7589651 0.5639188 16711746
0.4783028 -0.7063488 0.6644307 16711746
0.3396055 -0.6787391 0.3592344 16711746
0.3600039 -0.7692568 0.4976318 16711746
0.2060262 -0.5983133 0.5244781 16711746
0.2066450 -0.6591325 0.5342793 16711746
0.3791996 -0.6772572 0.3268171 16711746
-0.4157199 -0.4001133 0.5545770 16711746
0.1773976 -0.6042173 1.2224163 16711746
-0.2542945 -0.6851601 0.4883275 16711746
0.3370258 -0.4751235 0.2143113 16711746
-0.3730178 -0.7133919 0.5817627 16711746
-0.4830667 -0.5766180 0.3284361 16711746
0.6158045 -0.7608051 0.5379362 16711746
0.5840588 -0.7485550 0.5876278 16711746
0.1131705 -0.8277505 0.3378198 16711746
-0.0168020 -1.0199963 1.3257730 16711746
0.2170068 -0.5893390 0.9898906 16711746
0.4587115 -0.5961729 1.0317165 16711746
0.2370023 -0.5861087 1.1138513 16711746
0.6054950 -0.6326355 1.1790810 16711746
0.6069794 -0.7082059 1.0404986 16711746
-0.5617021 -0.6835938 0.6040184 16711746
-0.5662132 -0.4387208 0.4468878 16711746
0.4325452 -0.7122225 0.5191975 16711746
0.7237983 -0.7586343 0.3924008 16711746
0.2082964 -0.4734517 0.7022398 16711746
0.4486176 -0.7668270 0.7109836 16711746
0.0739842 -0.7116470 0.9508827 16711746
0.0718771 -0.4479155 0.5065188 16711746
-0.5111323 -0.5560429 0.3509782 16711746
0.1942934 -0.4961412 0.8332843 16711746
-0.2683648 -0.6707588 0.3052815 16711746
-0.1541932 -0.4986108 0.3318262 16711746
0.5810773 -0.6425547 0.6826363 16711746
-0.3009539 -0.2747585 0.3443800 16711746
-0.2012205 -0.4036435 0.4158950 16711746
-0.1736934 -0.5459483 0.2925203 16711746
0.0178774 -0.4045222 0.2250372 16711746
-0.1264698 -0.3410907 0.1627486 16711746
-0.1544605 -0.5941423 0.3845544 16711746
0.0836801 -0.4470769 0.4370120 16711746
0.4367708 -0.6631987 0.5052951 16711746
0.3695864 -0.8517994 0.5316254 16711746
0.1172203 -0.5825229 0.2363114 16711746
0.0433274 -0.5506639 0.3067370 16711746
-0.4174486 -0.5020326 0.3676976 16711746
0.0558729 -0.6136814 0.3061768 16711746
-0.3186309 -0.5679370 0.3668912 16711746
-0.4525129 -0.5899825 0.3292952 16711746
-0.4331147 -0.4527764 0.3398713 16711746
-0.3779817 -0.6184832 0.3496962 16711746
-0.4380457 -0.4809855 0.4899253 16711746
-0.4771060 -0.5313436 0.3378001 16711746
0.1021024 -0.4659117 0.2334914 16711746
0.0383454 -0.6231353 0.4586381 16711746
-0.4946539 -0.5597751 0.3686465 16711746
-0.0650563 -0.5606579 0.2811363 16711746
0.1942913 -0.6289694 0.4653387 16711746
-0.1995934 -0.4119149 0.3654304 16711746
0.4710892 -0.6769814 0.8673154 16711746
-0.3356461 -0.4205148 0.3132889 16711746
-0.3986203 -0.6273707 0.4523309 16711746
-0.2025314 -0.6712222 0.4569591 16711746
0.0372832 -0.5565304 0.4106738 16711746
-0.4172143 -0.6243064 0.3432229 16711746
-0.3608703 -0.5839130 0.4183744 16711746
-0.1009983 -0.5416332 0.2502500 16711746
0.3412881 -0.3736430 0.6932924 16711746
0.2272878 -0.6379106 0.4210181 16711746
0.1916945 -0.5732633 0.4046418 16711746
-0.1941632 -0.1656021 0.3386245 16711746
0.0324685 -0.1448323 0.1721123 16711746
-0.1412659 -0.3496757 0.3841235 16711746
-0.1130025 -0.3124871 0.3379416 16711746
0.2008891 -0.5346318 0.4452825 16711746
0.4286455 -0.6192322 0.3559231 16711746
-0.4349882 -0.4595614 0.3435799 16711746
-0.1730575 -0.4229809 0.2155163 16711746
0.0407543 -0.2024707 0.1589750 16711746
-0.3496875 -0.5997005 0.5633033 16711746
-0.1186336 -0.8276222 0.3677841 16711746
-0.4973501 -0.5139183 0.4258229 16711746
0.2309670 -0.5520993 0.4788182 16711746
-0.3498619 -0.5592558 0.3228936 16711746
0.2346266 -0.5632038 0.4893009 16711746
0.3771161 -0.6283501 0.4155011 16711746
0.2081955 -0.5665606 0.4752772 16711746
-0.7030498 -0.6354433 0.6278046 16711746
-0.2942474 -0.4026591 0.3787752 16711746
0.3244916 -0.7472216 0.3776473 16711746
-0.4151750 -0.4771365 0.4860667 16711746
0.5416771 -0.6422428 0.3752725 16711746
-0.3277539 -0.4122938 0.4576141 16711746
-0.2548761 -0.5759674 0.3652805 16711746
0.2791221 -0.7930596 0.2880288 16711746
-0.7021567 -0.6196371 0.6520926 16711746
-0.8207577 -0.4893951 0.6827138 16711746
-1.5877028 -1.3710462 0.4570478 16711746
0.1844818 -0.5898181 0.4615563 16711746
-0.6330618 -0.4615527 0.5157402 16711746
0.4461488 -0.8646656 0.4582941 16711746
-0.4464636 -0.5180032 0.3645507 16711746
0.0485976 -0.6174610 0.3723620 16711746
-0.5384015 -0.4197983 0.4330818 16711746
0.0445491 -0.7100255 0.4248468 16711746
0.3519988 -0.3726570 0.3553382 16711746
0.2069370 -0.6576732 0.5353922 16711746
0.0942580 -0.4756727 0.2780802 16711746
-0.2961389 -0.7406020 0.5401525 16711746
0.0032749 -0.1963755 0.2053589 16711746
0.0245902 -0.1570366 0.1931815 16711746
0.0373647 -0.1751390 0.1683346 16711746
0.1626395 -0.1579837 0.1424318 16711746
0.3198872 -0.6753461 0.9411365 16711746
0.2528677 -0.6387724 0.7727985 16711746
-0.3089181 -0.4592136 0.3187273 16711746
0.3179407 -0.6053162 0.6961485 16711746
0.3738168 -0.6520181 0.6074647 16711746
-0.6673054 -0.5515162 0.5550405 16711746
0.4803410 -0.6502371 0.4690585 16711746
0.3731174 -0.6529781 0.6086553 16711746
0.5727282 -0.7271416 0.6443900 16711746
-0.4369789 -0.5581435 0.3546361 16711746
0.3234757 -0.6638257 0.6206924 16711746
0.4149216 -0.8443936 0.5892738 16711746
0.3178681 -0.6705338 0.5352823 16711746
0.3382980 -0.6707625 0.7381380 16711746
0.4233408 -0.4214579 0.3725154 16711746
0.1360490 -0.5297891 0.4519698 16711746
0.2150251 -0.6016189 0.4796299 16711746
0.3716678 -0.6720043 0.5509619 16711746
0.1957750 -0.4290920 0.6314654 16711746
-0.6999731 -0.5726119 0.5750101 16711746
0.5216150 -0.8459595 0.9106378 16711746
0.1423299 -0.5809307 0.3994077 16711746
0.5573594 -0.6833277 0.5224993 16711746
1.0083748 -0.7255240 0.6448692 16711746
0.4474005 -0.3109631 0.4644484 16711746
0.3853523 -0.3485509 0.8596187 16711746
0.4752644 -0.5233768 0.5568641 16711746
0.2056426 -0.7042028 0.4443043 16711746
-0.4915238 -0.4449133 0.4784264 16711746
0.4975559 -0.7347878 0.7503682 16711746
0.2376097 -0.8761023 0.4885446 16711746
0.7209203 -0.6632621 0.6837145 16711746
0.0238408 -0.5901994 0.7426410 16711746
-0.1767311 -0.5420607 0.3676729 16711746
-0.8376390 -0.6120878 0.5412248 16711746
-0.5072425 -0.6073026 0.3786639 16711746
0.4417104 -0.6801953 0.4458590 16711746
0.4966008 -0.3537324 0.5184322 16711746
0.2306813 -0.6156673 0.4490411 16711746
0.5072194 -0.6625569 0.5499640 16711746
0.5453630 -0.7936211 0.8537001 16711746
0.4295995 -0.6678185 0.9515307 16711746
-0.2902206 -0.5417482 0.4569024 16711746
0.3951832 -0.6493917 0.4725303 16711746
0.7000057 -0.6342362 0.3526842 16711746
0.1051636 -0.6620131 0.4920165 16711746
0.3095261 -0.7643031 0.4289014 16711746
0.3374571 -0.8201896 0.4348480 16711746
0.4927052 -0.7798613 0.7627510 16711746
0.5588943 -0.6259437 1.0033277 16711746
-0.4267337 -0.4767759 0.3327688 16711746
-0.3596701 -0.5238137 0.4641433 16711746
0.5315696 -0.6845353 0.5374672 16711746
0.3603500 -0.7635569 0.5855328 16711746
0.3453034 -0.5372149 0.7626517 16711746
0.1648235 -0.5817860 1.1771067 16711746
0.5717379 -0.7327486 0.8037714 16711746
0.4084980 -0.8083476 0.8360322 16711746
0.1070630 -0.9411576 1.6628253 16711746
0.0774568 -0.7493091 0.5296466 16711746
0.5890049 -0.5355273 0.8627177 16711746
0.7257015 -0.6559054 0.9725853 16711746
0.8425394 -0.5755926 0.6541969 16711746
0.5527999 -0.7562184 0.5309185 16711746
-0.4773774 -0.8535574 0.5166829 16711746
0.4067730 -0.8787743 0.5689071 16711746
0.3197339 -0.4553973 0.6981046 16711746
0.3258113 -0.6820621 0.5443489 16711746
0.2112763 -0.5693985 0.4447468 16711746
0.0576032 -0.5932091 0.3403301 16711746
0.5030596 -0.6589554 0.5468579 16711746
0.3258748 -0.6943436 0.3856076 16711746
0.3292974 -0.7144278 0.3176443 16711746
0.3233406 -0.7353957 0.4627534 16711746
0.2761706 -0.4629983 0.5267328 16711746
0.3242118 -0.6336617 0.8694375 16711746
-0.3380597 -0.5838534 0.4194805 16711746
-0.3132586 -0.6522022 0.4777977 16711746
0.5060390 -0.6193432 0.3978817 16711746
0.2981990 -0.7339216 0.2936509 16711746
0.5305803 -0.5830761 0.6257864 16711746
0.4392615 -0.7846192 0.8900297 16711746
0.1963706 -0.5430849 0.2165376 16711746
0.4613999 -0.7595962 0.4488465 16711746
-0.1031404 -0.5213315 0.2713903 16711746
-0.3001689 -0.5509166 0.4428630 16711746
0.3675833 -0.6990905 0.5422152 16711746
-0.0673431 -0.5883033 0.3135351 16711746
-0.3945890 -0.7709421 0.5681003 16711746
0.1926850 -0.4210200 0.6176106 16711746
0.0136438 -0.3282920 0.2435703 16711746
0.4818423 -0.5909954 0.3609840 16711746
0.0875557 -0.5781003 0.3815193 16711746
0.0330060 -0.1918021 0.1907308 16711746
0.1384505 -0.5640334 0.3866879 16711746
0.1358028 -0.6830677 0.4215646 16711746
0.5961796 -0.5085424 0.6090919 16711746
-0.0597839 -0.7621660 0.3579329 16711746
0.3037426 -0.5530655 0.6646267 16711746
0.3039767 -0.4750499 0.3744142 16711746
-0.3793333 -0.5514112 0.6045885 16711746
0.3237882 -0.6585882 0.9196452 16711746
0.0831286 -0.3835492 0.3447386 16711746
-0.3593606 -0.5644951 0.4196291 16711746
0.1663750 -0.5901770 0.2239391 16711746
0.1342533 -0.4585331 0.3481055 16711746
-0.1647317 -0.5351224 0.3300819 16711746
0.0160219 -0.5142674 0.2456890 16711746
0.1799376 -0.5250875 0.2256742 16711746
0.1747433 -0.5649465 0.5393937 16711746
0.8151648 -0.5729198 0.5453499 16711746
-0.0800130 -0.6795802 0.3088242 16711746
-0.3826789 -0.4270798 0.4673550 16711746
0.6211697 -0.4799436 0.5422541 16711746
-0.2521574 -0.4031166 0.2913660 16711746
0.0367436 -0.2341097 0.2185524 16711746
-0.1743407 -0.3720883 0.3816704 16711746
0.1464401 -0.6995500 0.8081808 16711746
0.6592147 -0.4984952 0.5846671 16711746
0.4512126 -0.6276965 0.6002779 16711746
0.2700768 -0.6331670 0.5297086 16711746
-0.1746982 -0.4517418 0.2329818 16711746
0.3227690 -0.6818264 0.4109357 16711746
-0.4255342 -0.5545310 0.3711236 16711746
-0.3490555 -0.5831369 0.3313094 16711746
0.4220068 -0.6570877 0.4325598 16711746
0.1904545 -0.5026844 0.3916104 16711746
0.1475982 -0.6656852 0.7646224 16711746
-0.3596341 -0.2408023 0.3856834 16711746
0.3745649 -0.6928428 0.5778664 16711746
-0.3742027 -0.5629443 0.3003125 16711746
0.0081911 -0.3985499 0.3887700 16711746
-0.7673764 -0.4720173 0.6511482 16711746
-0.1901862 -0.3990477 0.3543072 16711746
0.1701684 -0.6020933 0.4324946 16711746
-0.4263326 -0.3731427 0.4958849 16711746
-0.1749023 -0.5922974 0.2461531 16711746
-0.1968548 -0.4273807 0.2127559 16711746
0.2564614 -0.6369106 0.4967856 16711746
0.4978547 -0.6534598 0.5176800 16711746
0.3229105 -0.6960751 0.3106961 16711746
0.1071728 -0.5946616 0.3418213 16711746
0.2546247 -0.6591662 0.6409369 16711746
0.1973588 -0.6567292 0.3956209 16711746
0.1106905 -0.6460746 0.3714969 16711746
0.3537092 -0.7749287 0.5977845 16711746
0.4011057 -0.7883910 0.3105416 16711746
0.3701615 -0.7064707 0.5449116 16711746
0.3823532 -0.8744821 0.3625199 16711746
0.1622844 -0.6116842 0.8175963 16711746
0.4190367 -0.5053670 0.2658410 16711746
0.0271522 -0.5721326 0.4977840 16711746
-0.2453554 -0.5049403 0.4804342 16711746
0.3704973 -0.7009119 0.4935373 16711746
0.3177520 -0.7141177 0.6783751 16711746
-0.3510852 -0.5954499 0.4433170 16711746
0.4355160 -0.5860142 0.3042035 16711746
0.6079521 -0.7227629 0.6311991 16711746
0.1100458 -0.6048974 0.6557565 16711746
0.2402598 -0.5212593 0.2779680 16711746
-0.4784231 -0.5377370 0.3421651 16711746
0.1278800 -0.6205320 0.6305966 16711746
0.4468667 -0.6965758 0.4588351 16711746
0.1397838 -0.6745122 0.6393706 16711746
0.3081242 -0.6544453 0.7391881 16711746
-0.3616094 -0.5680809 0.5012221 16711746
0.0279008 -0.6678642 0.3122126 16711746
0.6888716 -0.6466990 0.3700411 16711746
0.1802551 -0.6671659 0.8414445 16711746
0.0576341 -0.6185849 0.3586057 16711746
0.2240672 -0.6637483 0.4975935 16711746
-0.3915330 -0.5735673 0.4025814 16711746
0.8561984 -0.5700233 0.6041949 16711746
0.3211375 -0.7189369 0.6810957 16711746
0.4595111 -0.7732568 0.6704289 16711746
0.3187352 -0.7539241 0.3314876 16711746
0.9900361 -0.9556324 0.7346664 16711746
0.6047221 -0.5111791 0.3583767 16711746
-0.3309766 -0.6531236 0.4919590 16711746
-0.2073163 -0.5864869 0.3731476 16711746
0.0269906 -0.1535979 0.1683299 16711746
0.8576909 -0.7858705 1.1395890 16711746
0.2472522 -0.6050810 0.6320928 16711746
0.7304980 -0.6521266 0.5562630 16711746
0.4726693 -0.6920133 0.4016428 16711746
0.4453453 -0.3214107 0.4671086 16711746
0.3502384 -0.8559775 0.4521837 16711746
0.2907019 -0.4954246 0.5914251 16711746
0.8466737 -0.6928633 0.6404101 16711746
0.4912066 -0.7274908 0.8435010 16711746
0.3652522 -0.6598690 0.4792373 16711746
-0.4253206 -0.4456494 0.3356572 16711746
0.5623907 -0.6975994 0.8189555 16711746
0.8724324 -0.7775276 0.5970752 16711746
-0.3628600 -0.5413117 0.3706139 16711746
-0.1679441 -0.4160288 0.2040579 16711746
0.8246100 -0.7623383 0.6334001 16711746
-0.6112999 -0.5488008 0.5279478 16711746
0.4197104 -0.6934420 0.6062117 16711746
-0.3505627 -0.5303612 0.3401545 16711746
-0.4904274 -0.5566751 0.3645888 16711746
0.9299975 -0.6644198 0.5681534 16711746
0.3247172 -0.6868683 0.4877671 16711746
0.5511080 -0.5470425 0.9447920 16711746
0.4162991 -0.7873026 0.4228743 16711746
-0.4142180 -0.6894457 0.5397996 16711746
-0.0497828 -0.6232162 0.8257465 16711746
0.3990015 -0.7104224 0.8718419 16711746
-0.2063643 -0.4773263 0.2323136 16711746
0.6104487 -0.6891835 1.0924468 16711746
0.1891296 -0.3842380 0.7769546 16711746
0.5428444 -0.7163675 0.4661789 16711746
-0.6053138 -0.4533663 0.6114521 16711746
0.3353000 -0.6704218 0.9300396 16711746
0.1865878 -0.5191057 0.2198906 16711746
-0.1634229 -0.4343456 0.2255391 16711746
-0.1580649 -0.4256550 0.2211020 16711746
-0.1848023 -0.3914881 0.1855468 16711746
0.0365436 -0.4584747 0.4009859 16711746
-0.2583060 -0.6024862 0.5413855 16711746
-0.1804811 -0.1748749 0.3357745 16711746
0.1527545 -0.5256587 0.2695320 16711746
0.3541490 -0.3584116 0.1387879 16711746
0.2121636 -0.4982394 0.5164474 16711746
0.2890225 -0.6811004 0.2623175 16711746
0.0919168 -0.5549876 0.2725154 16711746
-0.1549189 -0.6174924 0.2532127 16711746
0.0915657 -0.6015376 0.2927282 16711746
0.2378847 -0.4136847 0.3029955 16711746
0.0635399 -0.5272259 0.5176907 16711746
-0.3306173 -0.2990967 0.3352670 16711746
0.0662546 -0.4542841 0.5213477 16711746
0.4858618 -0.4158965 0.4071620 16711746
0.0864642 -0.2641970 0.4178697 16711746
0.8684196 -0.7004699 0.5601121 16711746
-0.4024760 -0.5489216 0.3723664 16711746
0.3559475 -0.6531568 0.3909231 16711746
-0.4751545 -0.6167593 0.3501792 16711746
0.2106749 -0.6174891 0.4641558 16711746
-0.2224533 -0.6005454 0.3976677 16711746
-0.0480691 -0.5538558 0.6445565 16711746
-0.3626188 -0.7735543 0.3570594 16711746
0.3036563 -0.7169520 0.3164787 16711746
-0.2076310 -0.6038469 0.4017876 16711746
-0.2080467 -0.5838928 0.3626479 16711746
-0.1482501 -0.1631556 0.3025496 16711746
0.3808595 -0.5617213 0.2340726 16711746
0.6353403 -0.7602379 0.2539723 16711746
0.3784535 -0.6813596 0.4953015 16711746
0.3613288 -0.6474249 0.5323465 16711746
0.4477626 -0.6209841 0.4126143 16711746
0.1107845 -0.5853047 0.3150513 16711746
-0.3800509 -0.7726536 0.5090824 16711746
-0.4924628 -0.4163976 0.3971682 16711746
0.1419393 -0.7963113 0.3097962 16711746
0.3247890 -0.7603697 0.3371237 16711746
0.3235976 -0.6957161 0.3547350 16711746
0.1442423 -0.6968455 0.4271663 16711746
0.4724910 -0.5791415 0.4402280 16711746
0.1064293 -0.7919558 0.3064397 16711746
0.0152657 -0.5257137 0.5509311 16711746
0.0203874 -0.4535762 0.3464425 16711746
0.2661009 -0.5748460 0.6920779 16711746
0.3639463 -0.6936541 0.4732553 16711746
0.8449323 -0.7322365 0.7983562 16711746
-0.7163261 -0.5814841 0.5828692 16711746
0.6067690 -0.8259850 0.7612010 16711746
0.0210171 -0.1817880 0.1890135 16711746
0.0120473 -0.2124541 0.2131498 16711746
-0.1672142 -0.2215128 0.4641489 16711746
0.0461422 -0.1954264 0.1753148 16711746
0.0112494 -0.1463952 0.2036385 16711746
-0.4526156 -0.6104779 0.3794975 16711746
0.3315772 -0.7439342 0.4936642 16711746
0.4177753 -0.6131257 0.8742196 16711746
0.5299795 -0.7306356 0.7615685 16711746
0.6083131 -0.6302224 0.8897743 16711746
0.1417341 -0.4611107 0.2425400 16711746
0.0585989 -0.1216779 0.1639035 16711746
-0.0813461 -0.5049440 0.3043988 16711746
-0.1902595 -0.4001855 0.1877132 16711746
0.1465798 -0.4894362 0.2537147 16711746
0.0731182 -0.1475363 0.2073660 16711746
-0.0146236 -0.6192932 0.3190553 16711746
-0.2571710 -0.6720186 0.3242864 16711746
-0.1148709 -0.5508842 0.2836170 16711746
0.1949093 -0.5914895 0.2635468 16711746
0.0882605 -0.5404698 0.2678584 16711746
-0.0549169 -0.6003950 0.2533268 16711746
-0.2298485 -0.1880570 0.3562705 16711746
0.5334233 -0.5678896 1.0165062 16711746
-0.3551878 -0.6487638 0.4885271 16711746
0.1977599 -0.6316571 0.5598563 16711746
0.0253344 -0.1586481 0.1698345 16711746
0.8562139 -0.6544045 0.6845650 16711746
0.3999003 -0.7005409 0.7169967 16711746
0.6301442 -0.6657442 0.6414275 16711746
0.5192659 -0.6754214 0.5547922 16711746
0.6691318 -0.6116543 0.8769501 16711746
0.5051398 -0.7243719 0.9296436 16711746
0.0977869 -0.5434339 0.3194834 16711746
-0.3648092 -0.5882347 0.4302394 16711746
0.6868101 -0.5233780 0.9636459 16711746
0.7000006 -0.6809478 0.6812187 16711746
0.9584395 -0.7170717 0.7523340 16711746
0.7244181 -0.6159840 1.0476972 16711746
-0.6306628 -0.4281372 0.5027996 16711746
-0.8033016 -0.6737962 0.7901905 16711746
0.4223607 -0.7012671 1.1396461 16711746
0.4479336 -0.5103934 1.0779088 16711746
0.8956633 -0.6034747 0.8783145 16711746
0.5625178 -0.8128977 0.9841787 16711746
0.5439989 -0.6764171 1.0700657 16711746
0.6142046 -0.5975447 0.7303056 16711746
0.8165894 -0.9867812 0.5165855 16711746
0.7216483 -0.6174520 0.9688587 16711746
-0.5126722 -0.5556363 0.3556466 16711746
0.4828700 -0.6321976 0.4736348 16711746
0.3488996 -0.7233058 0.3466918 16711746
0.3901098 -0.7894127 0.4335491 16711746
0.3044407 -0.6903440 0.5136670 16711746
0.6801630 -0.6416564 0.9867449 16711746
0.6623179 -0.6646696 0.9924372 16711746
0.4919651 -0.8793549 0.9013723 16711746
0.0283297 -0.4962344 0.6790117 16711746
-0.4334512 -0.8040224 0.5697208 16711746
0.6088555 -0.6193951 0.7032341 16711746
0.6876628 -0.6110173 0.9299065 16711746
0.3523863 -0.7713257 0.3391935 16711746
0.3876943 -0.6377361 1.0246942 16711746
0.4860569 -0.4805753 0.5759780 16711746
0.8909464 -0.6001543 0.8765953 16711746
0.2159774 -0.5922270 0.4944293 16711746
0.7831232 -0.6843192 0.5396256 16711746
0.3238835 -0.8065993 0.4507782 16711746
0.0288123 -0.1707458 0.1700105 16711746
-0.3387313 -0.4763982 0.3776849 16711746
-0.2969861 -0.5906252 0.4649207 16711746
-0.3734068 -0.4794686 0.3896706 16711746
0.1053810 -0.6406191 0.2702157 16711746
-0.5917874 -0.5402095 0.4648086 16711746
-0.4907530 -0.7149351 0.3835273 16711746
0.0259169 -0.5490690 0.4003138 16711746
-0.2777494 -0.7220900 0.5180689 16711746
0.0503404 -0.6401166 0.5855269 16711746
-0.1854810 -0.1526387 0.3273026 16711746
0.0206993 -0.6616262 0.7524151 16711746
-0.2580866 -0.3686633 0.3442362 16711746
-0.8356954 -0.9296782 0.4874341 16711746
-0.6075106 -0.5482687 0.4247534 16711746
0.2716002 -0.6696625 0.4126396 16711746
-0.3200588 -0.5613458 0.4041779 16711746
0.3481107 -0.6892223 0.7591155 16711746
0.3676723 -0.6686447 0.5660637 16711746
0.3386907 -0.6651979 0.7883637 16711746
0.3605334 -0.6867619 0.4221446 16711746
0.0246091 -0.5682185 0.8382924 16711746
-0.6658657 -0.5866101 0.4592176 16711746
1.0586463 -0.8174699 0.7976363 16711746
0.0701873 -0.6301132 0.2837392 16711746
0.4537798 -0.5024317 0.9706953 16711746
0.1751729 -0.6354485 0.8017181 16711746
0.3610927 -0.6514760 0.5525241 16711746
0.1224454 -0.4592477 0.3582225 16711746
-0.3375883 -0.5215911 0.4565926 16711746
0.3615597 -0.7495974 0.3988708 16711746
-0.5403034 -0.4993449 0.3971247 16711746
-0.4116063 -0.6038535 0.5246024 16711746
-0.2584772 -0.5780849 0.3981192 16711746
-0.4118866 -0.5887923 0.3210462 16711746
0.1340922 -0.7021109 0.4159278 16711746
-0.6508012 -0.5306506 0.4896521 16711746
0.4563234 -0.6442689 0.5871084 16711746
-0.6916572 -0.5598904 0.5158852 16711746
0.2828864 -0.6640619 0.4434923 16711746
0.1435903 -0.7012165 0.6659764 16711746
0.5557413 -0.6780952 0.4829465 16711746
-0.7112931 -0.6270927 0.6637651 16711746
-0.6555277 -0.4472206 0.4387718 16711746
-0.0349385 -0.5267736 0.7639331 16711746
-0.4373752 -0.3889889 0.4107389 16711746
0.1985046 -0.6403385 0.5667555 16711746
0.2214147 -0.5971811 0.4804373 16711746
-0.2030395 -0.5508770 0.3053226 16711746
0.1834941 -0.5819170 0.4555338 16711746
0.3149135 -0.7056043 0.6685023 16711746
0.0403267 -0.1876513 0.1907778 16711746
0.4550928 -0.7502972 0.4440902 16711746
-0.6455412 -0.4417452 0.4347150 16711746
0.7057560 -0.6009678 0.6342445 16711746
0.3341501 -0.5623187 0.7591956 16711746
0.1925843 -0.5625442 0.2552491 16711746
0.3218869 -0.4564235 0.6976520 16711746
-0.5190402 -0.3145114 0.4255753 16711746
-0.6114106 -0.4399733 0.3696645 16711746
-0.0410781 -0.4411316 0.2558833 16711746
0.6613493 -0.6707955 0.3152360 16711746
1.0462463 -0.8100021 0.7919162 16711746
0.2900862 -0.6842077 0.4564869 16711746
0.9257125 -0.8194780 0.6314167 16711746
0.3259202 -0.8663276 0.4030786 16711746
0.4898158 -0.6998698 0.8973234 16711746
0.9334913 -0.7520837 0.6194004 16711746
-0.4126555 -0.4038207 0.4688316 16711746
0.7013575 -0.6425028 0.9189835 16711746
0.4071909 -0.7081909 0.8067377 16711746
0.5446401 -0.7155769 0.9164134 16711746
0.5906429 -0.5714971 0.6341188 16711746
0.2929519 -0.6979301 0.2687799 16711746
0.5939691 -0.5732518 0.5833432 16711746
0.9778309 -0.4863068 0.5729162 16711746
0.5392627 -0.6256292 0.9169263 16711746
1.2326319 -0.9404534 0.9094353 16711746
-0.0832981 -0.5575308 0.3042646 16711746
0.9664710 -0.4827227 0.5660203 16711746
0.7407537 -0.6503880 1.0833491 16711746
0.8379000 -0.7872494 0.6054161 16711746
0.7528287 -0.6960826 0.8971078 16711746
0.0379299 -0.1849527 0.1934850 16711746
0.0190490 -0.1452655 0.1716875 16711746
0.0268068 -0.3107057 0.2915479 16711746
0.0748082 -0.6133582 0.4942698 16711746
-0.6075269 -0.5673798 0.4363824 16711746
-0.0224555 -0.6901287 0.4490466 16711746
-0.2493121 -0.2083121 0.4321792 16711746
0.1275199 -0.6911629 0.4116011 16711746
-0.3324072 -0.4185990 0.3792374 16711746
-0.3160466 -0.2901898 0.3257980 16711746
-0.2099783 -0.1656577 0.3693311 16711746
0.0370436 -0.5612118 0.5403939 16711746
-0.2742221 -0.4945455 0.2855923 16711746
0.2333019 -0.3741205 0.3747548 16711746
0.1526156 -0.2100783 0.2032205 16711746
0.0213154 -0.1895865 0.1913913 16711746
-0.1290962 -0.5913332 0.3596125 16711746
0.0384206 -0.6087691 0.4490251 16711746
-0.4065712 -0.4877160 0.3840257 16711746
0.0972692 -0.5020822 0.5973629 16711746
-0.2768373 -0.7075304 0.5216529 16711746
0.0755259 -0.5889671 0.4756074 16711746
0.0637385 -0.3335422 0.5385245 16711746
-0.3972446 -0.5257959 0.3814950 16711746
-0.2538847 -0.4213846 0.2582678 16711746
-0.0432567 -0.6778167 0.7126626 16711746
0.0211890 -0.2204187 0.2187648 16711746
-1.2532337 -1.2510691 0.4262875 16711746
-0.7036163 -1.0563847 0.4724447 16711746
0.0220904 -0.5796444 0.6077972 16711746
0.0286958 -0.4532212 0.4231722 16711746
0.6809441 -0.7389975 0.3179590 16711746
0.0151054 -0.3057569 0.2179708 16711746
0.0432961 -0.1908917 0.3108703 16711746
-0.0025223 -0.1414530 0.1940334 16711746
0.0145413 -0.1818165 0.1859992 16711746
0.0558525 -0.1499000 0.2267475 16711746
-0.3732889 -0.4231403 0.3597320 16711746
-0.4257012 -0.5176321 0.3015830 16711746
0.1242385 -0.5967498 0.3479740 16711746
0.0295937 -0.4733491 0.4787512 16711746
-0.4283839 -0.5125936 0.3670631 16711746
-0.1838631 -0.6104390 0.2523368 16711746
-0.2202975 -0.7085830 0.4824882 16711746
0.0290189 -0.5793018 0.4135502 16711746
-0.3654202 -0.3950507 0.3558097 16711746
-0.3495789 -0.4780062 0.3522604 16711746
0.0243099 -0.1344100 0.1780545 16711746
-0.0384638 -0.5674206 0.2832331 16711746
0.0929174 -0.2383697 0.4549565 16711746
-0.0127832 -0.3177384 0.2523674 16711746
-0.0541875 -0.4661998 0.3390070 16711746
0.5590197 -0.5174818 0.6799409 16711746
0.4871909 -0.6156240 0.8818426 16711746
0.9668696 -0.6651239 0.9185810 16711746
0.4888112 -0.4540447 0.6572223 16711746
0.4736505 -0.5334753 0.6960936 16711746
0.4516617 -0.7347792 0.5594816 16711746
0.9977567 -0.5773582 0.9333304 16711746
0.9643149 -0.5808915 0.8636832 16711746
0.5017000 -0.6713579 0.8300617 16711746
0.5112202 -0.6339061 0.7464183 16711746
-1.0856682 -0.6412343 0.5398036 16711746
0.5253046 -0.6684299 0.5896628 16711746
0.7625667 -0.5273814 1.1150124 16711746
0.7469834 -0.6839239 0.8777806 16711746
0.2125993 -0.6733982 0.8645820 16711746
0.7589483 -0.7475680 1.2618142 16711746
1.0987986 -1.0012580 0.9064983 16711746
0.4437274 -0.6003031 0.5503185 16711746
-0.6021716 -0.3756702 0.3815454 16711746
0.4800271 -0.9984857 0.6101937 16711746
0.0590230 -0.7238528 0.3816479 16711746
0.8409026 -0.7035788 0.7664873 16711746
0.6052174 -0.8410113 1.0660313 16711746
0.6390603 -0.4134524 0.7025046 16711746
0.2697363 -0.5502934 0.6181622 16711746
0.2842752 -0.6779032 0.5639061 16711746
1.0052782 -0.7725889 0.7408688 16711746
0.0175500 -0.5982515 0.7192900 16711746
0.5479228 -0.6497840 0.3791506 16711746
0.5519993 -0.6805173 1.3228040 16711746
0.5151569 -0.5891024 0.5119371 16711746
-0.5577273 -0.8869245 0.3724603 16711746
-0.4046935 -0.4915860 0.4097902 16711746
-1.0630492 -1.1374936 0.4738667 16711746
0.3003235 -0.6153254 0.3742454 16711746
0.6298999 -0.6348879 0.7289704 16711746
0.1451214 -0.6291342 0.3951815 16711746
0.3663791 -0.7251108 0.7281675 16711746
-0.5954620 -0.5476210 0.5781943 16711746
0.5663993 -0.6444955 0.6665112 16711746
0.6934051 -0.4485418 0.5487977 16711746
0.5836179 -0.5996614 0.3205117 16711746
-0.3089342 -0.7250395 0.3232106 16711746
0.4489697 -0.5548383 0.3301405 16711746
0.8353701 -0.7187352 0.6751046 16711746
0.3301719 -0.6407903 0.7601546 16711746
-0.4224878 -0.5822311 0.5292916 16711746
0.6429991 -0.4628824 0.9974720 16711746
0.2726999 -0.5591129 0.6314529 16711746
0.1791354 -0.5675771 0.4198019 16711746
0.2261704 -0.6313336 0.4534779 16711746
0.4589846 -0.6470155 0.5905447 16711746
0.0747980 -0.5600481 0.3109683 16711746
-0.0284156 -0.5463744 0.8334150 16711746
-1.0866109 -1.1947194 0.3633778 16711746
0.0276994 -0.2022249 0.2027887 16711746
0.1213980 -0.7360172 0.8082166 16711746
0.4317294 -0.6475273 0.4984295 16711746
-0.1111111 -0.5184175 0.2950366 16711746
0.5001510 -0.8208475 0.6254187 16711746
0.5692115 -0.7838769 1.0569643 16711746
0.9042969 -0.5243257 0.8449777 16711746
-0.6376145 -0.4620050 0.3628317 16711746
0.7677405 -0.7031309 0.8985190 16711746
0.6010373 -0.7531911 0.8227252 16711746
0.3025685 -0.7509070 0.4214061 16711746
-0.1976512 -0.4181292 0.1555177 16711746
-0.5890014 -0.5385002 0.5387238 16711746
0.6232660 -0.3532927 0.6364436 16711746
-0.2952470 -0.6072456 0.4139843 16711746
0.5538911 -0.7169866 0.5868934 16711746
0.5165248 -0.7134566 0.9920483 16711746
-1.2765118 -1.4279932 0.3328263 16711746
