# .PCD v.7 - Point Cloud Data file format
VERSION .7
FIELDS x y z rgb
SIZE 4 4 4 4
TYPE F F F F
COUNT 1 1 1 1
WIDTH 1192
HEIGHT 1
VIEWPOINT 0 0 0 1 0 0 0
POINTS 1192
DATA ascii
0.8703216 -0.9639673 2.3995583 16711746
0.5497569 -1.2027143 2.2144704 16711746
0.4788492 -1.3090446 2.0755880 16711746
0.4005833 -1.1344537 2.3138659 16711746
0.6980008 -1.5305064 1.9335444 16711746
0.2358889 -1.2372093 1.9972030 16711746
0.5496075 -1.1702348 2.2704225 16711746
0.4208844 -1.2506806 1.9337355 16711746
0.5336682 -1.0911628 2.0435276 16711746
0.4068597 -1.3019872 2.2264335 16711746
0.0953226 -1.0380141 2.0972214 16711746
0.6716208 -1.1956877 2.0180175 16711746
0.0855709 -1.1349163 2.3086166 16711746
1.8910352 -2.0821557 2.9259109 16711746
0.4803931 -1.1353126 2.1968176 16711746
0.5215148 -1.0258889 2.2519789 16711746
0.4712524 -1.2294599 2.3030486 16711746
0.4888171 -1.1002917 1.9963340 16711746
0.5302151 -1.0962338 2.0411143 16711746
0.5367938 -1.1975858 2.0511456 16711746
1.3254060 -1.6236107 2.1347208 16711746
-0.0544462 -0.8602724 2.1709375 16711746
0.4705060 -1.2079688 2.1402633 16711746
0.7346972 -1.2721434 1.9758824 16711746
0.4196378 -1.2351047 1.9371399 16711746
0.4043691 -1.0691992 2.3924065 16711746
0.1650685 -1.0397689 2.2465894 16711746
0.0796695 -1.1114576 2.2992558 16711746
0.9582484 -1.2030332 2.4269264 16711746
0.8388903 -1.0758531 2.2849624 16711746
1.1216636 -1.5195504 2.2559597 16711746
1.2361937 -1.4169066 2.0413578 16711746
0.9661648 -1.1295758 2.3243978 16711746
0.9746394 -1.2132469 2.3583529 16711746
0.1290760 -1.1595427 2.2131243 16711746
0.1121655 -1.1225485 1.9631865 16711746
0.4841367 -1.1847994 2.1003628 16711746
0.5805351 -1.2635324 1.7282674 16711746
0.4232219 -1.1185393 2.4293544 16711746
0.4696317 -1.2234956 2.3000352 16711746
0.7234365 -1.1553940 2.4234514 16711746
1.3147624 -1.4853758 2.2157049 16711746
1.1673331 -1.5672359 2.2683213 16711746
0.5175792 -1.2826134 2.3528099 16711746
-0.4355410 -1.9518048 2.7701612 16711746
0.3838201 -1.0992090 1.8958865 16711746
0.3316911 -1.0330224 1.9471345 16711746
0.6136103 -1.3709205 2.0301230 16711746
0.6245716 -1.1878406 1.9952413 16711746
0.6441970 -1.1335367 2.0170624 16711746
-0.2127377 -1.2525671 2.3068290 16711746
-0.1505310 -1.4346936 2.4215190 16711746
-0.1262935 -1.9368404 2.7826765 16711746
0.5632303 -1.2771078 1.8735186 16711746
-0.0648196 -1.4352775 2.2029936 16711746
0.0174671 -1.3125743 2.2206340 16711746
0.0419221 -1.2227867 2.2147198 16711746
0.4199638 -1.1557150 1.9342211 16711746
0.6127957 -1.1529589 1.9844146 16711746
-0.0055022 -1.5756480 2.3504968 16711746
0.4616096 -1.2091458 2.1909561 16711746
-0.2958384 -1.5495708 2.5415494 16711746
-0.3819992 -1.5379047 2.5321107 16711746
-0.1170103 -1.3448988 2.3138609 16711746
0.8756906 -1.3602469 2.0541344 16711746
-0.3793470 -1.6189135 2.4847491 16711746
0.5101558 -1.2317312 2.2443557 16711746
-0.1094635 -1.2662230 2.3364067 16711746
-0.1569722 -1.3159069 2.1959157 16711746
0.4892877 -1.2319250 2.0290785 16711746
-0.0565570 -1.8760710 2.4247530 16711746
-0.0980206 -1.5557235 2.3392704 16711746
-0.2221020 -1.3400080 2.4293721 16711746
0.0712465 -1.3149588 2.3300800 16711746
-0.1954664 -1.3128086 2.2568891 16711746
0.6544095 -1.6633753 2.5645733 16711746
0.7878789 -1.3495055 1.8294870 16711746
0.6182083 -1.2127259 2.1504281 16711746
0.4305972 -1.3498151 2.0765960 16711746
0.0462344 -1.2142038 2.2122412 16711746
-0.1954994 -1.3306305 2.2840414 16711746
0.4099955 -1.1180288 1.9309365 16711746
0.6446217 -1.2179965 1.9956169 16711746
0.4198400 -1.1542820 1.9336576 16711746
0.5523941 -1.3476266 2.2923543 16711746
-0.0152072 -1.8476872 2.5675554 16711746
-0.2072209 -1.3459556 2.2643015 16711746
-0.5970817 -3.6162505 2.7160087 16711746
-0.0907395 -1.2094675 2.1195796 16711746
0.4485913 -0.8766703 2.1628149 16711746
0.4726351 -1.1054580 2.1931939 16711746
0.0612694 -1.0901437 2.1400516 16711746
-0.1851299 -1.2838269 2.2496486 16711746
0.5573556 -1.0934582 1.9869423 16711746
0.1347757 -0.9979052 2.0507565 16711746
0.1292660 -1.0410079 2.0671682 16711746
0.1306348 -1.0277938 2.0605099 16711746
0.6207197 -1.2876645 2.3178248 16711746
0.5211533 -0.8028103 2.0601072 16711746
0.0563928 -1.2762163 2.4098048 16711746
0.0461193 -1.0745548 2.0067451 16711746
0.4076820 -1.1246204 1.9471954 16711746
0.3273588 -1.1031551 2.0017040 16711746
0.7152348 -1.3607564 1.9061202 16711746
0.6076221 -1.3848569 2.2372246 16711746
1.7366577 -1.7860761 3.0187197 16711746
-0.0163552 -1.1754370 2.2044375 16711746
0.1267119 -1.2203969 2.2105944 16711746
0.0696109 -0.9798095 2.0966606 16711746
0.5782920 -1.4698093 2.8756132 16711746
0.3304722 -1.0581273 2.4143052 16711746
0.0527751 -0.7521781 2.1996231 16711746
0.4560800 -1.0834998 2.1164279 16711746
-0.1326913 -1.4944946 2.3043020 16711746
0.7505664 -1.3339690 2.1990008 16711746
0.4125719 -1.2474864 2.4966552 16711746
0.3471699 -1.0298393 2.3466892 16711746
-0.0341111 -1.1059058 2.1915946 16711746
0.9997157 -1.7722528 1.6924078 16711746
-0.2389189 -1.2542936 2.3588586 16711746
0.6997451 -2.1972711 1.9193548 16711746
1.9906729 -2.2750564 2.9672923 16711746
0.2719747 -0.8157137 2.1845624 16711746
0.5907756 -1.2663785 1.7903728 16711746
0.0552248 -1.1307334 2.0629761 16711746
-0.2924047 -2.0152090 3.0034688 16711746
0.6621899 -1.4083879 1.7796586 16711746
0.5002849 -1.0483556 2.0217366 16711746
0.0052296 -1.0657648 2.1514475 16711746
-0.2119433 -1.2716957 2.3450379 16711746
-0.3762584 -1.4077578 2.4859607 16711746
0.8607376 -1.5124400 2.2466505 16711746
0.6213825 -1.4365842 2.2283931 16711746
0.4767952 -1.4180703 2.3354936 16711746
0.2701664 -1.5888865 2.8864260 16711746
0.7944438 -1.3267807 1.9941893 16711746
-0.1749887 -1.1622801 2.5459287 16711746
-0.2320804 -1.3287600 2.3712311 16711746
-0.0703224 -1.4506500 2.2404871 16711746
1.1016747 -1.7414126 2.2545490 16711746
-0.1140740 -1.7583932 2.3003614 16711746
0.8860642 -1.3569409 2.1123273 16711746
1.6665366 -1.9360106 2.1281281 16711746
0.5249449 -1.4746324 2.5328698 16711746
2.4582417 -2.4687881 2.1955149 16711746
-0.1339960 -1.4734385 2.2930224 16711746
-0.0774358 -1.0855949 2.2739842 16711746
8.5079498 -31.9863834 3.8376420 16711746
3.0482833 -2.7962363 2.0629528 16711746
4.2186499 -3.6008375 2.2450726 16711746
0.0220314 -1.0302519 2.4393153 16711746
3.2721977 -4.4051895 3.5012982 16711746
3.4197011 -2.5248389 2.0880353 16711746
4.3846273 -5.1666183 4.0824947 16711746
4.1603746 -2.9842231 2.3612669 16711746
2.1430733 -2.6761255 3.2447946 16711746
2.9782794 -4.2707028 2.9890134 16711746
2.5381486 -3.2249279 2.0230949 16711746
4.5806928 -6.2439070 4.1359973 16711746
2.9043558 -3.0575774 2.5551229 16711746
3.9747503 -2.8480880 2.3226237 16711746
3.6217461 -2.6196225 2.0621965 16711746
5.4909954 -3.7271137 2.7849596 16711746
3.8468888 -3.4910729 2.9085822 16711746
4.1824703 -3.8313329 2.8221760 16711746
4.2261958 -3.8922181 4.9693036 16711746
2.4207587 -1.9752514 1.6626890 16711746
1.9571111 -6.0108724 5.5571556 16711746
3.0972042 -4.0218182 3.0838358 16711746
4.9131813 -4.3365860 3.3572454 16711746
5.8563089 -5.0399294 6.2178617 16711746
2.4843524 -5.3919501 4.0822153 16711746
-0.3379544 -1.5471078 2.6881518 16711746
1.8563929 -3.0975909 2.8685915 16711746
4.8332224 -4.0994434 5.5402498 16711746
2.9385548 -4.5892782 3.5026762 16711746
3.0981939 -3.0068517 2.5606563 16711746
3.9098394 -4.2914124 3.1181772 16711746
2.7647905 -4.1099443 3.3753455 16711746
2.7408509 -3.7068770 3.2671325 16711746
4.1371245 -4.0711093 3.1300368 16711746
2.1625092 -3.4876692 3.1279128 16711746
2.7904539 -3.8698821 3.0075238 16711746
3.0311754 -3.2038522 2.5768120 16711746
3.0831835 -2.2839818 2.1026187 16711746
2.0792432 -4.5496445 3.0801439 16711746
4.1266317 -4.0270481 3.1150215 16711746
3.0537534 -4.2491221 3.1217096 16711746
3.2383604 -4.2542572 3.6505580 16711746
3.5726898 -3.5917549 4.5209069 16711746
2.2406542 -3.8311689 4.1201272 16711746
3.6404955 -4.0165496 4.0725689 16711746
2.5840206 -3.0558603 2.4870400 16711746
3.0831311 -4.2152271 3.1054740 16711746
2.7131920 -3.8258021 2.9899602 16711746
1.2739195 -3.3352253 2.8705761 16711746
3.6280026 -2.5403650 3.0769820 16711746
3.9856374 -3.9941692 4.7975559 16711746
2.2746513 -2.6247048 2.5919135 16711746
1.5784436 -3.4930964 2.8014681 16711746
1.1876526 -3.1467214 2.7336636 16711746
2.3357453 -3.0319803 2.6308427 16711746
1.2000592 -4.1213069 2.9968140 16711746
5.8622804 -6.8096428 5.7044091 16711746
2.0659330 -2.1083300 3.3991268 16711746
3.0359514 -2.9776134 2.4261189 16711746
1.6505316 -3.5828812 2.7772830 16711746
2.7840557 -2.5906992 2.0539834 16711746
-0.1211436 -1.8664416 2.8640811 16711746
3.8050833 -4.1562519 3.0447440 16711746
0.6073964 -2.9970677 2.5241144 16711746
3.6335306 -4.6521268 2.9624114 16711746
1.4168543 -4.0863819 2.9646952 16711746
1.2003334 -3.8432331 2.9380922 16711746
0.2985865 -1.9546660 2.4325745 16711746
3.0689540 -2.2904041 1.9833419 16711746
1.5690624 -2.7712977 2.4162486 16711746
4.3865428 -3.7508168 3.7580774 16711746
4.2073970 -4.4931102 4.7300863 16711746
3.1012881 -2.3072007 2.3113313 16711746
0.3125649 -2.5141411 3.1987867 16711746
1.0794932 -3.2292621 2.6773376 16711746
0.6923730 -3.3939500 2.3946345 16711746
1.5986249 -4.3382034 2.9654770 16711746
0.1445664 -1.9897585 2.6019671 16711746
2.5816398 -1.8522836 1.8165787 16711746
3.0299683 -2.7735834 1.9016896 16711746
2.7571144 -4.2919402 2.7135160 16711746
2.5376606 -3.5997286 3.5311189 16711746
7.8686352 -6.5343566 7.9143887 16711746
3.2640350 -3.0976527 2.5772483 16711746
3.4614234 -3.0990229 2.5921357 16711746
3.1892886 -6.5439653 5.5191488 16711746
4.0191293 -4.6053457 3.6165278 16711746
3.1691196 -3.7430730 2.6108654 16711746
3.1348643 -2.5632122 1.9042125 16711746
3.3885667 -3.9047656 2.8561332 16711746
5.1543069 -5.6061506 4.9199657 16711746
4.3991370 -4.2183208 3.1821754 16711746
4.4054823 -3.8706763 3.2045865 16711746
0.4284789 -2.6498671 2.9049282 16711746
0.4587997 -5.0158486 3.3560429 16711746
12.0301571 -7.4862833 5.3428917 16711746
0.5431914 -0.6722434 1.9731464 16711746
1.5799636 -1.4013567 1.8370866 16711746
0.8255374 -2.1848211 2.0614109 16711746
0.5369149 -1.2753077 2.0006862 16711746
3.0564477 -3.7748072 3.4869189 16711746
2.3692448 -3.1417441 2.9044478 16711746
3.1866784 -4.2066269 3.7251852 16711746
3.2792659 -3.9207163 4.0581303 16711746
2.7211242 -4.0394373 3.0579028 16711746
2.3884451 -3.0873528 2.8703635 16711746
-0.0889635 -1.6753021 3.0067527 16711746
3.6069393 -4.7565441 3.2604442 16711746
4.2989178 -5.6370769 4.3815379 16711746
0.4947643 -1.8039981 2.2921357 16711746
0.9569913 -1.5998486 2.2922506 16711746
1.0073495 -1.9104204 2.1220448 16711746
0.5969558 -1.7825859 2.2980020 16711746
0.5461279 -1.6173108 2.3529923 16711746
0.0283280 -1.5190308 2.6404796 16711746
0.2889028 -1.6548479 2.4045136 16711746
1.2039125 -1.9656155 2.3522339 16711746
0.8832337 -1.3197370 1.8888277 16711746
0.1614355 -1.2715268 2.4719210 16711746
0.4469972 -2.2031894 2.6653459 16711746
2.0935905 -2.0990181 1.8526069 16711746
1.1267929 -2.1178725 2.1807182 16711746
-0.0490562 -1.9588516 2.6806099 16711746
0.1325631 -1.5896922 2.3186071 16711746
0.8336389 -1.6910039 1.8506489 16711746
0.5814164 -1.4602188 2.0829649 16711746
0.2884831 -2.6138854 3.5903873 16711746
2.5086517 -3.8279741 3.2540774 16711746
8.4760275 -7.7024875 8.3009949 16711746
0.5650308 -2.7166684 1.9908805 16711746
-0.1910223 -1.7371396 2.8717511 16711746
-0.2810804 -3.0079062 2.8332891 16711746
-0.3241212 -2.4079313 3.6475384 16711746
0.8221347 -1.3352879 2.1996353 16711746
2.3528030 -3.1366515 2.6636262 16711746
1.4666423 -1.9600796 2.5330296 16711746
2.8226514 -2.2159359 1.9894702 16711746
-0.0548383 -1.5048485 2.8871439 16711746
0.7252474 -0.9413616 2.1936979 16711746
0.8975476 -1.8244153 2.4878862 16711746
0.0040583 -1.2479904 2.5576680 16711746
-0.0620598 -1.6077896 2.5661242 16711746
0.2601473 -1.0688568 2.3771918 16711746
0.7765802 -2.0646460 2.9047494 16711746
-0.2532687 -2.8991575 2.7395790 16711746
0.1438808 -1.3112022 2.3997326 16711746
0.0002130 -1.4007078 2.4750869 16711746
0.0395489 -1.4361104 2.5662177 16711746
0.0062037 -1.5820587 2.6643379 16711746
-0.0911573 -1.9021467 2.9507318 16711746
-0.2083240 -1.8172115 3.2283030 16711746
-0.2511532 -1.9622806 3.0386250 16711746
0.7670463 -2.0615463 3.1279333 16711746
1.1667049 -2.8430326 3.1460006 16711746
0.8598546 -2.7072535 3.4034956 16711746
-0.1660302 -1.7617514 2.9472318 16711746
3.2958159 -4.2851434 3.6659353 16711746
4.8718739 -6.3374405 3.6887901 16711746
-0.0158451 -1.0546163 2.5888734 16711746
-0.1898320 -2.4092374 3.2311900 16711746
0.6379380 -1.9181893 3.1868634 16711746
3.3140979 -3.5057027 2.7486396 16711746
1.5890454 -6.1167068 4.6628580 16711746
2.7661030 -4.2267327 3.3187988 16711746
2.5645339 -2.0207505 1.7552509 16711746
3.6678731 -2.7102308 3.5538559 16711746
2.8496265 -2.8258598 3.9568865 16711746
4.7146754 -5.5497880 4.3099923 16711746
1.0981470 -1.9364723 2.3118436 16711746
2.1266024 -3.4688497 2.5283005 16711746
3.9894824 -4.2615757 4.5756822 16711746
2.3908076 -2.2839978 2.3692074 16711746
4.3177471 -2.4480200 2.1565335 16711746
2.1272693 -2.1259732 2.3603427 16711746
3.7859418 -4.9788289 3.9643114 16711746
2.7772603 -6.7359591 4.6483321 16711746
-1.4496479 -3.1943085 3.6844277 16711746
1.0411564 -2.2983038 1.9062184 16711746
2.7329865 -2.5405133 2.4047177 16711746
2.7733877 -2.8269160 2.2361369 16711746
4.1043229 -2.3150034 2.1292715 16711746
3.7666249 -2.5386798 2.5762272 16711746
1.3038394 -3.8940303 3.7196012 16711746
3.9551384 -4.2599196 3.0743489 16711746
4.9192133 -4.8946719 3.2479863 16711746
5.1935768 -4.7519979 3.0283282 16711746
4.3599782 -7.8108959 4.8837566 16711746
3.3055203 -3.4610627 2.7398200 16711746
1.5342344 -3.8635895 3.1650455 16711746
3.8500540 -3.7813458 2.6482809 16711746
2.0886741 -1.8171914 1.7721213 16711746
-1.1494870 -2.7032351 3.5633807 16711746
4.5946841 -3.0104280 3.2114484 16711746
1.2401829 -3.9560735 4.9281220 16711746
3.7245092 -5.7657161 4.3717794 16711746
6.2671046 -8.0514622 6.2690887 16711746
6.1030107 -6.2366486 2.7211246 16711746
3.0922279 -4.8145962 3.9807694 16711746
3.1724403 -4.5320168 3.6018150 16711746
3.0236981 -4.1901183 3.5696971 16711746
1.9756540 -2.1946931 2.7899117 16711746
2.2389739 -3.3172851 3.4595687 16711746
3.4177885 -5.3871098 4.2477226 16711746
2.7579839 -2.7754080 2.3826096 16711746
2.7669942 -3.6356218 3.2337804 16711746
1.6150904 -2.9849689 2.4952679 16711746
2.3596826 -2.2887051 2.5410657 16711746
1.7746853 -1.4001138 1.7908475 16711746
2.1558475 -3.4461594 3.4918580 16711746
2.0305028 -3.5106461 3.3932157 16711746
4.0258603 -4.1593981 4.0968595 16711746
1.9854543 -2.0535326 2.9367888 16711746
2.7026420 -4.9433641 3.2412817 16711746
2.9796150 -3.1705737 3.0771527 16711746
3.8002069 -5.3336954 4.3609972 16711746
1.7481325 -3.6426077 3.2757924 16711746
2.2390542 -1.8392407 2.5636842 16711746
1.0838624 -4.7712784 3.6705632 16711746
2.9227185 -3.4075320 3.8754051 16711746
1.2285293 -3.0276887 3.3853691 16711746
1.2960898 -3.5898762 2.9170952 16711746
1.5568405 -2.1169152 1.9686855 16711746
3.6192727 -5.3142638 6.1331177 16711746
1.6112213 -1.4238015 2.4717283 16711746
-2.1907654 -5.7191663 6.6566162 16711746
3.1266506 -6.3101492 5.1887240 16711746
-2.7185910 -6.2660565 4.6580639 16711746
10.6162910 -6.4881701 4.3439007 16711746
0.3471772 -0.5992568 2.2208016 16711746
5.9493871 -4.8237076 6.4720359 16711746
0.5775576 -0.9894142 2.5735426 16711746
2.2915759 -2.3504205 2.4689338 16711746
1.1034199 -1.6517907 2.1018002 16711746
1.0236239 -1.8181728 2.2887766 16711746
0.9115985 -2.0515318 3.1510241 16711746
1.3176349 -2.4041252 2.8652010 16711746
1.0558360 -1.8349795 2.0830629 16711746
0.5254695 -1.8920407 2.7676346 16711746
0.8454289 -2.2592921 2.7677095 16711746
1.3531272 -1.6510020 2.1851335 16711746
0.4677340 -1.2148452 2.3736894 16711746
2.5604005 -2.5919659 2.5949512 16711746
4.0906000 -3.7085631 2.8600080 16711746
0.5286950 -1.5286661 2.6244669 16711746
4.1816692 -3.2924809 5.1634197 16711746
3.5563710 -5.0792155 3.4313414 16711746
2.4767945 -2.5190630 2.5915847 16711746
0.0727986 -5.3055105 4.5026007 16711746
0.2292117 -1.5266091 2.5501819 16711746
0.1639252 -1.4111267 2.7102289 16711746
-0.4528293 -1.6602548 3.2339089 16711746
0.2241569 -1.5060312 2.5486159 16711746
0.6929125 -0.8406421 2.1376853 16711746
0.5892427 -1.3665934 2.2928312 16711746
0.9052475 -2.4510214 2.9753482 16711746
-0.6652876 -2.1260352 3.5530367 16711746
0.1919023 -1.5466521 2.6433952 16711746
0.8556767 -1.5778292 2.3013728 16711746
0.7711580 -1.2402562 2.2294285 16711746
0.7684309 -1.2146790 2.1567149 16711746
0.5011556 -1.6346905 2.6119049 16711746
0.6184574 -1.5514175 2.7317078 16711746
0.4311038 -1.5423286 2.8381279 16711746
0.4300528 -1.3457979 2.7097235 16711746
0.4830239 -1.6467243 2.9002333 16711746
1.0103577 -1.5267631 2.2777073 16711746
0.8360583 -1.3306848 2.1676390 16711746
1.1141074 -1.7934016 2.6899185 16711746
0.7887280 -1.2657912 2.7514145 16711746
0.7138812 -1.1836827 2.7161646 16711746
1.1350070 -1.5326204 2.9299982 16711746
1.0182940 -1.4925460 2.6850612 16711746
0.5401700 -1.3695241 2.6758020 16711746
-0.3901714 -2.0846074 3.2410109 16711746
1.2984236 -1.7865137 2.6042085 16711746
1.2392460 -1.3309580 2.0452843 16711746
1.5319757 -1.1315258 2.6551781 16711746
0.6720571 -1.0110364 2.6288121 16711746
1.1044869 -1.7961826 3.1026654 16711746
1.0736886 -1.3004191 2.8420451 16711746
0.9115492 -1.5678644 2.6997302 16711746
0.7332534 -1.7110907 3.0066571 16711746
0.5893013 -1.5589278 2.6725779 16711746
0.9298804 -2.5529084 2.8311722 16711746
1.0588710 -1.6154882 2.5450697 16711746
0.5742188 -1.3050212 2.3674192 16711746
0.8447293 -1.9548438 3.1150656 16711746
0.6120777 -1.5183872 2.6792116 16711746
1.0468808 -1.6493146 2.7662055 16711746
0.0905852 -0.7080128 2.6615520 16711746
0.5715967 -2.2678013 3.1427128 16711746
-0.3497694 -2.0589674 3.2291439 16711746
0.1863671 -1.6776273 2.6007042 16711746
0.3806869 -1.1486449 2.6796305 16711746
0.0157897 -0.9326188 2.6934268 16711746
0.6843973 -0.9351935 2.5501308 16711746
0.0910800 -1.3302430 2.8002706 16711746
0.6897267 -1.2785641 2.6269631 16711746
-0.1251910 -1.9415989 3.2400241 16711746
0.6876594 -1.1732889 2.5798733 16711746
1.9868442 -2.7086034 2.4767864 16711746
-1.2092572 -8.2100687 4.4638429 16711746
0.6461238 -0.9333031 2.4595113 16711746
-0.5962538 -1.8369018 3.3996222 16711746
8.4554882 -5.9169478 6.4261785 16711746
2.4518156 -4.1492772 2.9161501 16711746
-0.7711210 -1.9422119 3.6393461 16711746
7.9442506 -3.9483042 3.9452934 16711746
8.8535833 -4.4120979 4.1325669 16711746
1.7829205 -2.9679086 2.7088327 16711746
-0.6466621 -2.2233369 3.3928878 16711746
5.3166680 -3.5228968 3.7707229 16711746
7.6872945 -3.8928430 3.9330957 16711746
4.6641030 -2.8575079 2.8958063 16711746
-0.6947477 -2.5728645 3.5402880 16711746
4.4927068 -3.1790757 4.1065087 16711746
3.2174144 -2.2486069 3.1307671 16711746
3.2660329 -6.2592382 3.1260848 16711746
14.6843081 -11.4897537 12.3907738 16711746
12.8901787 -10.0779018 11.1756859 16711746
6.0220037 -10.3283920 3.7060256 16711746
2.6854243 -2.7226598 2.8831015 16711746
10.5548487 -9.2851238 9.6388683 16711746
4.3008623 -5.6372356 4.7942138 16711746
6.5307980 -9.7430687 4.4738889 16711746
23.7756844 -18.7673302 19.2090416 16711746
-1.8658702 -8.1543827 7.6678925 16711746
6.7392302 -12.8170605 4.2162266 16711746
0.3112857 -1.9890702 3.6134725 16711746
-0.8504878 -2.9263723 4.1204028 16711746
-0.1186826 -2.9075856 3.3451295 16711746
0.0465141 -2.5532715 3.2037933 16711746
-0.5376570 -3.0158293 3.9181013 16711746
-0.6168311 -2.1607141 3.7649524 16711746
-0.1666451 -2.6108220 3.8828206 16711746
0.1202406 -2.3424165 2.9507525 16711746
0.0465317 -2.7536137 3.2407491 16711746
0.0291465 -1.3954277 3.4570467 16711746
0.8899834 -2.2612889 2.8074732 16711746
0.8141657 -2.0372424 2.8334122 16711746
2.0016394 -2.5246544 3.7551916 16711746
-0.0394114 -2.5085330 3.1468954 16711746
0.1043612 -2.2959785 2.9579055 16711746
-0.4044808 -2.2808020 3.8752248 16711746
0.9258593 -1.7943662 2.8487000 16711746
0.6745515 -2.7596128 3.6816566 16711746
0.8188787 -2.1287739 2.6879003 16711746
-0.2116117 -2.6190991 3.6264906 16711746
-0.7792211 -2.0869439 3.7755723 16711746
-0.8527293 -2.4032636 4.1465745 16711746
-1.1199646 -6.9164047 4.5955062 16711746
-1.0032492 -5.5666537 5.7740021 16711746
-1.6424249 -5.6022787 3.8249028 16711746
0.6554237 -1.4543639 2.6846466 16711746
1.5629723 -1.6811355 2.7553687 16711746
3.0058074 -2.9227717 4.8095942 16711746
4.2658954 -3.7160690 5.8314495 16711746
1.8223889 -2.0836759 3.1896298 16711746
1.6862818 -1.4656378 3.0378683 16711746
-0.5497844 -2.1762981 3.7407644 16711746
-0.0556028 -1.3840189 3.3409998 16711746
2.3279178 -2.8983860 4.1760597 16711746
2.0164061 -2.3788917 3.7350767 16711746
1.8034512 -2.6497071 4.0807819 16711746
2.6748657 -2.0857701 3.2755687 16711746
2.1196229 -1.8879305 4.1919456 16711746
2.4838567 -3.1076477 4.2791715 16711746
2.2837076 -1.9754660 3.2658370 16711746
2.3458016 -2.4025671 4.2367353 16711746
1.8731848 -2.0655000 3.4816487 16711746
2.2222147 -2.1906078 3.3778050 16711746
2.4325466 -2.3704796 3.6138358 16711746
2.5397897 -2.4588757 3.6501589 16711746
1.8296121 -2.0404468 3.1087165 16711746
1.9368612 -2.3467214 3.1544733 16711746
1.9375368 -1.9806026 3.1122720 16711746
-0.9983060 -3.8986173 3.6498294 16711746
2.5984755 -2.6586971 4.4311504 16711746
2.5692930 -1.7393554 2.8558824 16711746
1.7149713 -1.4851923 3.0379632 16711746
-1.2107216 -3.1430349 3.8339214 16711746
2.4454861 -2.2511368 4.4238400 16711746
2.5337181 -2.4318366 4.5484357 16711746
1.5238163 -2.1094742 3.4573984 16711746
2.1707487 -2.4403656 3.4085248 16711746
1.9211504 -1.6856337 2.6597197 16711746
2.1127832 -2.3962145 4.2658944 16711746
2.4105799 -1.9806863 2.9046767 16711746
-0.9655918 -2.8330505 4.0206094 16711746
2.2918556 -2.1400614 3.2453730 16711746
0.3092509 -1.8743602 3.3022280 16711746
0.0528861 -6.1033583 3.7591858 16711746
1.8996383 -1.6910434 2.4926779 16711746
3.7832348 -3.0445101 4.8257284 16711746
2.1754134 -2.3500450 3.0953324 16711746
1.6640764 -1.4730614 2.8662195 16711746
2.1691132 -2.7533092 3.8385477 16711746
0.8756313 -3.3366184 3.6927102 16711746
0.0956548 -4.1016874 3.3956270 16711746
-1.7732008 -3.7618549 3.8618851 16711746
2.0438652 -1.9780154 2.4794428 16711746
1.7734789 -2.0346715 2.9778650 16711746
2.9513898 -3.1829057 4.5902390 16711746
1.7055650 -2.3326657 4.3232026 16711746
6.1469436 -6.3524303 7.3306332 16711746
1.9546762 -2.0129182 3.3383436 16711746
1.4173360 -1.9825855 3.4152353 16711746
2.4725835 -2.4706478 3.2286890 16711746
-0.0505589 -3.1882935 5.1269112 16711746
2.1787634 -1.7354656 2.4467628 16711746
1.9531003 -2.0639307 2.7521923 16711746
1.3095125 -4.7893105 4.3482666 16711746
-1.7045735 -3.1077819 4.2332721 16711746
1.8514395 -2.5849552 4.5733500 16711746
3.1011028 -3.3101463 5.0116048 16711746
1.6054553 -1.4817026 3.4440813 16711746
0.0028427 -2.0289798 3.0433998 16711746
0.8295519 -1.7653272 2.7578411 16711746
-0.1094364 -4.6912284 6.2291436 16711746
1.8071170 -3.7098479 2.4249191 16711746
1.4940716 -1.8542911 3.0701065 16711746
1.7753195 -2.3329670 3.7470174 16711746
2.4557295 -2.4824562 3.4374828 16711746
2.2066748 -2.1424501 4.3015990 16711746
1.8538129 -2.0697894 3.1675136 16711746
2.0553157 -2.6089458 4.0089974 16711746
1.0981532 -1.5084354 2.9374065 16711746
1.2680253 -2.9177461 3.2736075 16711746
0.6267413 -2.4127684 3.3644903 16711746
1.0072522 -1.5206733 3.2601347 16711746
3.5607407 -2.4895241 3.8454258 16711746
1.7744837 -2.6634800 4.0673423 16711746
1.0232072 -1.5434542 3.2677467 16711746
0.1308237 -2.2338588 4.5583200 16711746
0.9059684 -1.5796717 3.5482883 16711746
2.1922152 -2.3634992 3.3445942 16711746
2.2765369 -2.3722908 3.9834435 16711746
2.3140566 -2.2952645 3.2942295 16711746
2.1707668 -1.5033610 2.7133176 16711746
0.3013557 -1.4824336 3.2222712 16711746
1.9769846 -2.1632369 3.0694849 16711746
1.9396396 -2.0759752 3.0378957 16711746
2.0038669 -2.3007190 3.2113929 16711746
1.5038857 -1.4615642 2.9502749 16711746
2.0201161 -2.4796896 3.8882999 16711746
1.5347472 -1.7811053 3.1123741 16711746
1.4879892 -1.5208108 3.0097241 16711746
1.4601212 -1.9757819 3.5796254 16711746
1.2813375 -1.3736495 2.5414343 16711746
1.0708239 -1.4110481 2.7527332 16711746
1.4166396 -1.6277237 2.9966328 16711746
1.5268579 -2.0520246 3.6919985 16711746
1.5651397 -1.4498361 2.7042310 16711746
2.3418128 -2.1509595 4.3931942 16711746
2.4782319 -2.1011105 3.8364637 16711746
1.6435181 -1.9171168 3.2830880 16711746
0.2140050 -0.9768721 3.0430512 16711746
2.9443150 -2.4565933 3.7588606 16711746
1.1400437 -1.5303085 3.1868291 16711746
1.6683886 -1.6118319 3.0616434 16711746
0.7974370 -1.1379070 3.1365397 16711746
1.3946792 -1.3617066 2.8932433 16711746
0.7603662 -0.8983153 2.9356740 16711746
1.7340417 -1.7863274 3.3748267 16711746
1.7460560 -1.2721704 3.0546782 16711746
1.4425042 -2.4478979 3.9349220 16711746
2.7071176 -2.5651550 2.8867652 16711746
1.6286918 -2.3101778 3.6988595 16711746
1.8171771 -2.1592591 3.2737379 16711746
1.6129383 -2.0257688 3.7207258 16711746
1.7184732 -2.2616794 3.3989205 16711746
1.7422683 -2.3276010 3.7575362 16711746
2.5127122 -2.7832451 2.0719807 16711746
3.0669172 -2.5385311 4.0917716 16711746
0.9017225 -1.7625526 3.4751205 16711746
3.5159883 -2.8129358 4.6803617 16711746
2.2690372 -2.6826217 4.0834112 16711746
2.5896065 -2.3285084 2.9956424 16711746
2.4541619 -3.8541193 5.4152684 16711746
2.3101451 -1.9467878 3.1779311 16711746
4.2644744 -4.7533011 6.7526765 16711746
1.6505167 -2.2333095 3.7071180 16711746
1.7344389 -2.2902868 2.8735299 16711746
1.8198036 -2.4321976 3.8025286 16711746
1.9223667 -2.3572235 3.2903945 16711746
2.8325856 -3.2102225 4.6882396 16711746
1.9387625 -1.9791886 3.3546374 16711746
1.6741232 -1.9370639 3.1129131 16711746
1.6508449 -2.2076581 2.8726461 16711746
1.2673265 -2.3651147 3.5310621 16711746
2.0194581 -3.4553516 4.4859996 16711746
3.0468495 -2.9495649 4.8607531 16711746
2.5288901 -2.1474130 3.8624353 16711746
2.2956486 -1.9133242 3.1827741 16711746
1.7636476 -3.0121677 4.3002896 16711746
1.4970433 -2.4574442 3.5375516 16711746
2.2971301 -3.0211031 3.8347778 16711746
2.4974732 -1.9189631 3.8855953 16711746
1.4387883 -3.2140536 4.2007504 16711746
2.8440220 -2.6573339 2.8875811 16711746
1.8917595 -3.1221843 2.7806985 16711746
1.3363034 -1.3166902 2.9685261 16711746
1.5233537 -2.1732256 2.3352697 16711746
2.7429800 -2.3841863 1.6359575 16711746
2.2048764 -2.2820590 2.1764495 16711746
1.6385314 -1.7273962 3.8704078 16711746
1.9715233 -2.0630105 3.3213832 16711746
2.8272569 -3.7640152 3.9818461 16711746
2.2029219 -2.2008481 4.3501053 16711746
2.7588525 -2.5969880 4.7678809 16711746
2.3960183 -2.4643533 3.8761680 16711746
2.0216138 -3.0640056 4.3752570 16711746
3.3689039 -3.1276317 3.8512149 16711746
4.4969802 -3.6861339 4.7266283 16711746
1.4304479 -1.7270305 4.1265187 16711746
1.9093668 -2.2589371 3.8155880 16711746
3.1407452 -2.7761662 5.3943467 16711746
3.4279964 -2.7464457 2.8487229 16711746
0.8593338 -2.1263757 3.6132843 16711746
3.2212329 -4.4537759 6.0412979 16711746
3.4038727 -3.5291262 5.2216387 16711746
1.4357371 -2.2158835 3.8734009 16711746
0.4345673 -0.8713787 3.0292506 16711746
2.5520935 -3.3641462 3.8138597 16711746
2.5255868 -2.8233495 3.6639156 16711746
3.0968578 -3.0910981 4.3917556 16711746
2.3595924 -2.8513923 4.2987885 16711746
1.3794887 -2.7871428 3.5156577 16711746
2.6646991 -3.0502868 4.6011472 16711746
2.4885664 -3.0527086 3.8711436 16711746
2.6141376 -2.7746408 3.5079665 16711746
2.9820759 -3.8145082 3.7655070 16711746
1.6877953 -2.5341792 3.5530350 16711746
2.0760658 -2.9229817 3.4156370 16711746
1.1810522 -1.7559558 2.7596819 16711746
1.2123116 -3.2155247 4.6849918 16711746
3.1995904 -2.5624473 4.4976306 16711746
2.6286256 -3.1422937 3.8169959 16711746
3.6539273 -3.1641488 5.4174252 16711746
2.1092458 -2.2956760 3.3980107 16711746
2.9820952 -3.8158164 3.7664948 16711746
1.9849399 -2.9421768 3.6564636 16711746
1.4252282 -2.9003794 3.5436051 16711746
1.8372910 -3.2790353 4.0162544 16711746
0.9198975 -2.9119096 3.5551383 16711746
4.3104029 -3.2856257 5.0770130 16711746
1.0222789 -3.0048966 3.8671639 16711746
1.9494735 -2.7964625 4.0041809 16711746
2.7302096 -2.9477174 4.4262786 16711746
1.3733875 -3.4297931 4.6297064 16711746
1.2831005 -2.9305763 3.6734967 16711746
2.5980976 -3.7351847 4.2229028 16711746
2.1117196 -2.3016577 3.1118369 16711746
2.7527525 -2.0824730 2.8905239 16711746
1.8967093 -2.7818453 3.6074860 16711746
3.0724230 -3.1759567 5.2655344 16711746
2.6365037 -2.8095419 3.8549323 16711746
2.5400174 -3.3839545 4.1998110 16711746
2.3621302 -2.2694309 2.9266734 16711746
3.1187825 -2.5114408 4.4855442 16711746
2.8242211 -2.7001109 4.8208537 16711746
2.3294296 -2.8693376 3.8107123 16711746
2.3838873 -2.6123395 3.5461738 16711746
2.5407298 -2.2174664 3.3757231 16711746
2.8741705 -3.4082000 3.9020963 16711746
2.6438551 -2.5957069 3.4981062 16711746
1.2176448 -2.7744522 3.6340272 16711746
1.4308792 -1.8175111 2.9433072 16711746
3.8225505 -4.2655673 5.3342552 16711746
2.4822218 -2.1802659 3.3653622 16711746
2.5433841 -4.4411478 4.9589214 16711746
2.1251833 -2.9582162 4.4933276 16711746
2.8685615 -3.1369953 4.5371981 16711746
2.6341884 -2.8109324 3.4262297 16711746
2.4204061 -3.7703164 3.7787540 16711746
1.1018866 -2.6703384 4.2007098 16711746
1.7119199 -4.2018151 4.0476360 16711746
1.3522459 -2.0719295 3.4173930 16711746
3.0883775 -3.6356843 3.9862292 16711746
1.8614857 -1.4226604 3.0943418 16711746
2.5203576 -2.3550155 3.6752329 16711746
1.9301314 -2.4009035 4.0222459 16711746
0.8954753 -2.5039661 3.3653216 16711746
0.2468420 -2.6548638 3.6161754 16711746
1.8724295 -2.9758897 3.4107447 16711746
1.7389185 -2.8784547 3.2713854 16711746
1.1347768 -2.7242246 4.3608356 16711746
2.6862946 -2.1914067 2.8233721 16711746
-0.3003087 -2.1478164 3.9866228 16711746
2.0507274 -2.3646245 3.5971315 16711746
0.4011151 -1.9506744 3.1972494 16711746
2.7286298 -6.0906286 2.7947669 16711746
1.7681404 -2.5772719 2.9434600 16711746
1.9479747 -2.4972324 3.9724741 16711746
0.9424556 -2.8052049 3.8175380 16711746
1.8026710 -2.4860854 3.9005532 16711746
2.3267400 -2.8346462 4.2393670 16711746
2.8796084 -2.5980127 2.9910071 16711746
1.7887805 -2.4185033 2.8545625 16711746
3.8900056 -3.4145873 3.6946242 16711746
1.7912257 -3.1046948 3.3054993 16711746
1.8265214 -2.1733241 3.3863032 16711746
-0.6198893 -2.3930576 4.1107893 16711746
1.3935221 -2.4523318 3.3153048 16711746
1.4374237 -2.9357467 3.3583577 16711746
0.4752922 -2.6615720 3.8405056 16711746
2.7486250 -2.5581527 2.9884241 16711746
0.7257156 -1.9105954 3.7185979 16711746
-0.0097253 -2.6716151 4.4804602 16711746
1.7506629 -3.1300223 2.8628681 16711746
2.1107619 -2.8872552 3.3349774 16711746
2.8413086 -4.5986476 5.5963249 16711746
0.3606649 -0.8728161 3.1534214 16711746
-0.6732062 -2.8192508 4.4786711 16711746
2.6005917 -2.0471196 3.2642117 16711746
2.5309267 -2.0658603 3.0482278 16711746
4.4592671 -5.7698154 5.4138150 16711746
3.3302908 -3.2814207 4.6483130 16711746
2.1648934 -1.8446965 2.8541415 16711746
2.7588117 -3.1872909 3.5639384 16711746
0.4159668 -1.0137999 3.4011576 16711746
1.7657051 -2.4695075 3.5021138 16711746
3.0207908 -3.4600596 4.5318394 16711746
2.9058709 -2.5501807 3.1152170 16711746
3.6206806 -3.6184537 4.9794083 16711746
4.4361506 -3.7317977 5.9355741 16711746
5.0075741 -4.1495237 6.3319640 16711746
3.5240273 -5.5778856 3.3566611 16711746
2.7459838 -4.4400196 5.4879727 16711746
3.4598222 -3.5618792 4.6665606 16711746
2.2724700 -3.0935535 4.1618719 16711746
1.9870714 -2.6689780 3.4348514 16711746
4.3178916 -3.9002881 5.6924000 16711746
3.3987629 -3.5301144 5.2622075 16711746
4.1635547 -3.7046199 5.7207007 16711746
2.1034479 -1.9926258 3.1626635 16711746
3.9393890 -3.5855739 5.4148955 16711746
3.4870398 -3.9116232 5.9801893 16711746
3.0921769 -2.8752081 3.6615388 16711746
2.6458483 -2.4492033 3.5050471 16711746
3.4832995 -4.0175672 5.2926464 16711746
2.2427998 -2.9844034 3.1449430 16711746
4.0473819 -3.8894362 4.9977241 16711746
0.3076016 -0.8787209 3.2015700 16711746
2.2130308 -2.4140327 3.3650951 16711746
2.4902148 -1.8545229 3.7079825 16711746
2.4632616 -2.9177299 3.5823901 16711746
3.1400011 -3.1607008 4.7098660 16711746
3.1625292 -3.1923618 4.7338338 16711746
3.7812216 -4.5524402 5.6704178 16711746
4.6202278 -4.1066971 6.0599461 16711746
3.1151931 -3.9462297 4.2758193 16711746
2.4262638 -2.5869002 3.2845998 16711746
2.1616118 -2.5762734 4.0426612 16711746
3.2034245 -3.3583093 3.5740685 16711746
3.1648390 -2.7659149 2.5913966 16711746
3.0352659 -3.4791937 5.5711460 16711746
2.6862202 -3.0874546 4.2851315 16711746
2.1722410 -2.9553845 2.9798090 16711746
1.3669740 -2.3430634 3.8506446 16711746
2.6700907 -2.8491666 4.1500845 16711746
3.1516943 -2.9618115 4.3863368 16711746
3.6707084 -2.9208536 2.9130304 16711746
1.6265889 -2.0568283 3.7906885 16711746
2.2917850 -4.2786589 4.8669510 16711746
3.4866118 -3.5950809 6.1525760 16711746
3.4354765 -3.2634931 4.7600403 16711746
1.2876325 -1.9767400 3.4657187 16711746
1.4075276 -2.3284388 3.9368234 16711746
1.3070122 -2.1672268 3.9676166 16711746
1.4634764 -2.2987723 4.0709343 16711746
1.4965053 -2.2690363 3.7095351 16711746
1.7110996 -3.3049803 2.9414337 16711746
1.0294859 -3.7024288 4.0655255 16711746
3.3142402 -2.9551466 5.2523422 16711746
2.7561364 -2.8931248 5.4743114 16711746
1.3102148 -2.9277816 3.0406146 16711746
2.1911712 -3.0060525 3.1756153 16711746
2.5796819 -3.3353281 4.9817719 16711746
1.3433042 -2.0430331 3.7685363 16711746
1.2876641 -2.1412823 4.0692325 16711746
1.0303571 -2.1783273 3.2892666 16711746
0.7958141 -2.0598874 3.1834762 16711746
0.7291191 -1.8074166 3.2902265 16711746
0.5622376 -2.4111631 4.1831617 16711746
2.1028113 -3.2628751 4.4626551 16711746
2.2603791 -2.1341536 3.1502481 16711746
2.5266938 -3.6324179 3.1628056 16711746
1.6510692 -3.2720604 3.9795845 16711746
1.6396843 -3.9056630 3.9954176 16711746
1.8425317 -3.2530110 2.9832437 16711746
2.7198479 -2.9065590 4.1760125 16711746
1.6804196 -3.2564611 2.9464929 16711746
0.6550865 -2.8775351 3.9487722 16711746
1.7542491 -3.4542058 4.0205932 16711746
0.9171528 -2.7230990 4.1265926 16711746
1.2700356 -2.8382771 3.7485149 16711746
1.1775545 -3.0278909 4.0350628 16711746
0.7116969 -3.6045411 4.3478761 16711746
0.5264519 -3.5165634 4.7326717 16711746
2.6404836 -3.1718709 4.5214109 16711746
0.5498992 -3.8736722 4.1631727 16711746
2.2699471 -2.8535557 2.6109910 16711746
1.1486043 -3.7869182 6.1177673 16711746
1.3759298 -3.8128562 4.0164537 16711746
2.9701107 -4.2171931 3.7291584 16711746
1.5846756 -2.5275247 3.9939134 16711746
0.6399905 -2.9146936 3.8575485 16711746
0.8305539 -4.0212669 4.5526299 16711746
1.6124934 -3.7187750 3.1020432 16711746
1.8393680 -2.9807861 2.9164603 16711746
1.0928444 -3.6436603 5.9628735 16711746
2.5319817 -2.9325747 5.1485391 16711746
2.2266982 -3.9859688 3.3220615 16711746
1.3359441 -3.0007598 4.3354578 16711746
3.5334041 -6.6883721 6.5426373 16711746
0.5714846 -3.0579746 4.5344400 16711746
1.2897682 -3.3223686 4.1426554 16711746
1.5488771 -3.4670959 3.6860511 16711746
0.7332993 -3.4306281 4.1430411 16711746
1.7864807 -2.9894867 4.5949306 16711746
0.5358302 -3.7109435 4.1404314 16711746
2.5030918 -3.5760655 3.6227632 16711746
2.2021523 -5.8016176 5.2367582 16711746
2.2398562 -3.5609589 4.1630716 16711746
1.5913419 -2.6075788 2.9605103 16711746
3.1679122 -2.4919970 4.2856565 16711746
5.0367389 -5.0669594 6.3676295 16711746
1.9095343 -2.3246148 3.7894447 16711746
3.6604242 -3.7907834 4.5517392 16711746
2.1780560 -3.2155640 4.2746348 16711746
1.6140519 -2.6406972 3.8633034 16711746
1.7270687 -2.8192890 3.8025568 16711746
0.9900250 -4.3024020 5.3650923 16711746
0.7510738 -2.9047272 4.2093034 16711746
1.6275679 -2.7943890 4.4892821 16711746
1.7345359 -3.2749262 4.6485143 16711746
1.5603005 -2.6031177 3.5048974 16711746
2.0646956 -2.9596210 3.9787881 16711746
1.5175906 -2.8674386 4.2041450 16711746
0.6840379 -3.2965221 3.9714062 16711746
-0.5797011 -3.0666761 4.2414727 16711746
2.0354290 -1.7466851 3.2667191 16711746
1.9427831 -3.1928706 3.4455719 16711746
2.6951852 -5.1802363 4.9891434 16711746
1.8959022 -3.1355491 2.9298840 16711746
0.9716113 -2.9047561 4.4989076 16711746
4.1367731 -3.6672964 4.5778537 16711746
1.4290544 -3.1193273 4.4078455 16711746
2.1367860 -2.9621472 4.5929666 16711746
0.3938509 -4.5927272 5.3932285 16711746
0.7798608 -3.1444921 4.5836887 16711746
0.8191969 -5.1356783 5.5942779 16711746
-0.8128068 -3.0998154 4.3043213 16711746
2.6840777 -3.5199308 3.5138502 16711746
1.6985903 -1.6902111 3.0223098 16711746
1.2710342 -2.8799534 4.0532999 16711746
1.4728805 -4.6517186 5.5094657 16711746
1.6799990 -2.5771663 4.6256247 16711746
0.4079361 -3.4084451 4.5499649 16711746
1.9337469 -2.6866465 3.5184298 16711746
1.8676300 -3.0991564 4.4651189 16711746
1.8096670 -3.3278639 4.5353522 16711746
2.1535301 -3.1592615 4.1547790 16711746
1.6201073 -2.6813943 3.9528749 16711746
0.7426483 -2.0410535 3.8203235 16711746
0.4282039 -3.4734542 4.4968400 16711746
2.6548939 -3.5222883 4.9348707 16711746
1.4542360 -3.2161283 3.9629285 16711746
2.6349699 -3.4810648 3.5069225 16711746
1.1238326 -3.2657499 3.5325649 16711746
-1.4062846 -3.3023648 4.5594425 16711746
1.8240339 -2.9177473 4.2995234 16711746
1.4419173 -3.2465191 3.3613629 16711746
1.8348535 -2.3799803 2.8821371 16711746
4.9948945 -3.8567879 5.5775776 16711746
1.1662555 -1.9341414 3.7576060 16711746
0.7758749 -1.3623046 3.3473959 16711746
1.3733050 -1.9996555 3.4752998 16711746
1.1398544 -1.8399929 3.4093308 16711746
1.1199408 -1.8224274 3.6802142 16711746
1.3263471 -2.3980882 3.8420405 16711746
2.3503282 -2.2035661 2.9375989 16711746
2.4870782 -2.2154961 3.0991695 16711746
3.8145616 -3.5320244 4.9566512 16711746
3.2686210 -3.8706155 4.9399571 16711746
2.6235011 -2.7128484 3.3202436 16711746
0.3934296 -2.4543958 3.6957808 16711746
0.4525231 -2.8490746 4.2262082 16711746
1.3570917 -1.6535347 3.1702051 16711746
0.9556397 -3.5755601 3.1149395 16711746
1.7046667 -1.9816159 2.5925293 16711746
0.6075316 -2.3318775 3.9643474 16711746
2.9829707 -2.7608068 4.9129467 16711746
1.2440071 -2.3207281 3.1455216 16711746
2.3446181 -4.0207286 5.4991994 16711746
2.3737736 -3.2087822 4.2831745 16711746
2.3840272 -3.0278213 4.3478346 16711746
6.3369617 -6.7912521 7.0453010 16711746
0.5074648 -0.8820232 3.4008272 16711746
2.8607030 -3.5769815 4.5628581 16711746
5.7525115 -6.1643295 6.7709742 16711746
3.6776342 -4.7170730 5.8433905 16711746
2.3226283 -2.0861537 3.3841560 16711746
1.1903002 -1.1817693 3.1320834 16711746
1.9312575 -1.7135412 3.0277414 16711746
6.1329150 -12.0093098 10.1574068 16711746
1.6157434 -1.6307948 3.9930665 16711746
0.7167904 -2.0936260 3.6344762 16711746
5.7845736 -5.3755584 6.3778286 16711746
0.2203519 -1.5535609 3.5865345 16711746
2.8601685 -2.5125775 2.9813673 16711746
5.5399833 -6.7070351 6.1121941 16711746
-0.2460202 -2.4856033 4.6220627 16711746
3.5415545 -3.6045527 4.7816291 16711746
4.8005738 -4.1567774 4.3357344 16711746
4.0004177 -4.1253080 3.5715222 16711746
4.2125564 -3.7274456 3.7076375 16711746
4.8618546 -4.4514613 4.1032205 16711746
2.0758417 -2.3136859 3.2521558 16711746
4.3713312 -3.9414880 2.7342696 16711746
2.9128125 -2.2636120 2.8863375 16711746
4.9559259 -4.8428731 5.7823725 16711746
0.5894753 -0.8311485 3.6298127 16711746
5.2172852 -4.1020079 4.5659137 16711746
6.3694739 -4.7531900 6.3324108 16711746
13.1808977 -14.8891268 10.9124031 16711746
3.7199461 -5.0157948 3.7180331 16711746
6.0867653 -5.6383276 6.4904280 16711746
6.2189641 -6.2594175 8.9431210 16711746
3.7991128 -3.0725300 3.3460078 16711746
44.9880943 -71.2429276 21.5203495 16711746
1.5715636 -2.5222423 3.6545811 16711746
0.9361370 -1.4893454 3.7873783 16711746
0.2749601 -2.1807396 4.0477648 16711746
0.7258607 -1.4012837 3.8140244 16711746
1.8339154 -3.4778771 5.2371473 16711746
0.1065127 -1.9882300 4.0149922 16711746
1.6798433 -1.9001060 3.5875437 16711746
0.7892141 -2.1936488 4.0441570 16711746
0.2823156 -1.5026290 3.8380940 16711746
-0.5271889 -2.0396214 4.6609168 16711746
1.6919069 -2.9513729 4.6804152 16711746
0.7108862 -1.3784153 3.8014729 16711746
0.9852813 -1.4104772 3.8237925 16711746
1.0202607 -1.7746695 3.8257799 16711746
0.4105674 -0.9118233 3.6640592 16711746
0.4318570 -0.9372547 3.6790607 16711746
0.4207405 -1.2348059 3.8647816 16711746
0.1481403 -1.5846950 3.6799052 16711746
0.8918869 -1.3795633 3.8894997 16711746
0.8928329 -1.5535537 3.5179670 16711746
-0.0191991 -2.1371207 4.2342210 16711746
0.8274826 -1.8457419 3.8338580 16711746
1.1009719 -2.5895271 4.2543139 16711746
0.4982234 -1.1469872 3.4222643 16711746
3.3668990 -3.0469556 3.2176445 16711746
1.0476805 -1.2727274 3.5916100 16711746
1.0637504 -1.2847146 3.6002445 16711746
3.5691395 -3.0243416 3.3581588 16711746
1.0574611 -1.2782180 3.5948036 16711746
0.8453179 -1.0885116 3.4950111 16711746
5.8508339 -4.9887004 7.0619082 16711746
0.6406334 -1.7415240 3.6868043 16711746
1.2130271 -1.3809205 3.5122449 16711746
0.8578193 -1.6900327 3.6870046 16711746
0.3571516 -0.6988892 3.4809599 16711746
0.3652668 -1.1346104 3.8641503 16711746
-0.2307618 -1.4172324 3.9243755 16711746
0.9652839 -2.1164443 4.4064183 16711746
1.7380139 -1.8205827 3.5537283 16711746
2.6480672 -2.2780495 3.0504453 16711746
2.6070566 -1.9176228 3.8605800 16711746
0.2794229 -3.0248713 4.5650954 16711746
1.8577353 -2.4327834 4.3974800 16711746
1.8516173 -2.1353674 3.6511939 16711746
2.9773350 -4.2878604 4.9435382 16711746
0.3021570 -2.0226765 5.1886835 16711746
2.3495054 -2.4790115 3.8143249 16711746
1.4340811 -1.6433674 3.4915814 16711746
0.8455128 -2.1672797 3.8321106 16711746
1.2329937 -2.1104224 4.4568262 16711746
0.2861326 -0.6208621 3.5120988 16711746
0.4390118 -15.1669083 7.3978229 16711746
0.8110203 -1.0734395 3.5804400 16711746
2.8653550 -2.0254443 3.9550893 16711746
0.5548568 -1.4760288 3.4882648 16711746
1.9233240 -1.9085211 3.4770410 16711746
3.4769151 -2.4319150 3.8950398 16711746
1.3317409 -1.7317837 3.5702891 16711746
2.8384881 -2.2994618 4.0841608 16711746
0.5063874 -1.3724138 4.0449643 16711746
1.8220525 -8.5098114 7.0484638 16711746
7.3290386 -4.1381550 4.7819309 16711746
0.4752865 -1.4734842 4.0977693 16711746
9.4433966 -14.6235256 6.6533833 16711746
0.5212892 -0.8585396 3.6407743 16711746
0.1360101 -0.5486861 3.6287947 16711746
0.5082552 -1.4830512 4.1231499 16711746
4.4449677 -4.4278636 5.7574964 16711746
4.0683379 -4.2099338 5.6572590 16711746
3.2815723 -3.2085314 3.9446161 16711746
4.1168914 -4.4409351 5.4288898 16711746
2.7386742 -3.7583778 4.9725151 16711746
5.3486843 -3.2019243 4.3535428 16711746
0.8759170 -2.3375399 3.9629154 16711746
0.3792787 -1.0444213 3.6613019 16711746
0.4607424 -1.3729272 3.6926670 16711746
0.4362853 -1.0417768 3.6997111 16711746
0.5285187 -1.2045212 3.8320997 16711746
0.3102333 -1.0273405 3.8387067 16711746
0.4022567 -0.9981477 3.7720671 16711746
0.0929328 -1.0144186 3.6918745 16711746
0.7348815 -1.4003259 3.5827572 16711746
0.6809285 -1.6134218 3.5486884 16711746
0.5074129 -1.3822455 3.5733607 16711746
0.3192672 -1.1334403 3.8661475 16711746
0.9578537 -1.3857387 3.9865170 16711746
0.4355052 -1.1567621 3.8221526 16711746
0.4425927 -1.1701115 3.8965521 16711746
0.6168084 -1.4566187 3.9469249 16711746
0.9885154 -2.6022439 4.7482214 16711746
0.6524086 -1.2796937 3.7717850 16711746
0.6543897 -0.9375517 3.4932253 16711746
0.8965828 -1.1752285 3.6422882 16711746
0.6494728 -1.2805802 3.6056504 16711746
1.7573833 -3.2235150 4.2529035 16711746
0.4778093 -1.1167257 3.8018451 16711746
0.7549459 -1.3061337 3.8391299 16711746
0.0986397 -1.0524290 3.8721204 16711746
0.0522252 -1.2496240 3.9208214 16711746
0.0488137 -1.7017865 4.3035135 16711746
0.4892443 -1.4782625 3.9220033 16711746
0.5141961 -1.3322606 3.8765521 16711746
0.7013035 -1.4671053 3.7278273 16711746
0.7256548 -1.2928958 3.7981060 16711746
0.5942140 -0.9742893 3.6057639 16711746
0.7624555 -1.2512777 3.6337461 16711746
1.0038278 -1.5754727 3.9038255 16711746
-0.2851038 -2.4270835 4.6382132 16711746
0.5591909 -1.3610446 3.5646470 16711746
0.3417457 -1.3510582 3.7844999 16711746
0.8017759 -1.5742230 4.0161443 16711746
0.1393415 -0.5307605 3.6328008 16711746
0.5930757 -1.4210056 3.8096611 16711746
0.6082573 -1.9632884 3.8542516 16711746
0.4678576 -1.1580511 3.7537766 16711746
0.6501496 -1.0996224 3.6586432 16711746
1.1226968 -1.5869968 4.0056844 16711746
-0.0133342 -1.4220287 4.0082560 16711746
1.2011937 -2.5265267 4.0363851 16711746
-0.0227956 -2.0257368 4.1631861 16711746
0.7190704 -1.1633306 4.1724086 16711746
0.7207300 -1.7947553 3.8234987 16711746
0.4977345 -1.3799648 3.9546084 16711746
0.3993683 -1.0793464 3.7445056 16711746
-0.0502398 -1.4348886 4.1369958 16711746
0.3282508 -1.3132635 3.8050992 16711746
0.2547767 -0.9723797 3.8366597 16711746
0.2959616 -0.8918355 3.7222934 16711746
0.2900004 -1.0024569 3.9640062 16711746
0.4036371 -1.2147338 3.8605692 16711746
-0.0460720 -1.3685019 4.0534186 16711746
0.0797872 -1.2156240 3.9978755 16711746
-0.1213048 -1.2221659 4.0316477 16711746
-0.2697048 -1.3419071 4.0806489 16711746
0.3188598 -1.0624834 3.7633564 16711746
-0.3702269 -1.5462240 4.1903749 16711746
-0.0849711 -1.5126802 4.1264591 16711746
0.2550370 -0.8498076 3.8020947 16711746
0.5591075 -1.1690972 3.7049541 16711746
0.2327917 -0.9980027 3.8365104 16711746
0.4919426 -1.2953779 4.2552452 16711746
0.3125782 -1.0230490 4.0011945 16711746
0.6309962 -1.8976048 4.3559504 16711746
0.0918243 -0.9721195 3.7319355 16711746
0.2976953 -1.0498692 3.8355410 16711746
0.5109782 -1.3464432 3.5801098 16711746
0.4781084 -1.1059541 3.7574351 16711746
0.5043643 -1.3167528 3.7436724 16711746
0.5283126 -1.2734841 3.8320823 16711746
0.6770019 -0.9271089 3.9986632 16711746
0.8943225 -1.0895877 4.0609050 16711746
0.3510313 -1.0583541 3.8350298 16711746
0.3865680 -1.2724953 4.2266803 16711746
5.3514237 -4.7544041 6.6901884 16711746
5.8700294 -6.2452335 6.4191837 16711746
2.7607088 -2.8207047 3.7171276 16711746
3.8293800 -3.8046679 3.8137910 16711746
2.5686631 -2.1233330 4.3438344 16711746
-0.0502479 -1.4348856 4.1391253 16711746
5.8523149 -5.1034961 7.2005773 16711746
3.8600299 -3.7540197 5.6529307 16711746
8.4570417 -10.3371458 8.3661299 16711746
0.5994190 -1.1392937 3.4729517 16711746
0.5921002 -0.9944851 3.7902811 16711746
0.3934649 -1.0608975 3.8513834 16711746
0.8418428 -1.1319656 4.0165615 16711746
0.3752214 -1.5703295 4.4243512 16711746
0.6648024 -1.2070388 3.4605997 16711746
0.3998569 -1.3883568 3.9636376 16711746
0.4433142 -1.1393932 3.7527966 16711746
1.1618325 -1.5377678 4.2345147 16711746
0.7290240 -1.2750359 3.9267650 16711746
0.9968211 -1.2027391 4.1688533 16711746
0.4770327 -1.8746094 4.5119357 16711746
-0.1300924 -1.2092153 4.0008121 16711746
0.7154763 -1.5400000 3.9742260 16711746
0.6020883 -1.0504985 3.8053851 16711746
0.4372846 -0.8320249 3.7167499 16711746
0.3439040 -1.2130865 3.8943472 16711746
0.0225628 -1.1712310 3.8023059 16711746
0.4616458 -1.6201642 3.8093803 16711746
-1.4764637 -2.2296741 6.1838284 16711746
0.5567172 -1.0880616 3.8933184 16711746
1.1150707 -1.7168447 4.3864198 16711746
-0.0339349 -1.2999313 3.9631426 16711746
0.6145709 -1.1670423 3.9300392 16711746
1.0613800 -1.7576743 4.1193018 16711746
0.5662377 -0.8685470 3.8996971 16711746
0.7978086 -1.2790040 3.8846834 16711746
0.6581684 -1.5682912 4.1741624 16711746
0.7765049 -1.1919377 3.8684669 16711746
0.5196781 -1.2730848 3.8109062 16711746
0.3110369 -1.2395700 4.1218314 16711746
1.1396955 -1.7325035 4.3971982 16711746
0.4899746 -0.9593791 3.8603146 16711746
-0.2609045 -1.4951437 4.0564260 16711746
0.0531073 -1.1796831 3.7697551 16711746
0.6743096 -1.1412189 4.0935817 16711746
0.6809174 -1.4605457 4.2534504 16711746
0.4693715 -1.1733350 3.7855554 16711746
0.3952881 -1.0603387 3.8507972 16711746
0.7490942 -1.0735708 3.9122508 16711746
0.6766487 -1.1149496 4.1244707 16711746
-0.0636778 -1.2229040 3.9520109 16711746
-0.0567632 -1.3274528 3.9123476 16711746
0.4902926 -0.8606694 3.8344316 16711746
0.8480176 -1.4227756 3.9135284 16711746
0.6499697 -1.3441234 3.6608737 16711746
1.1741369 -3.4409876 4.6628556 16711746
0.1111849 -1.9067222 4.2070789 16711746
3.8244822 -3.2928889 4.7786641 16711746
0.6358232 -1.5979306 4.2357616 16711746
2.3215449 -3.7466421 4.6280909 16711746
