# .PCD v.7 - Point Cloud Data file format
VERSION .7
FIELDS x y z rgb
SIZE 4 4 4 4
TYPE F F F F
COUNT 1 1 1 1
WIDTH 91
HEIGHT 1
VIEWPOINT 0 0 0 1 0 0 0
POINTS 91
DATA ascii

 0.0883757 -0.1002898 0.1300334 16777215
 -0.0031745 -0.0081252 0.0055134 16777215
1.0227236 -0.6194727 0.0513659 16711746
1.1013064 -0.6906062 -0.4859065 16711746
0.8309167 -1.4943233 0.5703261 16711746
0.3545437 -0.7292624 -0.0731729 16711746
0.4955571 -0.9563153 -0.0502516 16711746
0.5594581 -1.1460043 -0.1762273 16711746
0.4366871 -0.9855736 -0.1412614 16711746
0.8533331 -0.5429075 -0.2237420 16711746
0.2472556 -0.6881638 0.1061486 16711746
0.1970842 -0.9059739 0.2259201 16711746
1.0359745 -0.9480464 -0.4645925 16711746
0.3673017 -1.5971496 -0.1928690 16711746
1.1993828 -1.1949590 -0.1597886 16711746
0.8252963 -0.4674167 -0.1888643 16711746
0.8313594 -0.6857423 -0.1735396 16711746
0.8408287 -0.7629000 -0.1879705 16711746
0.9887478 -1.2705784 -0.1114001 16711746
0.7972775 -0.8233947 0.1781093 16711746
5.5370488 -14.3439188 3.8268013 16711746
0.6145319 -0.5704148 0.0667546 16711746
1.2316184 -1.3088315 0.5205305 16711746
0.7109461 -1.0179960 0.1327761 16711746
0.7048227 -0.8759655 -0.1319964 16711746
0.7471051 -1.1907649 0.0816356 16711746
0.6220635 -0.9369608 -0.1800588 16711746
0.4154400 -0.9642522 0.2347129 16711746
0.9695273 -0.7494419 -0.4142738 16711746
0.9821177 -0.7695132 -0.4369249 16711746
0.6511937 -1.1568540 -0.3125702 16711746
0.4197464 -1.0718677 0.1879840 16711746
0.6431443 -1.1022122 -0.2798926 16711746
0.9216233 -1.0685264 0.0168815 16711746
1.0666713 -1.0178318 -0.5003024 16711746
1.7443103 -1.8294747 -0.8038257 16711746
0.9745246 -0.7435846 -0.4559730 16711746
0.7865858 -1.0832478 -0.2708544 16711746
0.7743527 -1.1167436 -0.2585140 16711746
0.8038066 -1.1424426 -0.3011810 16711746
0.6490099 -0.9778836 -0.2428521 16711746
0.6466097 -0.8931213 0.2263814 16711746
1.1871179 -0.8305668 -0.1249370 16711746
1.2400781 -1.0102392 -0.1979916 16711746
0.5979688 -1.1021271 0.1262493 16711746
0.6620259 -1.6276828 -0.1338919 16711746
0.6557456 -1.3095100 -0.0069968 16711746
0.5813841 -1.4006007 0.0070034 16711746
0.4948009 -0.9103521 -0.0321283 16711746
0.7937307 -1.3141916 -0.1423227 16711746
0.6516197 -0.8161972 -0.1670203 16711746
0.9650986 -0.9748983 -0.3458523 16711746
0.8238478 -0.8717403 -0.3029026 16711746
0.9987217 -0.8397115 -0.4297802 16711746
1.1172668 -1.0755535 -0.5788477 16711746
0.5827771 -0.6978366 -0.2978753 16711746
0.6654727 -1.0245398 -0.2935498 16711746
0.6833684 -1.0434704 0.1544252 16711746
0.5693779 -1.2669314 0.0631425 16711746
0.8191709 -1.3111047 0.0102152 16711746
1.1468458 -0.7356488 -0.0549818 16711746
1.1085382 -0.7934820 -0.0186870 16711746
0.8305755 -0.6065515 -0.1714856 16711746
0.8957546 -0.6194936 -0.1981012 16711746
0.8281112 -0.4971475 -0.1314308 16711746
0.6492774 -0.7776976 -0.0478237 16711746
0.7260749 -0.6683667 -0.0986425 16711746
1.2348287 -1.2191756 -0.1959381 16711746
0.7230449 -0.6150361 -0.0745009 16711746
-0.1481713 -0.8046523 0.0479613 16711746
-0.0776783 -0.5833068 0.1340081 16711746
2.6931717 -6.4175673 -0.9052668 16711746
0.9618629 -2.7299488 1.9133198 16711746
1.7536063 -4.0979385 1.6547819 16711746
2.0618165 -2.2496836 1.2840912 16711746
0.7328864 -1.3386014 0.2946159 16711746
2.8786857 -6.8849411 -0.9690648 16711746
-0.4706371 -8.8314877 2.3635895 16711746
0.8365336 -1.5360175 0.7658322 16711746
1.3347532 -13.1630516 2.0081427 16711746
-2.6717730 -5.7508731 2.7441661 16711746
-1.7366190 -9.0810890 1.7412268 16711746
-1.2733178 -6.8759990 1.2685986 16711746
1.4841363 -2.8627117 0.6735412 16711746
-3.1819370 -6.7279558 2.0765340 16711746
1.0176183 -2.9000497 2.0139811 16711746
0.7912090 -1.1891987 0.4064912 16711746
4.8313565 -3.6759758 -0.8002127 16711746
-0.9580311 -7.8438320 0.7408004 16711746
0.8448343 -1.6115980 0.9247590 16711746
-0.8656015 -7.1578007 0.6709729 16711746
