# .PCD v.7 - Point Cloud Data file format
VERSION .7
FIELDS x y z rgb
SIZE 4 4 4 4
TYPE F F F F
COUNT 1 1 1 1
WIDTH 66
HEIGHT 1
VIEWPOINT 0 0 0 1 0 0 0
POINTS 66
DATA ascii

0.1232897 -1.0536186 0.2129916 16711746
0.2803870 -1.0216651 -0.1130517 16711746
0.5380536 -0.9158807 0.0173264 16711746
0.9245153 -0.9125117 -0.1830375 16711746
1.0256009 -1.0411623 -0.2109204 16711746
0.7778206 -0.8242874 -0.1540296 16711746
1.3048035 -0.8223171 -0.2002667 16711746
1.0966066 -0.7418196 -0.1780203 16711746
1.0635582 -0.8001250 -0.4752201 16711746
1.0593165 -0.7634678 -0.4885575 16711746
0.9053350 -0.7207379 -0.4054153 16711746
0.0666756 -0.9987256 -0.0679891 16711746
0.6273684 -1.0580382 -0.0162977 16711746
0.6980545 -0.9619610 -0.1658695 16711746
0.4021437 -1.0872346 -0.1681926 16711746
0.4027174 -0.9076915 -0.0943771 16711746
0.4988831 -1.0005075 -0.1456407 16711746
0.2592737 -0.9407394 0.1989530 16711746
0.5084312 -0.9880846 -0.0970234 16711746
0.3721718 -1.0894128 0.1162667 16711746
0.9049860 -0.7545543 -0.0999952 16711746
0.2649536 -1.2077810 -0.0824892 16711746
0.2950417 -1.1893196 -0.0259160 16711746
0.6238840 -1.0691843 -0.2030181 16711746
0.6369454 -1.0381742 -0.2603376 16711746
0.8812754 -0.8161573 0.0411789 16711746
0.8602989 -1.0023814 -0.0691865 16711746
1.1131973 -0.6767704 -0.4575547 16711746
1.1626265 -0.8602474 -0.1576958 16711746
1.2797582 -0.9873602 -0.1732927 16711746
0.5916386 -1.1029226 -0.2403259 16711746
0.5083231 -0.9550677 -0.2221923 16711746
0.6929646 -1.0154028 -0.1349633 16711746
0.3446403 -1.1427314 -0.1143608 16711746
1.2666557 -0.8776208 -0.0492163 16711746
0.7320622 -0.9087914 -0.2246531 16711746
0.3294234 -1.1415329 -0.0725720 16711746
0.8537040 -0.9336750 0.0315575 16711746
-0.0372313 -1.2124162 0.1515642 16711746
0.6681577 -0.8632056 0.1247093 16711746
0.9078535 -0.9664139 -0.3754156 16711746
0.5133523 -0.9709299 -0.0872895 16711746
0.6031840 -1.1060318 -0.1479270 16711746
0.4583134 -1.0362488 -0.0460468 16711746
0.6721219 -0.9975353 -0.0924073 16711746
0.3617815 -1.1498103 -0.0463600 16711746
0.3266114 -1.1614604 0.0022450 16711746
0.4289150 -1.0678674 -0.1391750 16711746
0.5030620 -0.9716197 -0.1853417 16711746
0.1661168 -0.9357855 -0.1307253 16711746
0.2957627 -1.1841228 -0.0894626 16711746
1.0787301 -0.8226178 -0.4073536 16711746
0.8080026 -0.7914136 -0.2323323 16711746
1.0412297 -0.7662590 -0.5083745 16711746
0.8948217 -0.7996621 -0.3356207 16711746
0.8796684 -0.9985954 -0.4365460 16711746
0.7130893 -0.9351928 -0.2482448 16711746
0.8805308 -0.8234109 -0.3587159 16711746
0.8061932 -0.9950631 0.0986557 16711746
1.1907529 -0.8367184 -0.1992538 16711746
1.2031244 -0.6392725 -0.2871274 16711746
1.6005495 -0.9071439 -0.2255840 16711746
0.9296230 -0.8626345 -0.1155072 16711746
0.1988985 -0.3572717 0.0466976 16711746
0.6287994 -1.1030765 0.2379570 16711746
0.2375963 -0.6907226 0.0765922 16711746
