# .PCD v0.7 - Point Cloud Data file format
VERSION 0.7
FIELDS x y z rgb
SIZE 4 4 4 4
TYPE F F F F
COUNT 1 1 1 1
WIDTH 267
HEIGHT 1
VIEWPOINT 0 0 0 1 0 0 0
POINTS 267
DATA ascii
0 0 0 16777215
-0.22059506 0.0099571943 0.18125425 16777215
-0.23073287 0.0046512811 0.18870468 16777215
-0.2430172 0.0011266458 0.19598946 16777215
-0.24526849 -0.00023151623 0.19428004 16777215
-0.24308507 0.0028470508 0.20150994 16777215
-0.25609389 0.0070522642 0.1996538 16777215
-0.24998266 -0.00017263927 0.20714018 16777215
-0.24511482 -5.5883229e-05 0.20472622 16777215
-0.23230657 -0.0013930891 0.19948117 16777215
-0.22323054 -0.001827182 0.20590076 16777215
-0.16538043 0.0019838547 0.17637245 16777215
-0.13620839 0.0022862228 0.16336364 16777215
-0.061591301 -0.00079533813 0.13929793 16777215
0.022867218 0.013961826 0.10343786 16777215
0.060882784 0.023499895 0.079882085 16777215
0.093546532 0.030105093 0.066969067 16777215
0.089850254 0.047947809 0.055317409 16777215
0.08824461 0.049535491 0.047899913 16777215
0.078444086 0.049847838 0.052874513 16777215
0.056817278 0.046552725 0.056085803 16777215
0.031049121 0.040158089 0.068737365 16777215
-0.018141093 0.033900164 0.09046796 16777215
-0.13254204 0.038530488 0.13331144 16777215
-0.15341942 0.032644786 0.16226992 16777215
-0.13463867 0.021251593 0.19902113 16777215
-0.23255606 0.041030265 0.2551778 16777215
-0.21624714 0.043615863 0.28821176 16777215
-0.19835451 0.054052055 0.31663936 16777215
-0.17634451 0.05168001 0.36407721 16777215
-0.073084287 0.049242105 0.43676835 16777215
0.032401294 0.04652179 0.50054711 16777215
0.13503183 0.03362374 0.55125713 16777215
0.22567843 0.048794042 0.62852865 16777215
0.26349542 0.053015225 0.71063709 16777215
0.28451347 0.077332407 0.89975691 16777215
0.27270716 0.067129731 1.0329765 16777215
0.28817585 0.079314269 1.1885304 16777215
0.3291133 0.086087123 1.2835928 16777215
0.37999099 0.10781871 1.4574226 16777215
0.4413338 0.11983659 1.5813317 16777215
0.59078354 0.10011979 1.7841599 16777215
0.75704116 0.10560333 1.9509584 16777215
0.82749486 0.11572418 2.1145983 16777215
0.91300219 0.1421839 2.3241374 16777215
0.923163 0.15460894 2.5333345 16777215
0.9498682 0.15819044 2.738862 16777215
1.0050509 0.14357498 2.9209685 16777215
1.1325204 0.18189691 3.1747949 16777215
1.2908796 0.15623952 3.3577187 16777215
1.3975217 0.16575466 3.5014863 16777215
1.4586819 0.16506608 3.6156709 16777215
1.5338829 0.15396927 3.7934353 16777215
1.5761704 0.16861168 3.9954543 16777215
1.6389632 0.15365893 4.2015872 16777215
1.6705153 0.18030125 4.3447642 16777215
1.7419111 0.16588935 4.4759331 16777215
1.7939365 0.17092285 4.6552286 16777215
1.9107833 0.20860611 4.8292103 16777215
2.0830951 0.16474377 5.0296512 16777215
2.186646 0.15109427 5.2363262 16777215
2.2634635 0.16598716 5.3692698 16777215
2.302856 0.17872754 5.5673079 16777215
2.3647118 0.15815851 5.726603 16777215
2.4000061 0.18329999 5.8345942 16777215
2.496644 0.19053985 5.9846067 16777215
2.5681536 0.20109479 6.1474953 16777215
2.6998866 0.20604745 6.3072886 16777215
2.8376527 0.18447952 6.4088902 16777215
3.0115631 0.150746 6.5991445 16777215
3.066257 0.15532543 6.7510133 16777215
3.125514 0.18270722 6.9619975 16777215
3.1668446 0.15539429 7.2289777 16777215
3.1667788 0.16288264 7.3591518 16777215
3.2089067 0.18953596 7.5059195 16777215
3.2491307 0.18465514 7.6352067 16777215
3.3004284 0.19990928 7.8228207 16777215
3.3715439 0.1871689 7.9229169 16777215
3.4637482 0.16663681 8.0778255 16777215
3.514147 0.12419249 8.2660036 16777215
3.5737324 0.14484933 8.4651203 16777215
3.5989966 0.17886026 8.7376356 16777215
3.5833683 0.17348249 8.8665657 16777215
3.6716359 0.17923248 9.0398464 16777215
3.7479973 0.18421507 9.2368364 16777215
3.8263705 0.17010157 9.3553534 16777215
3.9346325 0.14817138 9.4800034 16777215
4.005012 0.15201336 9.6325769 16777215
4.0684528 0.15994777 9.8179893 16777215
4.1066861 0.15255623 10.005954 16777215
4.162961 0.16395241 10.194024 16777215
4.2053595 0.15210617 10.379303 16777215
4.3046312 0.17642334 10.523153 16777215
4.3802581 0.15113619 10.647914 16777215
4.475091 0.14400709 10.773911 16777215
4.5235949 0.13374951 10.945548 16777215
4.6025777 0.16381769 11.122807 16777215
4.6347742 0.13732904 11.297938 16777215
4.6926327 0.12870008 11.47448 16777215
4.6607552 0.13015005 11.602791 16777215
4.7070026 0.1020767 11.791508 16777215
4.7772474 0.13118388 11.896034 16777215
4.8845696 0.10898627 12.111403 16777215
5.0152211 0.11065976 12.229972 16777215
5.081007 0.1093016 12.335309 16777215
5.1462784 0.10851126 12.468208 16777215
5.2206154 0.10522912 12.582126 16777215
5.2675223 0.081778124 12.721981 16777215
5.3131032 0.077118859 12.861519 16777215
5.3297439 0.077529997 13.011532 16777215
5.4217501 0.12118977 13.118359 16777215
5.4336047 0.076401353 13.218789 16777215
5.4753222 0.083806887 13.303906 16777215
5.4780011 0.08685451 13.409894 16777215
5.559484 0.092104539 13.582704 16777215
5.5833383 0.074599117 13.69776 16777215
5.635972 0.099296518 13.798368 16777215
5.6543641 0.11529608 13.90117 16777215
5.6851645 0.11714222 14.028404 16777215
5.7455673 0.11581101 14.125034 16777215
5.8045483 0.11579704 14.219155 16777215
5.8259048 0.12127658 14.278544 16777215
5.8459954 0.13606668 14.371107 16777215
5.8792958 0.14306307 14.548541 16777215
5.881259 0.13022488 14.734158 16777215
5.9322209 0.15263207 14.845963 16777215
5.9733629 0.15335855 14.989063 16777215
6.0582762 0.18418214 15.176135 16777215
6.1146989 0.18995208 15.317793 16777215
6.1544671 0.1803202 15.444006 16777215
6.2560596 0.14878809 15.572977 16777215
6.3289123 0.14497806 15.706059 16777215
6.3414769 0.14786603 15.867119 16777215
6.2904916 0.17767374 16.023159 16777215
6.2686043 0.17024726 16.204752 16777215
6.2729502 0.14937986 16.312021 16777215
6.3259597 0.16200846 16.439487 16777215
6.3602796 0.1572644 16.569536 16777215
6.4340897 0.16195658 16.686815 16777215
6.4595218 0.17380482 16.757896 16777215
6.4438152 0.17573878 16.946939 16777215
6.5060353 0.18892024 17.098351 16777215
6.5427365 0.1856371 17.265871 16777215
6.6084871 0.19787453 17.411016 16777215
6.7169704 0.171324 17.541576 16777215
6.784204 0.18143587 17.657078 16777215
6.8150578 0.18190788 17.740204 16777215
6.8606815 0.19171539 17.890299 16777215
6.8883095 0.18763691 18.052578 16777215
6.9208541 0.18122931 18.178936 16777215
6.9650497 0.17568588 18.282648 16777215
7.0051737 0.17779249 18.366055 16777215
7.0960875 0.17484266 18.493809 16777215
7.1574287 0.17161839 18.605288 16777215
7.1854892 0.17694326 18.685419 16777215
7.2159667 0.20939046 18.815613 16777215
7.2268052 0.20655438 18.948957 16777215
7.2333136 0.20136623 19.092148 16777215
7.2560401 0.18670288 19.230812 16777215
7.3114576 0.20285511 19.327391 16777215
7.3500791 0.19270332 19.438669 16777215
7.4110212 0.1905638 19.529203 16777215
7.4428358 0.19443473 19.593521 16777215
7.4844608 0.20577003 19.719225 16777215
7.4929819 0.21082048 19.828451 16777215
7.4950256 0.20421529 19.956738 16777215
7.5265818 0.20358659 20.069319 16777215
7.5632315 0.20135625 20.173832 16777215
7.6052141 0.21543185 20.282536 16777215
7.6526771 0.20889051 20.394541 16777215
7.7144189 0.21960112 20.485245 16777215
7.7539692 0.20637277 20.608122 16777215
7.8026128 0.19213252 20.772327 16777215
7.8720837 0.21662635 20.92668 16777215
7.8878708 0.22064096 21.037262 16777215
7.9344916 0.22448093 21.166893 16777215
8.0101213 0.22725314 21.298134 16777215
8.0445347 0.22870511 21.36898 16777215
8.1166105 0.21626709 21.486355 16777215
8.1287155 0.22635402 21.56303 16777215
8.1476307 0.23525742 21.699938 16777215
8.1608276 0.23347813 21.82482 16777215
8.2093315 0.23455988 21.943668 16777215
8.2551947 0.24851771 22.061958 16777215
8.3409519 0.25286463 22.181749 16777215
8.390317 0.24727929 22.278833 16777215
8.4539022 0.25929019 22.411625 16777215
8.5016441 0.25514987 22.587513 16777215
8.5141792 0.27156556 22.690348 16777215
8.5404205 0.26195863 22.781631 16777215
8.5532637 0.27552429 22.843836 16777215
8.6324997 0.26858976 22.970953 16777215
8.7127161 0.26661187 23.084291 16777215
8.768877 0.26921147 23.178312 16777215
8.820797 0.27539253 23.305529 16777215
8.8483801 0.28849018 23.448252 16777215
8.8908501 0.28420314 23.571861 16777215
8.9184341 0.26998985 23.694345 16777215
8.9809046 0.28063259 23.802794 16777215
9.0171947 0.27902597 23.901634 16777215
9.0566502 0.27579871 24.00569 16777215
9.1139565 0.26823452 24.123493 16777215
9.1424427 0.27963468 24.226492 16777215
9.1943007 0.28705817 24.356749 16777215
9.2171917 0.28256658 24.44976 16777215
9.2520304 0.28560022 24.536507 16777215
9.3160572 0.2938889 24.658628 16777215
9.3885908 0.28571498 24.756666 16777215
9.4592953 0.28051785 24.862394 16777215
9.5078449 0.27456528 24.978968 16777215
9.5289078 0.29311651 25.112417 16777215
9.5395575 0.29242796 25.235363 16777215
9.5731306 0.27751213 25.356821 16777215
9.6237059 0.28936335 25.467215 16777215
9.6842861 0.29032734 25.583086 16777215
9.731638 0.28646439 25.709942 16777215
9.7627649 0.29668304 25.812778 16777215
9.7693176 0.29990235 25.952379 16777215
9.7608509 0.29641065 26.071726 16777215
9.7948523 0.29631484 26.200636 16777215
9.8327675 0.31021878 26.331295 16777215
9.8945761 0.30243704 26.435057 16777215
9.9420166 0.29322028 26.54644 16777215
9.98001 0.29769096 26.686363 16777215
9.9814482 0.29860306 26.821201 16777215
9.9847364 0.28644148 26.894791 16777215
10.004244 0.27289277 26.997202 16777215
10.03367 0.28321022 27.109447 16777215
10.101066 0.28853709 27.222248 16777215
10.143604 0.28110161 27.331383 16777215
10.180257 0.28645045 27.431089 16777215
10.173992 0.30667919 27.589052 16777215
10.18063 0.30870393 27.700863 16777215
10.212475 0.29595658 27.8209 16777215
10.252314 0.30920789 27.936525 16777215
10.318642 0.30131239 28.055223 16777215
10.381581 0.30078748 28.156069 16777215
10.416127 0.30814111 28.239195 16777215
10.440985 0.31292814 28.371321 16777215
10.473734 0.30877578 28.502283 16777215
10.495154 0.30717811 28.615805 16777215
10.52869 0.31043431 28.706421 16777215
10.578407 0.32073382 28.824234 16777215
10.637565 0.31139931 28.927994 16777215
10.688039 0.30873689 29.020435 16777215
10.718677 0.30892247 29.112783 16777215
10.760726 0.32174969 29.251602 16777215
10.788 0.31854337 29.376701 16777215
10.827322 0.31641281 29.492039 16777215
10.876839 0.3290714 29.606098 16777215
10.968307 0.31530413 29.718868 16777215
11.017349 0.30745354 29.793306 16777215
11.083079 0.30808523 29.898943 16777215
11.109541 0.31886074 30.023211 16777215
11.126871 0.30826187 30.146486 16777215
11.151432 0.31490695 30.222912 16777215
11.188647 0.31086344 30.30607 16777215
11.224191 0.30833372 30.37059 16777215
11.272579 0.29790351 30.416677 16777215
11.305699 0.27803302 30.460142 16777215
11.328533 0.286181 30.486496 16777215
11.328007 0.29109675 30.507687 16777215
11.32937 0.2963258 30.519928 16777215
11.32931 0.29574403 30.524986 16777215
11.331978 0.2964226 30.528229 16777215
11.331195 0.29549754 30.531141 16777215
11.331389 0.2955175 30.530718 16777215
