# .PCD v0.7 - Point Cloud Data file format
VERSION 0.7
FIELDS x y z rgb
SIZE 4 4 4 4
TYPE F F F F
COUNT 1 1 1 1
WIDTH 1179
HEIGHT 1
VIEWPOINT 0 0 0 1 0 0 0
POINTS 1179
DATA ascii
17.282795 -8.7155256 38.18354 16711746
17.230072 -8.71562 36.75634 16711746
17.346016 -7.6582785 38.232536 16711746
16.261566 -6.6816792 38.091377 16711746
18.838827 -5.0685201 38.150883 16711746
15.973262 -6.3024526 37.564068 16711746
16.736753 -7.870512 36.190933 16711746
11.32455 -2.5664573 34.465626 16711746
17.75952 -8.8988352 33.413116 16711746
15.937016 -7.7437825 40.565033 16711746
17.036242 -8.4206266 35.347878 16711746
17.086905 -9.8752823 37.383484 16711746
11.825306 -8.5648632 35.21735 16711746
11.796665 -8.3808804 35.102436 16711746
12.265009 -5.7078409 37.676506 16711746
10.9767 -8.6668606 38.236889 16711746
17.590281 -3.1229403 35.32877 16711746
17.734394 -7.3758326 41.099838 16711746
17.315027 -6.8813362 40.311703 16711746
17.11412 -7.1316857 38.156071 16711746
17.892353 -6.2685246 31.056112 16711746
12.659062 -3.4057066 32.095547 16711746
11.365045 -3.5130002 31.596756 16711746
11.789384 -4.1482573 33.268513 16711746
11.763919 -3.9229238 34.606548 16711746
10.714758 -2.8512759 34.451431 16711746
19.125389 -7.0070434 39.121876 16711746
19.530058 -8.331563 39.541451 16711746
12.813731 -2.5239439 32.599594 16711746
11.323819 -2.4412818 32.572025 16711746
9.2356396 -10.852144 34.020695 16711746
16.009762 -7.1753936 42.581482 16711746
13.97226 -9.0673609 41.002281 16711746
36.823017 -38.996326 77.716202 16711746
15.276483 -5.5577197 36.203926 16711746
12.016852 -4.8265915 35.425873 16711746
20.246267 -6.1398587 40.044621 16711746
16.524773 -7.2402849 32.781841 16711746
14.671357 -8.3261003 41.61203 16711746
18.347023 -7.4224982 42.011028 16711746
19.432217 -6.7045498 38.946236 16711746
18.832865 -5.3084993 42.211815 16711746
18.047949 -7.0990019 39.948654 16711746
10.813809 -5.0625901 31.765638 16711746
13.52018 -2.9082997 32.748722 16711746
12.514634 -4.0779986 32.674023 16711746
8.484189 -3.5605841 33.358082 16711746
14.732707 -17.726025 45.691216 16711746
15.05802 -6.4118462 35.569317 16711746
14.131196 -8.3182688 36.829884 16711746
19.377186 -33.881004 55.109348 16711746
12.983135 -2.5455699 31.247326 16711746
-13.890481 -24.799877 56.606609 16711746
36.031567 -86.335358 99.768921 16711746
13.428451 -3.4865916 31.94615 16711746
12.165965 -3.7200758 32.898064 16711746
11.851793 -4.1680994 32.465134 16711746
11.34608 -3.9089272 33.048542 16711746
15.454312 -5.1246853 37.443298 16711746
15.256193 -6.1925821 35.036648 16711746
12.635898 -2.5545721 31.4876 16711746
13.210089 -5.5323434 37.00655 16711746
14.465653 -3.8083122 34.125023 16711746
20.217321 -4.904407 40.133347 16711746
13.981419 -3.4339027 33.821102 16711746
16.610548 -10.262424 38.323711 16711746
15.755439 -7.2885132 34.096397 16711746
10.032106 -1.6842747 31.629541 16711746
16.507339 -7.4154329 33.137321 16711746
17.030529 -7.0088916 38.037304 16711746
14.257408 -6.9528933 39.513439 16711746
13.992135 -4.5586891 36.979671 16711746
7.3812914 -16.986593 38.139107 16711746
7.449481 -16.866083 38.054863 16711746
17.266439 -6.7165122 31.560278 16711746
15.88461 -3.575388 36.470051 16711746
15.223569 -3.1694083 35.519569 16711746
20.508926 -7.5244761 34.086967 16711746
10.445193 -4.8192577 31.402733 16711746
15.559686 -7.3239117 41.626846 16711746
11.240919 -4.1503267 33.606464 16711746
12.275197 -0.94130707 30.611612 16711746
14.948884 -6.0613842 36.06538 16711746
-0.0042810547 -14.256106 41.831936 16711746
11.416249 -2.7247882 33.632969 16711746
12.380092 -6.2082744 36.540997 16711746
12.522782 -5.8769579 35.855846 16711746
12.340304 -4.5256414 34.693691 16711746
16.414968 -7.7157278 38.004326 16711746
12.864915 -4.7897224 33.3269 16711746
15.545073 -3.8203323 32.050274 16711746
17.176058 -7.3496118 40.982201 16711746
22.026947 -8.4277258 43.399647 16711746
16.945456 -6.2760921 31.739271 16711746
16.321878 -7.7120643 37.885326 16711746
13.599881 -3.9011512 33.475426 16711746
11.376914 -3.5254772 34.37323 16711746
14.171637 -4.0157089 33.841759 16711746
13.342478 -3.5281916 33.609947 16711746
-14.754191 -29.932364 14.240065 16711746
8.1810493 -15.918651 19.331541 16711746
0.3422139 -9.1018429 5.8898611 16711746
5.0264797 -31.975693 21.639956 16711746
20.943865 -43.305038 50.009556 16711746
0.20119359 -7.8100677 3.7586181 16711746
-5.0516219 -12.89382 8.0386095 16711746
7.177422 -7.7163253 14.703612 16711746
4.5091596 -11.062485 5.5143847 16711746
0.64026815 -1.6591451 0.72197139 16711746
0.63926816 -1.6772861 0.73468679 16711746
0.39033538 -1.6041999 0.85718381 16711746
1.7445935 -7.2531061 5.0449429 16711746
-3.1014185 -6.8608541 4.9167728 16711746
0.65785038 -2.407727 0.99747366 16711746
0.38316637 -3.001034 2.2946413 16711746
-5.9893003 -12.374907 10.814512 16711746
2.6459212 -5.6263051 5.396379 16711746
4.0354285 -4.3940806 5.0957332 16711746
3.2445841 -3.5958862 4.3324471 16711746
3.4998586 -5.4605241 3.02738 16711746
-2.4978976 -12.612629 6.5439553 16711746
-4.3705783 -7.7060289 4.2804704 16711746
0.22970901 -2.1671407 1.6413562 16711746
1.3932648 -2.1951981 2.3894472 16711746
0.55128306 -3.1833224 4.0674448 16711746
2.5085065 -6.6495194 5.6960678 16711746
0.71884197 -3.4349017 2.6935139 16711746
2.7122834 -3.5194099 2.4018803 16711746
0.58670801 -1.7657832 0.89238232 16711746
0.82345235 -1.5402017 0.65314621 16711746
1.9848955 -2.4083977 1.3339406 16711746
1.1861833 -1.6106695 0.59518534 16711746
-1.3390909 -2.3760581 2.7033582 16711746
2.450768 -3.7208481 3.9614415 16711746
-0.10278323 -3.2038014 2.7991412 16711746
0.56191885 -1.9074503 1.1736476 16711746
-0.05090164 -4.7088776 3.8305478 16711746
-0.67018658 -4.4777851 2.3966351 16711746
-0.50868505 -2.4285295 1.5626886 16711746
1.1318948 -3.669313 4.6647935 16711746
0.031200804 -3.9408684 2.3379467 16711746
2.3553734 -2.1563034 1.6509533 16711746
1.6907719 -5.0942507 4.0395222 16711746
-0.44394735 -2.4257393 3.4502275 16711746
-0.43466374 -5.8763371 3.4565065 16711746
0.094388768 -4.060636 2.0919058 16711746
0.29586577 -2.8097398 1.7537882 16711746
-0.17117332 -4.2824535 8.3244991 16711746
-2.3497939 -8.7584639 6.2917323 16711746
-5.1519575 -10.387225 6.9291153 16711746
-0.88086534 -7.5169468 12.050661 16711746
1.156199 -5.2419629 4.6419644 16711746
1.003096 -8.7789011 4.5686116 16711746
1.0885434 -8.8310347 8.7867641 16711746
0.35775346 -2.9950588 2.5542059 16711746
0.087627895 -2.5289676 1.636672 16711746
-0.63571566 -3.6439457 3.2123747 16711746
-1.5901523 -2.0846729 1.914747 16711746
0.27189586 -1.560637 0.9140051 16711746
0.44899979 -5.7929592 5.1096525 16711746
0.26593331 -1.3005474 0.67633873 16711746
1.6786214 -4.4150605 2.5904052 16711746
0.095742941 -3.0598843 2.2226624 16711746
0.2755622 -1.2344985 0.6888057 16711746
0.026899792 -1.0458326 0.55138087 16711746
0.37695831 -1.1515028 0.60105509 16711746
0.26149058 -3.8143396 2.7758417 16711746
0.99622035 -1.4254674 0.70472139 16711746
1.9521168 -3.1817074 1.5655557 16711746
-0.065986119 -1.316548 0.43254718 16711746
0.058730282 -2.3316209 0.88667727 16711746
-2.8851793 -6.3524222 4.746933 16711746
-3.9793849 -8.7130804 6.2926702 16711746
0.76781166 -2.0137134 0.94404233 16711746
0.37346563 -0.75448352 0.17263627 16711746
-0.80811644 -5.7588048 3.1359034 16711746
-0.1589309 -7.2860203 6.6976399 16711746
0.71775019 -2.054013 0.93303734 16711746
0.56379491 -6.7459779 6.581831 16711746
1.0508761 -1.3249604 0.6822235 16711746
1.3358226 -2.9201491 1.9959114 16711746
2.8594818 -4.5404596 2.3275087 16711746
0.71116894 -1.8106467 0.76508832 16711746
0.083335862 -6.3103328 4.8438597 16711746
1.1741835 -2.0638993 0.82127094 16711746
0.34545913 -5.2991729 4.1074085 16711746
-1.2161568 -7.7221742 5.0477328 16711746
0.52581924 -2.1802013 1.1830888 16711746
1.2950459 -2.0862067 0.76734763 16711746
2.0641818 -2.3094461 2.614414 16711746
-0.68323034 -3.5746953 1.7005386 16711746
0.50730693 -1.7416316 1.1473166 16711746
-1.2681282 -1.2868531 1.3306634 16711746
1.6267778 -2.0186539 2.813966 16711746
0.3463423 -1.6474875 0.66954494 16711746
0.25175494 -2.0163546 0.98135543 16711746
-3.0707233 -4.8589158 2.5874434 16711746
-0.7642051 -2.0421059 1.7693399 16711746
-0.67213756 -1.8870459 1.531886 16711746
0.92926729 -2.0862877 1.3687309 16711746
0.16291757 -1.0000274 0.51031965 16711746
0.038183212 -2.0391831 0.8000133 16711746
0.093519591 -1.6281788 0.51855743 16711746
0.40972486 -2.3433883 1.3704005 16711746
1.1277845 -2.1929238 0.94729656 16711746
0.21059196 -2.2870891 1.7782482 16711746
0.64560395 -2.0033131 0.73089278 16711746
0.72547108 -3.5112779 2.0153477 16711746
0.014288143 -2.7220562 1.7612507 16711746
0.80392313 -2.0632267 0.83754694 16711746
0.71888286 -3.399195 2.0361483 16711746
0.57873273 -1.2872481 0.44701892 16711746
0.077318437 -2.0708838 1.6860059 16711746
0.7286554 -1.9424621 1.1176226 16711746
0.19740652 -3.1018305 1.6187905 16711746
0.18221924 -2.4373221 2.0618038 16711746
0.26506612 -1.6980089 1.22606 16711746
0.74370295 -1.768793 0.89042538 16711746
0.57358646 -2.1527078 0.99657655 16711746
-1.3503972 -1.7169244 1.3348827 16711746
0.77656728 -1.9499744 1.0817835 16711746
0.46321008 -6.4399862 3.1945748 16711746
0.73755783 -4.9389186 4.4449511 16711746
-0.46718377 -1.870279 1.4924763 16711746
-0.52227765 -1.8485193 2.0209093 16711746
1.0951536 -2.0698929 0.81722236 16711746
0.85041898 -2.8579791 1.5434679 16711746
0.5496884 -1.4038316 0.51782399 16711746
0.32092839 -1.2881573 0.70334131 16711746
0.37199071 -0.75715387 0.17601819 16711746
0.41118279 -0.91826326 0.25914049 16711746
-0.29082829 -2.6486127 1.4733304 16711746
0.27340671 -3.5845158 1.9133669 16711746
-0.025950773 -2.9042873 1.8991985 16711746
1.0080925 -1.521387 0.47061762 16711746
0.8710379 -2.6723218 1.4949682 16711746
-0.085742839 -2.4417908 3.5021701 16711746
1.5610839 -4.1010828 2.1061749 16711746
1.3029485 -2.3734765 1.3410199 16711746
-0.8542949 -2.7037704 1.5418024 16711746
0.40132442 -1.0993019 0.45876938 16711746
0.20800535 -2.1573391 1.591189 16711746
-0.038132321 -1.8206257 1.8154784 16711746
0.44847888 -2.1125228 1.1856105 16711746
1.2434787 -2.2638526 1.5555505 16711746
0.72448611 -1.0460342 0.30864108 16711746
0.80342317 -1.1492525 0.33270478 16711746
0.21225847 -1.4990158 1.1125872 16711746
0.76875663 -1.2068083 0.39374825 16711746
1.2060159 -2.359832 1.5222181 16711746
-0.52760851 -1.6469207 0.49486694 16711746
0.63445526 -2.0371842 1.0918056 16711746
-0.2567156 -1.9084711 0.8679933 16711746
0.76628876 -1.7414731 0.68346387 16711746
0.56895512 -1.3407924 0.6779604 16711746
0.82047659 -2.4265995 0.87599552 16711746
-0.30782777 -2.0858674 0.81669647 16711746
0.52202415 -0.91467571 0.2334023 16711746
1.6574306 -2.4990091 1.282136 16711746
-1.7468399 -4.5598636 3.3011501 16711746
-2.4480526 -2.7319114 0.9790023 16711746
-1.3111552 -5.8549657 2.6097445 16711746
-0.83907074 -4.4324241 1.6996574 16711746
0.86441278 -3.0229671 2.2577224 16711746
0.1563493 -4.4913549 3.2098658 16711746
0.84158349 -4.3070064 1.920951 16711746
1.2468017 -3.8394141 1.6704515 16711746
0.80821818 -1.376858 0.72972018 16711746
0.70395106 -1.6474615 1.3795773 16711746
-0.70245916 -2.8107266 1.4767004 16711746
-0.47899312 -2.0554261 0.89999437 16711746
-0.33211902 -1.620873 0.7697376 16711746
0.77889943 -1.6273236 1.1945599 16711746
0.2462704 -1.8353928 1.1888179 16711746
-0.53561878 -1.9795735 0.73452622 16711746
0.30473325 -1.6990008 1.160971 16711746
0.29887649 -1.964031 1.0235962 16711746
0.28440672 -1.3927746 0.8565262 16711746
0.35466191 -1.4395779 0.8869946 16711746
0.50584602 -2.355422 0.91270286 16711746
2.0125685 -4.4506211 3.7045622 16711746
1.3587958 -5.7508969 2.3216398 16711746
2.4125049 -6.2245564 2.4935985 16711746
0.29074648 -4.1768694 2.6414244 16711746
0.49312261 -4.6464739 2.4348574 16711746
-0.55149758 -2.5196552 2.1092176 16711746
2.0455718 -5.2351909 3.2016082 16711746
1.1494192 -4.8964834 2.6490068 16711746
1.4422274 -4.9763813 3.5322421 16711746
0.54710782 -4.834516 2.4159517 16711746
0.53039968 -5.8247929 2.8366895 16711746
2.3259737 -5.6158767 2.0476253 16711746
-0.20886655 -3.2260268 1.6460246 16711746
1.3105944 -5.7642207 3.1563995 16711746
1.218914 -4.9891367 2.4944956 16711746
-0.42421356 -3.2599342 2.401031 16711746
0.62403804 -3.9382238 2.9472995 16711746
-0.39044613 -4.6040387 2.0485444 16711746
-0.36342061 -3.5447111 1.5505311 16711746
2.0300131 -6.1358585 3.1879466 16711746
0.023811243 -4.5706067 2.0353589 16711746
1.6464906 -4.038672 3.7283733 16711746
1.4293344 -4.797708 2.0910375 16711746
1.4949232 -5.132174 3.1295955 16711746
0.55014741 -4.6479478 2.0712979 16711746
0.30889055 -3.375385 2.9056695 16711746
-0.099450193 -2.3964264 2.2883594 16711746
4.4250784 -6.1974678 2.2603259 16711746
0.10035031 -4.3125324 2.1164925 16711746
-0.46268919 -1.9432825 1.9257162 16711746
2.2978466 -6.1122723 2.3208723 16711746
1.5855819 -5.3525739 2.0386541 16711746
3.2088478 -5.8478036 3.1765404 16711746
2.6744015 -5.7779517 3.0024085 16711746
0.30568725 -3.6715651 2.7912815 16711746
0.37604225 -4.2352004 2.2229919 16711746
2.181797 -5.2028832 4.164072 16711746
3.922749 -5.9579988 3.1579781 16711746
-0.5893485 -3.5131111 2.0939386 16711746
-0.29658628 -2.3639553 2.0965102 16711746
1.4397855 -4.4346046 3.4447231 16711746
2.3441229 -5.5362387 2.5674982 16711746
2.7596385 -5.6904511 2.3678823 16711746
1.2919843 -3.9257908 3.2805531 16711746
-0.71259695 -3.8108189 2.1782174 16711746
-0.37434581 -4.506772 2.0009699 16711746
-0.46697521 -3.1076832 2.6616492 16711746
0.54693615 -4.9380784 2.2070172 16711746
0.89545387 -5.3383241 2.6387541 16711746
1.9218072 -4.7163591 3.2731366 16711746
1.2688056 -4.135273 2.8308456 16711746
0.049592376 -4.3306298 1.9762007 16711746
-0.24002844 -2.8806896 2.1965363 16711746
2.5339851 -5.9638252 2.4347932 16711746
1.1778069 -2.8536243 3.4925389 16711746
-0.45978424 -4.5310731 1.757784 16711746
-0.40457162 -1.8541735 1.807528 16711746
1.4224617 -5.5453606 2.5803592 16711746
-0.39058682 -4.546339 2.0236824 16711746
0.67252469 -5.3853683 2.091799 16711746
-0.92497218 -3.2576978 1.8133569 16711746
1.1425096 -3.072401 3.5158503 16711746
1.3667481 -4.154808 3.2057376 16711746
1.9862546 -4.5281529 3.2386155 16711746
-1.0761473 -2.6903462 2.3278527 16711746
0.53618956 -4.6183138 3.200207 16711746
0.0090740388 -3.7780774 1.7645898 16711746
-0.1315062 -1.7465914 1.8013231 16711746
-0.096352667 -1.988492 2.0706782 16711746
-0.15032887 -1.9231684 1.8643144 16711746
-0.42129067 -2.2839866 2.1595523 16711746
0.7683844 -4.7222524 2.5237443 16711746
1.1651434 -4.4486942 3.2459204 16711746
0.96934754 -5.1175017 1.9877695 16711746
1.5383495 -5.2202725 2.2853625 16711746
1.3236681 -3.3711727 3.7000234 16711746
0.38491669 -4.2939463 2.2602849 16711746
-0.50791866 -2.6213315 2.1209111 16711746
1.434762 -2.9273751 2.8553245 16711746
1.933422 -4.1189651 4.1005359 16711746
0.093074515 -4.5134687 2.2190123 16711746
0.52963924 -2.8544385 2.4392798 16711746
2.0985808 -5.874835 2.2973516 16711746
-0.67602634 -2.5958638 1.5853622 16711746
-1.1996802 -3.5453825 2.0704947 16711746
-0.49268052 -4.868041 2.3656828 16711746
1.7356472 -5.1345286 3.4117248 16711746
-0.78816009 -3.4100215 2.43642 16711746
1.0022477 -3.9573679 2.5746992 16711746
1.7963364 -5.8768258 3.015461 16711746
1.0810331 -5.5396199 2.8595216 16711746
-0.15612675 -2.528172 2.1262789 16711746
3.9833627 -4.8225636 3.4943485 16711746
1.4891434 -4.5105329 3.5080776 16711746
3.6416595 -5.5395317 1.9928368 16711746
0.67789048 -3.4514768 1.5807389 16711746
0.72884202 -3.7364821 1.620429 16711746
-0.23090152 -2.0897324 2.063623 16711746
3.9821768 -1.4952645 4.2171102 16711746
0.36614391 -1.205976 1.4360492 16711746
4.7314315 -3.1344652 4.1900606 16711746
-0.92611182 -4.4306755 1.8262749 16711746
1.3559827 -4.5495863 3.1382434 16711746
2.0451276 -3.314517 3.9271019 16711746
-0.19333301 -4.3489804 2.8683195 16711746
-0.34526455 -2.1524644 1.9882884 16711746
-0.94622779 -3.1879437 1.7598187 16711746
-0.87067866 -2.7059877 1.4269742 16711746
-0.40144616 -4.0369792 1.9575595 16711746
0.060758043 -4.4977026 2.3308394 16711746
-1.9415259 -3.631923 1.3926958 16711746
-1.4045082 -3.179594 1.6980639 16711746
-1.681674 -3.0158551 1.5892432 16711746
0.25551608 -3.2042704 2.0632079 16711746
1.6245085 -3.933877 3.6226254 16711746
2.7718241 -5.5360184 2.1879132 16711746
0.27120429 -4.480948 2.0734613 16711746
-0.27932334 -1.5826939 1.5809944 16711746
0.17467301 -1.5741067 1.6311625 16711746
-0.7779175 -2.8111432 2.2546139 16711746
-0.39479005 -1.6935122 1.4830151 16711746
2.7593582 -6.2482347 3.1588395 16711746
1.7523514 -4.3035307 2.8394458 16711746
1.9567931 -5.2184143 3.1185575 16711746
0.40100208 -3.414655 2.8323696 16711746
-0.75145984 -2.9259081 1.6442772 16711746
1.8268327 -3.1582506 3.1065657 16711746
-0.63453311 -3.4285388 2.2637708 16711746
-0.38186106 -4.0288506 1.7490034 16711746
-0.048891835 -3.4855299 2.0627837 16711746
2.404767 -3.2582018 2.8789034 16711746
3.1367695 -4.9749937 2.00527 16711746
-0.058814101 -1.2674017 1.1832526 16711746
-0.23091948 -2.6309016 1.8569757 16711746
1.0945369 -3.8547821 2.8912108 16711746
0.18286589 -3.9463828 2.2558751 16711746
1.8710792 -3.7020533 2.2667964 16711746
0.78060085 -2.2935803 2.5476615 16711746
0.45960465 -2.2174435 2.5740743 16711746
0.26023123 -4.5335388 2.0901334 16711746
1.7211156 -4.204608 3.6356051 16711746
0.38736358 -3.1876073 2.118619 16711746
-0.55002469 -1.8488327 1.5758731 16711746
-0.60578817 -2.779454 2.0049596 16711746
-0.95071638 -2.5188537 2.0462322 16711746
-0.41409972 -2.4871669 1.8372171 16711746
-0.98600966 -2.8347845 1.7464906 16711746
-1.5698068 -2.6271374 1.967399 16711746
-0.72841096 -2.8311732 1.295027 16711746
-0.36709693 -4.7708054 2.1981719 16711746
-0.58869088 -3.4692888 2.0255585 16711746
-0.80279756 -3.9677472 2.0447714 16711746
-3.2951038 -3.5047097 1.3686311 16711746
0.43792495 -3.2061186 2.2961411 16711746
1.0850537 -4.1440997 2.9792736 16711746
4.6269045 -5.3149762 2.0751188 16711746
0.38329807 -5.162436 2.7807524 16711746
2.4308574 -5.3764849 2.8246157 16711746
-0.2457974 -1.6240634 1.4716828 16711746
-0.49855724 -1.6486181 1.433274 16711746
1.7523663 -2.5165536 3.0413988 16711746
0.85642147 -2.9145267 2.6480489 16711746
2.1314991 -5.3550024 2.1260145 16711746
3.5358665 -6.333724 3.1287792 16711746
0.9612155 -4.2834535 1.8014038 16711746
1.5204759 -5.1964569 1.8293046 16711746
0.38179323 -4.0678458 2.1293786 16711746
2.8706965 -5.601099 2.2317626 16711746
0.41202804 -4.5578122 1.7326365 16711746
2.0337434 -5.6290669 2.5187588 16711746
-0.43561175 -1.7193253 1.7970549 16711746
3.6199369 -5.0022712 4.4104934 16711746
3.0907457 -4.801527 3.8513544 16711746
2.2556846 -5.0592332 3.0696676 16711746
2.598732 -5.471868 3.001004 16711746
-0.71859044 -3.7707808 1.8476932 16711746
0.82007146 -4.8297629 2.0840342 16711746
2.5754364 -4.4282389 4.5391092 16711746
1.9738984 -4.6399565 4.4282398 16711746
0.68784469 -4.1510382 2.7228284 16711746
-0.95538962 -3.1351469 2.2270885 16711746
-0.56037104 -3.19156 2.1791415 16711746
-0.69337016 -2.6424215 1.8800067 16711746
-0.43473259 -2.8619776 2.2518306 16711746
2.1743765 -6.107059 2.4056883 16711746
-0.58876377 -1.9668642 2.0958686 16711746
-0.43710464 -3.3283162 2.2711015 16711746
-0.63161224 -3.8738983 2.9534025 16711746
2.2010567 -4.7978573 3.5567758 16711746
-0.95470506 -3.2726395 2.1147342 16711746
3.2396793 -5.0724826 2.628773 16711746
2.8558044 -5.3405805 2.5582633 16711746
-0.91454601 -3.1200864 1.8966398 16711746
2.6888626 -6.9682317 2.7975125 16711746
-0.42288834 -1.3985986 1.534268 16711746
-0.68955815 -3.2708585 1.5375602 16711746
2.741775 -6.6201591 3.0683703 16711746
0.15694804 -3.4104319 2.0026653 16711746
2.1486223 -4.803966 3.6251621 16711746
0.078091823 -3.7623973 2.1108134 16711746
2.1218741 -5.0931568 4.5315638 16711746
1.5765227 -4.6006575 1.9802312 16711746
2.8111491 -4.1813984 4.2611241 16711746
2.3496034 -4.2095728 4.2610641 16711746
1.8626299 -3.3472416 3.7386916 16711746
-0.80659854 -3.4685123 2.257848 16711746
-0.53285956 -3.5596418 2.6725154 16711746
-0.26572973 -4.5721264 1.9402246 16711746
-1.1777641 -3.0549605 1.5364925 16711746
1.201664 -4.5823159 3.3320105 16711746
1.7574637 -4.2141852 3.9288592 16711746
2.7284048 -4.7195363 1.8982375 16711746
0.55082202 -4.8288598 2.1558363 16711746
-0.34089768 -1.5974749 1.6007681 16711746
5.1309814 -3.5984697 4.5253701 16711746
1.0289 -2.4659073 3.071418 16711746
1.4531007 -5.4842892 3.5502715 16711746
2.1634514 -4.9238133 3.5261118 16711746
1.1386029 -3.4091265 2.7887039 16711746
-0.99650073 -2.8359771 1.7503945 16711746
0.97509348 -3.6534209 3.1444666 16711746
-0.77133524 -2.0707939 1.7248857 16711746
-0.32835886 -2.0907502 2.0821073 16711746
0.70348907 -3.4731536 3.3904865 16711746
-0.67299271 -3.0773845 2.4264917 16711746
-1.4084879 -2.9518747 1.6941849 16711746
-1.007404 -2.4149609 1.9632657 16711746
3.0028644 -5.3089366 3.4730589 16711746
1.1927946 -4.636734 3.3880224 16711746
1.366814 -4.1036282 3.1457579 16711746
0.55899698 -5.1309595 2.2986288 16711746
3.151762 -6.2696366 3.3572071 16711746
-0.88472927 -2.2418365 2.1104221 16711746
4.5434709 -3.94205 4.1958513 16711746
-0.80122578 -2.5481584 2.4468133 16711746
2.9270439 -6.6018567 3.1064169 16711746
-0.68493378 -2.4081719 1.9542434 16711746
-0.6681568 -3.2073531 1.4159632 16711746
0.89382625 -4.9831524 2.4496982 16711746
-0.64529359 -2.0471783 1.7684168 16711746
-0.60999537 -2.913471 2.2685108 16711746
0.10623701 -3.8564136 1.9681125 16711746
1.7483526 -4.2108469 3.9455893 16711746
2.9122627 -5.6794653 2.8283291 16711746
-0.5001629 -1.4120475 1.4703736 16711746
0.023308296 -2.0310261 1.8047588 16711746
-1.0517513 -1.8882684 1.854453 16711746
3.4702597 -4.7734804 3.1736476 16711746
1.7508285 -5.4806437 3.0412841 16711746
-1.8400789 -2.9009063 1.6427404 16711746
2.8999045 -5.1275902 3.311197 16711746
-0.25075901 -1.2605929 1.2433978 16711746
3.7488954 -3.275789 3.736217 16711746
1.5048585 -4.2152939 3.0816407 16711746
-0.12118179 -2.0852947 2.1332226 16711746
-0.2865712 -2.0021265 2.0886018 16711746
2.4694629 -5.7479634 2.9446411 16711746
0.84146667 -5.1772528 2.807339 16711746
0.7421512 -3.8946497 3.0836954 16711746
2.2610395 -4.0799665 4.0654778 16711746
0.30486196 -4.8013749 2.2060642 16711746
-0.050777897 -3.9499102 2.0342891 16711746
0.035673458 -3.5707388 1.7299043 16711746
3.256165 -5.180933 2.2713199 16711746
2.3432875 -3.4214916 4.1526866 16711746
-0.4860763 -2.2664132 1.892223 16711746
0.52816933 -3.7590613 2.5941093 16711746
0.87971276 -4.7154598 2.8180923 16711746
0.96114856 -4.5253849 2.5491743 16711746
-0.35315007 -1.6685264 1.7336144 16711746
0.77165461 -4.1855164 3.3430066 16711746
1.7679378 -5.6279898 2.9369311 16711746
0.0837989 -3.5042279 2.0515053 16711746
0.30334714 -3.333262 2.5472932 16711746
-0.57141399 -3.4222329 2.0190721 16711746
1.1359414 -3.1013405 3.16523 16711746
1.455824 -4.7889123 3.2277374 16711746
1.100732 -3.5716708 3.6321115 16711746
0.02941753 -2.8797016 2.1284544 16711746
2.9925358 -5.1983576 3.4093328 16711746
2.4958229 -5.2062869 3.3636556 16711746
2.453141 -5.9678111 2.5536211 16711746
-0.83697712 -3.7984908 1.9234927 16711746
1.9949944 -4.0515132 3.8884189 16711746
-0.16874638 -1.823373 1.9286549 16711746
-0.28166744 -1.9271401 1.9528513 16711746
2.2003362 -4.4209824 4.1246486 16711746
2.1144347 -2.9782588 3.7551043 16711746
1.3145462 -3.1503203 3.0558608 16711746
0.27149171 -2.8960655 2.5645304 16711746
0.55822057 -3.8291008 3.2734878 16711746
-0.44895789 -2.4980152 2.1482372 16711746
-1.1011112 -3.4936397 1.8682561 16711746
0.26155546 -3.0852892 1.9677024 16711746
1.8764621 -4.5481033 3.1490541 16711746
0.29086623 -2.4914939 2.6622081 16711746
-0.29097998 -3.994643 2.7185943 16711746
1.4492377 -5.4070058 2.9544456 16711746
-0.54057747 -2.2740903 2.2703331 16711746
1.3645407 -4.5668921 2.7317626 16711746
1.0569075 -2.537447 2.9944258 16711746
0.28323516 -2.4284327 2.5821035 16711746
0.90587515 -3.1194386 2.909647 16711746
1.204595 -5.0835185 2.8531811 16711746
1.0548389 -4.3987994 2.3117673 16711746
-0.69399285 -2.3730793 2.2544003 16711746
1.6982155 -4.8058438 2.5641201 16711746
1.1726656 -3.8736577 4.0468049 16711746
-1.3173403 -3.2371709 1.4030004 16711746
0.96959293 -4.8424134 2.4724617 16711746
2.2112565 -5.0674534 2.0981827 16711746
-0.5079506 -1.7987314 1.9385504 16711746
-0.43883201 -2.5273328 2.3238592 16711746
-0.105758 -2.3538215 1.8569089 16711746
1.2006902 -5.1024837 2.5271015 16711746
0.72360504 -3.0807586 3.0563025 16711746
2.0431657 -4.2299042 2.7995462 16711746
-0.78633589 -2.6901648 1.9353758 16711746
0.019629981 -2.2063267 1.7323213 16711746
-0.22525033 -2.7784672 2.1777556 16711746
4.8417211 -5.1497536 2.2764173 16711746
0.82460093 -4.8578215 2.2772346 16711746
0.99210095 -4.8625312 2.7628579 16711746
-0.36645925 -1.6248578 1.6469226 16711746
-0.17180701 -1.9376931 1.8705822 16711746
3.3521416 -4.0957155 2.7334433 16711746
-0.24929807 -1.9855102 1.8162189 16711746
-0.30033046 -1.7440987 1.5264723 16711746
0.0029418529 -2.7521501 2.0203693 16711746
2.9001749 -5.2636614 3.5616915 16711746
1.0163623 -5.0355968 2.6658723 16711746
1.190668 -3.9384027 1.8537605 16711746
-0.095993415 -1.187349 1.0999336 16711746
-0.31489402 -2.0224998 1.6564218 16711746
0.10996522 -1.5475802 1.4870248 16711746
0.46591544 -1.921428 2.3745093 16711746
3.4999056 -5.7370839 2.8497584 16711746
-0.32830599 -4.2950082 1.897001 16711746
-0.43296829 -2.1783772 2.0303006 16711746
-0.36306238 -3.912292 2.0497799 16711746
-0.18556227 -1.839123 1.9565607 16711746
3.4734771 -5.4859886 2.2704887 16711746
-0.1223733 -3.8833954 2.0836301 16711746
-0.37669984 -1.9900237 1.8940043 16711746
-0.37082914 -2.0246923 1.8073065 16711746
-0.24063018 -2.1333573 2.1643295 16711746
1.8565236 -4.5748496 3.1458366 16711746
1.7403834 -4.9794402 3.3197403 16711746
0.99621433 -3.9548471 3.3421984 16711746
-0.57411534 -3.088186 1.8590693 16711746
-0.14606379 -1.3808626 1.4138906 16711746
3.2402132 -5.5760498 2.2840483 16711746
1.0525287 -3.8325894 3.490205 16711746
1.3587797 -4.4092817 3.5666344 16711746
0.34791601 -5.3721457 2.4347594 16711746
-0.2372732 -2.9129312 2.1777065 16711746
4.7650423 -4.7956433 3.2121592 16711746
-0.18393765 -1.4295669 1.4935012 16711746
1.8231316 -5.1388431 2.5086212 16711746
-0.91206813 -2.0895758 1.9969683 16711746
-0.5797326 -2.4056532 1.982183 16711746
-0.98665631 -3.6612265 1.4247589 16711746
-0.70401496 -2.1221557 1.8637346 16711746
2.1516161 -4.7615795 3.7458727 16711746
0.47419116 -5.3798256 2.3223691 16711746
1.3465843 -5.6980548 2.8565323 16711746
0.029598152 -3.8485053 2.4764454 16711746
-0.26341057 -5.3766999 2.165025 16711746
3.1322668 -4.7778916 3.8253057 16711746
-0.056962971 -2.9272604 2.2334828 16711746
-0.88229936 -2.4048378 1.8251084 16711746
-0.29870185 -2.855154 2.1436357 16711746
1.3923287 -5.3048649 2.9030001 16711746
3.508311 -5.1321073 2.9664495 16711746
0.3734397 -3.9963026 2.0912871 16711746
0.0035775246 -1.4288703 1.4432822 16711746
0.0014749181 -2.4740822 2.1689389 16711746
-0.19809906 -4.1107383 2.6788154 16711746
3.7862663 -4.4758615 1.7321706 16711746
4.0742378 -4.7881031 2.8904831 16711746
-0.041857537 -1.5048405 1.5856128 16711746
0.87124944 -3.6552579 3.0654156 16711746
3.13748 -5.0627475 2.4180274 16711746
2.7131786 -3.3636594 3.4472837 16711746
-0.31970695 -2.32639 2.4490676 16711746
2.7698922 -5.8356524 2.9741883 16711746
-0.115334 -4.6696353 2.1979613 16711746
2.043503 -4.3862758 3.2192423 16711746
-0.46835631 -3.2572937 2.7596214 16711746
-0.59882772 -3.126097 2.4614487 16711746
-1.0934671 -3.1284199 2.9235871 16711746
2.7316868 -6.1764359 3.055166 16711746
2.6057749 -5.468142 2.4831083 16711746
-1.0685053 -3.2029672 2.091826 16711746
1.9478179 -5.1215649 2.5814638 16711746
0.67284006 -4.6102858 3.1905432 16711746
3.4093111 -4.2718763 3.7961807 16711746
-0.77875572 -2.2156034 2.13099 16711746
2.9832873 -4.3366284 4.3631258 16711746
-0.012479922 -1.3661253 1.6624322 16711746
-0.90149528 -2.8055186 2.5750952 16711746
-0.71820128 -3.5104396 1.8622029 16711746
1.1421075 -5.4518614 3.7781045 16711746
2.4789541 -3.8355594 4.2963505 16711746
-2.0358369 -3.6143205 1.0672549 16711746
-2.6008036 -3.1599312 1.4684505 16711746
-2.5516033 -2.8664782 1.4857664 16711746
0.68695855 -4.5311637 1.8772823 16711746
-0.69360471 -1.5623374 1.7637556 16711746
0.54540336 -4.8293118 2.1459789 16711746
-0.96213251 -2.5236566 2.0648344 16711746
2.3140497 -6.2435951 3.3797119 16711746
-1.1057863 -3.5749948 2.1714854 16711746
2.8810468 -3.7446692 2.319129 16711746
-1.3828954 -2.790473 2.5716722 16711746
1.866879 -4.1776009 4.3682823 16711746
1.1023486 -2.6573753 3.1899672 16711746
-0.55185586 -3.3833864 1.9978763 16711746
0.83409411 -4.7540331 2.2267931 16711746
-2.1354489 -3.700331 1.1108997 16711746
0.5808782 -4.7388391 1.7201695 16711746
-1.2628831 -4.972868 2.6055944 16711746
-0.63015127 -3.7159214 2.1059284 16711746
0.36033008 -2.2224092 1.7216405 16711746
1.7973084 -4.4842591 4.1181927 16711746
-0.68274832 -2.7647498 2.3780348 16711746
5.1733308 -5.1582012 2.3955872 16711746
-0.9995653 -2.8990343 1.6363187 16711746
1.7492788 -4.8758545 3.9457631 16711746
-0.61769134 -2.314872 1.884057 16711746
-0.46724266 -4.2103004 1.9553232 16711746
1.6351771 -3.8826768 2.4758506 16711746
-0.41724616 -3.4369354 2.2444432 16711746
-1.0511206 -3.2959888 2.4701555 16711746
-0.10321632 -1.4727226 1.6499145 16711746
-1.550583 -3.3962462 1.2800982 16711746
0.81044352 -2.4153788 2.7414746 16711746
0.98618728 -5.1560497 2.6449244 16711746
-0.62740803 -3.1911967 1.5611948 16711746
-1.3735678 -3.294493 1.6811661 16711746
0.34577847 -1.1709951 1.1316743 16711746
-1.1649348 -3.1518531 1.7064652 16711746
-0.35730141 -2.8885553 2.3968477 16711746
-0.78079945 -2.1297219 2.0168946 16711746
2.8385139 -5.732151 2.1623337 16711746
-0.74862075 -2.5380745 2.1611621 16711746
-0.99356186 -3.2970684 2.0377152 16711746
0.79179054 -4.8184795 1.8377349 16711746
-0.96274328 -3.1722374 1.8150961 16711746
1.6505282 -5.4195414 2.4225519 16711746
2.2202904 -4.8915758 3.7541025 16711746
0.54182082 -5.0643139 2.5385294 16711746
-0.34052646 -3.4136431 2.2809489 16711746
2.243598 -4.0848446 4.4055672 16711746
-0.66008073 -3.0201802 2.5743167 16711746
-0.63672853 -4.1767402 1.6201955 16711746
-0.49051604 -2.589561 2.4001956 16711746
2.2945924 -5.0029521 3.7272007 16711746
-0.28130421 -1.2814852 1.2895584 16711746
1.2634969 -3.7384613 2.3661668 16711746
0.8318488 -2.6933761 2.9523747 16711746
-0.27862281 -3.1579781 2.1394565 16711746
-0.51961023 -1.3390329 1.4859052 16711746
-0.987297 -1.8440107 1.7774498 16711746
1.0808644 -4.9634776 2.1098282 16711746
-0.16699405 -1.4432721 1.4666303 16711746
0.14488126 -4.5133162 2.4811814 16711746
-0.35842603 -4.9375477 1.7555827 16711746
0.63195449 -4.6134691 2.6725323 16711746
0.56225115 -4.3935108 2.7313585 16711746
0.46438166 -3.6028297 2.8345959 16711746
0.3121298 -3.6171439 2.7482643 16711746
1.2085477 -3.8889217 2.8422379 16711746
0.052242834 -2.9409447 2.1327345 16711746
1.9911524 -5.0323586 2.3893423 16711746
-0.80856246 -4.2614198 1.8424511 16711746
0.078266457 -4.4250803 2.2777724 16711746
0.18658613 -3.8019319 2.165072 16711746
-0.3050805 -1.8737537 1.7255225 16711746
0.065985121 -2.8163183 2.0240426 16711746
0.51527631 -2.6111839 2.481328 16711746
-0.55256838 -1.7302086 1.576439 16711746
-0.12022578 -1.6958345 1.5893989 16711746
0.038001593 -2.2353899 1.7568429 16711746
-0.62117201 -3.5409052 1.7069542 16711746
-0.29751134 -2.7137277 2.2245836 16711746
0.22766428 -3.2595072 1.8277658 16711746
0.20400073 -3.2244055 2.195745 16711746
-0.52912438 -2.7524285 1.7323382 16711746
0.20907313 -2.3217027 1.7767614 16711746
-0.86066455 -2.037751 1.9271661 16711746
0.14255212 -1.7090238 1.8687203 16711746
1.501289 -3.5216036 2.8634198 16711746
-0.97667319 -2.3862329 1.9360625 16711746
0.11893049 -1.1191894 0.93827444 16711746
0.041650966 -1.3560394 1.3029084 16711746
-1.0815181 -2.788974 2.0020447 16711746
-1.2018297 -3.7633793 1.666867 16711746
-0.63032192 -3.3385608 2.1952429 16711746
2.8209107 -5.1254163 3.4479065 16711746
-0.8771252 -3.0163732 2.106663 16711746
3.675312 -5.7014546 2.9869647 16711746
-1.0890074 -1.9286599 1.9062227 16711746
0.77732372 -4.2329679 3.3847933 16711746
-1.3943136 -2.027184 1.7029796 16711746
3.9723415 -5.5400796 2.8981023 16711746
-0.4172262 -1.2688786 1.3353796 16711746
-0.097757734 -3.8699784 1.8711531 16711746
0.47713599 -3.5403032 2.6977 16711746
3.5229795 -4.2877216 3.2660415 16711746
2.9681878 -5.4124312 3.0871873 16711746
2.1040134 -4.903029 4.0261559 16711746
2.2718809 -4.5219111 3.9660568 16711746
-0.16425778 -3.1934462 1.9302815 16711746
0.50004315 -5.2248397 2.4519455 16711746
3.6246631 -4.6894817 3.1042795 16711746
3.8280342 -4.9298639 3.297873 16711746
-0.3097288 -3.9695542 2.1376474 16711746
-0.691073 -4.0427723 2.1169524 16711746
1.0872841 -4.0038528 3.6787419 16711746
-1.3403492 -4.4482832 1.5278076 16711746
2.7885792 -4.7846341 3.6162856 16711746
-0.79265469 -2.1160493 1.7406588 16711746
-1.948272 -4.0124998 1.5195438 16711746
3.6292975 -6.2214313 2.8682406 16711746
0.97983754 -3.9363916 3.3417323 16711746
-0.3015908 -3.0875762 2.4684899 16711746
-0.015094459 -4.8059487 2.0948236 16711746
-0.21863814 -1.9079531 2.0593388 16711746
-0.16832526 -1.9321287 1.8588399 16711746
-1.0413591 -1.975999 1.8082775 16711746
0.34274879 -3.7866545 2.96662 16711746
3.2685084 -5.0214286 3.9872222 16711746
-1.3934512 -1.829105 1.960282 16711746
-0.85879248 -2.3100719 2.0642076 16711746
1.0875754 -4.8723741 2.9314554 16711746
3.0712194 -5.2784019 4.03161 16711746
-0.47339579 -3.076777 2.4400413 16711746
-0.60460562 -2.2700646 2.0768125 16711746
-1.2220864 -2.8562586 2.5262413 16711746
0.8421942 -4.8185802 2.0904438 16711746
1.4034944 -4.5670986 3.4113567 16711746
-0.9928993 -3.4058473 1.9117602 16711746
-0.7662608 -2.0707791 1.6896603 16711746
1.8153228 -6.2290144 2.4720066 16711746
-0.56660604 -3.9426966 1.8371871 16711746
2.1386821 -3.1430194 4.1524234 16711746
-0.024406003 -4.2313824 1.8809028 16711746
-0.26424685 -3.0185966 2.4037881 16711746
-0.94650722 -2.4792674 2.1114311 16711746
0.033331353 -4.385251 1.8995019 16711746
1.6076467 -4.404211 2.9064686 16711746
4.765224 -5.6433911 2.7819209 16711746
3.9594295 -4.9745574 3.9363928 16711746
2.6949358 -2.4957929 4.4992065 16711746
0.66142589 -4.422925 3.0532489 16711746
1.3151578 -4.4960313 2.694725 16711746
1.7007482 -3.6475401 3.5511656 16711746
0.57166648 -4.1742406 2.6585057 16711746
1.6653032 -5.6142378 2.70631 16711746
-0.76338381 -4.0559402 2.3341656 16711746
-0.10479602 -2.4278028 1.7467391 16711746
4.2429352 -6.6251225 2.7216341 16711746
0.57914883 -2.7634056 2.5535333 16711746
-1.4413623 -2.768476 1.1041229 16711746
-0.060322952 -2.604434 1.310846 16711746
-1.8558291 -2.3555338 1.1534837 16711746
1.311785 -3.1149592 1.960677 16711746
-0.5804072 -2.8199925 1.5435966 16711746
-3.0491369 -7.5689769 3.728117 16711746
0.2982468 -1.5837188 1.517085 16711746
-1.7098302 -3.1072321 1.3436134 16711746
-0.61135352 -2.3557625 1.104534 16711746
-0.39038029 -2.1766927 1.2309679 16711746
1.1622095 -2.0471582 1.9595085 16711746
1.515102 -2.9301713 1.4162767 16711746
0.29567617 -1.9440048 1.5181358 16711746
-0.22793971 -2.7121687 1.4926201 16711746
-0.69128352 -2.3952379 1.1246839 16711746
0.28051585 -1.5499982 1.1615758 16711746
-0.6160078 -2.7595029 1.2063183 16711746
-0.097450368 -1.5337282 0.79955131 16711746
1.6001514 -2.4922404 1.1291525 16711746
3.3135073 -3.3425846 1.2372986 16711746
0.41175559 -4.134481 1.5589385 16711746
0.83094573 -3.7124617 1.609432 16711746
-0.76161557 -3.5423343 1.3872513 16711746
-0.14103431 -2.7369461 1.4933167 16711746
0.26407719 -3.0500817 1.9400891 16711746
0.29012975 -1.9677691 1.2248925 16711746
0.3811346 -1.2092961 1.0742692 16711746
-0.6806767 -2.961374 1.4690584 16711746
-0.67119652 -3.0420184 1.2789207 16711746
-1.8063306 -2.563298 0.84471792 16711746
0.96063668 -2.1025088 1.4771973 16711746
1.1054909 -4.0425029 1.8100188 16711746
-0.6936965 -2.1725862 1.0640246 16711746
-0.57652229 -4.1281819 2.9452457 16711746
0.36899197 -5.8753986 2.3622 16711746
2.8641024 -5.6346254 2.2269337 16711746
0.49385506 -5.1511564 2.8290255 16711746
-0.42041451 -3.6395791 3.039443 16711746
-0.34087572 -3.4539199 2.4079673 16711746
-0.5291872 -2.4501343 2.7579463 16711746
2.3686965 -4.8564053 2.3954496 16711746
-1.4191315 -2.8752811 2.985337 16711746
0.97770405 -4.9739046 2.6449921 16711746
1.48691 -4.4586463 2.0545099 16711746
-0.064628951 -4.7593489 3.1547577 16711746
-0.57658619 -4.5621014 1.9119568 16711746
1.6422515 -5.9158959 2.4310601 16711746
-0.47867078 -3.1679344 2.5670292 16711746
-1.5042728 -4.4341702 2.7384217 16711746
0.51229751 -3.5391247 2.4136186 16711746
2.0335577 -3.1446352 3.2417791 16711746
-1.0500349 -5.1507311 2.2447236 16711746
-1.1464823 -3.9590681 2.4426069 16711746
-0.18292277 -3.4385579 3.1582775 16711746
-1.2328678 -2.0575745 1.7933726 16711746
0.28444064 -1.9592749 2.1014888 16711746
2.9706407 -5.7761903 2.303793 16711746
2.13873 -4.0895567 3.2755904 16711746
-0.70971596 -4.4400401 1.9196378 16711746
-1.3000665 -4.4060407 2.9797578 16711746
2.0793152 -4.8903823 3.0104046 16711746
0.044006046 -4.1558361 2.189389 16711746
-3.4547791 -3.7810671 1.8159734 16711746
3.017848 -4.4089103 2.1245117 16711746
1.0592117 -4.2947936 2.3578629 16711746
3.7303233 -4.6783104 2.0637386 16711746
-1.0660185 -4.1736879 2.8000562 16711746
0.13134854 -3.0989707 3.0617433 16711746
-0.62448907 -4.826241 2.6988864 16711746
1.94443 -3.9564567 2.6004243 16711746
-1.7443122 -3.5505631 2.9786947 16711746
-1.1049012 -3.4535375 1.7909077 16711746
1.4274762 -5.2512174 3.1056645 16711746
-0.65236986 -3.7635796 1.8555108 16711746
0.32105514 -1.9343621 2.0120747 16711746
0.24701086 -3.3715229 3.0899823 16711746
1.4827058 -4.9413438 2.5744724 16711746
0.1223713 -2.8713393 2.1660948 16711746
3.222692 -3.8977275 1.8452942 16711746
2.0596852 -3.5505309 2.5500345 16711746
1.4585472 -2.3202436 2.364115 16711746
1.9370285 -4.7709208 2.1471105 16711746
3.1656382 -4.8849936 1.6781684 16711746
2.9168229 -4.6754861 2.5600047 16711746
1.9879811 -5.0899382 2.7083945 16711746
1.6626028 -3.9729245 2.4203305 16711746
4.0142822 -2.4446778 2.9578123 16711746
1.7556903 -3.5822577 3.3707464 16711746
1.8678291 -4.699451 2.294188 16711746
0.33612666 -2.0489097 2.2750061 16711746
2.2584689 -4.0071554 3.1524489 16711746
-2.2130477 -3.5838733 1.3558478 16711746
1.8282757 -4.6556897 3.1172004 16711746
0.98781693 -5.2115908 2.0430019 16711746
0.98285127 -4.8680058 3.0797398 16711746
-1.5728635 -3.1808414 2.9367068 16711746
-1.6529051 -3.6083531 3.2157836 16711746
1.2445734 -4.323884 2.4643178 16711746
-0.84335577 -3.7387357 2.7217748 16711746
2.7961624 -4.884861 1.6674029 16711746
-0.054306522 -4.5973506 3.0228727 16711746
2.9523497 -3.8094528 3.3724093 16711746
0.94509619 -4.656076 2.9351227 16711746
-0.88511646 -5.7009115 2.2317924 16711746
-0.75943011 -3.7185977 3.095408 16711746
2.8253121 -5.5871682 2.6563065 16711746
3.0439036 -4.6616664 1.6770946 16711746
0.60115981 -4.3658376 3.0655246 16711746
1.5421585 -2.2396991 2.4813023 16711746
1.7927718 -3.2787237 1.7140315 16711746
2.3994772 -4.3348951 2.0691712 16711746
0.3332217 -1.0513791 0.57574695 16711746
-0.05954757 -3.5767014 2.1087377 16711746
-1.0252078 -2.9724131 2.8211162 16711746
3.070528 -4.9442568 2.6894543 16711746
0.56056666 -4.546515 2.8621633 16711746
-1.7227392 -3.2843263 2.9132218 16711746
-0.58886951 -4.4435639 2.6287768 16711746
-1.216976 -2.8608673 2.462781 16711746
1.221797 -3.540879 2.5389597 16711746
2.5942183 -4.5568314 1.6810514 16711746
-1.2759638 -2.8766482 2.8100684 16711746
1.8409961 -4.1229348 3.3252945 16711746
2.3183577 -4.349719 3.0969379 16711746
-1.5364884 -2.4278378 2.3068645 16711746
2.264149 -3.8844173 2.8240838 16711746
2.9524636 -5.094286 2.5800648 16711746
-0.50246304 -3.0495589 2.1808579 16711746
-0.14180368 -4.5706902 2.7503469 16711746
-1.3684366 -3.9448102 2.6254108 16711746
1.5911272 -2.5183756 2.9551032 16711746
-0.51974994 -3.8887281 2.980993 16711746
1.5145513 -4.0834675 2.6396921 16711746
0.40217164 -4.2915435 3.017849 16711746
-1.324736 -4.4902253 2.6093187 16711746
0.76631576 -3.3348618 2.9103007 16711746
-0.72687221 -4.2433395 3.0582697 16711746
0.61477035 -4.2313643 3.0714431 16711746
0.65804696 -3.4077551 2.7831285 16711746
-1.3254774 -3.7239206 3.4046509 16711746
1.5779907 -4.7265077 2.2100661 16711746
2.0601871 -3.5695143 2.5676596 16711746
1.1502755 -5.7871866 2.5979614 16711746
0.078149699 -3.4685202 3.0963359 16711746
-0.16175999 -5.8249421 2.766573 16711746
0.24869932 -3.5927308 2.4884613 16711746
1.1480761 -6.3227015 2.490463 16711746
-1.4802619 -4.0233979 4.0206175 16711746
1.6300788 -5.3158202 2.6970294 16711746
2.8411343 -5.5029531 2.7402062 16711746
-1.4783679 -4.8434472 3.1867778 16711746
0.28078127 -6.1732502 2.8925178 16711746
2.2964406 -5.343266 2.1614585 16711746
0.030863509 -3.656755 2.9053252 16711746
-1.2411066 -5.339643 3.3448715 16711746
-0.32341021 -5.1647038 2.8722043 16711746
0.19763005 -3.5712268 3.1529298 16711746
-2.0251143 -5.7259326 3.2171235 16711746
2.9430203 -5.7913232 2.3055644 16711746
0.84674263 -4.0398326 2.6079206 16711746
-1.6776284 -5.275342 3.6143804 16711746
-0.99504781 -4.9625344 3.1199179 16711746
-0.24246135 -3.5776203 3.4820499 16711746
2.6801398 -2.7611902 1.206484 16711746
0.99173772 -1.5823796 1.4060539 16711746
1.6633992 -4.0464196 2.6470139 16711746
-2.7624567 -3.2328427 3.8452611 16711746
-2.2034268 -4.4812651 3.1923223 16711746
0.00068157585 -2.2621303 2.0901136 16711746
2.063637 -5.8509851 2.4872417 16711746
1.706068 -5.0281305 2.1850781 16711746
0.32809442 -4.1408544 3.2276325 16711746
-0.0035805183 -3.2472947 2.2647717 16711746
-1.8977494 -3.399323 3.826714 16711746
1.4699775 -3.8021882 1.9852686 16711746
-0.88237125 -4.1709743 2.8292322 16711746
0.21376532 -3.9379795 3.2878928 16711746
-0.84124118 -4.9578424 3.1627133 16711746
-0.37757802 -4.0341535 2.5511112 16711746
0.171321 -2.3328702 2.5375566 16711746
2.9087179 -4.7818341 2.382313 16711746
-2.8720107 -5.2896299 4.2405448 16711746
3.5808206 -5.0043488 2.5970254 16711746
-2.2394495 -3.8083982 4.1027899 16711746
1.8691453 -4.965148 2.9630964 16711746
-2.5542068 -3.4190397 3.7456231 16711746
-0.36366907 -3.8777061 2.5457973 16711746
0.45534652 -3.5535076 2.9542308 16711746
0.43795985 -2.1366844 1.6761566 16711746
2.7132545 -3.8814924 4.4106045 16711746
-3.0299215 -6.8653936 5.6354647 16711746
3.4249303 -3.9537964 3.8031762 16711746
2.2765121 -3.903306 4.7241526 16711746
-2.8357165 -6.4532876 3.5111294 16711746
2.6809268 -3.9208579 3.8777342 16711746
3.0253205 -4.4932261 4.1824203 16711746
1.9009898 -1.7218981 3.4613354 16711746
2.1556416 -4.2665119 4.6669173 16711746
2.5601087 -4.8318048 5.7850738 16711746
0.68292099 -5.710278 4.7055445 16711746
0.037362929 -7.218431 3.4027839 16711746
2.3039248 -4.7012157 4.4231806 16711746
0.54600006 -6.6724076 3.7432172 16711746
2.8205683 -5.2190366 3.8042459 16711746
2.200386 -3.7751207 4.5309143 16711746
2.479965 -4.027607 4.413898 16711746
3.1707876 -5.0582156 3.7022219 16711746
2.6067679 -6.3667998 2.7189956 16711746
-1.0836526 -5.9988217 4.4892044 16711746
-1.5542274 -6.8140669 5.806397 16711746
1.5053455 -5.0184736 4.9737182 16711746
-2.88625 -6.7127676 5.6674685 16711746
3.9551804 -5.4636192 2.8596785 16711746
2.7648029 -2.7485096 3.9244606 16711746
2.2504256 -2.6873446 4.1800003 16711746
2.0936792 -2.3000031 3.9604692 16711746
3.8738732 -4.2141061 4.3230348 16711746
2.8496075 -3.976362 4.2533956 16711746
3.2558794 -3.5800023 4.3103404 16711746
1.6357599 -5.7843289 3.9261622 16711746
-2.8122315 -6.6692934 3.8272486 16711746
2.9962163 -5.2330384 4.2801466 16711746
2.4502442 -5.5093098 4.7828879 16711746
2.6302321 -5.9072156 4.7025719 16711746
2.6515644 -7.7387834 4.0460129 16711746
2.8921039 -2.4509115 3.6784565 16711746
2.6688902 -3.3890753 4.2047472 16711746
1.5336134 -3.8148904 4.8285365 16711746
1.7167118 -4.3770099 4.7173257 16711746
1.9426438 -4.9480948 5.1798654 16711746
1.3258525 -5.0314403 5.0948143 16711746
3.2700739 -4.5786457 2.8150797 16711746
3.6387508 -6.3704352 2.5983257 16711746
-3.7809296 -6.5972433 8.8443546 16711746
2.7188039 -4.1460786 4.5064645 16711746
2.7233016 -3.9176068 4.4443512 16711746
0.58713818 -4.865201 6.3610272 16711746
0.456081 -6.093029 3.0019052 16711746
-3.1805611 -6.7270164 8.0196743 16711746
1.2331722 -3.084769 4.8381114 16711746
1.3621557 -3.3434067 4.5326056 16711746
-12.518858 -5.2327747 16.058287 16711746
-13.114334 -5.4588966 16.795389 16711746
1.7673111 -4.5902596 5.311233 16711746
-4.4310551 -6.8779254 7.5026131 16711746
3.3699703 -3.7470691 4.0827727 16711746
1.694114 -4.8055882 5.2769313 16711746
1.1948224 -6.804698 3.8025475 16711746
2.3079453 -4.4922323 4.9110494 16711746
2.933553 -2.9118145 4.2282567 16711746
3.2046278 -3.5229194 3.7345862 16711746
3.8698115 -5.0346069 3.3679855 16711746
2.0562212 -2.8749986 5.0268211 16711746
3.8421836 -4.2282367 4.3604755 16711746
4.2484164 -3.7079332 3.2054918 16711746
3.4019043 -4.042057 4.519701 16711746
2.1034887 -4.7109499 4.6420774 16711746
2.26653 -5.0385675 4.6142001 16711746
0.97374129 -6.5415039 2.9782948 16711746
1.1853721 -6.3513951 3.4555376 16711746
2.36271 -6.1915998 3.4449015 16711746
2.6279986 -3.9229436 4.577023 16711746
-1.8226315 -6.906116 4.8697681 16711746
-1.4996274 -5.3369365 5.2326498 16711746
-3.5148673 -7.9149203 5.5433049 16711746
-4.1024146 -7.0946045 6.5589347 16711746
3.460078 -4.3350449 3.873513 16711746
0.59186625 -4.7274694 6.1376572 16711746
1.6362211 -5.05548 4.3974361 16711746
2.6935575 -6.1677179 2.5939717 16711746
1.5239954 -4.2292547 4.5804787 16711746
-4.4183993 -7.0673442 7.2208533 16711746
2.2684858 -7.1099224 5.2069888 16711746
-1.8445227 -5.3864846 5.2209659 16711746
1.8714914 -5.7089548 6.2918286 16711746
1.994733 -5.8842053 4.4421959 16711746
-3.7825589 -7.5829501 5.4358063 16711746
-3.6618285 -6.592629 9.0764484 16711746
3.9671204 -3.7195768 3.5239484 16711746
1.3417443 -3.903156 4.7514687 16711746
2.7435324 -4.6035457 4.1826501 16711746
3.6650076 -3.7998741 4.6683226 16711746
-3.0124063 -5.9533949 6.8993592 16711746
3.3547163 -4.4068775 4.204792 16711746
1.675965 -5.7747722 3.5312784 16711746
3.3981912 -6.2144933 3.5839431 16711746
0.77565521 -6.0862126 4.7649493 16711746
-2.0182507 -6.6704507 5.5252962 16711746
4.6627331 -4.0733905 3.5714641 16711746
4.038168 -5.0343156 2.3740044 16711746
-7.8781118 -6.9215722 10.285984 16711746
3.0894563 -5.5625095 3.4469235 16711746
-5.0518851 -7.5359173 7.8262682 16711746
3.3172293 -4.1845093 4.0108528 16711746
-2.218164 -7.2802668 6.1724176 16711746
-3.8952007 -8.4549313 5.8878379 16711746
2.0286391 -5.9817457 4.433063 16711746
-3.0224144 -6.8652616 6.9665208 16711746
-1.5214658 -6.6656857 5.3953753 16711746
-4.7009993 -7.2928052 8.1828547 16711746
-0.9515906 -6.4970851 3.2509098 16711746
-3.973171 -8.0193949 5.9205856 16711746
3.2292004 -4.8324533 3.9825094 16711746
3.5294459 -4.3689208 3.7058105 16711746
1.6739472 -6.7399287 3.8785374 16711746
1.426138 -7.5517273 4.3591523 16711746
4.2774048 -5.4749703 5.1732082 16711746
2.2979183 -2.8858719 4.314827 16711746
-2.903969 -6.7788501 4.5833387 16711746
-2.3911724 -5.9928226 5.9428949 16711746
1.5903828 -4.900538 6.2067909 16711746
-1.9932201 -6.1324339 5.3837581 16711746
-3.3576789 -5.4531274 6.4520268 16711746
2.0402617 -1.8775606 3.5880654 16711746
1.3222162 -5.3419933 5.6764021 16711746
2.6345119 -4.9998059 3.509342 16711746
0.25802484 -4.9845433 4.5009489 16711746
8.3998985 -5.6713061 7.0321198 16711746
0.64902776 -5.5349874 4.2758951 16711746
1.4587408 -3.6339328 5.0453067 16711746
1.0667449 -4.8502369 4.8647799 16711746
3.2136488 -3.7435417 3.9396458 16711746
3.4798515 -5.7446151 2.8521752 16711746
-1.2751474 -7.0792809 5.3137693 16711746
2.7399926 -2.7531762 3.9244535 16711746
1.7351962 -5.4579368 4.3509765 16711746
1.9073974 -6.2642374 3.290688 16711746
-3.6417582 -5.8046222 6.9144783 16711746
2.9498522 -5.6565976 2.4139547 16711746
3.2132356 -5.8525009 3.1795213 16711746
1.5676343 -4.430635 5.7753839 16711746
0.89496189 -6.2106104 5.7692156 16711746
1.0515248 -4.788413 4.8301163 16711746
-2.0146134 -6.6457286 4.6840863 16711746
-3.9549818 -6.9271145 6.3653474 16711746
