# .PCD v.7 - Point Cloud Data file format
VERSION .7
FIELDS x y z rgb
SIZE 4 4 4 4
TYPE F F F F
COUNT 1 1 1 1
WIDTH 317
HEIGHT 1
VIEWPOINT 0 0 0 1 0 0 0
POINTS 317
DATA ascii

 0.0000000 0.0000000 0.0000000 16777215
 0.0096820 0.0003940 0.0336865 16777215
 0.0111277 0.0003836 0.0355246 16777215
 0.0120727 0.0001261 0.0367158 16777215
 0.0138831 0.0001493 0.0401407 16777215
 0.0160417 -0.0007833 0.0423637 16777215
 0.0180664 -0.0012586 0.0431154 16777215
 0.0197231 -0.0014277 0.0456705 16777215
 0.0223996 -0.0011856 0.0513386 16777215
 0.0227797 0.0000036 0.0555123 16777215
 0.0233215 0.0013894 0.0636081 16777215
 0.0252213 0.0009170 0.0711629 16777215
 0.0279349 0.0016009 0.0762212 16777215
 0.0311843 0.0023215 0.0820979 16777215
 0.0359279 0.0025812 0.0861210 16777215
 0.0415021 -0.0001661 0.0927499 16777215
 0.0444993 -0.0014385 0.0967930 16777215
 0.0468825 -0.0018416 0.1024904 16777215
 0.0504041 -0.0018224 0.1091875 16777215
 0.0474404 0.0026512 0.1184014 16777215
 0.0455872 0.0019943 0.1303291 16777215
 0.0470531 0.0024240 0.1329904 16777215
 0.0561253 0.0016711 0.1432376 16777215
 0.0621806 0.0002239 0.1542178 16777215
 0.0700981 -0.0027151 0.1596431 16777215
 0.0703970 -0.0029307 0.1657692 16777215
 0.0762033 -0.0039987 0.1739511 16777215
 0.0774280 -0.0043419 0.1835845 16777215
 0.0798835 -0.0042110 0.1896452 16777215
 0.0801388 -0.0056699 0.1972903 16777215
 0.0858023 -0.0064532 0.2039105 16777215
 0.0878235 -0.0062124 0.2065875 16777215
 0.0976548 -0.0114239 0.2117914 16777215
 0.0949460 -0.0114844 0.2167460 16777215
 0.1004082 -0.0134037 0.2245231 16777215
 0.1010860 -0.0107640 0.2338309 16777215
 0.0994091 -0.0083867 0.2383074 16777215
 0.0998370 -0.0068356 0.2463474 16777215
 0.1035667 -0.0064658 0.2536432 16777215
 0.1161451 -0.0028804 0.2641344 16777215
 0.1149619 -0.0012840 0.2728650 16777215
 0.1286816 -0.0033130 0.2924725 16777215
 0.1242073 -0.0006301 0.3039059 16777215
 0.1258830 0.0018585 0.3116603 16777215
 0.1333732 0.0045359 0.3227985 16777215
 0.1395472 0.0038491 0.3344484 16777215
 0.1441502 0.0043191 0.3464543 16777215
 0.1487396 0.0044560 0.3639803 16777215
 0.1461202 0.0060815 0.3750801 16777215
 0.1510671 0.0088413 0.3855176 16777215
 0.1538480 0.0072586 0.3970155 16777215
 0.1463874 0.0085475 0.4091162 16777215
 0.1682941 0.0064322 0.4203948 16777215
 0.1781547 0.0089045 0.4343415 16777215
 0.1662530 0.0089505 0.4511513 16777215
 0.1702182 0.0099344 0.4619514 16777215
 0.1789219 0.0127309 0.4738056 16777215
 0.1851277 0.0120492 0.4867787 16777215
 0.1921188 0.0137637 0.4993360 16777215
 0.1927234 0.0177295 0.5122335 16777215
 0.1935105 0.0197788 0.5279642 16777215
 0.1931563 0.0216892 0.5374633 16777215
 0.2088944 0.0232052 0.5530679 16777215
 0.2112858 0.0164382 0.5695195 16777215
 0.2270063 0.0199733 0.5824857 16777215
 0.2236028 0.0217496 0.5963929 16777215
 0.2235522 0.0220015 0.6090010 16777215
 0.2303058 0.0245087 0.6205910 16777215
 0.2415294 0.0248311 0.6343567 16777215
 0.2435894 0.0248375 0.6435249 16777215
 0.2471298 0.0236528 0.6585228 16777215
 0.2502493 0.0229664 0.6696002 16777215
 0.2517413 0.0241809 0.6773198 16777215
 0.2556747 0.0248586 0.6819865 16777215
 0.2576959 0.0259348 0.6852446 16777215
 0.2607774 0.0250086 0.6913009 16777215
 0.2607237 0.0257446 0.7009210 16777215
 0.2637437 0.0263765 0.7065817 16777215
 0.2677488 0.0260964 0.7137015 16777215
 0.2699153 0.0272376 0.7191013 16777215
 0.2725579 0.0278834 0.7259106 16777215
 0.2698705 0.0283962 0.7344767 16777215
 0.2728141 0.0288793 0.7408711 16777215
 0.2756099 0.0276202 0.7461196 16777215
 0.2776583 0.0281216 0.7513421 16777215
 0.2794824 0.0284474 0.7575315 16777215
 0.2791476 0.0287877 0.7644912 16777215
 0.2803193 0.0292991 0.7695751 16777215
 0.2821971 0.0298582 0.7755197 16777215
 0.2853335 0.0295903 0.7799250 16777215
 0.2876364 0.0290235 0.7867338 16777215
 0.2878772 0.0298641 0.7939104 16777215
 0.2883242 0.0299340 0.7986804 16777215
 0.2888065 0.0311240 0.8018553 16777215
 0.2926737 0.0301866 0.8072287 16777215
 0.2932552 0.0297089 0.8100770 16777215
 0.2967724 0.0291548 0.8139073 16777215
 0.2959849 0.0302140 0.8196040 16777215
 0.2985945 0.0299782 0.8243889 16777215
 0.3002524 0.0303887 0.8277296 16777215
 0.3015279 0.0307789 0.8305910 16777215
 0.3031948 0.0306437 0.8351346 16777215
 0.3028269 0.0309263 0.8399489 16777215
 0.3032697 0.0313641 0.8419903 16777215
 0.3043668 0.0314386 0.8452600 16777215
 0.3063362 0.0314859 0.8486651 16777215
 0.3079462 0.0319596 0.8516560 16777215
 0.3098429 0.0315114 0.8573541 16777215
 0.3096615 0.0323932 0.8623731 16777215
 0.3094521 0.0327484 0.8643951 16777215
 0.3108666 0.0331872 0.8677467 16777215
 0.3137817 0.0330343 0.8690929 16777215
 0.3145339 0.0324559 0.8710776 16777215
 0.3155092 0.0328530 0.8733421 16777215
 0.3149164 0.0337271 0.8767073 16777215
 0.3151673 0.0335979 0.8792239 16777215
 0.3160732 0.0337720 0.8819095 16777215
 0.3175163 0.0334880 0.8834612 16777215
 0.3174946 0.0340166 0.8853028 16777215
 0.3190653 0.0336661 0.8880022 16777215
 0.3184668 0.0346099 0.8913968 16777215
 0.3186243 0.0348837 0.8937702 16777215
 0.3190361 0.0347366 0.8950730 16777215
 0.3217961 0.0352099 0.8974624 16777215
 0.3225485 0.0351889 0.8995987 16777215
 0.3224047 0.0358705 0.9022129 16777215
 0.3226590 0.0360328 0.9041797 16777215
 0.3236870 0.0361894 0.9062023 16777215
 0.3246752 0.0362984 0.9077601 16777215
 0.3249283 0.0362909 0.9102679 16777215
 0.3251647 0.0368472 0.9123892 16777215
 0.3251750 0.0371492 0.9139575 16777215
 0.3255856 0.0370801 0.9150618 16777215
 0.3263975 0.0374273 0.9166031 16777215
 0.3270459 0.0376355 0.9180654 16777215
 0.3279052 0.0376762 0.9193040 16777215
 0.3278663 0.0377816 0.9201732 16777215
 0.3278792 0.0379357 0.9211719 16777215
 0.3282711 0.0379518 0.9218605 16777215
 0.3285657 0.0379653 0.9225907 16777215
 0.3286518 0.0381144 0.9232798 16777215
 0.3286559 0.0383097 0.9242703 16777215
 0.3289263 0.0383819 0.9249011 16777215
 0.3293221 0.0386059 0.9257401 16777215
 0.3296055 0.0384334 0.9266583 16777215
 0.3298880 0.0384093 0.9273658 16777215
 0.3299251 0.0384834 0.9281111 16777215
 0.3297668 0.0384469 0.9284540 16777215
 0.3301065 0.0385239 0.9289632 16777215
 0.3302226 0.0386125 0.9292498 16777215
 0.3306173 0.0385598 0.9298701 16777215
 0.3308002 0.0386326 0.9301671 16777215
 0.3308182 0.0386810 0.9305257 16777215
 0.3309482 0.0387033 0.9309682 16777215
 0.3311883 0.0387855 0.9312517 16777215
 0.3313031 0.0387045 0.9314576 16777215
 0.3313571 0.0387598 0.9318734 16777215
 0.3315005 0.0388026 0.9321625 16777215
 0.3315480 0.0388201 0.9324059 16777215
 0.3316064 0.0388112 0.9325654 16777215
 0.3316584 0.0388162 0.9327267 16777215
 0.3316591 0.0388480 0.9329240 16777215
 0.3316801 0.0388679 0.9330670 16777215
 0.3317990 0.0388818 0.9332709 16777215
 0.3319065 0.0388957 0.9334158 16777215
 0.3319233 0.0389196 0.9335252 16777215
 0.3319885 0.0389331 0.9337149 16777215
 0.3320395 0.0389377 0.9338861 16777215
 0.3321007 0.0389440 0.9340513 16777215
 0.3321389 0.0389362 0.9341493 16777215
 0.3321731 0.0389428 0.9342973 16777215
 0.3322078 0.0389533 0.9344716 16777215
 0.3322281 0.0389703 0.9345804 16777215
 0.3322754 0.0389822 0.9346567 16777215
 0.3323046 0.0389794 0.9347698 16777215
 0.3323272 0.0389866 0.9348496 16777215
 0.3323496 0.0390058 0.9349350 16777215
 0.3323723 0.0390147 0.9350669 16777215
 0.3324124 0.0390241 0.9351699 16777215
 0.3324340 0.0390314 0.9352323 16777215
 0.3324678 0.0390311 0.9353583 16777215
 0.3324854 0.0390318 0.9354581 16777215
 0.3325008 0.0390786 0.9355674 16777215
 0.3325271 0.0390855 0.9356561 16777215
 0.3325692 0.0390923 0.9357607 16777215
 0.3326241 0.0391352 0.9358821 16777215
 0.3326671 0.0391341 0.9359978 16777215
 0.3326773 0.0391637 0.9361140 16777215
 0.3327166 0.0391562 0.9361981 16777215
 0.3327500 0.0391417 0.9363127 16777215
 0.3328049 0.0391566 0.9364576 16777215
 0.3328161 0.0391058 0.9366058 16777215
 0.3327664 0.0391248 0.9367290 16777215
 0.3327731 0.0391154 0.9368276 16777215
 0.3328173 0.0391145 0.9369122 16777215
 0.3328809 0.0390908 0.9370298 16777215
 0.3329207 0.0391017 0.9371164 16777215
 0.3329190 0.0391279 0.9372116 16777215
 0.3329301 0.0391221 0.9373091 16777215
 0.3329599 0.0391182 0.9373719 16777215
 0.3329929 0.0391226 0.9374746 16777215
 0.3330192 0.0391171 0.9375459 16777215
 0.3330477 0.0391037 0.9376377 16777215
 0.3330810 0.0390847 0.9377413 16777215
 0.3331084 0.0390698 0.9378101 16777215
 0.3331375 0.0390564 0.9378791 16777215
 0.3331482 0.0390525 0.9379170 16777215
 0.3331606 0.0390665 0.9379483 16777215
 0.3331628 0.0390762 0.9379905 16777215
 0.3331751 0.0390761 0.9380280 16777215
 0.3331792 0.0390741 0.9380721 16777215
 0.3331921 0.0390702 0.9380814 16777215
 0.3332262 0.0390615 0.9381013 16777215
 0.3332325 0.0390605 0.9381388 16777215
 0.3332379 0.0390597 0.9381630 16777215
 0.3332544 0.0390600 0.9381835 16777215
 0.3332664 0.0390656 0.9382072 16777215
 0.3332787 0.0390601 0.9382239 16777215
 0.3332858 0.0390596 0.9382408 16777215
 0.3332916 0.0390640 0.9382688 16777215
 0.3332905 0.0390652 0.9382910 16777215
 0.3332883 0.0390679 0.9383138 16777215
 0.3332889 0.0390717 0.9383413 16777215
 0.3332978 0.0390745 0.9383672 16777215
 0.3333110 0.0390801 0.9383903 16777215
 0.3333113 0.0390790 0.9384110 16777215
 0.3333025 0.0390817 0.9384387 16777215
 0.3332892 0.0390802 0.9384649 16777215
 0.3333015 0.0390850 0.9384856 16777215
 0.3333175 0.0390851 0.9385040 16777215
 0.3333212 0.0390820 0.9385201 16777215
 0.3333276 0.0390826 0.9385425 16777215
 0.3333277 0.0390815 0.9385695 16777215
 0.3333271 0.0390833 0.9385824 16777215
 0.3333395 0.0390878 0.9386063 16777215
 0.3333514 0.0390900 0.9386233 16777215
 0.3333479 0.0390906 0.9386462 16777215
 0.3333491 0.0390922 0.9386575 16777215
 0.3333589 0.0390924 0.9386725 16777215
 0.3333579 0.0390923 0.9386854 16777215
 0.3333609 0.0390926 0.9386941 16777215
 0.3333631 0.0390911 0.9387050 16777215
 0.3333642 0.0390927 0.9387147 16777215
 0.3333683 0.0390924 0.9387266 16777215
 0.3333733 0.0390928 0.9387357 16777215
 0.3333793 0.0390946 0.9387430 16777215
 0.3333818 0.0390945 0.9387548 16777215
 0.3333877 0.0390959 0.9387599 16777215
 0.3333893 0.0390972 0.9387732 16777215
 0.3333914 0.0390967 0.9387775 16777215
 0.3333957 0.0390973 0.9387858 16777215
 0.3333966 0.0390983 0.9387935 16777215
 0.3333985 0.0390984 0.9388009 16777215
 0.3333999 0.0391000 0.9388090 16777215
 0.3334023 0.0391001 0.9388163 16777215
 0.3334029 0.0391001 0.9388217 16777215
 0.3334032 0.0391009 0.9388257 16777215
 0.3334059 0.0391001 0.9388323 16777215
 0.3334058 0.0391000 0.9388342 16777215
 0.3334079 0.0391003 0.9388366 16777215
 0.3334090 0.0391011 0.9388377 16777215
 0.3334100 0.0391010 0.9388396 16777215
 0.3334117 0.0391008 0.9388414 16777215
 0.3334130 0.0391002 0.9388433 16777215
 0.3334135 0.0391001 0.9388456 16777215
 0.3334132 0.0391008 0.9388476 16777215
 0.3334146 0.0391000 0.9388478 16777215
 0.3334154 0.0391005 0.9388493 16777215
 0.3334174 0.0391003 0.9388521 16777215
 0.3334171 0.0391002 0.9388542 16777215
 0.3334164 0.0391006 0.9388556 16777215
 0.3334170 0.0391011 0.9388573 16777215
 0.3334171 0.0391010 0.9388593 16777215
 0.3334183 0.0391018 0.9388607 16777215
 0.3334185 0.0391019 0.9388626 16777215
 0.3334194 0.0391019 0.9388639 16777215
 0.3334192 0.0391022 0.9388657 16777215
 0.3334199 0.0391020 0.9388676 16777215
 0.3334197 0.0391022 0.9388689 16777215
 0.3334215 0.0391028 0.9388702 16777215
 0.3334236 0.0391028 0.9388719 16777215
 0.3334226 0.0391025 0.9388734 16777215
 0.3334238 0.0391027 0.9388750 16777215
 0.3334248 0.0391033 0.9388766 16777215
 0.3334237 0.0391031 0.9388782 16777215
 0.3334232 0.0391019 0.9388796 16777215
 0.3334261 0.0391035 0.9388800 16777215
 0.3334270 0.0391026 0.9388804 16777215
 0.3334341 0.0391028 0.9388790 16777215
 0.3334387 0.0391030 0.9388788 16777215
 0.3334427 0.0391057 0.9388794 16777215
 0.3334432 0.0391040 0.9388804 16777215
 0.3334460 0.0391035 0.9388819 16777215
 0.3334441 0.0391039 0.9388828 16777215
 0.3334443 0.0391064 0.9388846 16777215
 0.3334453 0.0391064 0.9388857 16777215
 0.3334445 0.0391073 0.9388868 16777215
 0.3334422 0.0391065 0.9388885 16777215
 0.3334383 0.0391049 0.9388911 16777215
 0.3334348 0.0391033 0.9388933 16777215
 0.3334294 0.0391029 0.9388962 16777215
 0.3334289 0.0391026 0.9388974 16777215
 0.3334288 0.0391016 0.9388980 16777215
 0.3334267 0.0391008 0.9388999 16777215
 0.3334233 0.0390979 0.9389027 16777215
 0.3334200 0.0390958 0.9389056 16777215
 0.3334167 0.0390959 0.9389083 16777215
 0.3334152 0.0390954 0.9389098 16777215
 0.3334150 0.0390946 0.9389107 16777215
 0.3334131 0.0390920 0.9389122 16777215
 0.3334121 0.0390914 0.9389126 16777215
 0.3334112 0.0390906 0.9389135 16777215
 0.3334102 0.0390900 0.9389144 16777215
 0.3334089 0.0390892 0.9389159 16777215
 0.3334077 0.0390881 0.9389171 16777215
 0.3334066 0.0390870 0.9389183 16777215
 0.3334062 0.0390866 0.9389190 16777215
