# .PCD v0.7 - Point Cloud Data file format
VERSION 0.7
FIELDS x y z rgb
SIZE 4 4 4 4
TYPE F F F F
COUNT 1 1 1 1
WIDTH 1195
HEIGHT 1
VIEWPOINT 0 0 0 1 0 0 0
POINTS 1195
DATA ascii
-3.47996 -4.8239055 5.2374148 16711746
0.12475167 -2.5037303 2.540525 16711746
-0.59130728 -8.2691393 10.419073 16711746
0.49018803 -2.5432451 2.4596455 16711746
-0.41766712 -7.4139342 9.7546234 16711746
-3.6905863 -5.365273 6.5900183 16711746
-1.5228145 -4.4984689 5.109211 16711746
0.33020097 -2.6098981 2.3809338 16711746
-1.8926461 -2.0918317 3.1734626 16711746
-2.3951697 -2.7489965 4.4253664 16711746
-1.0121825 -2.1529036 3.3024797 16711746
-0.6921804 -4.7046957 10.085162 16711746
-4.8337278 -4.5432277 10.347333 16711746
-2.3997836 -10.723143 20.466557 16711746
0.032621678 -29.395136 12.567779 16711746
1.7670472 -6.6239572 3.2929087 16711746
2.3901272 -8.184001 3.1710281 16711746
2.3950651 -8.5339622 3.2191992 16711746
6.4768515 -14.924196 5.1176867 16711746
0.48925108 -8.3126955 3.188113 16711746
1.8827871 -8.4511099 3.5419366 16711746
8.7868252 -15.688341 6.7753692 16711746
2.6716998 -8.4031544 7.4399958 16711746
0.50998312 -12.90895 11.155047 16711746
-10.645501 -15.561398 4.2544813 16711746
-3.3617265 -6.2478771 2.1163368 16711746
-14.563067 -47.386124 19.985203 16711746
-1.3366848 -9.6911316 5.145215 16711746
-2.3113048 -6.3030882 2.8329747 16711746
-7.4917355 -40.127865 11.726132 16711746
-0.19019222 -8.5696049 3.077898 16711746
0.36453578 -3.2623553 2.5287375 16711746
0.35294959 -4.4482689 2.8112736 16711746
0.25843385 -4.6430926 2.9866018 16711746
2.2967803 -3.5671089 15.207539 16711746
6.4026427 -3.3005695 16.946312 16711746
7.4880047 -2.5408676 15.066227 16711746
6.8453913 -2.4794602 16.351372 16711746
8.1941919 -2.6746504 16.017483 16711746
6.6728539 -3.5526276 14.626195 16711746
3.6004155 -3.6836317 15.616733 16711746
7.073123 -2.7248437 14.05694 16711746
8.0886059 -2.5932159 15.883909 16711746
8.0278502 -2.7655442 15.681904 16711746
7.2828088 -2.4424081 15.988901 16711746
6.3059258 -3.1335943 16.490881 16711746
4.7901568 -3.4329932 16.268532 16711746
8.6098442 -2.1580331 15.230076 16711746
6.0910301 -3.5687296 14.548292 16711746
8.6481447 -2.6678653 15.442861 16711746
2.9105148 -4.4739499 14.956673 16711746
3.9870119 -3.381983 15.409349 16711746
6.4362645 -3.3640227 15.10116 16711746
6.3368511 -3.7754068 15.637574 16711746
4.5806561 -3.2490337 14.127743 16711746
7.0171757 -2.7508521 13.534366 16711746
4.4442525 -3.434962 16.366861 16711746
8.0270767 -2.5516708 15.841825 16711746
6.1484113 -3.3510115 15.856623 16711746
7.7206059 -2.1216285 14.575097 16711746
6.7370758 -4.1329012 16.513454 16711746
6.2996521 -3.3431454 15.588437 16711746
6.2773848 -3.4022536 15.55882 16711746
6.3706126 -3.1258554 15.118997 16711746
7.1857781 -2.9513161 13.645538 16711746
1.9775796 -3.6309314 16.563839 16711746
3.2798107 -4.9157071 14.107395 16711746
3.8602087 -4.8659558 14.943584 16711746
2.8137951 -5.0691185 16.031151 16711746
6.5798965 -3.8358479 15.87239 16711746
6.2731557 -3.4110219 15.569087 16711746
3.1574521 -5.1637011 14.217729 16711746
3.7938719 -4.0091815 15.122239 16711746
7.094707 -2.4738593 13.327531 16711746
6.9405847 -2.7052722 12.99214 16711746
3.7049613 -3.3837984 17.632523 16711746
8.6166344 -1.9813416 15.494692 16711746
6.0178518 -2.7792184 16.179451 16711746
3.6283524 -3.7310352 14.797507 16711746
4.0251298 -4.2036514 15.285423 16711746
7.1450243 -3.1495464 13.947994 16711746
4.7152529 -2.9397116 16.590454 16711746
4.0432997 -2.4565871 14.113668 16711746
8.2108393 -2.6430624 16.044477 16711746
5.9923329 -3.0894425 16.698896 16711746
3.7043948 -3.8291001 14.895057 16711746
6.2927303 -2.6759803 15.85087 16711746
5.552278 -2.7171607 14.951639 16711746
4.8511992 -4.1996398 14.889574 16711746
4.4268155 -4.4588871 14.87461 16711746
3.976655 -4.3902655 15.477189 16711746
6.9065342 -2.6722312 13.811008 16711746
6.8265204 -3.4207914 14.311574 16711746
7.5073299 -3.5138643 18.016043 16711746
7.6972718 -3.7272942 18.098202 16711746
8.1700706 -2.8035471 17.335339 16711746
6.7104669 -3.3785892 17.639944 16711746
6.3314338 -3.1958506 16.865715 16711746
4.747663 -2.9914556 16.572193 16711746
1.1705474 -3.8936555 15.063486 16711746
7.5053906 -2.8983512 16.890038 16711746
7.8037944 -2.6473081 17.079115 16711746
3.1415052 -2.6130416 14.714787 16711746
4.1455379 -2.6540513 13.525578 16711746
7.6958299 -2.8799753 17.068314 16711746
8.1094589 -3.6860986 15.275081 16711746
6.1785994 -2.2250693 13.572224 16711746
4.3204556 -2.3718996 13.171098 16711746
6.7581668 -1.5443255 13.819053 16711746
4.3771439 -2.0891356 13.63329 16711746
5.7288003 -1.997916 14.199498 16711746
3.0048668 -4.1122947 13.709855 16711746
8.3355846 -2.7721155 16.206543 16711746
8.1458235 -2.8559933 15.788821 16711746
6.3779864 -3.0724568 16.949772 16711746
7.1979561 -3.0618677 13.714949 16711746
3.8656056 -2.6860619 14.604586 16711746
4.5423746 -2.0632503 13.96121 16711746
6.8513036 -3.3657024 14.270274 16711746
10.344694 -3.148639 17.377651 16711746
4.642735 -2.9528584 14.484506 16711746
6.8170333 -2.6955252 16.731768 16711746
6.1383734 -5.8322425 15.53583 16711746
7.8400569 -3.4388442 18.552214 16711746
4.0078826 -2.9653563 13.825 16711746
5.3342295 -0.89910924 12.717664 16711746
6.2188845 -2.5304465 13.661 16711746
6.4887886 -2.8651237 13.918302 16711746
6.2001233 -2.4187367 13.669956 16711746
6.4503508 -2.1512868 13.501175 16711746
6.6109085 -2.405359 13.868291 16711746
6.4627047 -2.3008387 13.420677 16711746
5.7678213 -2.3643622 13.445529 16711746
5.935761 -2.1742887 13.386958 16711746
5.0275846 -1.5780673 13.507154 16711746
6.542078 -2.3401155 13.792887 16711746
5.139729 -1.6154479 13.231346 16711746
9.2352066 -2.8785713 18.234709 16711746
7.2740402 -4.279923 15.111745 16711746
6.6488094 -1.6915474 13.927296 16711746
5.6586246 -1.4937673 13.430975 16711746
8.5805941 -2.5852222 15.340858 16711746
5.7185035 -2.1999531 13.651546 16711746
7.6134067 -2.5239141 16.62912 16711746
8.8764172 -3.6674547 18.238106 16711746
7.6993876 -3.3738637 13.882325 16711746
10.938409 -9.0971193 17.893272 16711746
7.3403268 -5.2346306 15.433349 16711746
7.0831141 -6.3548841 17.011755 16711746
7.0424061 -5.9389801 19.242701 16711746
4.7954426 -3.080611 16.83073 16711746
4.2536726 -1.2556236 12.933439 16711746
2.8524439 -4.9909759 14.258923 16711746
4.1167321 -9.9502964 19.398256 16711746
4.9237204 -1.8376242 13.466289 16711746
7.611547 -3.6508381 14.720821 16711746
3.2877555 -2.1471825 12.95644 16711746
8.3015547 -2.188592 15.993922 16711746
3.9313691 -1.4273478 12.821628 16711746
9.6427183 -3.3825927 18.03129 16711746
7.5739427 -3.6175411 16.97673 16711746
9.6470699 -3.5990844 18.756779 16711746
4.1568117 -1.266537 12.750237 16711746
5.8668385 -2.5566268 14.866317 16711746
7.1266508 -1.2979239 14.424361 16711746
5.2156887 -2.3876266 13.481589 16711746
4.3915353 -1.5196553 13.494923 16711746
4.1878157 -1.6009026 13.710637 16711746
6.006814 -2.6600857 15.498868 16711746
5.0225205 -4.4626908 14.620982 16711746
5.8140879 -2.2913558 14.966878 16711746
4.7813673 -4.0784206 14.870353 16711746
4.3124399 -3.3453605 16.281099 16711746
4.4412265 -2.6769173 14.030817 16711746
5.9945202 -3.0050654 15.066132 16711746
5.8390665 -3.0377262 15.782801 16711746
4.0844731 -3.6054363 16.473372 16711746
4.8341084 -2.9009676 14.778158 16711746
3.5014248 -3.9256115 15.502989 16711746
3.7916484 -2.6268961 14.865333 16711746
3.9234271 -2.2865536 14.266205 16711746
6.181869 -2.0066857 12.957036 16711746
6.5364437 -2.2571902 15.038623 16711746
5.6780419 -2.609993 15.342921 16711746
5.8613777 -3.6311536 16.048395 16711746
5.6443982 -2.7970486 15.121814 16711746
4.0184813 -2.3425 14.406685 16711746
4.4097962 -3.0050235 15.185527 16711746
3.7577035 -2.5353549 14.483114 16711746
4.0685291 -3.6454809 15.310426 16711746
5.0209193 -3.4214334 15.059105 16711746
3.4201596 -3.2004108 15.475858 16711746
3.0239024 -3.2037475 16.740356 16711746
3.9379838 -3.447597 16.04254 16711746
4.6640091 -2.8638723 15.817023 16711746
5.5144653 -2.4230523 15.365405 16711746
5.829946 -2.5807304 16.321209 16711746
6.1231594 -1.5474523 14.74999 16711746
6.8773203 -2.2745409 14.755865 16711746
5.8994408 -2.7945817 14.84085 16711746
6.0640035 -1.8555564 12.980324 16711746
3.3823984 -3.0676167 16.654243 16711746
4.1266122 -3.4998152 15.173825 16711746
3.4778988 -3.0304558 15.941828 16711746
6.3500986 -3.8586257 15.723524 16711746
4.6730728 -2.2171695 15.311713 16711746
3.0683732 -3.3138196 15.422359 16711746
2.7876537 -3.9526312 15.875113 16711746
4.4978399 -2.4852259 13.90142 16711746
5.9193702 -3.2980733 13.869471 16711746
4.776505 -2.7839744 16.13443 16711746
4.638186 -2.8583148 15.815974 16711746
5.8334908 -2.5692449 16.326185 16711746
5.4020481 -2.9802947 15.390512 16711746
5.4492526 -3.5545352 16.354591 16711746
3.4023809 -3.0978289 15.050976 16711746
4.9927058 -3.2893274 14.539483 16711746
5.058125 -3.2197027 14.594833 16711746
5.8913732 -3.0036347 14.354513 16711746
5.0312233 -3.9812896 15.533719 16711746
5.0313926 -3.4712534 13.801344 16711746
4.7735696 -2.3461878 15.147787 16711746
4.0212307 -3.2972608 15.370925 16711746
2.8142929 -3.4319875 16.347054 16711746
4.5084567 -2.9696665 15.532535 16711746
6.5509539 -1.2429577 13.871844 16711746
6.7696061 -2.0730464 14.59443 16711746
7.1943736 -2.1578093 14.750587 16711746
5.9625363 -3.0669832 15.174512 16711746
2.3529229 -4.421433 13.71422 16711746
4.2696013 -2.8732572 15.47687 16711746
4.4097667 -2.5283613 15.258917 16711746
3.6744819 -2.9191992 16.833288 16711746
3.0819693 -2.5547976 17.099056 16711746
6.7845964 -1.3983845 13.893575 16711746
4.9110427 -2.0685394 13.691909 16711746
4.3967233 -2.3470786 15.500065 16711746
5.217711 -2.4940615 15.334022 16711746
4.9855666 -1.7833543 13.218287 16711746
3.6087575 -2.0250278 14.485151 16711746
4.6337662 -1.2126211 13.090534 16711746
6.1354318 -1.6372176 13.457558 16711746
5.6798406 -2.1110172 14.181435 16711746
5.6416292 -2.0141575 13.215816 16711746
5.1697216 -1.409326 13.168654 16711746
6.4104223 -1.5537035 13.880637 16711746
5.5596004 -1.4902991 13.945375 16711746
4.4538431 -2.0562119 13.882159 16711746
5.58673 -1.7875792 13.130963 16711746
4.2982163 -1.0712851 13.506816 16711746
6.5231767 -1.5917708 13.375021 16711746
5.71276 -1.1242292 13.507396 16711746
4.2542753 -2.8044939 14.861838 16711746
4.4290695 -2.5823429 14.35533 16711746
3.6756117 -2.8173862 15.065387 16711746
4.7632656 -2.1695411 15.377747 16711746
2.4758356 -3.1896808 15.670333 16711746
6.6753869 -1.1306593 13.997284 16711746
4.393086 -2.6753931 14.445121 16711746
6.1626096 -1.7801435 13.64296 16711746
3.3122509 -3.7107689 15.638035 16711746
4.6513672 -2.4237585 14.490166 16711746
3.3573787 -2.7551243 15.489688 16711746
6.1007395 -1.6629742 14.444466 16711746
5.5584283 -2.2485788 15.013667 16711746
6.7627339 -2.3915102 13.886424 16711746
5.7299523 -2.7054067 15.275023 16711746
6.8766828 -1.801895 13.951932 16711746
6.0576701 -1.4235104 13.4724 16711746
3.8605068 -2.3633902 16.014256 16711746
6.2155747 -1.8549831 13.704185 16711746
4.3359957 -2.5808089 14.640081 16711746
4.5082488 -2.3643241 14.184224 16711746
4.7879944 -2.1539929 15.309302 16711746
5.9945102 -2.2120624 15.622838 16711746
5.5892391 -2.2357018 14.999454 16711746
1.1342673 -7.303349 18.515463 16711746
3.6364033 -2.023284 14.355542 16711746
7.2835541 -3.3634381 14.354604 16711746
7.5078263 -3.6956306 14.405201 16711746
4.2478566 -2.0952637 14.14251 16711746
4.1931114 -1.4700383 13.823027 16711746
4.5217881 -2.095458 13.97751 16711746
3.8389926 -1.7852535 13.85431 16711746
6.4394207 -2.4439788 13.790767 16711746
4.6313362 -1.8339154 13.757824 16711746
4.1930099 -1.7468967 13.732693 16711746
3.9054348 -1.9762568 13.878049 16711746
4.0052032 -1.6186755 13.686645 16711746
6.9771214 -1.902192 14.709386 16711746
6.9353771 -1.9659307 14.423154 16711746
4.1528177 -1.4982759 13.387493 16711746
4.651197 -1.7603819 13.561337 16711746
4.3592505 -1.3963944 13.599992 16711746
6.2685466 -1.644214 14.694339 16711746
3.9514146 -1.655431 13.719856 16711746
6.2983336 -1.7002654 13.284872 16711746
6.8687525 -2.118927 13.706832 16711746
7.5220404 -2.4151664 14.209629 16711746
4.5667481 -1.3169889 13.57358 16711746
6.4757943 -1.7655424 14.674807 16711746
1.985232 -3.2755988 16.163763 16711746
4.6713653 -2.1952879 14.330113 16711746
4.8092413 -1.5037508 13.630513 16711746
4.6277852 -2.0168874 13.380978 16711746
4.5860949 -1.4046453 13.134587 16711746
3.6810811 -1.9548212 14.414205 16711746
4.6150227 -1.550817 13.742408 16711746
5.076642 -1.389816 13.190927 16711746
4.7312708 -1.5194093 13.173594 16711746
3.9106998 -2.2413054 14.56713 16711746
5.6759653 -2.9706285 13.536676 16711746
3.4948494 -3.1754415 15.03581 16711746
5.9493766 -2.4673624 13.72652 16711746
4.1194134 -2.6691518 14.34233 16711746
7.025156 -1.4336898 14.416851 16711746
2.6259563 -2.7373807 15.390933 16711746
1.7243328 -3.6683817 16.116678 16711746
3.3513765 -2.9904404 17.230347 16711746
4.4066143 -2.8045318 15.747866 16711746
5.991982 -1.873932 13.053668 16711746
8.1036501 -1.702226 15.172315 16711746
6.0207973 -1.8771288 13.230335 16711746
6.0814967 -1.6919515 13.019083 16711746
4.4823561 -2.1583815 13.845475 16711746
4.5101657 -1.1774151 13.094925 16711746
4.0324697 -2.0683362 14.162498 16711746
4.7553773 -1.5579995 13.490199 16711746
6.2405944 -1.9795822 13.357551 16711746
6.0016031 -2.2040632 13.580855 16711746
3.5309377 -1.6305512 14.439668 16711746
4.1627584 -1.574434 13.365366 16711746
3.6247628 -1.8843632 14.424587 16711746
3.8999443 -1.6709707 14.130891 16711746
3.5067682 -1.6875353 13.659884 16711746
5.0926933 -1.9021374 13.355004 16711746
5.0546684 -1.9340514 13.700544 16711746
4.95649 -1.1791911 13.304538 16711746
5.032208 -1.3544815 13.409586 16711746
6.3879642 -1.6201327 13.607434 16711746
4.0310059 -2.0039587 13.953622 16711746
4.7986522 -1.3843552 13.452467 16711746
5.9263706 -1.9038099 13.715199 16711746
5.4838934 -1.6163849 13.647003 16711746
5.5948763 -2.6750982 13.486924 16711746
3.9290152 -2.5347676 14.57565 16711746
4.5717354 -1.3300058 13.335681 16711746
4.9218001 -1.1504586 13.136231 16711746
5.9812193 -1.5752242 13.274427 16711746
6.1622572 -2.2404468 13.296752 16711746
6.5223751 -1.8018111 13.751978 16711746
5.6601291 -2.4339743 13.535833 16711746
5.6473079 -2.0947602 13.542957 16711746
6.6154284 -1.7850479 14.807705 16711746
5.9446163 -2.3250699 13.525615 16711746
5.9164248 -2.2726042 13.50373 16711746
6.0192022 -1.8126702 13.09778 16711746
7.0736156 -2.9520586 14.243956 16711746
6.0006032 -1.985039 13.143856 16711746
4.723793 -1.4860184 13.379516 16711746
5.6500154 -1.1165574 13.592899 16711746
5.3746114 -1.4144722 13.461526 16711746
5.5112667 -1.3678745 14.015037 16711746
4.6333022 -1.5833576 13.538052 16711746
4.3464909 -1.6434575 13.46816 16711746
4.2346835 -1.4382151 13.874925 16711746
5.5805459 -1.176674 13.658766 16711746
4.3437209 -1.6283962 13.539965 16711746
5.3770294 -1.3301065 13.689239 16711746
6.0784483 -1.1390723 13.382522 16711746
5.6904993 -1.4735316 13.345596 16711746
4.3865399 -1.4227104 13.441258 16711746
4.2572136 -1.5369639 13.710819 16711746
5.4016743 -1.2505682 13.644389 16711746
5.4558816 -1.4129171 13.846278 16711746
4.6345801 -1.2580135 13.496984 16711746
5.7219324 -1.140447 13.656865 16711746
5.7269907 -1.1230489 13.692697 16711746
5.5967498 -1.1022106 13.682223 16711746
4.8299165 -1.3766106 13.437468 16711746
5.8686972 -1.6633658 13.339538 16711746
4.4043422 -1.4916793 13.173239 16711746
5.0305324 -1.7584674 13.356015 16711746
5.0266542 -1.7346184 13.415961 16711746
5.1837635 -1.7761313 13.291731 16711746
4.0114865 -1.5967478 13.854939 16711746
5.032145 -1.6062042 13.425426 16711746
4.3819518 -1.4203919 13.235789 16711746
5.1383834 -1.3133473 13.315452 16711746
5.7251282 -1.0749562 13.645905 16711746
4.2186475 -1.3283807 13.354298 16711746
4.0628066 -1.7284763 13.581031 16711746
5.570199 -1.1997176 13.650477 16711746
4.4011035 -1.4834187 13.790024 16711746
4.1459098 -1.5087475 13.872509 16711746
4.3361201 -1.3101729 13.417741 16711746
5.4571524 -1.439106 13.238155 16711746
5.3919411 -1.4375439 13.41804 16711746
5.6036205 -1.1113214 13.584564 16711746
5.0663171 -1.221023 13.205649 16711746
4.3722081 -1.5337447 13.334002 16711746
5.9455576 -1.8127905 13.584803 16711746
5.6971941 -1.3863871 13.412474 16711746
5.599937 -1.2194722 12.970288 16711746
5.4697776 -1.6581538 13.283775 16711746
5.4363046 -1.6352178 13.978188 16711746
4.5404773 -1.2238142 13.227356 16711746
5.9269342 -1.2451254 13.380585 16711746
4.4158554 -1.5137861 13.175722 16711746
4.5888705 -1.3067341 13.544334 16711746
4.2654972 -1.2472999 13.458975 16711746
5.069633 -1.537129 13.119289 16711746
5.8789167 -1.4515145 13.072471 16711746
6.0527878 -1.7365189 13.235379 16711746
5.8881717 -1.0523376 13.499593 16711746
5.5559292 -1.1704047 13.614639 16711746
4.016427 -1.3424338 13.901873 16711746
4.1299629 -1.4670484 13.366735 16711746
4.8822026 -1.260223 13.243831 16711746
4.148634 -1.5520519 13.723552 16711746
5.0960541 -1.4164258 13.237041 16711746
4.7869849 -2.0621021 13.566485 16711746
4.3200617 -1.6257713 13.412124 16711746
5.7486258 -0.98555321 13.13717 16711746
5.5253592 -1.123614 13.544473 16711746
5.9760408 -1.1687979 13.487108 16711746
6.0748329 -1.2069868 13.714142 16711746
4.6629663 -1.4308201 13.469069 16711746
5.7718053 -1.2037829 13.656287 16711746
5.7603478 -1.5496423 13.221588 16711746
4.3944731 -1.4976451 13.72844 16711746
5.7158127 -0.70385045 13.15288 16711746
5.8819108 -1.4409351 13.736937 16711746
4.83218 -1.362138 13.333975 16711746
5.6423826 -1.033934 13.548481 16711746
5.6381512 -1.4445277 13.30666 16711746
3.6113319 -2.1271846 13.723713 16711746
4.2453942 -1.5692151 13.81 16711746
3.5610952 -2.0416443 13.758771 16711746
5.524405 -1.0603297 13.600181 16711746
5.0828457 -1.166724 13.19978 16711746
4.2682633 -1.515618 14.008079 16711746
5.9296808 -1.0240819 13.530669 16711746
4.1604018 -1.8883698 14.002755 16711746
4.5197649 -1.4534905 13.135358 16711746
4.2737198 -1.5228844 13.699385 16711746
4.1068397 -1.5225461 13.56842 16711746
5.7885857 -1.5412923 13.41021 16711746
4.5567875 -1.2984776 13.515727 16711746
5.6980815 -1.0605521 13.192475 16711746
6.3467846 -2.94171 13.749799 16711746
3.696166 -1.8683453 14.1569 16711746
2.283179 -2.8259182 14.33352 16711746
3.9445953 -1.8922462 13.806916 16711746
6.0521264 -0.84569401 13.495968 16711746
5.8036232 -1.8329182 13.361092 16711746
6.3180337 -1.4793603 13.609326 16711746
3.6493881 -2.925678 14.905756 16711746
4.0031614 -1.5062429 13.938144 16711746
7.1322794 -1.5164375 14.35745 16711746
3.4431472 -2.1710794 14.626243 16711746
4.5412602 -1.8177212 13.741179 16711746
4.2246776 -1.7928765 14.029531 16711746
5.8519268 -1.6405082 14.374037 16711746
4.1842384 -2.0847278 13.225294 16711746
5.7836237 -2.062119 13.335103 16711746
7.8828211 -3.3817301 13.45879 16711746
4.5344272 -1.2500941 13.20526 16711746
4.7775092 -1.2601125 13.431659 16711746
4.7971601 -1.110625 13.321765 16711746
4.8275304 -1.2757417 13.28042 16711746
4.7703662 -1.1451948 13.353439 16711746
4.5406523 -1.2395498 13.376828 16711746
4.6758657 -1.1577529 13.030921 16711746
5.2387829 -1.1264024 13.367036 16711746
4.5256953 -1.4425476 13.530931 16711746
4.2232218 -1.1729807 13.234684 16711746
4.7714314 -1.3290198 13.357232 16711746
4.2532029 -1.1002444 13.18082 16711746
4.7548013 -1.2601224 13.135205 16711746
4.7186704 -1.2367011 13.101268 16711746
4.70503 -1.2417929 13.079734 16711746
4.7026095 -1.1992967 13.029485 16711746
5.2352476 -1.0501728 13.289119 16711746
4.7352157 -1.2450457 13.035295 16711746
4.8013945 -1.3184167 13.114928 16711746
4.3180885 -1.1588773 13.522459 16711746
5.7955022 -1.1678399 13.276033 16711746
5.2919393 -1.2091753 13.160056 16711746
4.8822584 -1.1824901 13.055163 16711746
4.5847692 -1.3334978 13.28066 16711746
4.6860366 -1.3264803 13.058666 16711746
4.8154449 -1.094245 13.036358 16711746
5.4763365 -0.77201098 13.153589 16711746
4.2729535 -1.4794037 13.773707 16711746
4.4846101 -1.3009375 13.465048 16711746
5.2587943 -1.4316927 13.885812 16711746
4.4738007 -1.4393563 13.424576 16711746
4.422667 -1.3114706 13.544087 16711746
4.5090442 -1.3245364 13.71575 16711746
4.6042423 -1.2807257 13.568833 16711746
4.2864499 -1.4736253 13.35686 16711746
3.2774935 -1.8807315 14.505021 16711746
4.4365149 -1.4940721 13.463296 16711746
4.7879081 -1.4420972 13.345416 16711746
4.146946 -1.7196898 13.429742 16711746
5.4464092 -1.492833 13.213856 16711746
4.2064037 -1.480963 13.749533 16711746
5.7604194 -1.5047451 13.287011 16711746
5.529047 -1.0081689 13.547078 16711746
4.0676632 -1.4244446 13.369297 16711746
5.2596083 -1.281513 13.656621 16711746
4.6023016 -1.3321705 13.120502 16711746
4.0625343 -1.3535417 13.343107 16711746
4.3448787 -1.6004592 13.621653 16711746
4.3710561 -1.432434 13.535765 16711746
4.5168796 -1.4029363 13.376927 16711746
5.6500111 -1.240695 13.863001 16711746
3.7794819 -1.9069844 14.144969 16711746
6.3608108 -1.4213023 14.119283 16711746
5.7792034 -1.8668461 13.374501 16711746
5.7566476 -1.8424222 13.351718 16711746
3.5279732 -2.036695 14.531438 16711746
5.9038496 -1.6662761 13.269041 16711746
12.756143 -6.4277139 18.307016 16711746
5.3376689 -1.0932885 13.218884 16711746
4.8231602 -1.17785 13.24979 16711746
4.6005249 -1.3210766 13.47609 16711746
4.3378153 -1.2682362 13.669966 16711746
5.3825784 -0.85134512 13.236916 16711746
4.5482221 -1.3764665 13.30351 16711746
5.6250224 -1.1665143 13.334201 16711746
5.5641327 -0.97709668 13.297534 16711746
4.5092077 -1.2587183 13.547108 16711746
5.272543 -1.0359491 13.247359 16711746
4.9560342 -1.1177837 13.191427 16711746
4.3406596 -1.1800205 13.277623 16711746
5.3364816 -1.0382594 13.094099 16711746
4.806983 -1.3091269 13.359212 16711746
4.9491396 -1.0796969 13.161011 16711746
3.8895104 -1.2182848 13.718755 16711746
4.6553488 -1.371379 13.042881 16711746
4.8002396 -1.2937006 13.365488 16711746
4.699892 -1.1120249 13.022504 16711746
4.6704898 -1.4665548 13.459799 16711746
4.1968079 -1.1523843 13.083121 16711746
5.5339189 -0.94050348 13.346458 16711746
5.9002934 -1.0666857 13.544834 16711746
4.8565092 -1.6372358 13.208138 16711746
4.6171098 -2.0474827 15.458857 16711746
4.5623703 -1.3952729 13.494613 16711746
4.9383826 -1.1261507 13.150558 16711746
4.9291153 -1.153945 13.16785 16711746
5.3766894 -1.3202055 13.390912 16711746
5.978034 -1.3649713 13.635404 16711746
3.0624788 -2.1740832 13.861279 16711746
5.6573195 -1.0818379 13.637506 16711746
6.0262046 -1.3698742 13.354812 16711746
4.980135 -1.5020711 13.371633 16711746
5.3638253 -1.2006854 13.196857 16711746
5.294426 -1.2575715 13.221992 16711746
5.5166259 -1.1456982 13.148672 16711746
4.7903566 -1.0715998 13.31445 16711746
4.8662615 -1.3035275 13.292803 16711746
5.4328904 -1.0030408 13.097299 16711746
4.3349185 -1.4280092 13.46821 16711746
4.4780211 -1.218166 13.491148 16711746
4.9346352 -1.0531822 13.187352 16711746
4.6862473 -1.2155256 13.043739 16711746
5.3244362 -1.0788075 13.098274 16711746
4.5609579 -1.2805061 13.214862 16711746
5.0927706 -0.87772834 12.945749 16711746
5.4863663 -1.0012354 13.153838 16711746
4.6058645 -1.2257721 13.184114 16711746
4.3674831 -1.0914242 13.212134 16711746
5.5314212 -1.1106335 13.062259 16711746
5.3564892 -1.0602891 13.227909 16711746
4.5220485 -1.4161112 13.328399 16711746
5.5345287 -0.99489343 13.026544 16711746
5.5035362 -1.0481955 13.052882 16711746
5.3278937 -1.0339578 13.056632 16711746
5.6475472 -0.89703256 13.180796 16711746
5.3717813 -0.82366562 13.199324 16711746
4.8769965 -1.2176443 13.26065 16711746
4.4900193 -1.2001722 13.478745 16711746
4.4990621 -1.3187649 13.453226 16711746
5.3165116 -1.046067 13.197662 16711746
4.2794309 -1.4101566 13.063864 16711746
5.3291636 -0.69177204 13.074765 16711746
4.8535681 -1.2355236 13.218393 16711746
4.4358659 -1.4460828 13.498874 16711746
5.8688688 -1.1132752 13.444366 16711746
5.9094148 -2.482959 13.552064 16711746
4.486413 -1.3106385 13.271672 16711746
4.4914517 -1.1386123 13.126277 16711746
4.6394901 -1.2230368 13.193911 16711746
3.9807653 -1.0985186 13.701128 16711746
4.7859726 -1.2451407 13.10041 16711746
5.9069953 -1.1839108 13.583179 16711746
4.2750788 -1.3903042 13.735109 16711746
4.2926474 -1.4569194 13.352835 16711746
5.2452855 -1.2174766 13.257478 16711746
5.6860132 -1.0798899 13.180512 16711746
4.3067303 -1.7283742 13.762187 16711746
5.6109877 -1.0657711 13.501136 16711746
4.3599606 -1.6556045 13.698551 16711746
6.5112114 -2.5500946 13.741203 16711746
3.9700892 -1.2992245 13.420422 16711746
3.5967824 -2.0804553 14.410316 16711746
5.936954 -1.8602048 13.367671 16711746
6.2356882 -1.3141291 13.492164 16711746
5.661027 -1.3592557 13.166677 16711746
5.0806456 -1.2413216 13.027328 16711746
5.3515048 -1.1220084 13.255463 16711746
5.7370386 -1.1919869 13.527323 16711746
5.6108031 -0.86086023 13.086761 16711746
4.5045018 -1.2441785 13.526136 16711746
4.5738192 -1.2278963 13.169195 16711746
5.5110865 -1.0440881 13.187407 16711746
5.1367884 -1.2754955 13.072734 16711746
4.2969155 -1.4609525 13.747684 16711746
4.7604284 -1.2049927 13.022442 16711746
5.5009995 -0.84109169 13.007265 16711746
4.4548149 -1.2521079 13.116331 16711746
5.6313152 -1.201077 13.25468 16711746
5.57798 -0.67103857 13.170437 16711746
5.5186648 -0.83003414 12.971397 16711746
5.5089765 -1.4970843 13.151748 16711746
5.6158371 -1.0492009 13.096506 16711746
5.3361583 -1.2286851 13.256383 16711746
5.5469384 -0.94433516 12.950788 16711746
5.6517568 -1.3531613 13.127163 16711746
5.6095877 -1.2647568 13.13337 16711746
4.586412 -1.3905993 13.138422 16711746
5.5013337 -1.468693 13.141109 16711746
5.9519262 -1.0943723 13.296759 16711746
5.6077771 -1.3295555 13.128288 16711746
5.5799575 -1.325181 13.09299 16711746
5.525001 -1.3794382 13.130548 16711746
4.4807916 -1.2099025 13.353462 16711746
5.58635 -1.2407538 13.072692 16711746
4.6319566 -1.3276997 13.115324 16711746
5.3197308 -1.0445971 13.225841 16711746
5.6164064 -1.3485605 13.134989 16711746
5.1368451 -1.0973399 13.566391 16711746
5.6965451 -0.94179702 13.151767 16711746
5.3821015 -1.1835753 13.38011 16711746
5.3851585 -1.1802987 13.321101 16711746
5.6356368 -1.1092755 13.11076 16711746
5.5471988 -0.90637982 13.413877 16711746
5.6748385 -1.4625649 13.179062 16711746
5.5755758 -1.0580418 13.064312 16711746
5.5544829 -0.9468832 13.046941 16711746
5.5157909 -1.2012699 13.216768 16711746
5.5828929 -1.3040113 13.151136 16711746
5.4756804 -0.8186745 13.268921 16711746
4.8517599 -1.3143907 13.233304 16711746
4.8582559 -1.3980585 13.266749 16711746
5.0044794 -0.99804276 13.051338 16711746
5.6902452 -1.2014223 13.184798 16711746
4.6718473 -1.3409598 13.121737 16711746
5.605433 -1.3021514 13.092006 16711746
5.5349021 -0.91620678 13.053646 16711746
5.3526783 -1.1991233 13.096005 16711746
5.3765683 -1.3424715 13.479739 16711746
4.8996205 -1.1945797 13.221389 16711746
5.425076 -0.93653321 13.357194 16711746
5.9149213 -1.204352 13.557368 16711746
5.5055485 -1.347927 13.926237 16711746
5.8111229 -2.2082934 14.479311 16711746
4.2146125 -1.6569792 13.537004 16711746
6.9727736 -1.3390985 14.168425 16711746
6.2782812 -1.3931682 13.534826 16711746
5.0655036 -1.5195336 14.01559 16711746
6.1624923 -1.2764297 13.434828 16711746
6.3837442 -3.8585446 16.145023 16711746
6.1079345 -2.0187852 13.368191 16711746
5.0734844 -4.10179 15.946352 16711746
8.2622061 -16.404827 25.625374 16711746
5.4397588 -0.98548746 13.408811 16711746
5.0781479 -0.91631866 13.653337 16711746
4.6102977 -1.1767131 13.265285 16711746
5.5632305 -1.3549457 13.222829 16711746
4.717289 -1.2386506 13.05772 16711746
5.6637316 -0.99807912 13.153288 16711746
5.6246505 -1.121568 13.061448 16711746
5.5116572 -1.3829553 13.170272 16711746
4.9673543 -1.2902451 13.598758 16711746
5.5258627 -1.1070842 13.507427 16711746
5.2149954 -1.132378 13.20897 16711746
4.9277182 -1.1495831 13.161358 16711746
5.0726423 -1.0583594 13.443633 16711746
5.3922391 -1.0183104 13.42947 16711746
5.3100691 -1.2569982 13.385107 16711746
4.52987 -0.94042659 13.084455 16711746
5.2096667 -1.129739 13.206636 16711746
5.7175231 -1.1938902 13.124009 16711746
5.4854584 -1.2688709 13.092815 16711746
5.3167801 -1.1095287 13.177896 16711746
5.4025288 -0.88302147 13.343212 16711746
5.6097445 -1.3664242 13.180873 16711746
4.6553712 -1.2436528 12.997097 16711746
5.5738602 -1.3584489 13.091475 16711746
5.5094562 -1.0590585 13.161059 16711746
4.9883747 -1.2275231 13.534947 16711746
5.2409487 -1.0658131 13.377433 16711746
5.9403634 -1.2041087 13.620679 16711746
5.5543852 -0.99719244 13.373051 16711746
4.3631701 -1.422098 13.161136 16711746
5.8164034 -0.96660137 13.210406 16711746
5.369668 -1.1853625 13.178741 16711746
4.0158157 -1.6678451 13.134165 16711746
5.630106 -1.0110315 13.382159 16711746
5.6180482 -0.9503597 13.164488 16711746
5.6340914 -1.0787963 13.070027 16711746
5.5450788 -1.3945554 13.107471 16711746
5.5196643 -1.2493263 13.207784 16711746
5.3451409 -1.2416251 13.234365 16711746
5.7295957 -1.242485 13.179139 16711746
5.5882206 -1.4111354 13.107279 16711746
5.1203322 -0.84457529 13.198412 16711746
5.5911322 -1.3339592 13.163127 16711746
4.5837889 -1.168335 13.088251 16711746
5.6880465 -1.0688771 13.11953 16711746
4.2232676 -1.7333038 13.241856 16711746
4.5774341 -1.4893202 13.165826 16711746
4.1383996 -1.3466445 13.717476 16711746
5.7026138 -1.7748295 13.298513 16711746
4.9682717 -1.0780901 13.108591 16711746
5.0517397 -1.2546837 13.245382 16711746
4.9466619 -1.316968 13.176552 16711746
4.9544663 -1.2958192 13.164762 16711746
5.0849347 -0.99738824 13.084401 16711746
4.6762404 -1.3452014 13.257887 16711746
5.5666552 -1.0971761 13.509963 16711746
4.9969835 -1.2392826 13.196385 16711746
5.2869143 -3.5781412 15.530861 16711746
5.3195825 -0.97202873 13.186089 16711746
5.4705734 -1.1039 13.039504 16711746
5.4387417 -0.96397924 13.061241 16711746
5.4789615 -0.88438076 12.97343 16711746
5.4705567 -1.103851 13.039487 16711746
5.3102489 -1.0853606 13.079234 16711746
5.3070679 -0.95897841 13.096821 16711746
5.5119648 -1.057207 13.128871 16711746
5.0968571 -0.905433 13.144801 16711746
5.1103883 -0.82294679 13.206184 16711746
5.1297789 -0.80093658 13.085566 16711746
5.4280033 -1.0266649 13.062798 16711746
5.117754 -0.83360296 13.112929 16711746
5.5153055 -0.93998325 13.19893 16711746
5.535264 -1.2322652 13.16323 16711746
5.6749387 -1.0218205 13.233794 16711746
5.0083432 -1.1034175 13.466784 16711746
5.6140909 -1.1925058 13.082541 16711746
5.7865896 -0.96601123 13.404488 16711746
5.6125946 -1.1290524 13.134498 16711746
5.146471 -1.0339563 13.285484 16711746
6.102766 -1.0112245 13.413445 16711746
5.1551204 -1.002301 13.253626 16711746
5.9870381 -1.0691721 13.564861 16711746
5.1603618 -0.93817776 13.198689 16711746
5.5559516 -0.90913194 13.04801 16711746
5.6773653 -1.2036192 13.424364 16711746
5.7117238 -0.84344953 13.146173 16711746
5.5276675 -1.3161051 13.555387 16711746
5.56458 -1.0975271 13.052006 16711746
5.6026025 -1.1447892 13.175798 16711746
5.0482578 -0.95420688 13.361413 16711746
5.8434229 -0.9767164 13.392003 16711746
4.9477105 -1.2275761 13.164393 16711746
5.3752532 -1.1832173 13.343609 16711746
5.3745894 -1.134842 13.286503 16711746
6.2755623 -1.2198524 13.532125 16711746
5.1224289 -1.104139 13.732883 16711746
5.616755 -1.2349209 13.094013 16711746
5.0231204 -0.99908739 13.627653 16711746
4.3641801 -1.1700327 13.111679 16711746
5.6497388 -0.84224963 13.083868 16711746
5.9501777 -1.1852953 13.524337 16711746
5.4321132 -1.0431428 13.499728 16711746
5.5361509 -1.0084318 13.001027 16711746
5.3530502 -1.1128682 13.27858 16711746
6.1561294 -1.2695018 13.698236 16711746
5.4761562 -1.3155304 13.906177 16711746
5.7529345 -1.0793291 13.459509 16711746
5.074677 -1.1271409 13.857369 16711746
6.5937886 -3.0820584 15.253727 16711746
3.8352759 -3.9426811 15.729598 16711746
5.2279325 -1.7658669 13.981579 16711746
5.2101464 -1.7934512 13.998539 16711746
4.3034439 -1.2681354 13.649273 16711746
5.1824236 -0.94346952 13.166866 16711746
5.0964622 -0.86312431 13.251847 16711746
4.9910431 -1.1740532 13.412313 16711746
5.0747027 -0.87952816 13.336059 16711746
5.1430559 -0.88690078 13.328933 16711746
5.0720496 -0.81148928 13.205599 16711746
5.1628962 -0.81110471 13.229062 16711746
5.2827082 -0.62320459 12.984476 16711746
5.1335912 -0.82663596 13.114547 16711746
5.1174865 -0.67368168 13.196754 16711746
5.0929103 -1.0127642 13.258489 16711746
5.4578853 -0.84016174 13.142722 16711746
5.1386704 -0.79415131 13.152355 16711746
5.1487322 -0.76263577 13.33903 16711746
4.9716825 -0.86357319 13.416821 16711746
5.1689596 -1.0919753 13.22856 16711746
5.1696839 -1.0841552 13.226037 16711746
5.028738 -0.93880856 13.431673 16711746
5.5140514 -1.2393749 13.708435 16711746
4.945425 -0.95864832 13.200374 16711746
5.2949166 -1.1152987 13.226225 16711746
4.3669124 -1.3408661 13.154103 16711746
4.5836878 -1.0509056 13.397333 16711746
4.7393885 -1.0581551 13.311242 16711746
5.0927496 -0.97690934 13.411757 16711746
6.0847187 -0.99932373 13.674842 16711746
6.6492271 -1.6066796 13.774893 16711746
4.9952788 -0.83027887 13.363678 16711746
4.7803731 -0.89840019 13.502747 16711746
5.7693887 -0.83818436 13.577607 16711746
5.0893006 -0.65414667 12.997343 16711746
5.0280223 -1.1162874 13.28826 16711746
6.2651119 -0.99116659 13.983593 16711746
4.5063734 -1.3881114 13.150492 16711746
4.5216303 -1.364542 13.138943 16711746
5.3049254 -0.79583782 13.052162 16711746
6.068326 -1.0182588 13.454342 16711746
4.6502013 -1.0687442 13.385826 16711746
5.1194777 -0.83582377 13.168172 16711746
5.4415193 -1.1659967 13.605544 16711746
5.7486525 -1.0079437 13.255409 16711746
5.3276839 -1.0696672 13.394609 16711746
5.6081991 -1.0964111 13.049437 16711746
5.168561 -0.73245299 13.044318 16711746
5.1226077 -0.7892217 13.031879 16711746
5.3165283 -1.0052322 13.195744 16711746
5.5758066 -0.9467839 13.296413 16711746
6.1324086 -0.85819477 13.573719 16711746
5.5122132 -0.89123601 13.225255 16711746
5.2829933 -0.92799562 13.154543 16711746
5.620142 -0.9048093 13.113552 16711746
5.5481272 -1.0459019 13.251734 16711746
5.5454254 -0.87558597 13.060903 16711746
5.2814717 -0.75035733 13.170509 16711746
5.4694376 -0.76370275 13.138103 16711746
5.3618817 -1.1564481 13.074816 16711746
5.30616 -0.80164558 13.05678 16711746
5.4336162 -1.0982558 13.035421 16711746
5.7668996 -0.71438783 13.295124 16711746
5.2699413 -0.66457355 13.059161 16711746
5.0925131 -0.91813517 13.156801 16711746
5.8287253 -0.74611586 13.403395 16711746
5.0450177 -0.71043998 13.231652 16711746
5.041955 -0.80602413 13.242777 16711746
5.4965987 -1.1905186 13.061777 16711746
4.9651561 -1.1168244 13.701182 16711746
5.570961 -1.1939965 13.10364 16711746
4.9419904 -1.1934203 13.179978 16711746
5.739367 -0.79775369 13.508826 16711746
5.6364884 -1.1759663 13.156907 16711746
4.5790391 -1.0728809 13.458985 16711746
5.8580828 -1.0852236 13.393695 16711746
4.8041925 -1.1315683 13.277685 16711746
4.6925726 -1.1093134 13.256458 16711746
5.6104674 -0.89602846 12.968489 16711746
5.3350477 -1.0680143 13.209835 16711746
5.7474189 -0.81680757 13.569911 16711746
4.9008789 -1.1077918 13.23544 16711746
5.2551684 -0.88235027 13.025913 16711746
5.840219 -0.87629074 13.090637 16711746
5.4413681 -1.0377113 13.328615 16711746
5.1724181 -0.7973845 13.129708 16711746
5.0750957 -0.87086755 13.339414 16711746
5.0753837 -0.81988138 13.321798 16711746
5.0552754 -0.78665835 13.238282 16711746
5.2197471 -0.84967262 13.056119 16711746
5.4101853 -0.84936357 13.293038 16711746
5.2980466 -0.84810913 12.996098 16711746
5.2696791 -0.880005 13.009072 16711746
5.1482596 -0.83968627 13.207707 16711746
5.3933287 -0.86697561 13.222529 16711746
5.4010296 -0.8862226 13.05644 16711746
5.0296936 -0.71884608 13.059815 16711746
5.694952 -0.95010942 13.399741 16711746
5.4591241 -0.92588127 13.011802 16711746
5.0824766 -0.89261347 13.332417 16711746
5.3812308 -0.85231572 13.245803 16711746
5.4010353 -0.83236259 13.270824 16711746
5.1888051 -0.80714709 13.098209 16711746
5.3401074 -0.91127998 13.143564 16711746
5.3158007 -0.80805051 13.384054 16711746
5.2995849 -0.87344205 13.3183 16711746
5.8873401 -0.71030712 13.362967 16711746
5.0565143 -0.78418171 13.236323 16711746
5.5221024 -0.87234288 13.251459 16711746
5.0889764 -0.884399 13.319468 16711746
5.1651053 -0.79936892 13.078684 16711746
5.1505771 -0.82981461 13.197518 16711746
5.5250511 -0.93872178 13.054461 16711746
5.2365313 -0.7822994 13.323634 16711746
5.074286 -0.84255028 13.204934 16711746
5.7545109 -0.93838054 13.362585 16711746
5.3852539 -0.85732913 13.246604 16711746
5.4907894 -0.88773704 13.033219 16711746
5.5222588 -0.90059584 13.015514 16711746
5.2493482 -0.82627088 13.147661 16711746
5.1562295 -0.78775758 13.096644 16711746
5.3027802 -0.83337086 13.00791 16711746
5.8407893 -0.75602388 13.213208 16711746
5.3811679 -0.82293981 13.495999 16711746
5.3828735 -0.8322717 13.517029 16711746
5.4281096 -0.98006284 13.100259 16711746
5.3025551 -0.82831681 13.005978 16711746
5.3027883 -0.84629816 13.000754 16711746
5.3582006 -0.82042676 13.232372 16711746
5.2711587 -0.85899192 13.079838 16711746
5.1231661 -0.64568883 12.98292 16711746
5.1621418 -0.80046248 13.055172 16711746
5.162282 -0.80384952 13.089079 16711746
5.1183534 -0.81391138 13.236429 16711746
5.147296 -0.74271762 13.054237 16711746
5.3451838 -0.89654171 13.024504 16711746
5.2691669 -0.87383223 13.245267 16711746
5.1776776 -0.81043345 13.234779 16711746
5.3070927 -0.77096212 13.318548 16711746
5.3264337 -0.72192544 13.341434 16711746
5.5296831 -0.82608771 13.216027 16711746
5.5876865 -0.77904099 13.262684 16711746
5.2942777 -0.8233999 13.254601 16711746
5.7641964 -0.959858 13.149485 16711746
5.0936866 -0.76073527 13.271017 16711746
5.050652 -0.76183724 13.119889 16711746
5.0291004 -0.79578185 13.208987 16711746
5.5140991 -0.81092155 13.19754 16711746
5.3421535 -0.73642457 13.11635 16711746
5.3218412 -0.74949455 13.165186 16711746
5.4912982 -0.82222521 13.238566 16711746
5.4995604 -0.7048797 13.182582 16711746
5.326941 -0.82515216 13.424115 16711746
5.3022809 -0.8176229 13.157914 16711746
5.6441631 -0.84117705 13.252697 16711746
5.4591985 -0.99628764 13.00568 16711746
5.3261929 -0.90408081 13.101364 16711746
5.4576097 -0.99198043 12.993748 16711746
5.1816406 -0.84192801 13.124926 16711746
5.6963072 -0.77497709 13.251534 16711746
5.5045204 -0.81248218 12.967263 16711746
5.5288329 -1.3023723 13.55201 16711746
5.9532199 -0.78130931 13.340784 16711746
5.6204457 -0.85847306 13.163716 16711746
4.7546148 -0.89154088 13.26338 16711746
5.4551473 -0.99335796 13.12203 16711746
5.523387 -0.83152068 12.974311 16711746
5.5519505 -0.86567366 13.101163 16711746
5.8099413 -0.73952633 13.384228 16711746
5.40134 -0.73057765 13.334711 16711746
4.9839387 -0.7591145 13.363659 16711746
5.4792719 -1.0755267 13.071054 16711746
4.8609281 -0.97143018 13.114183 16711746
4.8885417 -1.0164351 13.172585 16711746
5.98037 -0.94361079 13.832236 16711746
4.9099131 -0.97686452 13.150825 16711746
5.5616293 -1.0195607 13.025265 16711746
5.9357724 -2.4092538 14.498632 16711746
5.3527007 -1.0565945 13.189864 16711746
4.835362 -0.96287447 13.231192 16711746
6.0963159 -4.3956227 14.359211 16711746
4.7038751 -1.0008242 13.271945 16711746
4.8903837 -1.0104847 13.163955 16711746
5.9893656 -0.7940352 13.368806 16711746
5.7176042 -1.0865382 13.329762 16711746
5.7565732 -1.3727033 13.542446 16711746
5.841114 -1.4454926 13.342177 16711746
4.9016876 -1.4626588 13.253877 16711746
5.9518909 -0.83765846 13.671331 16711746
5.5835137 -0.90143764 13.122973 16711746
5.8716784 -0.91350627 13.269124 16711746
5.8958158 -0.99658972 13.263966 16711746
5.9337697 -0.80472219 13.357022 16711746
5.8017745 -0.7879408 13.315039 16711746
5.5838242 -0.82948595 13.070091 16711746
5.524478 -1.0186979 13.100191 16711746
5.0063028 -0.80186093 13.505355 16711746
5.7666941 -0.77303189 13.28674 16711746
5.3352757 -0.99212587 13.134818 16711746
5.0656281 -0.93168896 13.353528 16711746
5.3116884 -0.95542771 13.417302 16711746
5.3010821 -0.95529771 13.140862 16711746
5.1111012 -0.92755377 13.345565 16711746
5.4497194 -0.9341628 13.107097 16711746
5.9302588 -0.88393474 13.495725 16711746
5.4608374 -0.89804649 13.657381 16711746
4.9638515 -0.92286897 13.386224 16711746
5.3426528 -0.92374998 13.594892 16711746
5.4347925 -0.95509762 13.320839 16711746
4.802824 -0.85372108 13.251355 16711746
5.4527235 -1.0069103 13.365608 16711746
5.5158677 -1.098439 13.023142 16711746
5.6707029 -0.86161399 13.154295 16711746
5.6870985 -0.76966578 13.446584 16711746
5.9252186 -0.7906146 13.312507 16711746
5.342113 -0.74796599 13.123291 16711746
5.260365 -0.67607021 13.033023 16711746
5.8810577 -0.79556233 13.55359 16711746
5.5657449 -0.80296433 13.34851 16711746
5.5209985 -0.62189978 13.080081 16711746
5.6333332 -0.83443224 13.238321 16711746
6.0501375 -0.8496964 13.530222 16711746
4.7984033 -0.84710509 13.207826 16711746
5.7318516 -0.74133176 13.428011 16711746
5.1637926 -0.7674576 13.123681 16711746
5.1906257 -0.67643523 13.037498 16711746
5.7817049 -0.84064698 13.204292 16711746
5.4046521 -0.95013732 13.326756 16711746
5.2911983 -0.82055265 13.243382 16711746
5.2763829 -0.77741879 13.014057 16711746
5.3843074 -0.809021 13.230792 16711746
5.1003013 -0.64869553 12.984542 16711746
5.2766571 -0.78737438 13.020344 16711746
5.7509084 -0.81204444 13.527292 16711746
5.2463722 -0.74210787 13.069847 16711746
6.2388968 -1.0050349 13.795836 16711746
5.0948682 -0.86138183 13.009781 16711746
5.2852936 -0.89930928 13.076635 16711746
4.6316185 -0.88658059 13.218573 16711746
5.0755668 -0.93404818 13.27119 16711746
6.1647506 -1.1728561 13.430995 16711746
4.9238319 -0.88264388 13.063486 16711746
5.2355886 -1.0450503 13.14295 16711746
5.1204262 -1.0351604 13.098427 16711746
5.3190875 -0.99240416 13.070081 16711746
4.9082503 -0.96419322 13.127553 16711746
4.7250166 -0.97252792 13.230795 16711746
4.8572388 -0.96483374 13.170961 16711746
4.8673778 -0.97500885 13.152712 16711746
4.7291451 -1.1313012 13.287726 16711746
4.7910924 -1.0567524 13.209607 16711746
4.3125954 -2.6911328 13.392053 16711746
5.5507536 -0.89526349 13.099968 16711746
5.5000277 -0.95698279 13.184375 16711746
5.393043 -0.91505998 13.024098 16711746
5.1731715 -0.74243236 13.098927 16711746
5.2907701 -0.85675436 12.984327 16711746
5.3600063 -0.69844264 13.120096 16711746
5.5499215 -0.87113887 13.121052 16711746
5.5241227 -0.86676168 13.058948 16711746
5.3227892 -0.8952691 12.984368 16711746
5.0377092 -0.82294536 13.081127 16711746
5.0874939 -0.79423797 13.140531 16711746
5.160583 -0.78071916 13.089988 16711746
5.4418697 -0.96378624 13.096625 16711746
5.6235752 -0.89427626 13.07376 16711746
5.0043564 -0.73685533 13.054931 16711746
5.3817534 -0.79365206 13.219618 16711746
5.5338783 -0.85658234 13.149848 16711746
5.2528987 -0.77392268 13.102971 16711746
5.0429072 -0.81207663 13.263761 16711746
5.5345654 -0.87401122 13.087107 16711746
5.4339437 -0.97589546 13.05028 16711746
5.3172975 -0.7241658 13.153653 16711746
5.4799943 -0.81315064 12.969012 16711746
5.3081379 -0.66779143 13.089868 16711746
5.5479927 -0.80378801 13.046382 16711746
5.5536299 -0.81586367 13.011002 16711746
5.2417531 -0.93934411 13.020932 16711746
5.267097 -0.8690272 13.060315 16711746
5.2427516 -0.8216728 13.279424 16711746
4.8233294 -0.79793686 13.247064 16711746
5.0346146 -0.82271606 13.121117 16711746
5.5115814 -0.97870076 13.201476 16711746
5.4894862 -0.79878294 12.981935 16711746
5.435605 -0.67540038 13.22719 16711746
5.0772643 -0.83743614 13.196522 16711746
5.3723001 -0.66403931 13.149311 16711746
5.496232 -0.92354721 13.187859 16711746
5.3985405 -0.90436327 13.057721 16711746
5.3309784 -0.86106157 13.10813 16711746
5.5595078 -0.88306201 13.128976 16711746
5.2994614 -0.90146703 13.075462 16711746
5.4494262 -0.83599156 12.967541 16711746
5.4879842 -0.90912217 13.17702 16711746
4.9326324 -0.86677569 13.112068 16711746
5.3996339 -0.91342521 13.063922 16711746
5.0883794 -0.77112436 13.179634 16711746
5.4122758 -0.82001561 13.064926 16711746
5.6823587 -0.97204274 13.180053 16711746
5.0938263 -0.74756187 13.029123 16711746
5.0470033 -0.79411495 13.240601 16711746
5.391151 -0.78907633 13.218334 16711746
5.393909 -1.0633392 13.096149 16711746
5.090621 -0.70460141 13.006574 16711746
5.4030871 -0.93770367 13.001791 16711746
5.9795198 -0.82322091 13.391719 16711746
5.5017214 -0.98087949 13.080569 16711746
6.0064511 -0.89933723 13.912367 16711746
6.0233631 -0.90247959 13.87099 16711746
5.3245525 -0.93530405 13.102901 16711746
5.1930237 -0.87816608 13.082087 16711746
4.8575597 -0.88775378 13.176324 16711746
5.2970438 -0.96158093 13.166488 16711746
4.7185922 -1.0384775 13.046447 16711746
4.7088256 -1.0476612 13.050973 16711746
5.0368519 -0.74928898 13.040633 16711746
4.8562236 -0.88936907 13.182834 16711746
4.7071166 -1.1240083 13.208076 16711746
5.3928418 -0.89016199 12.975508 16711746
5.2016287 -0.87925404 13.019218 16711746
5.5856953 -0.83939397 13.110299 16711746
5.1275067 -0.81024045 13.070061 16711746
4.9459047 -0.83364356 13.137641 16711746
5.2053361 -0.8294999 13.239266 16711746
5.6271563 -0.83930308 13.143247 16711746
5.0225768 -0.90744966 13.161172 16711746
5.2036228 -0.86946911 13.015608 16711746
5.4535012 -0.84977329 12.999119 16711746
5.2784204 -0.8301726 13.071519 16711746
5.0184579 -0.78426981 13.20966 16711746
5.1055999 -0.80578357 13.130657 16711746
5.4480233 -0.89552784 13.108545 16711746
5.2248163 -0.80244547 13.271984 16711746
5.2655368 -0.76790231 13.199106 16711746
5.2798357 -0.69207966 13.130091 16711746
5.2406669 -0.68153679 13.200256 16711746
4.9995804 -0.78044361 13.102718 16711746
5.3688865 -0.68932474 13.123637 16711746
5.3396263 -0.6846441 13.111561 16711746
5.0027676 -0.77768451 13.115667 16711746
5.2703023 -0.88859713 13.046434 16711746
5.4731622 -0.86327118 13.012558 16711746
5.4856181 -0.81713343 12.987602 16711746
5.6115246 -0.7525683 13.0635 16711746
5.2841988 -0.78098065 13.110056 16711746
5.0057993 -0.78879941 13.274632 16711746
5.0163617 -0.8532778 13.232546 16711746
5.2404203 -0.8538484 13.254949 16711746
5.0461669 -0.78060728 13.20039 16711746
5.2646694 -0.79840398 13.172955 16711746
5.264689 -0.74387133 13.174104 16711746
5.0193601 -0.71939147 13.022462 16711746
5.0998578 -0.79051393 13.006161 16711746
5.051466 -0.67852032 13.13689 16711746
5.2514791 -0.7383517 13.134846 16711746
5.2876477 -0.6447435 13.166736 16711746
5.3307886 -0.73556179 13.189337 16711746
5.2646875 -0.7334221 13.16203 16711746
4.9063458 -0.79493302 13.039855 16711746
5.2198033 -0.800717 13.173999 16711746
5.2440243 -0.73879915 13.036964 16711746
5.2610893 -0.78835607 13.207085 16711746
5.2803001 -0.84448993 13.092083 16711746
5.499815 -0.8109858 13.115184 16711746
5.5621424 -0.80920279 13.079942 16711746
5.8197527 -0.90430313 13.169144 16711746
5.1546926 -0.82989007 13.084057 16711746
5.5044761 -0.8331359 13.064111 16711746
4.8886232 -0.78761351 13.130399 16711746
5.2128062 -0.75214458 12.994471 16711746
4.8343072 -0.82208395 13.304302 16711746
5.4908509 -0.92823476 13.151544 16711746
5.3020601 -0.65973067 13.182158 16711746
6.0205355 -0.75846559 13.713348 16711746
6.2223639 -1.0235435 13.866652 16711746
5.0032458 -0.78189665 13.230732 16711746
5.0014644 -0.78202951 13.232541 16711746
5.3115149 -0.92087615 13.092881 16711746
5.9110017 -0.83681667 13.354792 16711746
5.3115096 -0.92057693 13.092873 16711746
5.9427829 -0.8296845 13.570244 16711746
5.1805272 -0.82943004 13.023688 16711746
4.868845 -0.86713511 13.165055 16711746
4.9019809 -0.92892981 13.074483 16711746
5.9341111 -0.86567646 13.812323 16711746
5.8222756 -0.84768677 13.32807 16711746
5.0456567 -0.76953572 13.202374 16711746
5.0793734 -0.94601476 13.064483 16711746
5.5660682 -0.89911765 13.178247 16711746
4.8794856 -0.91425169 13.095342 16711746
4.8119726 -0.96317506 13.106383 16711746
6.2813339 -1.8448945 13.345572 16711746
5.2916903 -0.65396911 12.966941 16711746
5.2615075 -1.0572797 13.383486 16711746
5.2021122 -0.85560763 13.440335 16711746
5.6301699 -1.1904277 13.317413 16711746
5.5322394 -1.1996896 13.19044 16711746
4.856236 -0.99322778 13.435992 16711746
4.6464143 -1.1904123 13.302932 16711746
5.6392612 -0.85283172 13.145234 16711746
4.8450317 -1.0090178 13.451728 16711746
5.186408 -1.0179595 13.22822 16711746
6.0025945 -1.0983845 13.234297 16711746
5.3372688 -1.0841216 13.089214 16711746
5.3594065 -1.1632251 13.200322 16711746
4.5247154 -1.064381 13.348678 16711746
