# .PCD v.7 - Point Cloud Data file format
VERSION .7
FIELDS x y z rgb
SIZE 4 4 4 4
TYPE F F F F
COUNT 1 1 1 1
WIDTH 102
HEIGHT 1
VIEWPOINT 0 0 0 1 0 0 0
POINTS 102
DATA ascii

 0.0104215 -0.0016298 -0.0952026 16777215
 0.0083062 0.0001288 0.0025858 16777215
-0.5613762 -0.8713130 0.2466063 16711746
0.6140622 -0.9772994 0.2438165 16711746
0.5680368 -0.9924675 0.2105971 16711746
-0.6728450 -0.9863395 0.4721353 16711746
0.0916872 -1.7655919 0.1644703 16711746
-0.7934050 -0.8338721 0.4499993 16711746
-0.7769903 -0.8746980 0.4356984 16711746
-0.8161431 -0.8301407 0.4406169 16711746
-0.9032425 -0.8906307 0.4009664 16711746
0.3963604 -1.0429981 0.2611962 16711746
0.5013276 -1.3463951 0.3142596 16711746
0.4677333 -1.5862454 0.1645925 16711746
0.4331913 -1.5252490 0.1347931 16711746
-0.9473969 -1.1547705 0.1693909 16711746
-0.8955734 -0.9935176 0.1423209 16711746
0.4782899 -1.2483743 0.2559956 16711746
-1.0471393 -0.7384920 0.0865502 16711746
-0.9777629 -0.6166997 0.0628752 16711746
-0.8969158 -0.6418736 0.0423807 16711746
-0.9636009 -0.9694685 0.1645925 16711746
-0.6892704 -1.1216816 0.5827382 16711746
-0.5677298 -0.9560198 0.4830917 16711746
-0.7528248 -0.7535065 0.2739645 16711746
-0.7465931 -0.7114351 0.2571158 16711746
-0.9737881 -1.1571591 0.1989186 16711746
-0.9318986 -0.8342772 0.2762867 16711746
-0.9363258 -0.7804807 0.2807220 16711746
-0.9068485 -0.8076125 0.2602150 16711746
-0.6754990 -0.7016615 0.1642657 16711746
-0.7059863 -0.6939147 0.1511986 16711746
-0.9478210 -0.8993288 0.2930773 16711746
-1.0985000 -0.9914638 0.3856138 16711746
-0.7979413 -0.6761764 0.2507027 16711746
-0.3686007 -1.4438341 0.0250587 16711746
-0.2733223 -1.3781247 0.0965136 16711746
0.0572785 -1.5867841 0.0836762 16711746
-0.6794009 -0.8988521 0.3987223 16711746
-0.7083554 -0.8535188 0.3951631 16711746
0.4242969 -1.3682401 0.2863056 16711746
0.4872255 -1.2571403 0.2720034 16711746
0.2137288 -1.1927968 0.2716533 16711746
0.5550466 -1.4229181 0.3855219 16711746
0.0884943 -1.2243333 0.2377692 16711746
-0.0788695 -1.6221577 0.3275556 16711746
0.5848406 -0.9499688 0.2033187 16711746
0.3919908 -0.9193407 0.4805438 16711746
-0.0798018 -1.0789284 0.6030725 16711746
0.3933863 -0.9775531 0.3563516 16711746
0.6396319 -0.8561601 0.3763296 16711746
-0.7269690 -0.8514886 0.2100081 16711746
-0.9957920 -0.7508589 0.1661805 16711746
-0.8480716 -0.6588875 0.2218782 16711746
-0.9345819 -0.8831899 0.1338057 16711746
-0.9945788 -0.6681798 0.1191168 16711746
-0.3378863 -1.2048105 0.1725348 16711746
-0.2625801 -1.2432535 0.2450840 16711746
-0.1588980 -1.4660183 0.2381214 16711746
-0.5494899 -0.9059687 0.1759231 16711746
-0.4750878 -0.8604435 0.2031331 16711746
-0.4402000 -0.9391596 0.2184270 16711746
-0.6227579 -0.9844486 0.0438956 16711746
-0.5609629 -1.4071186 0.0960236 16711746
-0.3785743 -0.8759723 0.1198386 16711746
-0.7746472 -0.9036434 0.4505499 16711746
-0.7565915 -0.7862986 0.3027741 16711746
-0.8539339 -0.7593589 0.3119804 16711746
-0.9067242 -0.9119635 0.4392380 16711746
-0.8653606 -0.9350088 0.4230161 16711746
-0.2006117 -1.0557481 0.5299609 16711746
-0.5809800 -0.9087687 0.4173977 16711746
-0.5836358 -1.2299975 0.6047705 16711746
-0.4963635 -1.2593150 0.5437252 16711746
-0.5286108 -0.8744148 0.5332849 16711746
-0.6380460 -1.0076771 0.5795220 16711746
-0.4701581 -1.1458013 0.6539751 16711746
-0.5597888 -1.0985959 0.6398727 16711746
-0.4575624 -1.1361929 0.6220661 16711746
-0.4193322 -1.1909734 0.3249718 16711746
-0.3337909 -1.2481133 0.4707596 16711746
-0.2972343 -1.3409154 0.5486726 16711746
-0.2332256 -1.2573246 0.4510315 16711746
-0.5436922 -0.9877898 0.2901513 16711746
-0.4548819 -1.0623937 0.3621190 16711746
-0.4552951 -1.0193691 0.3275676 16711746
-0.5916874 -0.9755907 0.3908647 16711746
-0.7726274 -1.0790170 0.4545583 16711746
-0.5169286 -1.1311337 0.4552148 16711746
0.0807796 -1.3976146 -0.0278603 16711746
0.7397863 1.5654432 0.1235931 16711746
-0.9106842 -1.4241874 -0.0461582 16711746
-1.4249504 -1.0006669 0.1362994 16711746
0.0814992 -0.2264351 0.0214226 16711746
-0.2946122 -0.3197481 0.0659806 16711746
-1.4026951 -0.9832131 0.1337503 16711746
0.0816206 -0.2271418 0.0214835 16711746
0.0824307 -4.9170632 0.3992335 16711746
-0.4296491 -2.5061026 0.2168129 16711746
-0.5754992 -3.6577840 0.2488122 16711746
-1.6379644 -13.0855675 -1.5717045 16711746
-0.8455601 -4.9239407 0.0026274 16711746
