# .PCD v.7 - Point Cloud Data file format
VERSION .7
FIELDS x y z rgb
SIZE 4 4 4 4
TYPE F F F F
COUNT 1 1 1 1
WIDTH 171
HEIGHT 1
VIEWPOINT 0 0 0 1 0 0 0
POINTS 171
DATA ascii

 1.5397283 -2.0927749 7.4838524 16777215
 0.0296053 -0.0387048 0.1199186 16777215
-1.4760894 -1.3087198 0.0953948 16711746
-1.5974897 -1.3566062 0.0473269 16711746
-0.4709694 -0.8332213 0.1128322 16711746
-0.6463322 -1.0876476 0.2157671 16711746
-0.8585520 -1.1989473 0.0256652 16711746
-0.5705661 -0.8514692 0.0506264 16711746
0.3346044 -0.8765253 0.4120107 16711746
-0.3801274 -0.8210538 0.0697722 16711746
-0.5253077 -1.1243287 0.1086286 16711746
-4.1848273 -3.0626581 0.5279655 16711746
-1.2465185 -1.2308255 0.1401134 16711746
-0.0146917 -0.7879460 0.2836904 16711746
0.0031452 -0.6478428 0.2503278 16711746
-0.6950207 -0.8664867 0.0286259 16711746
-0.6022164 -1.0783838 0.2241592 16711746
-0.6330878 -1.1035352 0.1831570 16711746
-0.4082970 -1.0494906 0.2159340 16711746
-0.3136633 -1.0270964 0.2588077 16711746
-0.2733629 -1.0244459 0.2495830 16711746
-1.1700338 -1.2185130 0.0793469 16711746
-1.1718351 -1.2719352 0.0200337 16711746
-1.1497568 -1.2351522 0.1236911 16711746
-0.1690345 -1.0089463 0.3152820 16711746
0.2711161 -0.9766322 0.7278822 16711746
-0.3978130 -1.2685286 0.5973532 16711746
-0.4594074 -1.3501672 0.5886133 16711746
-1.1490865 -1.6892101 0.3292594 16711746
-0.9141094 -1.5097810 0.5723137 16711746
-0.4312316 -1.0145061 0.3426423 16711746
-0.5297107 -0.6610700 -0.0480562 16711746
-0.8218319 -0.9232971 -0.1399923 16711746
-0.0803245 -0.7847754 0.3140034 16711746
-0.0855908 -1.0049042 0.3565503 16711746
-0.2387746 -1.3327563 0.6310121 16711746
0.1338960 -1.0880514 0.5007663 16711746
0.0798795 -0.7892445 0.3653985 16711746
0.0146704 -0.7843300 0.2393636 16711746
0.0613359 -1.0096232 0.3049701 16711746
-0.5255219 -0.8449548 0.0638851 16711746
-0.4735152 -0.8369986 0.0611449 16711746
-0.0855730 -0.9075757 0.6382993 16711746
-0.1534057 -1.0027252 0.3575192 16711746
0.1703891 -0.8327321 0.5017076 16711746
0.1726962 -0.6801101 0.4245746 16711746
-1.1520653 -1.7267779 0.2005246 16711746
-0.3900761 -0.8013949 0.0778195 16711746
-0.4705918 -1.4498372 0.3521814 16711746
-0.3591950 -0.7898896 0.2652434 16711746
-0.2943863 -1.0397887 0.1503767 16711746
-0.9677429 -1.1306731 -0.1190943 16711746
-0.5819219 -0.8139622 0.0263774 16711746
-0.2272106 -0.9946564 0.3871492 16711746
-0.0424823 -0.7863082 0.3150382 16711746
-0.1420893 -0.9879007 0.4304721 16711746
-0.0621779 -1.0438982 0.4547947 16711746
-0.4398690 -0.8349354 0.1467859 16711746
-1.2025938 -1.2844434 -0.0090097 16711746
-0.1088625 -0.7877738 0.2016026 16711746
-0.0953370 -0.7863962 0.1955661 16711746
-0.4951908 -1.4895200 0.2394270 16711746
-0.1017045 -1.0302104 0.4807700 16711746
-0.0608834 -1.0364403 0.4926148 16711746
-0.1113936 -0.9847469 0.4535050 16711746
-1.1613537 -0.9735808 -0.1123274 16711746
-0.3869697 -0.8148921 0.1650185 16711746
-7.7434006 -5.1131592 -0.0870892 16711746
-0.2454168 -0.7863219 0.3556076 16711746
-0.5972527 -0.8089955 0.2219365 16711746
0.3778135 -0.8858439 0.4717164 16711746
0.3332177 -0.8772117 0.4516763 16711746
-0.2150437 -0.9566499 0.4990444 16711746
-1.0778666 -1.1803176 -0.0553215 16711746
0.0141003 -0.9981326 0.4624186 16711746
0.1525182 -0.7822832 0.2768872 16711746
0.0177972 -0.6330567 0.3877186 16711746
-0.2674828 -1.3065343 0.6813684 16711746
-0.3455319 -1.2895170 0.6997539 16711746
-0.3187453 -0.8845847 0.5922898 16711746
-0.0563953 -0.7874457 0.2872043 16711746
-0.5090813 -0.8423825 0.0471750 16711746
-1.1031792 -1.1690011 0.2598771 16711746
-1.3132972 -1.3218399 -0.0581831 16711746
-1.1672292 -1.2042578 -0.0757072 16711746
-0.4163924 -0.8218445 0.1429298 16711746
-3.2958510 -2.6494901 0.4380142 16711746
-1.4666712 -1.2493011 0.2609141 16711746
-1.2343247 -1.2536311 0.1173367 16711746
-0.4262415 -1.0364509 0.3397604 16711746
-0.1405887 -0.8056471 0.2950200 16711746
-0.3666359 -0.7483377 0.3286782 16711746
-0.4444819 -0.8280844 0.0196750 16711746
-0.9563196 -1.6230457 0.3111091 16711746
-0.0855075 -0.7667270 0.2650153 16711746
-0.3987034 -0.8070568 0.1086968 16711746
-0.1567868 -1.3161802 0.6935133 16711746
-0.0983763 -0.9667557 0.5152971 16711746
-0.5931703 -1.0863819 0.1181401 16711746
-1.7354949 -1.3715938 0.0498881 16711746
0.2519542 -0.7889229 0.3543812 16711746
0.1716133 -0.8466583 0.4231576 16711746
0.2369947 -1.0234379 0.4261070 16711746
0.1727055 -0.8473649 0.3532921 16711746
-0.0463453 -1.0090833 0.2717738 16711746
-0.9945332 -1.2296493 0.0355152 16711746
0.4403677 -0.8992805 0.4925935 16711746
-0.0542028 -1.0501450 0.4227556 16711746
0.0759206 -1.0123378 0.3755750 16711746
0.0001742 -1.0072215 0.3807146 16711746
0.0187446 -0.8226328 0.2976902 16711746
-0.4132697 -0.8257774 0.0471675 16711746
-1.4593412 -1.8681197 0.2572253 16711746
-0.8435847 -1.1657619 0.1407878 16711746
-0.4498757 -0.8482843 0.6787922 16711746
-3.8303988 -3.2713976 1.9838161 16711746
0.2576811 -0.8592969 0.3535888 16711746
0.2064534 -0.7903242 0.3489672 16711746
-0.4362125 -0.8098975 0.0959183 16711746
-0.4032337 -0.8248779 0.0949443 16711746
-1.5991532 -1.9292668 0.1654588 16711746
-1.0968791 -1.5601538 0.4895058 16711746
-0.2879698 -0.9884985 0.5129316 16711746
-0.8498744 -1.1921178 0.0545464 16711746
-0.7323769 -0.8705603 0.0234237 16711746
-0.4996657 -1.4726775 0.2721190 16711746
-0.1091371 -1.0096291 0.2992598 16711746
-0.1652593 -1.4115700 0.3462297 16711746
0.2916566 -1.0046057 0.6648384 16711746
0.2127916 -0.9859737 0.6595076 16711746
-0.1019816 -1.3202852 0.7078627 16711746
0.1539160 -1.0083673 0.5243379 16711746
0.3381489 -0.8714145 0.5263048 16711746
-0.1776942 -0.9502362 0.6264626 16711746
-0.4557924 -1.3147870 0.6530070 16711746
-0.6656577 -0.8652822 0.1313601 16711746
-0.6787578 -1.1035092 0.1398471 16711746
-0.4760005 -1.0444065 0.2712401 16711746
-0.6947562 -1.5378522 0.2987836 16711746
-0.8055032 -1.4903113 0.4510864 16711746
-0.1927489 -0.9651334 0.5953519 16711746
-0.5439502 -1.2672137 0.7270634 16711746
0.4050521 -0.8902640 0.5051827 16711746
-0.2465142 -1.0258857 0.2149310 16711746
-1.0886031 -1.4756941 0.5951402 16711746
-9.6515188 -6.2729378 -0.4266353 16711746
-0.3679290 -1.3451848 0.5914353 16711746
21.4581184 -303.1150818 99.1981583 16711746
4.4865141 -19.3905678 17.3309383 16711746
-4.7760472 -25.7591896 22.0770302 16711746
-173.8863068 -178.0950317 -29.6829548 16711746
-52.3272247 -196.0019989 124.9629135 16711746
16.9507122 -21.7502575 23.8799076 16711746
-2.0334697 -13.3123322 10.3189926 16711746
18.5831852 -123.7709427 71.4521027 16711746
-57.1790619 -212.3926392 135.0652771 16711746
-12.1866417 -302.2155457 122.1443253 16711746
33.2586136 -229.0729828 132.3558350 16711746
-48.8816071 -168.1588593 137.9898834 16711746
8.5944443 -105.1913071 110.2097397 16711746
35.9655609 -110.7206726 120.2038651 16711746
31.4493046 -249.4265594 102.0211945 16711746
-61.5745049 -203.7223206 156.5222321 16711746
50.6277161 -295.2921753 118.0423813 16711746
46.3034286 -260.1932678 103.8952103 16711746
-3.4947579 -174.5836182 61.7887840 16711746
-230.7579651 -258.7999878 -26.6345978 16711746
-179.6474609 -186.9667511 -18.8412571 16711746
43.6050186 -230.9830780 106.7382812 16711746
10.9384632 -184.7486115 120.6427002 16711746
-81.3336639 -356.9109497 84.8254700 16711746
