# .PCD v.7 - Point Cloud Data file format
VERSION .7
FIELDS x y z rgb
SIZE 4 4 4 4
TYPE F F F F
COUNT 1 1 1 1
WIDTH 75
HEIGHT 1
VIEWPOINT 0 0 0 1 0 0 0
POINTS 75
DATA ascii

-0.8670357 -0.2558363 0.4093411 16711746
-0.4162568 -0.4016950 0.7528603 16711746
-1.0970247 -1.0302588 0.1893742 16711746
-0.4855041 -0.4354464 0.1767606 16711746
-0.4758255 -0.4413146 0.3540812 16711746
-1.1632913 -0.7335418 0.2098489 16711746
-0.3392723 -0.6111261 0.3787356 16711746
-0.9076722 -0.4498027 0.1664184 16711746
-0.2050750 -0.6859666 0.8356399 16711746
-0.1518000 -0.4678748 0.9096053 16711746
-1.1295151 -0.7398011 0.3530429 16711746
-1.0642740 -0.7481316 0.4995500 16711746
-1.0655935 -0.5485492 0.6239305 16711746
-0.9147494 -0.5888757 0.8232809 16711746
-1.1504982 -0.8839518 0.1466994 16711746
-1.1533591 -0.6619639 0.2261663 16711746
-1.1557010 -0.5677364 0.3990415 16711746
-0.8368707 -0.7345264 0.8235914 16711746
-0.4841576 -0.4431507 0.3647215 16711746
-0.8675883 -0.4985222 0.9204552 16711746
-0.7744194 -0.4745140 1.0122657 16711746
-0.7817034 -0.4923091 0.9954314 16711746
-0.8255384 -0.5977667 0.9027492 16711746
-4.4139781 -3.3888454 4.6143880 16711746
-0.4267139 -0.3295853 0.5166893 16711746
-0.3039031 -1.3071749 0.8122361 16711746
-1.1632998 -0.7271158 0.2461297 16711746
-3.3083200 -6.8707190 3.3774996 16711746
-2.7122798 -4.8555775 4.2941675 16711746
-1.0238556 -0.5565576 0.6877719 16711746
-1.0815619 -0.4866691 0.6435918 16711746
-1.0853689 -0.6202817 0.1549061 16711746
-1.0070900 -0.4281183 0.2876033 16711746
-0.0529104 -0.4549371 0.4530889 16711746
-0.5047083 -0.6652361 0.9495449 16711746
-0.9615710 -0.5861890 0.7657608 16711746
-1.1612823 -0.6396791 0.2857978 16711746
-1.1409620 -0.5583440 0.3141524 16711746
-0.9887926 -0.5203828 0.1590433 16711746
-1.1002381 -0.8353112 0.3497773 16711746
-1.0337543 -0.5201819 0.6951026 16711746
-0.9956614 -0.3345658 0.4222361 16711746
-1.0597841 -0.3798410 0.4371446 16711746
-0.2902689 -0.4470671 0.4946872 16711746
-0.7234759 -0.7539486 0.8748940 16711746
-0.7254456 -0.5866871 0.9682570 16711746
-2.3367038 -2.7136478 4.4393802 16711746
-0.5778142 -0.5863587 1.0040729 16711746
-1.0701075 -0.6658415 0.5383914 16711746
-1.1423124 -0.4938468 0.4909372 16711746
-0.8941241 -0.3401287 0.2946452 16711746
-0.8216681 -0.6552941 0.8752883 16711746
-1.0679815 -0.6169534 0.5737747 16711746
-0.7046662 -0.7782781 0.8689250 16711746
-0.5482988 -0.7492588 0.9072369 16711746
-0.9391375 -0.7213529 0.7306916 16711746
-2.7961700 -2.0860319 4.5023212 16711746
-0.8119118 -0.5235751 0.9542547 16711746
-1.1139061 -0.3912689 0.6082763 16711746
-1.1126258 -0.4519083 0.6107143 16711746
-6.5256262 -5.6993752 3.0976603 16711746
-0.3937879 -1.0351381 0.8194091 16711746
-0.5947078 -0.3318638 0.4175906 16711746
-0.2259421 -0.4596235 1.0005494 16711746
-1.0375260 -0.7276899 0.5685191 16711746
-1.1020458 -0.3965818 0.6667733 16711746
-0.7476492 -0.2529101 0.5632356 16711746
-1.4533051 -0.5472376 0.7287527 16711746
-0.7568861 -0.6967745 0.8912147 16711746
-0.9254306 -0.5415083 0.8345641 16711746
-0.9560706 -0.5769131 0.7778251 16711746
13.3713808 -205.0604858 67.4548264 16711746
17.7718906 -213.2257996 114.0491257 16711746
5.6010494 -9.0449181 13.0765553 16711746
-12.5634365 -20.3891830 7.8578954 16711746
