# .PCD v.7 - Point Cloud Data file format
VERSION .7
FIELDS x y z rgb
SIZE 4 4 4 4
TYPE F F F F
COUNT 1 1 1 1
WIDTH 78
HEIGHT 1
VIEWPOINT 0 0 0 1 0 0 0
POINTS 78
DATA ascii

-0.0506871 1.5800511 0.4742299 16711746
0.7659631 -0.9891552 -0.0601617 16711746
0.5697262 -1.0840101 0.2026337 16711746
0.3626421 -1.0763054 0.1474412 16711746
0.5163299 -1.1444381 0.1019099 16711746
0.8156478 -1.0149046 -0.0075642 16711746
0.4063748 -0.9881142 0.0405685 16711746
0.4627424 -1.1878860 0.4076153 16711746
0.0329046 -1.4706970 0.6770630 16711746
0.7684044 -1.1542655 0.4093799 16711746
0.7738208 -1.2009616 0.3859464 16711746
0.6824771 -1.1341628 0.3319536 16711746
0.4581830 -1.1946923 0.2939816 16711746
0.6900287 -1.0844060 0.1800358 16711746
-0.1391629 0.0708113 -0.0724111 16711746
-0.5789264 1.6930854 0.5561566 16711746
-0.6640871 1.6506158 0.3664663 16711746
0.8788707 -1.2164515 0.6714804 16711746
0.1984433 -1.3357068 0.6085490 16711746
0.0940717 -1.3796030 0.6932870 16711746
0.3784332 -1.2844090 0.4623091 16711746
0.2088831 -1.3742023 0.8826150 16711746
0.5989273 -1.1129286 0.1821246 16711746
0.2885628 -1.0858546 0.0658362 16711746
0.2711351 -1.2120631 0.2620789 16711746
0.3748107 -1.1646811 0.3040680 16711746
0.2742089 -1.2349324 0.3049771 16711746
0.5555053 -1.1160111 0.2672774 16711746
0.2188863 -1.2940190 0.2340800 16711746
-29.5930653 -129.1019745 4.4141693 16711746
-50.3120384 -148.7399445 -13.0549583 16711746
4.0239134 -25.8086510 9.1166992 16711746
-126.2826385 -119.0620041 -33.1556473 16711746
-61.9864044 -152.2071228 5.2735105 16711746
-52.7886009 -139.7854462 -43.0724106 16711746
-52.4148521 -98.7908249 -43.1487961 16711746
4.5007048 -29.2190952 10.3555517 16711746
-58.4664764 -135.6007538 -60.2621155 16711746
3.2490759 -20.8191929 7.3417516 16711746
7.4130378 -81.9566269 19.5902271 16711746
-0.4652988 -89.2552567 -1.6642318 16711746
12.7167511 -94.6848831 13.9207401 16711746
7.2139177 -108.4294815 -10.7635117 16711746
-91.6721649 -136.4761963 -50.3316422 16711746
-53.5090523 -100.9319763 -44.1027603 16711746
-5.3237453 -82.1936264 23.8694115 16711746
-0.3454089 -109.6784286 -2.1307321 16711746
3.7629566 -60.8804207 -3.2968776 16711746
-74.7841415 -130.5567322 -4.2879720 16711746
-90.7306595 -126.9172592 -37.1712074 16711746
-54.9033966 -135.5943756 -28.3423767 16711746
-28.2413044 -143.8339233 -12.8144560 16711746
22.6486664 -101.1203384 -8.0763006 16711746
-68.9639816 -121.8710938 -45.6849709 16711746
-79.8330154 -149.0079346 -7.3345447 16711746
-59.8137207 -172.3062134 -11.6209908 16711746
-97.8756409 -150.0739899 -38.7628365 16711746
-104.4034424 -146.3301697 -44.8227615 16711746
30.4081478 -135.6576843 8.0738277 16711746
-42.9696350 -113.8771896 18.5417900 16711746
8.3472748 -34.3388367 16.7233982 16711746
-95.3681946 -125.5777435 49.0080795 16711746
8.7178698 -84.8387527 16.8855648 16711746
-33.8462029 -148.1449280 -24.0253029 16711746
-23.2293873 -120.5788727 -22.4504414 16711746
-46.2516594 -77.8895493 -0.1347182 16711746
-38.0497894 -88.1989136 -26.4251957 16711746
-116.6583328 -151.2190399 -29.1616192 16711746
5.8176694 -121.6775894 -27.3744869 16711746
-25.2166882 -87.9986191 -14.0275784 16711746
-75.7602997 -191.8994446 -59.8583946 16711746
23.1637497 -228.5157166 -52.2833672 16711746
-5.5605111 -112.1391983 1.2216613 16711746
5.3418961 -35.9595795 8.2316113 16711746
-82.9162979 -167.0755310 -58.6823616 16711746
8.7912188 -37.8520889 10.3811884 16711746
36.8506393 -104.5154037 1.6476724 16711746
-55.3219948 -133.1632233 -34.5564079 16711746
