# .PCD v.7 - Point Cloud Data file format
VERSION .7
FIELDS x y z rgb
SIZE 4 4 4 4
TYPE F F F F
COUNT 1 1 1 1
WIDTH 103
HEIGHT 1
VIEWPOINT 0 0 0 1 0 0 0
POINTS 103
DATA ascii

0.1206173 -0.7526501 0.6882758 16711746
-0.1098898 -1.2224485 1.2406880 16711746
0.0032809 -0.5500193 0.6670842 16711746
0.2666820 -0.7363030 0.6608009 16711746
0.7788728 -0.8706725 0.7438793 16711746
0.9661998 -1.1693612 1.2977095 16711746
2.0802503 -2.7138600 2.8828073 16711746
0.2060283 -1.1368254 0.6483278 16711746
0.1991201 -1.2748426 0.5896595 16711746
0.8071692 -0.9367438 0.7354361 16711746
0.0760598 -0.7064060 0.6893840 16711746
-0.1135075 -0.4655504 0.5997207 16711746
0.2940909 -1.7186226 1.1832378 16711746
0.1087070 -1.2121024 0.6476982 16711746
0.4471998 -0.7811693 0.8500803 16711746
0.0272308 -1.4124362 2.8123264 16711746
0.1137892 -0.6219236 1.2077310 16711746
0.2775891 -0.8970274 1.0421941 16711746
0.1394619 -0.9073883 0.6968561 16711746
-0.8678100 -0.4536820 0.9708485 16711746
-1.3327348 -1.3305058 2.0031614 16711746
-0.0248163 -1.0638529 0.8884470 16711746
-0.0070787 -0.8648841 0.7307577 16711746
0.0214853 0.0993847 -0.1662790 16711746
0.0194476 0.8493526 -1.7266306 16711746
0.9494334 -1.3873551 1.4953470 16711746
0.3082838 -0.8087956 0.9275960 16711746
0.0724174 -1.4063941 2.0164931 16711746
-0.1593244 -0.5115723 0.6225782 16711746
-0.2148837 -0.5662964 0.7872430 16711746
-0.1051130 -0.6874243 0.6335291 16711746
0.1686161 -0.7971132 0.6854135 16711746
0.7837408 -1.0394884 0.7660769 16711746
0.2938927 -1.1156586 1.0600208 16711746
0.2092755 -1.2350571 1.1220893 16711746
0.5681107 -0.7347329 1.1314217 16711746
-0.0652835 -1.2804261 2.6665738 16711746
-0.0343174 0.2151677 -0.4435432 16711746
0.2130370 -2.7277491 3.0006731 16711746
0.0459591 -0.8997624 1.0428118 16711746
-0.0276982 -0.9806530 0.7332422 16711746
0.4858826 -0.7567124 0.8219337 16711746
0.5121009 -0.8358375 0.8422722 16711746
0.1958519 -0.7148059 0.8877172 16711746
-2.0925367 2.2275579 -3.8019674 16711746
0.4539327 -0.6047408 1.0331894 16711746
0.1590896 1.0448824 -2.4794531 16711746
-0.0437455 -0.2337704 0.5459929 16711746
-0.6834666 -1.0650699 2.3595870 16711746
-0.6873672 1.0882812 -2.3836699 16711746
-0.5639033 -0.7510836 0.8759786 16711746
-0.6728411 -0.5368162 0.9670279 16711746
0.0147468 -0.9642750 0.7237315 16711746
0.0297091 -1.0678738 0.8413520 16711746
-0.0010102 -0.6741239 0.9350686 16711746
0.2208183 -0.6994212 0.8748833 16711746
0.9259468 -2.1109598 2.1198175 16711746
-0.2800421 -0.7887567 0.8398444 16711746
0.2547971 -0.5129609 0.7620182 16711746
0.2827739 -0.7603952 0.9044393 16711746
0.0515117 -0.5329420 0.6427616 16711746
0.0656440 -0.9489654 1.0586753 16711746
0.0173105 -0.4390000 0.6105099 16711746
0.7854919 -0.8048398 1.1194957 16711746
0.8222997 -0.8860216 1.1627594 16711746
0.2616153 -0.8330349 0.9437750 16711746
0.1153945 -0.8446617 0.7682358 16711746
-0.2475790 -0.8139265 0.8198019 16711746
0.2888366 -1.2926288 1.2589524 16711746
-0.4119430 -0.9777950 2.1611693 16711746
-0.0329294 -1.3407794 2.0267203 16711746
0.1313553 -0.9450574 1.5922470 16711746
-0.9766816 -1.6313297 2.4725778 16711746
-0.1893801 0.5366200 -1.3508400 16711746
-1.2736776 1.0522752 -2.2040622 16711746
0.6915733 -0.8429908 1.1800667 16711746
1.5319241 -1.3790410 1.8947177 16711746
-0.0010280 -0.5651770 0.6740803 16711746
0.0161694 -0.9890814 1.0990033 16711746
-0.0090981 -0.7571242 0.9922432 16711746
0.0594845 -0.6431699 0.6780995 16711746
-0.2414043 -0.7353320 0.8218845 16711746
-0.2654876 -0.7778367 0.8327023 16711746
0.0170865 -0.6079215 0.6808598 16711746
0.0294987 -0.8717137 1.0359020 16711746
-0.2152317 -0.7448795 0.8065567 16711746
0.2159318 -0.5100898 1.0135591 16711746
-0.4836719 0.7305536 -1.3917574 16711746
0.0035200 -0.8600487 0.7276850 16711746
-0.0397250 -0.8858988 0.8996971 16711746
0.2323294 -1.9204119 1.4690650 16711746
0.2624737 -1.1237289 1.2046573 16711746
0.0000327 -0.6207500 0.7670193 16711746
0.0723318 -0.6719840 0.8954304 16711746
-0.0751177 -1.5220729 2.1540544 16711746
0.2898588 -0.6546155 0.6333303 16711746
3.2469404 -3.0341964 4.0941486 16711746
0.2432069 -0.6675555 0.8542464 16711746
0.0040003 -0.6552407 0.6982538 16711746
0.2077697 -0.5533776 0.6335772 16711746
0.3246804 -1.0474062 1.0924729 16711746
-0.8380082 -5.2718096 13.4972553 16711746
4.6679850 -23.6539021 19.7157917 16711746
