# .PCD v.7 - Point Cloud Data file format
VERSION .7
FIELDS x y z rgb
SIZE 4 4 4 4
TYPE F F F F
COUNT 1 1 1 1
WIDTH 104
HEIGHT 1
VIEWPOINT 0 0 0 1 0 0 0
POINTS 104
DATA ascii

 1.5617386 -2.0823312 6.9198751 16777215
 0.1785983 -0.0551884 0.1453389 16777215
0.0013408 0.4828643 -0.4433254 16711746
0.0426076 0.7492915 -0.2741990 16711746
0.3691879 -0.7619141 0.9452464 16711746
0.3105229 -0.8551447 0.8282375 16711746
0.3580241 0.8867921 -1.0550123 16711746
0.0860550 -0.8933034 0.8656979 16711746
-0.0771957 -0.9900699 1.1598731 16711746
0.2292002 -0.9034021 0.7294063 16711746
0.2828796 -0.9143087 0.4255392 16711746
0.2704272 -0.9257405 0.6520230 16711746
0.2132447 -0.9131021 0.5039853 16711746
0.2319317 -0.9394037 0.7928061 16711746
0.2692339 -0.9035875 0.7260966 16711746
0.2541454 -0.8941159 0.7525662 16711746
-0.5245357 -1.0237865 0.1949030 16711746
0.2531625 -0.9307275 0.6280252 16711746
-0.0370467 -0.8827187 0.2661398 16711746
0.2596239 -0.9425155 0.5723433 16711746
0.1477809 -0.9197516 0.8423234 16711746
0.0925524 -1.0087825 0.8915465 16711746
-1.0054126 -0.7047429 1.3158915 16711746
0.1769355 -0.9178733 0.4107650 16711746
0.7240366 -0.8967669 0.6808581 16711746
-0.0848615 -0.8876650 0.8611340 16711746
-0.0309964 -0.8849815 0.3437007 16711746
0.1979076 -0.8484273 0.9644833 16711746
0.1729415 -0.8578042 0.9513381 16711746
-0.3871993 -1.0128198 0.1982497 16711746
-0.6276296 -1.0487956 0.1890340 16711746
-1.5291772 -1.2923985 0.2059531 16711746
-0.2833965 -0.9389281 0.1821607 16711746
-0.6835021 -0.9966705 0.1063399 16711746
-0.2611163 -0.9271997 0.3691678 16711746
0.1671535 -1.0348364 0.5731494 16711746
-0.3913476 -0.9496937 0.4344878 16711746
0.2228252 -0.8790231 0.7891576 16711746
0.1937786 -0.8626413 0.8354053 16711746
0.2744346 -0.9198869 0.8522664 16711746
0.1497506 -0.9828135 0.9564494 16711746
0.1634680 -0.8696855 0.8234233 16711746
-0.0794750 -0.8883972 1.0101134 16711746
-0.1239504 -0.9279472 1.1591992 16711746
0.0747980 -0.8272288 0.7777560 16711746
0.3079639 -0.9923092 0.9868709 16711746
0.3183987 -0.9504744 0.3873293 16711746
-0.6036451 -1.0526588 0.1038306 16711746
-0.4937815 -0.9504868 0.1054139 16711746
0.0931907 -0.8320320 0.8683795 16711746
0.1233281 -1.0518055 0.8911934 16711746
0.0472409 -0.9295864 0.6059901 16711746
-0.7507777 -1.1009568 0.2039733 16711746
-0.9063179 -1.0756844 0.0653061 16711746
0.0146530 -0.9113123 0.4570571 16711746
0.1736133 -0.8995663 1.3173921 16711746
-0.1404987 -0.8794059 1.2336410 16711746
-0.3640861 -1.0529457 1.0148852 16711746
-0.2850907 -0.9111278 0.8601891 16711746
0.3564241 0.4770136 -0.2892523 16711746
0.0310824 0.5393202 -0.7651506 16711746
-0.7771313 -0.9528279 -0.0118210 16711746
-1.1782075 -1.2699194 -0.0437248 16711746
0.0695928 -0.9177533 0.4521925 16711746
0.3177353 -0.9069850 0.3564821 16711746
0.2348606 -1.0607134 1.3023951 16711746
0.3851994 -0.9028811 0.4459256 16711746
0.1887711 -0.8434082 0.7683850 16711746
0.3170489 -0.8353665 0.6622149 16711746
-0.0565233 -0.9120350 0.3241630 16711746
0.0881078 -0.8659548 0.7809132 16711746
-0.3648350 -0.9504412 0.4681760 16711746
0.2542380 -0.8851025 0.7741010 16711746
-0.0941340 -0.8718203 1.0261768 16711746
-0.1994490 -0.9953607 1.1659104 16711746
0.0467719 -0.9678761 0.4152713 16711746
0.1814423 -0.9724301 0.9722897 16711746
0.2611863 -0.7884819 0.9189937 16711746
0.2463279 -0.9497513 0.5361908 16711746
0.1024539 -0.9203138 0.4109677 16711746
0.2069154 -0.8883927 0.3482686 16711746
0.2689277 -0.8808383 0.6496899 16711746
0.3105220 -0.8638156 0.8058715 16711746
0.3988278 -0.9319371 0.8204816 16711746
-0.0779665 -0.8745214 1.0279003 16711746
-0.1471811 -0.9871272 0.8684318 16711746
0.1510101 -0.9474609 0.7791715 16711746
0.0757333 -0.9479624 0.5574704 16711746
0.0426907 -0.9414234 0.5543457 16711746
0.4632839 1.1511841 -1.0429629 16711746
-0.8927940 -1.1484900 1.5817622 16711746
-0.3965401 -0.8545659 1.0922320 16711746
-0.3284188 -0.9725399 0.4334318 16711746
0.6922131 -0.7991548 0.4475563 16711746
0.1567749 -0.8264276 1.0054020 16711746
-0.3739075 -0.9957404 0.4254205 16711746
0.1788887 -0.9729218 0.9987198 16711746
0.0935927 -0.9331372 0.7815158 16711746
0.1233059 -0.8894528 0.3996363 16711746
0.0687954 -1.0197190 0.5695767 16711746
-0.3489256 -0.9000872 0.6394967 16711746
-1.5717415 -1.0354892 1.3920152 16711746
-0.5282327 -0.7155269 1.0870246 16711746
-0.3756332 -0.8667464 0.6695954 16711746
