# .PCD v.7 - Point Cloud Data file format
VERSION .7
FIELDS x y z rgb
SIZE 4 4 4 4
TYPE F F F F
COUNT 1 1 1 1
WIDTH 121
HEIGHT 1
VIEWPOINT 0 0 0 1 0 0 0
POINTS 121
DATA ascii

-0.3431193 -0.9984423 0.2195762 16711746
-0.3902957 -1.1228169 0.2077119 16711746
0.3442390 -1.0749316 0.5910222 16711746
-0.1668113 -0.7680825 1.0732412 16711746
-0.2978238 -0.7801433 0.9396418 16711746
-0.1526458 -1.0410746 0.3430445 16711746
-0.0376785 -1.1300714 0.4226395 16711746
-0.0609531 -1.0139210 0.5239414 16711746
0.1496911 -1.1564583 0.3968616 16711746
0.2499527 -1.1381468 0.4571597 16711746
-0.3526362 -0.9305225 0.1880307 16711746
-0.3950992 -0.9799649 0.1755238 16711746
-0.8063301 -0.4823712 0.8605757 16711746
-0.5104503 -0.6797459 0.9429628 16711746
0.1138976 -1.0598625 0.6318908 16711746
0.1050003 -1.0641813 0.6218228 16711746
-0.7126008 -0.7720983 -0.0494241 16711746
-0.6326231 -0.5041031 1.1125292 16711746
-0.5858041 -0.5262073 1.0666696 16711746
-0.6123504 -0.5269368 1.0629841 16711746
0.0153339 -0.9006296 0.8054956 16711746
0.0514771 -0.9079362 0.7951782 16711746
0.3485763 -1.0141592 0.7000479 16711746
-0.5666758 -0.9109846 0.1711194 16711746
-0.6639529 -0.8755366 0.2069607 16711746
-1.1147217 -0.2919843 0.4128937 16711746
-0.6314265 -0.5061761 0.9288083 16711746
-0.5036616 -0.4518127 1.0525151 16711746
-0.4097515 -0.7128537 0.6718969 16711746
-0.5675045 -0.8810140 0.0210252 16711746
-0.7208279 -0.8830646 0.3342059 16711746
-0.9772815 -0.3989678 0.4686731 16711746
-0.7010853 -0.7958430 -0.0053083 16711746
-0.3956387 -0.8639696 0.1611841 16711746
-0.4164224 -0.9715135 0.1668413 16711746
0.0523362 -0.9417388 0.5308072 16711746
-0.1800526 -1.1208674 0.4162240 16711746
-0.5405983 -0.9049639 0.0664304 16711746
-0.5829237 -1.0491529 0.1085302 16711746
-0.7556958 -0.7217319 0.0805467 16711746
-0.4462433 -0.6370546 0.8844848 16711746
-0.6515091 -0.5449862 0.8366436 16711746
-0.6144258 -0.5944309 0.8988146 16711746
0.2981198 -1.1062083 0.5308044 16711746
0.0001234 -1.0114553 0.7501278 16711746
-0.4783657 -0.9367990 0.0782304 16711746
-0.7875983 -0.6702507 0.1427307 16711746
-0.2627328 -0.8242449 0.6402347 16711746
0.3094860 -1.0988044 0.5460663 16711746
0.3097684 -1.0613244 0.5226669 16711746
-0.5245484 -0.9399739 0.7551209 16711746
-0.5924383 -0.7461265 0.5995531 16711746
-0.1619277 -0.8238560 0.9612325 16711746
-0.1418174 -0.5388556 1.1605785 16711746
0.2676160 0.3713788 -0.8453665 16711746
-0.1023508 0.3008300 -0.9510441 16711746
-1.0059234 -0.4345385 0.5153036 16711746
-1.1449993 -0.2656266 0.4476214 16711746
-0.5663015 -0.8721567 -0.0153589 16711746
-0.2470266 -0.9690025 0.5670304 16711746
-0.1144969 -0.9712991 0.4595931 16711746
-0.3763090 -0.9867035 0.1599277 16711746
-0.4391280 -1.1118441 0.2353796 16711746
-0.5758414 -1.0338044 0.0369913 16711746
0.0768400 -1.0701444 0.4288660 16711746
-0.0905961 -0.9738749 0.3010075 16711746
-0.0532467 -1.1475199 0.3605280 16711746
0.3537738 -1.0908645 0.5583763 16711746
0.3792077 -1.0544301 0.5389121 16711746
-0.6173242 -0.8034443 0.1116849 16711746
-0.6018472 -0.8112525 0.1107249 16711746
-0.1667645 -0.9981446 0.2329989 16711746
-0.5292156 -0.8078937 0.7718153 16711746
-0.9994194 -0.3442015 0.4691195 16711746
-1.0226485 -0.3732669 0.3803046 16711746
-0.7168561 -0.7968507 0.0258696 16711746
-0.6351389 -0.7784689 0.0261280 16711746
-1.0423506 -0.4883401 0.2100054 16711746
-0.9808983 -0.4337012 0.3886155 16711746
0.2437284 -1.0909473 0.5651104 16711746
-0.4736398 -0.6081051 1.1279064 16711746
-0.2733085 -0.5224708 1.0854820 16711746
-0.2942184 -0.4774801 0.9870150 16711746
-0.0569403 0.3313802 -0.9942642 16711746
-0.2801985 -0.8311904 0.6357332 16711746
-0.3212281 -0.9230092 0.6972249 16711746
0.0242302 0.4537327 -0.9885968 16711746
0.1337285 0.3433932 -0.8994473 16711746
0.1861703 0.3806151 -0.8945062 16711746
-0.3343538 -1.1340139 0.2238426 16711746
-0.4950559 -0.8699955 0.2002667 16711746
-0.6319550 -0.8149975 0.2880011 16711746
-0.3243954 -0.9317706 0.7033107 16711746
-0.8972694 -0.4862574 0.4664053 16711746
-0.6217551 -0.8804578 0.1405544 16711746
0.2460401 -1.1723894 0.5711078 16711746
-0.3302438 -0.9473267 0.7140278 16711746
-0.1517156 -1.1743276 0.5611992 16711746
-0.1450499 -0.9817016 0.3824576 16711746
-0.0910931 -0.9567060 0.3779964 16711746
-0.3135138 -0.9102198 0.4696696 16711746
-0.3334103 -0.9737974 0.4828427 16711746
-0.0103158 0.3322315 -0.9051374 16711746
-0.4420190 -0.5405100 1.0533146 16711746
-0.4120004 -0.9702061 0.1159084 16711746
-0.4123422 -0.9683656 0.0956622 16711746
-0.1452912 -1.0246595 0.4253759 16711746
-0.5453724 -0.8992401 0.0500528 16711746
-0.6098007 -0.9007533 0.2191040 16711746
-0.3344523 -0.9328687 0.6946737 16711746
-0.7800712 -0.7438370 -0.0081359 16711746
-0.1973556 -0.9806609 0.5518547 16711746
78.6809692 -198.4261322 137.9896088 16711746
15.4898252 -273.8511353 148.8694153 16711746
-1.8498852 -233.5920715 151.8289642 16711746
0.7389534 -162.2010345 172.5593414 16711746
51.2910805 -198.2716064 164.5598297 16711746
-181.0957031 -280.9338684 203.0818176 16711746
0.5682039 -153.4214935 163.3115845 16711746
17.6629333 -196.5141602 128.9108276 16711746
-2.3624811 -5.5957012 7.7010193 16711746
