# .PCD v.7 - Point Cloud Data file format
VERSION .7
FIELDS x y z rgb
SIZE 4 4 4 4
TYPE F F F F
COUNT 1 1 1 1
WIDTH 88
HEIGHT 1
VIEWPOINT 0 0 0 1 0 0 0
POINTS 88
DATA ascii

 1.5064946 -2.1244476 8.1948605 16777215
 0.0071349 -0.0173254 0.1097948 16777215
0.3118371 -0.7879605 0.7237689 16711746
-2.0534976 -2.1984732 -0.2889386 16711746
-0.7291539 -1.5647826 0.1582978 16711746
-0.7814943 -1.5615973 0.2248982 16711746
-1.4309425 -1.6810625 0.0385741 16711746
0.3076884 -0.9870635 0.4622329 16711746
0.1864658 -0.9529421 0.6162170 16711746
-0.1255305 -1.0801375 0.4558991 16711746
-1.4111642 -1.9413340 0.1829723 16711746
-1.3250004 -1.6713583 -0.0997704 16711746
0.2548994 -0.7359064 0.6988958 16711746
-0.5639555 -1.4176568 0.2689495 16711746
-0.5443068 -1.2676120 0.2197863 16711746
0.2306208 -0.9077706 0.5841221 16711746
-1.0474027 -1.8602087 0.0718119 16711746
-1.1912032 -1.6970241 -0.0832195 16711746
0.2439757 -0.8810297 0.4892659 16711746
0.2268045 -0.9215427 0.5070820 16711746
-1.9160415 -1.7138894 -0.2444794 16711746
-0.4109290 -1.1983169 0.2361032 16711746
-0.9760437 -1.5746824 -0.0436885 16711746
0.1246429 -1.0564141 0.5231765 16711746
-0.0487613 -0.9030648 0.4989133 16711746
0.0861756 -1.1102228 0.4112959 16711746
-0.1326363 -1.0121071 0.3642724 16711746
-0.0372307 -1.1918385 0.4529688 16711746
0.4204180 -0.7621936 0.5452647 16711746
0.2764749 -0.8557653 0.5766743 16711746
0.2728707 -0.9271351 0.5951788 16711746
0.3823202 -0.8230571 0.5731470 16711746
0.2382533 -0.9942991 0.5236608 16711746
-0.7800335 -1.4980284 0.3285375 16711746
-0.3004872 -1.2710875 0.2617607 16711746
0.0963939 -0.7284267 0.6262520 16711746
0.0624919 -0.8098019 0.6777717 16711746
0.4330787 -0.6771718 0.6059681 16711746
-1.3405738 -1.7811391 -0.1083899 16711746
0.2880598 -0.8358199 0.6895060 16711746
-0.4479570 -1.1840534 0.2724148 16711746
-1.8656043 -2.0552435 -0.1316654 16711746
0.5771688 -0.7884724 0.4311447 16711746
0.2926672 -0.9056534 0.4899261 16711746
0.2667643 -0.7898455 0.5163507 16711746
0.1711328 -0.8003448 0.6643092 16711746
-0.1050050 -0.9509301 0.5927064 16711746
0.4068026 -0.7768182 0.6982576 16711746
-1.7700984 -1.8326746 -0.4217181 16711746
-0.4642531 -1.3798598 0.2345464 16711746
-0.3666334 -1.3061548 0.2771222 16711746
-0.5538005 -1.3784769 0.3275903 16711746
0.2790671 -0.8962287 0.4176891 16711746
0.2701952 -0.9106660 0.3918761 16711746
0.1520159 -1.0514970 0.5079252 16711746
-0.1966129 -1.0178000 0.5779594 16711746
0.3786123 -0.8224878 0.6613531 16711746
0.4088515 -0.8213463 0.6459264 16711746
0.3236335 -0.7984537 0.6277660 16711746
-0.7944188 -1.4285710 0.1228658 16711746
0.3127798 -0.8874555 0.3871695 16711746
-0.6020518 -1.2749494 0.2022759 16711746
-0.5515591 -1.1500480 0.1880069 16711746
0.1740822 -0.9417760 0.5068516 16711746
-0.6181248 -1.3074224 0.1243140 16711746
-0.7368006 -1.3323191 0.1959749 16711746
0.3535182 -0.8514088 0.5445198 16711746
-0.1796173 -1.1180799 0.4520860 16711746
0.0407080 -0.9501224 0.5282981 16711746
-0.1032912 -1.0646340 0.4841541 16711746
-0.0736122 -0.9990827 0.5509187 16711746
0.1557205 -1.0400541 0.4541237 16711746
0.0873063 -0.9881813 0.4382821 16711746
-0.8820916 -1.4135525 0.1412838 16711746
-1.6746235 -1.7549908 0.1042637 16711746
-0.6446835 -1.2974123 0.2520510 16711746
0.3578588 -0.8835318 0.4816903 16711746
0.2127084 -0.9941334 0.5453851 16711746
5.0916462 -61.0915756 40.2241058 16711746
-1.1520061 -48.0572243 71.7837982 16711746
-50.1529083 -119.6913071 101.8048630 16711746
-0.2979871 -9.6094351 10.3787041 16711746
1.2854389 -64.2664490 60.6163788 16711746
-12.6187553 -31.7765751 25.9887543 16711746
-32.5341072 -296.8138428 104.7272186 16711746
-0.2560167 -9.8173819 10.5208912 16711746
-3.5001259 -51.3127899 102.4515076 16711746
-0.2389936 -5.9686842 8.7594070 16711746
