# .PCD v.7 - Point Cloud Data file format
VERSION .7
FIELDS x y z rgb
SIZE 4 4 4 4
TYPE F F F F
COUNT 1 1 1 1
WIDTH 242
HEIGHT 1
VIEWPOINT 0 0 0 1 0 0 0
POINTS 242
DATA ascii

 -0.0105790 0.0010985 -0.0826192 16777215
 0.6832057 0.8712645 2.0130143 16777215
0.8533989 -1.0587353 1.4567459 16711746
1.1653327 -1.2181478 2.1291187 16711746
1.2471416 -1.3264172 2.3363550 16711746
1.4414865 -0.9598674 1.3564839 16711746
1.5855807 -1.0107477 1.4783496 16711746
0.9428151 -1.1941606 2.6666417 16711746
0.3684163 -1.3790220 2.2638268 16711746
1.1779093 -1.0198857 2.0039582 16711746
1.2411041 -1.0102609 1.8463694 16711746
1.2016635 -1.0262628 1.9541608 16711746
1.0256041 -0.9289822 1.6267624 16711746
1.0294110 -0.9996472 2.2466292 16711746
0.9668521 1.2102398 2.5364318 16711746
1.0705488 -1.0976201 2.3384132 16711746
1.0687957 -1.2350103 2.3580327 16711746
1.0840191 -1.3116729 2.6359055 16711746
-0.0741294 -1.3135039 3.0234244 16711746
-0.0603497 -1.3300807 2.9492629 16711746
0.5555013 -1.2530402 1.9214584 16711746
0.5896521 -1.2346760 1.8667601 16711746
1.4760371 -1.1442593 2.4737146 16711746
1.7599583 -1.0887740 2.3184226 16711746
1.2579519 -1.2582788 1.8771409 16711746
1.1299577 -1.1891432 1.6960645 16711746
1.2274200 -1.1541656 2.0458705 16711746
1.2177960 -1.1799980 2.0389435 16711746
0.6306765 1.1605123 2.0317991 16711746
1.0054111 1.1777906 2.4113967 16711746
1.0505680 -1.0703062 2.3617415 16711746
0.9717826 -1.0614725 2.3527727 16711746
1.0430894 -1.0826181 2.3915980 16711746
1.6834857 -0.9378592 1.2172819 16711746
2.3062978 -1.1185908 1.8049629 16711746
1.4493078 -0.9106879 1.2363411 16711746
1.7914145 -1.0162885 1.6376659 16711746
1.8051944 -1.0098802 1.5473114 16711746
2.0667245 -1.0945548 1.8835909 16711746
0.1119499 -1.3592244 2.7023520 16711746
1.8149298 -1.1574790 1.5348266 16711746
1.1617596 -1.1274042 2.1316254 16711746
1.1026480 -1.1675367 2.2833176 16711746
0.9007865 -0.9935516 1.7651662 16711746
-0.7219673 -1.3866949 2.7042260 16711746
-0.1277200 -1.5207256 2.8883529 16711746
0.1897760 -1.1614965 2.7257438 16711746
0.7007703 -1.2066931 1.8740662 16711746
0.8265828 -1.1436632 2.8979752 16711746
1.6907747 -1.0992893 2.1701787 16711746
1.2523454 -0.9839352 1.7908932 16711746
1.6882136 -1.1240096 2.2295413 16711746
1.7070278 1.1726413 1.6702971 16711746
1.3869874 0.2955451 2.2093673 16711746
0.8339793 -1.4120394 2.8368757 16711746
1.6506658 -1.0683348 2.2029791 16711746
-0.1327929 -1.5990084 2.8536551 16711746
0.2554270 -1.4270552 2.3963475 16711746
0.1166352 -1.4987922 2.5105133 16711746
1.0655963 -1.0516163 2.3039610 16711746
1.1078155 -1.0465666 2.1980352 16711746
1.0784179 -1.0703179 2.2960248 16711746
0.8324025 -1.4782677 2.7888646 16711746
0.7336726 -1.4843652 2.7527647 16711746
1.0888484 -0.9884773 1.3199250 16711746
1.3155366 -1.1349267 1.7427926 16711746
-0.0144831 -1.1298681 2.9935184 16711746
0.0589495 -1.1265564 2.9022288 16711746
-0.0832853 -1.1513186 3.0642393 16711746
1.1292108 1.1285138 1.7103167 16711746
1.2543480 1.1428678 1.7055681 16711746
1.7567499 1.1726421 2.3559468 16711746
1.0402327 1.1734961 2.4331422 16711746
0.8911620 -1.0613879 2.6425629 16711746
-0.0082910 -1.4486167 2.7909696 16711746
0.5166398 -1.2667338 2.1457512 16711746
0.4454335 -1.3112887 2.2172742 16711746
0.4704712 -1.2862978 2.0727768 16711746
0.4965337 -1.0308658 2.3665481 16711746
0.5220856 -1.0034926 2.2238803 16711746
0.4600042 -1.0329129 2.3681834 16711746
1.1494318 -1.0395131 2.0908906 16711746
1.1548283 -1.0491935 2.0869744 16711746
0.5066483 -1.2837406 1.9885581 16711746
0.9732453 -1.1406149 2.5873618 16711746
0.7424077 -0.9912355 1.9854766 16711746
1.6285540 -1.1127390 2.4263885 16711746
1.6357803 -1.1223773 2.4266469 16711746
1.1795748 -0.9979221 1.9719502 16711746
1.1957817 -0.9704480 1.8814455 16711746
1.1647617 -0.9865324 1.9819070 16711746
1.7327819 -0.9705102 1.2996587 16711746
-0.0097663 -1.0693568 2.9303241 16711746
0.2023481 -1.1130111 2.7188776 16711746
0.1953446 -1.1280410 2.7267218 16711746
1.0205737 -1.0188496 2.3270075 16711746
1.3334104 -1.1005679 1.6767348 16711746
-0.0067711 -1.5131168 2.7135661 16711746
0.8444605 -1.1800209 2.8799207 16711746
0.5897431 -1.0302351 2.1915753 16711746
0.2801429 -1.1776936 2.5935190 16711746
1.0602114 -1.0170941 2.2535131 16711746
0.7775477 -0.9161927 1.8922124 16711746
-0.1381029 1.5698847 2.4706361 16711746
1.8336004 -1.1416378 1.7736802 16711746
1.4337860 -1.0131314 1.4136541 16711746
1.5306109 -1.1244271 1.8892142 16711746
1.2865664 -1.0543644 1.7666355 16711746
1.3001620 -1.0661949 1.7400264 16711746
0.9550669 -1.3016014 2.6107535 16711746
0.9105929 -1.3399432 2.6981027 16711746
0.3067862 -1.1999464 2.5424914 16711746
0.0094344 -1.5555667 2.6427317 16711746
0.4524026 0.5135521 2.6217391 16711746
0.1045558 -1.0492768 2.7780058 16711746
1.1046199 -1.1019092 2.2561414 16711746
1.1225784 -1.1038705 2.2114782 16711746
-0.0988451 -1.1756411 3.0967052 16711746
0.0566250 -1.1484952 2.9047909 16711746
0.3553094 -1.2501316 2.3619521 16711746
0.8553219 0.4054787 2.7679403 16711746
0.4090744 -1.0207781 2.4237049 16711746
0.8480832 -1.2449030 2.8762426 16711746
0.7787908 -1.1115493 2.9435966 16711746
0.9201000 1.2593529 2.7254815 16711746
0.7375461 1.0750934 2.0109909 16711746
-0.6065254 -1.2688421 2.5772200 16711746
0.3243227 -0.9437540 1.8792815 16711746
0.0980007 -1.1572157 1.9666958 16711746
0.9821299 1.2261742 2.6292663 16711746
0.9902951 1.1985973 2.5173132 16711746
0.2395838 -1.3938069 2.4665425 16711746
0.1951820 -1.4347109 2.4883871 16711746
0.0885758 -1.2334644 2.8302090 16711746
0.0338709 -1.2695240 2.8863673 16711746
1.3882215 -1.0500835 1.5346781 16711746
1.3530281 -1.0597464 1.6153356 16711746
0.1084825 -1.2336111 2.8028946 16711746
1.7572513 -0.9637402 1.3572201 16711746
1.7780626 -0.9774961 1.4392102 16711746
1.7859846 -0.9839692 1.4491233 16711746
-0.7057803 -1.1710531 2.1058650 16711746
0.8765088 -1.2440745 2.8130426 16711746
0.8347558 -1.2441270 2.6945384 16711746
0.5381072 -1.1591145 2.2165809 16711746
0.4404508 -1.2567041 2.2887959 16711746
0.3068841 -1.3654866 2.3892002 16711746
1.1425604 -1.0913904 2.1522696 16711746
1.0925099 -1.1519741 2.3064697 16711746
0.9228163 -1.1050873 2.7889941 16711746
0.8785747 -1.1010585 2.7521582 16711746
0.8385720 -1.3024800 2.8835888 16711746
0.5879572 -1.1142690 2.1676495 16711746
0.2742596 -0.9606188 1.9491186 16711746
0.0476409 -1.3856860 2.7725775 16711746
0.1670654 -1.2536418 2.7084837 16711746
0.1716105 -1.2702799 2.6662922 16711746
-0.0797397 -1.0872329 3.0375526 16711746
0.0043990 -1.0748483 2.9324148 16711746
1.7104785 -1.1347128 1.3637989 16711746
0.2663799 -1.2796117 2.5429306 16711746
0.4916671 -1.1041871 2.3198924 16711746
0.0714104 -1.3139637 2.7998846 16711746
-0.0365653 -1.1337644 2.1457031 16711746
-0.0535801 -1.3851703 2.9173660 16711746
-0.1326154 -1.4112753 3.0047655 16711746
0.9718995 1.2442123 2.7111013 16711746
0.9020154 -1.0462744 2.5699701 16711746
1.0169472 1.2142789 2.6110392 16711746
0.3474436 -1.0175103 1.8166603 16711746
-0.1715897 -1.1530128 2.3340828 16711746
0.1124831 -1.0609707 2.8004630 16711746
0.0423859 -1.2292565 2.8962636 16711746
0.0535643 -1.1684934 2.9041872 16711746
0.0079980 -1.1869133 2.9519973 16711746
0.9708975 1.1042857 1.9955434 16711746
0.8241088 1.2842034 2.3974726 16711746
0.9792125 1.1922966 2.4368584 16711746
0.3172735 1.4231853 2.6726656 16711746
0.6524078 1.1593444 2.1074319 16711746
0.3698534 1.3879945 2.5395286 16711746
0.3180317 1.4191502 2.5939357 16711746
1.4853351 1.2020258 2.2150495 16711746
1.5411754 1.1800059 2.1358457 16711746
1.5111636 1.1833779 2.0514700 16711746
1.5607524 1.1732101 1.8948082 16711746
1.5368621 1.1785568 2.0760162 16711746
1.4340876 1.2248600 2.3190105 16711746
2.4239886 1.2091763 1.6634252 16711746
2.4506235 1.2053030 1.7056499 16711746
1.0885116 1.1130174 1.7672285 16711746
1.0515242 1.0929452 1.9479996 16711746
1.6377506 1.1672286 2.2026012 16711746
1.2226807 1.1543125 1.5914940 16711746
1.5680424 1.1761092 2.1753571 16711746
1.0400585 1.1026676 1.7858019 16711746
1.0501592 1.0993735 1.8363657 16711746
1.1395253 1.3235399 1.9470389 16711746
1.1229297 -1.2269380 2.2264979 16711746
0.8355865 -1.0596396 1.5191168 16711746
0.9543728 -1.3405427 2.1832087 16711746
1.0196902 -1.4469972 2.3227420 16711746
0.7273923 -1.0775771 1.7977855 16711746
1.4420248 -0.9622576 1.1686537 16711746
1.4273059 -1.0458122 1.4407479 16711746
1.6976334 -1.0297610 1.2831663 16711746
1.8271748 -1.0673245 1.5392405 16711746
1.4209328 -1.0012980 1.4397572 16711746
1.7846599 -1.0215814 1.4079723 16711746
1.1328992 -1.0281669 1.7850257 16711746
1.1903781 -1.1227932 2.0917819 16711746
1.2497513 -1.1002769 1.8994190 16711746
1.2550013 -1.0377216 1.8336174 16711746
1.5415511 -1.0424919 1.6925410 16711746
1.2907791 -1.0065607 1.7275021 16711746
1.2754486 -1.0391184 1.7850082 16711746
1.2803408 -1.1848322 1.8885037 16711746
1.2550489 -1.0198513 1.2602764 16711746
1.4005040 -1.1623868 1.5362004 16711746
1.2265182 -1.0576490 1.5572935 16711746
1.1373985 -1.1252241 1.8004248 16711746
1.3987385 -1.0726399 1.5180041 16711746
1.2495536 -1.0202723 1.3105327 16711746
1.0651889 1.1214982 2.1999485 16711746
0.9399728 0.4356858 2.4046383 16711746
1.0192194 -1.0434558 2.3890469 16711746
2.2886889 -1.0970546 1.8039123 16711746
1.8231798 1.1678146 1.8935797 16711746
1.0083708 -0.9721708 2.1018960 16711746
1.2031177 -0.9628724 1.8442323 16711746
1.1263388 -0.9796392 2.0328770 16711746
1.6675758 -1.0365714 2.0045462 16711746
1.2216024 -0.9568900 1.7908200 16711746
1.1479293 1.1096835 1.9680439 16711746
1.6425723 1.1599150 1.8459059 16711746
1.7999521 -1.0529631 1.7306160 16711746
1.8287973 -1.0569273 1.6000087 16711746
1.3897015 -0.9647363 1.4754829 16711746
1.7823149 -1.0140723 1.4012970 16711746
1.3759849 -0.9780630 1.5178564 16711746
1.1467057 -0.9999946 2.0456274 16711746
1.2542865 -0.9674474 1.7584002 16711746
