# .PCD v.7 - Point Cloud Data file format
VERSION .7
FIELDS x y z rgb
SIZE 4 4 4 4
TYPE F F F F
COUNT 1 1 1 1
WIDTH 87
HEIGHT 1
VIEWPOINT 0 0 0 1 0 0 0
POINTS 87
DATA ascii

1.2571809 -1.4525534 -0.7746928 16711746
0.3142908 -0.9596189 -0.6167822 16711746
0.2675711 -0.9769037 -0.6346800 16711746
-0.2984186 1.8247777 0.3963488 16711746
0.0881704 -0.7676072 -0.4927312 16711746
0.2016976 -0.9623405 -0.6337046 16711746
0.0840646 -0.9166458 -0.6184913 16711746
0.7500905 1.9984815 0.6051191 16711746
0.6104100 1.9048076 0.6626320 16711746
0.4725127 -1.1756269 -0.7505773 16711746
-0.6102176 -1.1377221 -0.5727590 16711746
-1.3081226 1.5144134 0.6551612 16711746
-1.1475687 1.5150952 0.7245820 16711746
-0.1372465 -1.5210677 -0.5986356 16711746
-0.0566160 1.9431829 0.4830018 16711746
0.0867517 1.9593718 0.4378694 16711746
0.0132096 -1.2070656 -0.5777981 16711746
-0.2309046 1.9422803 0.6343938 16711746
-0.3394254 1.9588580 0.7094734 16711746
-1.3726457 1.4220258 0.6938142 16711746
0.1361094 -1.2642494 -0.6213939 16711746
0.5582134 -1.2002826 -0.6579022 16711746
0.5132954 -1.3662422 -0.7336478 16711746
0.6218235 -1.1929137 -0.7364348 16711746
-0.3004140 -1.1707566 -0.4403312 16711746
-0.3932833 -1.1209332 -0.4365583 16711746
-0.4153626 1.9287287 0.5218081 16711746
-0.6628941 -0.8576190 -0.5154837 16711746
-1.5884836 1.5848627 0.3045752 16711746
-0.3451798 -1.0535321 -0.4337859 16711746
-0.4312347 -1.1691319 -0.5433961 16711746
-0.1123290 -1.1886752 -0.5922118 16711746
-0.1902626 -0.9890588 -0.5274302 16711746
-1.1689566 1.8041949 0.6693295 16711746
1.0504270 -1.4481235 -0.7091128 16711746
-1.1467063 1.6373881 0.3666052 16711746
-0.4456185 -0.6844094 -0.5221247 16711746
-0.7083999 -0.8230827 -0.4634063 16711746
-0.4915888 -0.9364833 -0.5636024 16711746
-0.4243063 -0.8231300 -0.5525748 16711746
1.0149366 1.9200674 0.6138155 16711746
1.0067316 1.9163584 0.6431246 16711746
-0.2089836 -1.1354283 -0.5297776 16711746
-0.3922862 -0.9975648 -0.6901282 16711746
-0.2955217 -0.7483570 -0.5588425 16711746
0.7919610 -1.2051190 -0.6856351 16711746
0.7298949 -1.1927289 -0.6836262 16711746
0.7813659 -1.1824837 -0.7049300 16711746
-0.6168556 -1.1663785 -0.4447940 16711746
-0.5018399 -1.0083122 -0.4240225 16711746
0.5735359 -1.2053778 -0.5574434 16711746
0.6318449 -1.2187279 -0.6352771 16711746
-0.0018549 -1.0451206 -0.6007365 16711746
-1.3333629 1.5712179 0.5753234 16711746
-0.1081533 -0.9671738 -0.6592035 16711746
0.5592314 -1.3829268 -0.5949296 16711746
-0.9901281 1.5745021 0.7051768 16711746
-0.5200185 -0.9390910 -0.4955225 16711746
-0.4937867 -0.8075615 -0.4759130 16711746
0.8261198 -1.1806514 -0.6125177 16711746
-0.5408395 -1.3288059 -0.6204029 16711746
0.3265578 2.1124494 0.7778112 16711746
-0.4748881 -0.9915149 -0.5034332 16711746
-0.4487713 -0.8391693 -0.4994056 16711746
-0.8738474 1.6973644 0.3224260 16711746
-0.2870581 1.8309201 0.6997061 16711746
-0.1723382 1.8676679 0.7386672 16711746
0.2115172 -0.9779802 -0.5880222 16711746
0.0932923 -0.9415442 -0.5689091 16711746
0.1528506 -1.5371902 -0.6720230 16711746
0.9562063 -1.1836538 -0.7644035 16711746
-0.0369657 -0.8937426 -0.5578377 16711746
-0.0260967 -0.8799211 -0.6026691 16711746
-0.2199520 -0.8126862 -0.5523413 16711746
-0.1912267 -0.8032187 -0.5733296 16711746
-0.2513078 -0.9777687 -0.4639125 16711746
-0.3400078 -1.1213900 -0.5418963 16711746
-0.7931610 1.8023034 0.6104618 16711746
-0.5638595 1.7264760 0.5793841 16711746
-0.8664972 1.6731654 0.5357788 16711746
-0.2333809 -0.9255067 -0.5905108 16711746
-0.2905023 -0.8899304 -0.5716177 16711746
0.5592052 -4.2526135 -0.6893448 16711746
-44.6107674 -15.2983599 -0.2671792 16711746
-5.8406916 -12.9513569 -5.2471023 16711746
12.8835707 -42.3349342 -15.4698553 16711746
24.1064701 -50.8453026 -18.2797489 16711746
