# .PCD v.7 - Point Cloud Data file format
VERSION .7
FIELDS x y z rgb
SIZE 4 4 4 4
TYPE F F F F
COUNT 1 1 1 1
WIDTH 285
HEIGHT 1
VIEWPOINT 0 0 0 1 0 0 0
POINTS 285
DATA ascii

 1.5562032 -2.0957787 7.3538566 16777215
 0.0169617 -0.0225547 0.0800207 16777215
0.7063481 -1.1190232 1.0039488 16711746
0.2025668 -0.3360791 0.3426218 16711746
-0.1329433 -1.1338105 1.3921533 16711746
0.0351778 -1.0016351 1.3208792 16711746
-0.4452665 -1.7902861 0.3093125 16711746
0.1326614 -0.6090336 0.4557332 16711746
-0.3003959 -1.0417382 0.5863863 16711746
0.0521428 -1.5282130 1.5241491 16711746
-0.0549750 -1.5947194 1.5304621 16711746
-1.3565817 1.2934270 -1.9460088 16711746
-1.6135564 1.2322834 -2.1379347 16711746
0.4022373 -1.1739811 1.4213901 16711746
-0.3578106 -0.5705252 0.8531218 16711746
-0.3815390 -0.6403966 0.8518830 16711746
-1.1258142 1.0144430 -1.9736739 16711746
-0.0594661 -0.8475098 1.3955300 16711746
-0.0464400 -0.3173230 0.5138807 16711746
-0.0483933 0.6581996 -1.1033300 16711746
-0.1200983 -0.3961851 0.1442789 16711746
-0.2201341 -0.7283809 0.1534388 16711746
-0.0771923 -1.2113564 1.3471273 16711746
0.7180298 -1.5686754 0.9162789 16711746
0.2530016 -1.0144141 0.3835755 16711746
-0.1597857 -1.3907412 0.6973488 16711746
-0.0932681 -1.3440855 0.6796210 16711746
0.2679572 -0.5558988 0.2450566 16711746
-0.3719343 -1.7277606 0.3888971 16711746
-0.1130654 -0.6531034 0.1888664 16711746
0.1163352 -0.3217178 0.2501182 16711746
0.2305315 -0.7589107 0.4893938 16711746
0.2430797 -0.7051518 0.4559821 16711746
0.1163733 -1.3000941 0.4324483 16711746
0.2679263 -1.2049489 0.4515834 16711746
0.0557462 -1.4378742 0.3547757 16711746
0.2696344 -0.7700526 0.3789162 16711746
0.3741529 -1.8491081 1.1306731 16711746
0.2241146 -0.5963334 0.4605925 16711746
-0.4672667 -1.2484113 1.0511628 16711746
-0.0900807 -0.3210906 0.1273821 16711746
-0.2090175 -0.9266529 0.6269543 16711746
1.0010105 -1.4813793 1.0702446 16711746
0.0224011 -0.2093573 0.2614702 16711746
0.2635566 -1.3302339 1.4976597 16711746
0.1316753 -0.6312784 0.6745878 16711746
0.2053819 -1.1316942 0.4148845 16711746
0.6220023 -0.7910529 0.9178132 16711746
-0.6902906 -0.9004552 0.1068721 16711746
-0.2874269 -0.4144754 0.0825145 16711746
0.1702347 0.4260969 -0.7916933 16711746
-0.1234303 -1.2932956 1.7566597 16711746
0.0542557 -1.1290313 1.7591496 16711746
0.2131180 -1.8815366 1.1993870 16711746
-0.3330874 -1.1318252 1.0777940 16711746
-0.5891442 0.9780839 -1.5749975 16711746
-0.6556275 -1.0484852 0.6548051 16711746
0.6727135 -1.3827078 1.0740050 16711746
0.2379207 -0.4769240 0.3714083 16711746
-1.0603024 -1.7093124 0.1393762 16711746
0.2252470 -0.5152110 0.4179627 16711746
-0.2885470 -1.4428582 0.7460417 16711746
0.3280735 -1.3416405 1.1418535 16711746
0.1917956 -1.2033874 0.3785111 16711746
0.7431825 -0.9256287 0.8524050 16711746
0.2551028 -0.2971671 0.3129918 16711746
-0.7891826 -1.8137616 0.4450090 16711746
-0.8159750 -1.8265787 0.4276162 16711746
0.1568651 -1.1554292 0.4961170 16711746
0.2007717 -0.8681220 0.5457683 16711746
-0.0888448 -0.6332310 0.1859374 16711746
0.3815048 -1.0357450 1.4826514 16711746
-0.6385046 1.3525351 -2.0550110 16711746
0.1288122 -0.4064418 0.1970287 16711746
0.1066601 -1.3901917 0.3226443 16711746
-0.7533938 -0.8787891 0.0213168 16711746
0.1886754 -1.1077598 0.8784282 16711746
-0.7284814 -1.5472592 0.0295576 16711746
-0.2971513 -0.7724026 0.7573081 16711746
1.1353252 -1.3456582 0.6440507 16711746
0.0984007 -1.0102568 0.6831925 16711746
0.0642807 -1.0708823 0.7031715 16711746
0.2719121 -0.4653857 0.3325702 16711746
-0.0657186 -0.7475564 0.6031767 16711746
-0.0668191 0.5605118 -1.0885109 16711746
0.0771208 0.4095117 -0.8503375 16711746
-0.3688422 -1.2028620 1.0392803 16711746
-0.4275755 -1.5368654 0.7217864 16711746
-0.1807988 -0.6633741 0.3311533 16711746
0.1912547 -0.4936214 0.4691738 16711746
0.1627712 -0.2490064 0.3031783 16711746
0.7194276 -0.7813876 0.7613808 16711746
0.1845354 -1.2090427 0.7708291 16711746
-0.3850413 -1.9262186 0.7611334 16711746
-0.0590006 -1.3576723 0.6275734 16711746
0.0668260 -1.0092862 1.2991438 16711746
-0.0239190 -0.1720789 0.2308664 16711746
-0.0443769 -1.4053265 1.2758447 16711746
-0.6438026 -1.7758547 0.4646579 16711746
-0.1981872 -0.7089393 0.1254749 16711746
-0.1336064 -0.6691272 0.1386748 16711746
-0.1538824 -0.6724206 0.6890002 16711746
-0.2084915 -0.7806861 0.6978294 16711746
0.2052733 -0.3987651 0.3767928 16711746
0.2079457 -0.4596314 0.4140117 16711746
0.1500309 -0.7592822 0.6536170 16711746
-0.1569987 -1.5494978 0.4946665 16711746
0.2513908 -1.1332874 0.4117432 16711746
-0.2955869 -1.4168547 0.7799764 16711746
1.0441452 -1.2829943 0.7501171 16711746
-0.0113754 -0.3003084 0.2642295 16711746
-0.0706057 -0.8018462 0.5939317 16711746
-0.0114945 -1.8085601 0.4217361 16711746
-0.0812296 -1.5156800 0.4548931 16711746
0.2306115 -0.7851129 0.4905936 16711746
0.1268796 -0.2242564 0.2880686 16711746
0.1686410 -0.2556483 0.3213636 16711746
0.2437896 -0.3431276 0.3234996 16711746
-0.1033011 -0.3930599 0.2495118 16711746
-0.3330907 -0.7881501 0.3201611 16711746
-0.3638879 -1.0700254 0.5828542 16711746
0.5376785 -1.2050066 1.2453407 16711746
0.1264367 -0.2735172 0.3779780 16711746
0.1277747 -0.2317847 0.3236644 16711746
-0.0930743 -1.4251202 0.5907713 16711746
-0.1438110 -1.4607319 0.6015518 16711746
-0.0901202 -0.3899089 0.1317844 16711746
-0.5026523 -1.4081101 0.9065308 16711746
-0.2990505 -0.3821631 0.2153452 16711746
-0.5685334 -1.2084129 0.3999417 16711746
-0.2699404 -2.0821126 0.3916108 16711746
1.0366739 -1.9586494 0.7010777 16711746
0.4179448 -1.3787081 1.3377216 16711746
0.0424271 -0.4208938 0.4621047 16711746
0.1374131 -1.2353588 1.2389048 16711746
-0.1894499 -0.3034850 0.1696537 16711746
0.7912442 -1.4063852 0.9568933 16711746
0.3001486 -0.5110604 0.3817752 16711746
-0.2025760 -0.7186423 0.1628681 16711746
-0.1203768 -0.3998638 0.1091522 16711746
-0.3272733 -0.7709218 0.1054272 16711746
0.5713556 -1.7056719 1.0746089 16711746
-0.3945416 -1.3606235 0.9023912 16711746
-0.4572589 -1.4376168 0.8533671 16711746
0.1833844 -0.9207994 0.5681282 16711746
-0.0191599 -1.1888185 0.7344044 16711746
0.7273986 -1.2441651 0.7451837 16711746
0.3714910 -0.5206142 0.2512838 16711746
0.1671801 -0.3670132 0.1753589 16711746
1.0105503 -1.1956120 0.7443915 16711746
0.0569060 -0.6735936 0.8422146 16711746
-0.1009876 -0.7789063 0.6221236 16711746
-0.1041963 -1.1513562 0.8618318 16711746
-0.1503688 -1.2035189 0.8664874 16711746
-0.0542458 -1.2538565 1.3258201 16711746
0.0425140 -1.1666878 1.2980120 16711746
-0.0180618 -0.3735580 0.5064953 16711746
-0.0320116 -0.5831001 0.1836268 16711746
-0.0994373 -0.3115113 0.1484408 16711746
0.6251466 -1.8350779 1.0166376 16711746
0.5758924 -0.6976994 0.8987073 16711746
0.5373238 -0.5423443 0.7172584 16711746
0.5410480 -0.6458888 0.9086896 16711746
0.0785961 -0.3205152 0.3678508 16711746
0.1528164 -0.6443225 0.6310418 16711746
0.0423589 -0.3755275 0.3825572 16711746
-0.8866222 -1.6316366 0.1243030 16711746
-0.1961242 -0.8620538 0.6541665 16711746
0.2588941 -0.7291819 0.4270377 16711746
-0.1531173 -0.4014939 0.2483261 16711746
0.7009205 -1.5411111 0.9906372 16711746
-0.4007611 -1.0267341 0.6355271 16711746
-0.5449844 -1.4668543 0.8593678 16711746
-0.2526348 -0.4354769 0.1609514 16711746
-0.7381983 -0.9180068 0.1203952 16711746
-0.2977105 -0.4037930 0.0924688 16711746
0.1194605 -0.8889680 0.4542039 16711746
0.7943737 -1.3501022 0.9520909 16711746
0.2117514 -0.6736629 0.5133688 16711746
-0.5099185 -2.4085190 0.6775184 16711746
0.6261624 -0.8665321 0.9856078 16711746
-0.0750437 -0.2845883 0.1766131 16711746
-0.1819303 -0.3979762 0.2511590 16711746
-0.4104440 -1.4817057 0.7789217 16711746
0.6636785 -0.7123702 0.7586866 16711746
0.2259066 -0.2541880 0.3138763 16711746
0.2759886 -1.2872882 1.1679143 16711746
0.2915619 -1.5632615 1.3547794 16711746
0.0416440 -0.2710388 0.3630099 16711746
0.0461520 -0.7197928 0.8609926 16711746
0.1778924 -1.4346179 1.5063144 16711746
0.2550868 -0.5847440 0.3684490 16711746
0.2591723 -0.6272550 0.3882882 16711746
-0.3544990 -1.3015517 0.9377525 16711746
0.6993878 -0.7821136 0.7858002 16711746
0.7135770 -0.9074570 0.8763650 16711746
-0.1291824 -0.6661752 0.1887767 16711746
0.7829497 -1.7396845 0.9070584 16711746
0.2844741 -0.6797885 0.3685379 16711746
-0.0504513 -0.5507230 0.2714944 16711746
0.0562004 -0.9255233 0.7887666 16711746
0.0599474 -0.9471624 0.7734869 16711746
0.0817162 -1.8212067 1.3083098 16711746
0.0897290 -0.9570515 0.7211890 16711746
0.1649307 -0.2394681 0.3160744 16711746
-0.2183467 -0.8264155 0.6847197 16711746
0.1661652 -1.0390624 0.5535684 16711746
0.1972340 -0.2281283 0.3143809 16711746
0.7699556 -1.0125231 0.8763195 16711746
-0.0766609 -0.3043649 0.1608386 16711746
0.1619746 -0.6067711 0.5976674 16711746
-0.4708927 -0.7503393 -0.0249324 16711746
0.1957964 -0.3065217 0.3333664 16711746
0.2025841 -0.3147829 0.3334590 16711746
0.5886927 -0.7823254 0.7170605 16711746
0.0898806 -0.3244471 0.2685725 16711746
-0.1009511 -1.3688833 0.6621175 16711746
0.5734981 -0.7525923 0.5187026 16711746
0.6321261 -1.9159231 0.9313326 16711746
0.2849398 -0.5653141 0.3434971 16711746
0.0572086 -0.1590354 0.2425335 16711746
0.0976069 -0.1730868 0.2821752 16711746
0.1053494 -0.1708770 0.2760350 16711746
0.6928290 -1.5468391 1.0189646 16711746
-0.3129277 -1.3555169 0.8567436 16711746
-0.2350637 -0.9747309 0.6097104 16711746
0.7761998 -0.9544911 0.8348424 16711746
0.7988229 -1.0008794 0.8394434 16711746
0.2305885 -0.4872284 0.3935704 16711746
0.2115652 -0.2721863 0.3210437 16711746
0.1969787 -0.2808866 0.3248811 16711746
0.0136102 -1.0119132 0.8106121 16711746
1.0795246 -1.2336427 0.6383754 16711746
0.2668248 -0.9064909 0.4992413 16711746
0.2083497 -0.9656638 0.5049077 16711746
0.0075322 -1.3529564 0.5489870 16711746
-0.1138333 -1.2588321 0.7819903 16711746
-0.2379311 -0.4114538 0.2276289 16711746
-0.5857690 -0.8902530 0.3877099 16711746
-0.8090508 -1.7218491 0.6062514 16711746
-0.4005775 -0.8258350 0.3231129 16711746
0.2288345 -0.6729382 0.4778795 16711746
0.1586595 -0.8228551 0.6336944 16711746
0.2425386 -1.6410381 1.3421665 16711746
-0.2754489 -2.2057655 1.4127651 16711746
-0.1027058 -0.6779009 0.6449958 16711746
-0.9165521 1.1973623 -1.7209328 16711746
0.4667122 -1.2841282 1.3174617 16711746
0.2776775 -1.1435950 1.1697443 16711746
0.2209275 -0.4320711 0.5264155 16711746
0.2751548 -0.5035918 0.3395362 16711746
0.8291018 -1.6172916 0.9055466 16711746
-0.0265752 -0.5306790 0.2583996 16711746
-0.5804964 -1.3361272 1.0120564 16711746
0.1225130 -1.5092618 0.5625849 16711746
0.6164341 -1.9811103 0.9186360 16711746
0.6372695 -2.0436919 0.8331817 16711746
-0.8243408 -1.6953170 0.6483143 16711746
-0.2770794 -1.5002689 0.6697422 16711746
0.3552041 -1.6332175 1.2708136 16711746
-0.1073204 -1.3472394 0.6911852 16711746
0.0028286 -0.6689317 0.2695639 16711746
-0.0908994 -1.5076531 0.4795442 16711746
-0.5280405 -1.1499861 0.5215815 16711746
-0.6442961 -1.1652422 0.4984866 16711746
-0.6215933 -1.2112565 0.3745110 16711746
-0.0455430 -1.7145851 1.4421067 16711746
-0.3364615 -1.4139882 0.8107466 16711746
0.6670679 -1.3456178 1.0824200 16711746
-0.1104887 -0.6519357 0.1310135 16711746
-0.3863556 -1.7979929 0.2216841 16711746
-0.2921072 -1.5633005 0.5990462 16711746
0.6461022 -1.5637109 1.0656909 16711746
-0.8049991 -1.8825287 0.2960096 16711746
-0.5436319 -0.7739617 -0.0317142 16711746
-0.1787169 -1.8743647 0.6227388 16711746
0.0990626 -0.6036944 0.4763784 16711746
-0.0580497 -1.1983335 0.7731180 16711746
-0.4384996 -1.2297432 0.3207089 16711746
-0.4876470 -1.3312635 0.3196668 16711746
-5.4583879 -6.6987395 4.9670882 16711746
-5.2153983 -7.5053349 5.1139131 16711746
-41.1468430 -295.7196960 145.0154114 16711746
-5.2120099 -7.5028944 5.1110449 16711746
-166.1765747 -185.4385681 -7.3067560 16711746
