# .PCD v.7 - Point Cloud Data file format
VERSION .7
FIELDS x y z rgb
SIZE 4 4 4 4
TYPE F F F F
COUNT 1 1 1 1
WIDTH 51
HEIGHT 1
VIEWPOINT 0 0 0 1 0 0 0
POINTS 51
DATA ascii

 1.5087073 -2.1158860 8.3284969 16777215
 0.0482533 -0.0147039 0.1116163 16777215
-0.7991267 -0.4828371 0.7780904 16711746
-0.9007890 -0.5043005 0.8194975 16711746
-0.9336625 -0.4900151 0.8068458 16711746
-0.8446257 -0.3745000 0.8099651 16711746
-0.9524818 -0.3714645 0.7710730 16711746
0.1082431 -0.7300057 1.0411623 16711746
-0.0638370 -0.5965700 1.0740732 16711746
-0.0548820 -0.5524765 1.1142241 16711746
-0.0151981 -0.5087725 1.0791084 16711746
-1.1596828 -0.3270354 0.7790147 16711746
-1.0228816 -0.5040099 0.6550600 16711746
-1.1834809 -0.4016002 0.6029071 16711746
-0.8436136 -0.4796436 0.7402395 16711746
-0.6015696 -0.4591785 0.9595250 16711746
-0.6874174 -0.4494019 0.9105342 16711746
0.3454835 0.5340653 -1.1918317 16711746
-0.1887533 -0.5049489 1.0618248 16711746
-0.8844341 -0.4687505 0.9130108 16711746
-0.7678438 -0.4399441 0.8049813 16711746
-0.3374841 -0.5627413 1.0494164 16711746
-0.9600505 -0.5546814 0.6280791 16711746
-0.3849128 -0.4298445 1.1109673 16711746
-0.2752181 -0.4402571 1.0625365 16711746
-0.8585516 -0.5587630 0.7538973 16711746
-0.9449629 -0.5466427 0.6681212 16711746
-0.7196410 -0.5423391 0.7898328 16711746
-0.4215279 -0.7556777 0.7355771 16711746
-1.1497691 -0.4600901 0.5396374 16711746
-0.6186513 -0.5975745 0.8348717 16711746
-0.7192670 -0.5793319 0.8971087 16711746
-0.7856088 -0.6302602 0.6752515 16711746
-1.3047051 -0.3027749 0.6368980 16711746
-0.8573982 -0.4851937 0.7104025 16711746
-0.9151782 -0.4845423 0.8417114 16711746
-0.9452775 -0.4738618 0.8243878 16711746
-0.5711563 -0.4744494 0.9638441 16711746
-0.6059673 -0.4465034 0.9699610 16711746
-0.5716771 -0.4446155 0.9947340 16711746
-0.1484539 -0.5052654 1.0819168 16711746
0.1464486 0.6099149 -1.3205793 16711746
0.1234679 0.5939348 -1.2316132 16711746
-0.9906693 -0.3224885 0.7940218 16711746
-0.7266263 -0.3792370 0.9035212 16711746
-0.8094280 -0.3774974 0.8993878 16711746
21.0484104 -13.9344616 60.0149727 16711746
12.7894125 -10.0024595 44.2019157 16711746
33.2073021 -20.1681271 79.6819763 16711746
27.9819279 -17.2928085 72.8875122 16711746
11.9478474 -39.4276161 37.2003937 16711746
