# .PCD v.7 - Point Cloud Data file format
VERSION .7
FIELDS x y z rgb
SIZE 4 4 4 4
TYPE F F F F
COUNT 1 1 1 1
WIDTH 60
HEIGHT 1
VIEWPOINT 0 0 0 1 0 0 0
POINTS 60
DATA ascii

 0.4296369 -0.5524957 0.7380068 16777215
 0.1226264 -1.0411909 1.5272933 16777215
0.8845450 -2.8568144 1.0750133 16711746
-0.0795410 -2.4058006 0.7163891 16711746
-0.4292355 -1.0376625 0.3915445 16711746
1.2677321 -3.6698511 1.6591059 16711746
0.6218531 1.8336436 2.5764141 16711746
-0.2442248 -1.9164554 0.4269205 16711746
-0.2148024 -2.4112687 0.7543524 16711746
-0.0065399 2.1255839 2.6162064 16711746
0.8958300 1.9173490 2.3347301 16711746
0.8766887 2.2820742 4.2949920 16711746
0.5333496 1.8105361 2.4142435 16711746
3.0149283 2.0115461 2.9880006 16711746
0.6879373 1.8027282 2.0456474 16711746
1.0317309 1.9122640 2.1109045 16711746
0.7699373 1.9229778 2.6741424 16711746
1.9334908 2.2308464 3.5782180 16711746
0.8117679 -2.9036345 1.1101283 16711746
-0.1074128 -2.5092430 0.8783081 16711746
-0.1046644 -2.2901700 0.6601843 16711746
-0.1620313 -2.2025650 0.4440264 16711746
-0.2542703 -2.2672696 0.5059249 16711746
-0.0772943 -2.7755213 1.0801448 16711746
0.7400505 2.0658793 3.4394846 16711746
0.2449181 -2.3782299 0.7613184 16711746
-0.4464602 -2.5555983 0.7435061 16711746
0.2434327 -2.5764604 0.9782977 16711746
1.2466761 -3.2353244 1.2736709 16711746
1.2027460 -3.1565614 1.2256141 16711746
0.7824798 -2.7617719 1.0820148 16711746
0.6168927 1.8374178 2.6134427 16711746
1.1376172 1.8486093 2.1399958 16711746
0.5668672 1.7705110 2.1031792 16711746
0.8714141 1.9019698 2.9385202 16711746
0.4956419 1.7530924 2.1102235 16711746
0.0540153 -2.3578076 0.7567887 16711746
1.8174571 -3.5605702 1.3306471 16711746
2.6936226 2.0054126 3.5056186 16711746
0.5018278 1.8126827 2.1910634 16711746
-0.9020440 -5.8435292 2.0019751 16711746
-0.0027125 -3.0747910 0.2496954 16711746
-0.7436948 -2.3533084 0.1584125 16711746
-0.7303118 -2.4148989 0.1167668 16711746
-0.7497897 -4.4191489 -0.8747979 16711746
-0.8236800 -8.2325335 -2.5535250 16711746
-0.8009571 -9.4052811 -3.2105165 16711746
-0.0003680 -3.0460989 0.2679811 16711746
-0.7423421 -2.4374812 0.1031809 16711746
-1.2508739 -33.1187248 -13.9418325 16711746
-0.8201920 -10.1755362 -3.5981569 16711746
-0.8415674 -8.3118095 -2.6301062 16711746
-0.8372121 -10.0777140 -3.5540941 16711746
-0.7382920 -3.3198032 -0.3323596 16711746
-0.7324506 -2.3388512 0.1638526 16711746
-0.5899630 -17.3734760 -7.8119869 16711746
-0.7632408 -7.4670730 -2.2852583 16711746
-0.7335688 -3.3628967 -0.3467952 16711746
-0.7535000 -9.9275341 -3.2463837 16711746
-0.7665150 -7.5646687 -2.3510523 16711746
