# .PCD v.7 - Point Cloud Data file format
VERSION .7
FIELDS x y z rgb
SIZE 4 4 4 4
TYPE F F F F
COUNT 1 1 1 1
WIDTH 134
HEIGHT 1
VIEWPOINT 0 0 0 1 0 0 0
POINTS 134
DATA ascii

0.2917829 -0.9364101 0.5760037 16711746
-0.9651399 -2.1392555 1.2915142 16711746
1.0180260 -1.7200632 1.2480699 16711746
0.2931103 -1.3313390 0.8904082 16711746
-4.2999725 4.0523543 -6.1609912 16711746
0.0412289 -0.0621209 0.1863310 16711746
0.1244149 -0.2884541 0.3989606 16711746
-0.0292018 -0.6545379 0.5579130 16711746
-0.0642387 -1.0401753 0.4439514 16711746
0.2199232 -0.5999743 0.3726995 16711746
0.2180654 -0.6263444 0.3721403 16711746
0.3387509 -0.7680891 0.5459822 16711746
0.1324045 -0.2517156 0.3388880 16711746
-0.1632772 -0.7620189 0.4252807 16711746
-0.1638710 -0.6913189 0.4745452 16711746
-0.3321178 -2.6824009 1.3860929 16711746
-0.4453795 -0.8735920 0.4631810 16711746
-0.6588748 -1.2476822 0.5656324 16711746
-0.1796378 -2.2883823 1.1757528 16711746
0.2910670 -1.3716987 1.0829157 16711746
-0.3043672 -2.2701609 1.6719614 16711746
-0.4548433 -2.7650690 1.2836720 16711746
-0.1759674 -1.1230434 0.5841845 16711746
0.9825216 -1.0109427 1.1069747 16711746
0.6760606 -0.7205808 0.8963429 16711746
2.2485943 -3.2350817 3.2120955 16711746
0.1002926 -0.4778953 0.3144469 16711746
-0.2569256 -1.1640605 0.8866693 16711746
-0.5335538 -0.9227919 0.4356437 16711746
-0.3381147 -0.5807260 0.3121926 16711746
-0.4469229 -0.6963673 0.3886206 16711746
0.7018142 -2.5607119 2.2201440 16711746
0.1323843 -0.5259559 0.5564163 16711746
0.1095171 -0.4007302 0.3638246 16711746
0.1711469 -0.7377327 0.6056163 16711746
0.2494707 -0.5125248 0.5117864 16711746
0.3147500 -1.4831933 0.8101225 16711746
-0.7053401 -1.2552446 0.4687781 16711746
0.2902399 -0.4410806 0.4125735 16711746
0.1070846 -0.7204095 0.6945246 16711746
0.1494182 -0.7544128 0.6343269 16711746
-0.1551100 -0.9930110 0.7431064 16711746
-0.4548822 -1.5127572 0.7398457 16711746
-0.0729503 -4.7297287 1.8825909 16711746
-0.2006811 -0.9560292 0.6282777 16711746
-0.3100373 -1.2708597 0.7869591 16711746
1.4520359 -4.3125668 2.2105334 16711746
-0.2644252 -1.1896148 0.7948284 16711746
-0.1049709 -0.5155942 0.5458775 16711746
0.3148479 -0.4568407 0.4842438 16711746
0.1246517 -0.3417088 0.4386144 16711746
1.0738752 -2.5420206 2.9544837 16711746
-0.2242486 -0.5860552 0.7786316 16711746
-0.2382120 -0.6693254 0.5738446 16711746
-0.2304688 -1.2001100 0.6216246 16711746
-0.2154837 -1.1251473 0.7134867 16711746
0.6709954 -0.8554637 0.8879794 16711746
1.1285919 -4.8184938 3.7454863 16711746
0.4233487 -0.6118247 0.7832004 16711746
0.0129104 -1.1234691 1.0829126 16711746
-1.1118623 -2.4376256 0.3144462 16711746
-0.1103629 -1.1270419 0.4423422 16711746
1.0713061 -1.9335316 1.3774443 16711746
0.2966163 -0.4794588 0.4867207 16711746
0.2481141 -0.3845761 0.4124002 16711746
0.0958721 -0.6142349 0.4260344 16711746
0.1783613 -0.4099016 0.3791406 16711746
0.7993709 -1.0023967 0.9082118 16711746
0.3325852 -0.4750670 0.4879242 16711746
-0.5875633 -0.8494291 0.1966470 16711746
1.1229354 -2.6434789 2.6028612 16711746
-0.6020098 -1.2035290 0.5273475 16711746
1.5281862 -4.0691996 2.1608214 16711746
0.4024749 -1.0927864 0.5478713 16711746
0.9236074 -1.9331344 1.5162604 16711746
-0.5871618 -1.1901873 0.5013109 16711746
0.1151377 -0.5444927 0.4127879 16711746
-0.5527145 -1.6146342 0.9860126 16711746
-0.0331105 -0.8689191 0.5575034 16711746
0.8668969 -0.9854574 0.9331865 16711746
0.1851476 -0.3666139 0.3697805 16711746
0.3668015 -0.4959153 0.4922573 16711746
-0.2312431 -0.7705855 0.4662930 16711746
-0.5191226 -1.1078156 0.2213670 16711746
1.3113961 -4.2890859 3.0180717 16711746
0.2185888 -0.6282593 0.5430705 16711746
0.1806038 -0.2838345 0.3540409 16711746
1.2816877 -4.7483706 3.1657155 16711746
0.1732043 -0.6595148 0.4150624 16711746
-0.1227786 -0.5036569 0.7432081 16711746
0.0013084 -4.5202203 1.7004399 16711746
0.0182470 -0.3635184 0.3464611 16711746
-0.6074455 -1.1921269 0.4225808 16711746
1.8362439 -4.9511957 2.2134414 16711746
1.6814563 -6.8964314 2.1858494 16711746
0.2786812 -0.3516331 0.3877654 16711746
-0.1835992 -1.9084686 1.4982412 16711746
-0.0095724 -0.3795913 0.3718987 16711746
-0.1070431 -0.6303387 0.2375630 16711746
0.2126665 -1.1060163 0.6293682 16711746
0.1791878 -1.2319939 0.6634918 16711746
0.3058335 -2.0475750 0.9764240 16711746
0.0664513 -0.2280550 0.3442823 16711746
-0.0718892 -0.4033263 0.4327142 16711746
0.1590379 -0.2793978 0.3492386 16711746
0.1438750 -3.9832554 4.5534668 16711746
-0.1668089 -1.7443879 1.9411516 16711746
-0.7663013 -1.2905549 0.4880300 16711746
-1.0713841 -1.6588635 0.2347485 16711746
-0.3377547 -0.7250561 0.6144338 16711746
0.3908947 -1.3599570 0.5937398 16711746
-0.0748282 -4.6824303 1.9763092 16711746
0.4182530 -1.9724644 0.5898309 16711746
-0.1483486 -5.5816627 1.2906507 16711746
0.3525063 -1.0903686 1.3942677 16711746
-0.2406182 0.6280811 -0.8708557 16711746
0.7452288 -0.7411892 1.0193803 16711746
0.9407933 -3.6939197 2.3381088 16711746
-0.6929054 -1.8050287 1.0181545 16711746
-0.4391524 -1.5067941 0.6828545 16711746
0.2966059 -1.3690659 0.8793106 16711746
0.6644070 -0.8681511 0.5155005 16711746
0.2441908 -0.5547526 0.3616948 16711746
0.7002721 -2.8604448 2.3634136 16711746
0.3788129 -0.5388178 0.5599057 16711746
4.8283176 -5.1524873 13.1852245 16711746
3.8313084 -6.1403022 12.2049685 16711746
-30.8599834 -245.1122131 103.0006485 16711746
12.9193811 -26.3383846 56.9390411 16711746
16.9457245 -137.9454498 139.0047913 16711746
-76.3495483 -215.7074738 157.0050659 16711746
-32.4493790 -250.7719727 105.6709976 16711746
-7.9249902 -225.4057922 161.4352875 16711746
40.3853340 -256.3648682 90.5733719 16711746
