# .PCD v.7 - Point Cloud Data file format
VERSION .7
FIELDS x y z rgb
SIZE 4 4 4 4
TYPE F F F F
COUNT 1 1 1 1
WIDTH 73
HEIGHT 1
VIEWPOINT 0 0 0 1 0 0 0
POINTS 73
DATA ascii

 0.8584180 -1.8105342 2.0992892 16777215
 -0.0568486 0.1142547 -0.1350892 16777215
-2.1501968 -10.5832510 0.5494909 16711746
-1.1942792 -8.3916636 0.3981283 16711746
1.3170353 6.8508677 0.5304061 16711746
3.5369701 -10.8719683 1.0598592 16711746
-0.2818905 -10.9756956 0.7140154 16711746
0.2414856 2.1722338 0.7125791 16711746
0.5245569 1.5518682 0.4271378 16711746
-0.0102378 11.2293959 1.4199513 16711746
0.4901234 -0.7776095 0.2210056 16711746
0.4600274 -1.4775981 0.4421675 16711746
-2.7202137 -10.9072170 3.9236057 16711746
-2.0076592 -11.4123716 2.5182245 16711746
0.5106714 -0.9145572 0.1843962 16711746
-1.5672524 4.4519553 1.0251997 16711746
0.8960169 2.2188044 0.5755541 16711746
0.9851720 1.3477412 0.6603053 16711746
5.2847700 -13.5551367 -0.2851804 16711746
-0.2466458 2.1085534 0.0850928 16711746
1.0616968 1.2566627 0.6066490 16711746
-3.8862164 7.8749189 1.0131245 16711746
4.8231177 -11.9405155 -0.9118423 16711746
1.1415926 -11.1253033 1.6484336 16711746
1.2974060 -11.2796459 1.2471639 16711746
0.7631519 -9.7476988 1.0318635 16711746
-0.2817515 1.4411737 0.2674673 16711746
2.3278096 -9.6809454 0.2694407 16711746
2.0425842 -9.5324192 0.3506218 16711746
0.9084284 4.1566248 0.3915872 16711746
-3.6605654 7.7571483 2.2992177 16711746
-2.8847296 -9.2188492 2.4700921 16711746
1.3500460 -1.5053807 0.6010819 16711746
0.3271095 -0.8763078 0.1676559 16711746
0.7814230 2.1003575 0.6912609 16711746
0.6000471 2.0942638 0.7569669 16711746
-0.0889316 -4.0823283 0.9914398 16711746
0.0155247 -8.3403387 1.1298873 16711746
0.6826557 -4.9595389 1.0647703 16711746
0.2148102 -1.6660830 0.2306296 16711746
0.0757023 -1.5466231 0.2067735 16711746
-4.2781892 9.4473143 1.0109040 16711746
1.1044912 0.7681389 -0.1578972 16711746
0.5308564 1.1877811 0.3952770 16711746
-3.0325394 -9.4708490 1.8520124 16711746
-2.4407470 -9.6221275 1.4860206 16711746
5.6574974 9.3761549 0.7510210 16711746
2.3617897 11.4458647 0.3584903 16711746
-0.0446773 -11.3511677 -0.4338660 16711746
-0.4907687 9.7540274 0.5683339 16711746
1.4751322 -11.4734354 0.6876798 16711746
-0.3136609 -11.1470957 0.0988965 16711746
-3.7930691 -11.7388000 0.1451783 16711746
1.5666535 3.0880191 1.5442309 16711746
1.7245252 2.9357450 1.5285834 16711746
-0.1746146 -4.7559395 0.8001744 16711746
0.4221179 2.3094668 0.6440678 16711746
1.1005893 1.0630361 0.6161901 16711746
0.7351004 1.7988409 0.7880738 16711746
3.8308835 -6.0031104 1.3005737 16711746
0.4978052 -1.0122398 0.1137297 16711746
1.3961167 6.7790976 1.1366353 16711746
0.5318758 -0.9760428 0.1621666 16711746
0.6216560 -1.0216504 0.1668408 16711746
0.5139039 6.3879938 1.6718729 16711746
0.2090825 1.7460785 0.4315956 16711746
0.1589890 -1.1296860 0.0807841 16711746
-1.7616512 -9.6981010 1.3951590 16711746
-1.6769345 -8.1743507 0.7274252 16711746
8.8706493 -60.7031174 14.1341133 16711746
0.7929263 -90.3520279 11.2972889 16711746
7.9069495 -80.5916367 14.3552256 16711746
0.6498165 -102.1729736 13.0377989 16711746
