# .PCD v.7 - Point Cloud Data file format
VERSION .7
FIELDS x y z rgb
SIZE 4 4 4 4
TYPE F F F F
COUNT 1 1 1 1
WIDTH 89
HEIGHT 1
VIEWPOINT 0 0 0 1 0 0 0
POINTS 89
DATA ascii

 1.5556887 -2.0758400 7.2341976 16777215
 0.0184103 -0.0273680 0.0902435 16777215
-0.1689505 -1.2918222 0.6141161 16711746
0.4869618 -0.9056561 0.7487061 16711746
0.0701824 -0.7980005 0.7166328 16711746
0.3639972 -0.5337727 0.7310226 16711746
-0.0167236 -0.8322879 1.1276779 16711746
-0.0813967 -0.6985587 0.9167255 16711746
-0.3155824 -0.9962710 0.6837934 16711746
0.1724186 -0.7323644 0.6995701 16711746
0.0471458 -0.6014645 0.7757334 16711746
-0.1693876 -0.7481132 0.7190366 16711746
-0.3406181 -1.0492349 1.0853565 16711746
0.7483287 -0.7352774 0.6132411 16711746
0.5724276 -0.9840514 0.7971576 16711746
0.2077019 -1.0511879 0.5689512 16711746
0.0479906 -0.8530571 0.8802446 16711746
0.0359309 -0.6972672 0.7137637 16711746
0.3814913 -0.9904526 0.6387209 16711746
-0.0326779 -0.7707114 0.7891883 16711746
0.0560300 -0.6352435 0.8801439 16711746
-0.0159294 0.3267862 -0.5019737 16711746
-0.0612486 0.3737086 -0.5662169 16711746
0.1817240 -1.3662318 0.6426607 16711746
-0.4132841 -1.0458031 1.1391778 16711746
-0.3042586 -1.2644732 1.0546669 16711746
-0.0346010 -0.9121950 0.6481106 16711746
-0.0975531 -1.0005915 0.5297060 16711746
0.1429678 -0.9100248 0.6539424 16711746
0.0926479 -0.8486651 0.5985919 16711746
0.1901288 -0.8050843 0.6198296 16711746
0.4045122 -0.8993806 0.6143242 16711746
0.0022821 -0.8590533 0.6503658 16711746
-0.1028063 -1.3698148 0.9626264 16711746
-0.1642505 0.3746042 -0.5646184 16711746
-0.2101927 0.3846253 -0.5725588 16711746
0.4157957 -0.5613002 0.7247517 16711746
0.3325159 -1.2053108 0.7319083 16711746
0.3076912 -0.9657608 0.6008587 16711746
0.2229824 -0.8186219 0.7670263 16711746
0.3960240 -0.6396425 0.6971991 16711746
0.2195085 -1.0528643 0.6108103 16711746
-0.0644365 -0.8322976 0.8742345 16711746
0.3881912 -1.1862403 0.7083086 16711746
0.3457372 -1.2322204 0.7017299 16711746
0.0710977 -0.8148003 0.6784118 16711746
0.1198538 -0.9204476 0.7357376 16711746
0.1085588 -0.8134214 0.6450836 16711746
0.1351076 -0.6532418 0.8204114 16711746
0.1271489 -0.6205866 0.7137458 16711746
0.0550571 -0.8374631 0.6468918 16711746
0.0111032 -1.0261767 0.7493463 16711746
0.0500815 -0.7049006 0.8269647 16711746
0.0835572 -0.9784001 0.5261618 16711746
0.2360264 -1.0029820 0.6464187 16711746
-0.2461943 -1.0700182 0.8748832 16711746
0.2116277 -1.0641693 0.6430730 16711746
0.8325862 -0.8717846 0.7496446 16711746
0.1169401 -0.7274777 0.7737815 16711746
0.0828182 -0.7116032 0.6839344 16711746
-0.5476357 -1.1300328 0.5454301 16711746
0.1286417 -0.8272456 0.6140395 16711746
0.7583103 -0.9738795 0.6730620 16711746
-0.1816459 -1.2601278 0.5462256 16711746
-0.1332540 -1.0134068 0.5662974 16711746
-0.0282555 -1.0689354 0.8602657 16711746
-0.3432230 -1.2854148 1.0839685 16711746
0.2500970 -0.5716195 0.7325607 16711746
0.0161411 -1.0971385 0.4556488 16711746
0.3726887 -0.7911444 0.6232098 16711746
-0.1721180 -1.1433597 0.6885918 16711746
0.0391526 -0.7053820 0.7053516 16711746
-0.1955010 -1.0541456 0.8070797 16711746
-0.2519792 -1.2344559 0.9197450 16711746
0.8096073 -0.8862561 0.7085432 16711746
0.1589055 -0.7208056 0.6706711 16711746
-0.0487539 -1.0708201 1.0419288 16711746
0.1580566 -0.8961303 0.7378023 16711746
0.1619690 -0.8935879 0.7107040 16711746
0.0339818 -0.6455853 0.7565031 16711746
0.0408935 -0.6544206 0.7444694 16711746
-0.5740485 -1.1436106 0.5767307 16711746
0.9734240 -1.3546861 0.8189302 16711746
-0.3653229 -1.0076122 0.7982956 16711746
0.1981714 -0.5700210 0.7049425 16711746
0.3629557 -0.6069074 0.6971440 16711746
0.1795201 -1.3093107 0.5495358 16711746
0.2056186 -0.7472519 0.6647956 16711746
-0.0384434 -1.2956002 0.8247381 16711746
