# .PCD v.7 - Point Cloud Data file format
VERSION .7
FIELDS x y z rgb
SIZE 4 4 4 4
TYPE F F F F
COUNT 1 1 1 1
WIDTH 71
HEIGHT 1
VIEWPOINT 0 0 0 1 0 0 0
POINTS 71
DATA ascii

0.2524296 0.8809203 0.3639675 16711746
-0.3064156 1.1296185 0.1798977 16711746
-0.3803302 1.2665036 0.0692659 16711746
0.0523908 -1.1763059 -0.3458095 16711746
0.2767712 1.2399809 0.1176593 16711746
-0.0931884 -1.1721344 -0.3186413 16711746
-0.2814314 1.2712437 0.3271710 16711746
-0.2512637 -1.6758560 -0.2896401 16711746
0.3867742 0.8864865 0.2938772 16711746
0.0432361 1.2294562 0.5283449 16711746
-0.5833720 0.8707466 0.2759804 16711746
-0.6781582 1.0014175 0.3020965 16711746
0.5614644 0.9823148 0.3008563 16711746
-0.1171860 1.2687583 0.1494782 16711746
-0.2922135 -1.7063543 -0.1101964 16711746
-0.0597345 -1.0757278 -0.3564790 16711746
0.1725566 0.9643785 0.4503461 16711746
0.1453975 1.4358077 0.3932550 16711746
-0.0084634 -1.3062382 -0.2725195 16711746
-0.0227442 -1.3415900 -0.2888968 16711746
0.1590426 -1.2945578 -0.3087162 16711746
-0.1773980 1.2524325 0.0396753 16711746
-0.1787078 -1.2599183 -0.3405619 16711746
0.3384872 0.9593182 0.2756357 16711746
-0.0521896 -1.3906426 -0.2213176 16711746
-0.5790517 1.0060743 0.2904211 16711746
0.0280765 -1.2443058 -0.2888653 16711746
-0.0050074 -1.2119746 -0.3065229 16711746
-0.0104983 -1.2974114 -0.3055140 16711746
-0.0358330 -1.1976711 -0.3090599 16711746
-0.0411909 -1.1894625 -0.3152675 16711746
0.6964972 1.0713834 0.3504193 16711746
-0.1162322 -1.5523343 -0.1104665 16711746
0.1760648 1.1236453 0.2766315 16711746
0.3481156 0.9812533 0.1664066 16711746
-0.1470042 -1.3424563 -0.3139385 16711746
-0.1017077 -1.1859840 -0.3168305 16711746
-0.1240790 -1.1962196 -0.3227106 16711746
-0.1265499 1.2862138 0.0783245 16711746
-0.1044616 -1.2576728 -0.3717750 16711746
-0.2012279 -0.9273798 -0.5258672 16711746
-0.1866357 -0.8954822 -0.5479835 16711746
-0.0627179 1.3076688 0.1280156 16711746
0.0337447 0.9424201 0.4900032 16711746
0.5097707 1.0414745 0.4886488 16711746
0.3889349 1.0480548 0.5170496 16711746
0.4351151 1.0510435 0.5414199 16711746
0.4059719 1.1830400 0.2019145 16711746
-0.0173544 -1.0645686 -0.3806565 16711746
0.1777138 1.2451122 0.0841255 16711746
0.2288255 1.1422806 0.1262073 16711746
0.3018009 0.8928891 0.2368178 16711746
0.2474099 0.9806243 0.4276747 16711746
0.0208783 -1.5281730 -0.1324911 16711746
0.2059863 -1.4145217 -0.1867310 16711746
0.1155252 -1.4315906 -0.1662644 16711746
-0.0473909 -1.1648066 -0.3437956 16711746
-0.1277887 -1.4890606 -0.1878160 16711746
-0.7607941 -1.6079482 -0.6124303 16711746
0.0951650 -1.4562161 -0.2047082 16711746
0.1465494 -1.3564718 -0.2632443 16711746
0.1290973 -1.3767364 -0.2609133 16711746
-0.0537580 -1.3980950 -0.2031485 16711746
0.1544606 -1.3522811 -0.2415436 16711746
0.6129094 0.6423293 0.5022056 16711746
-0.0991225 -1.6137851 -0.2286455 16711746
0.1136855 -1.4268062 -0.2136047 16711746
0.1098575 -1.2217143 -0.3111190 16711746
0.7290536 1.0496414 0.2723981 16711746
-0.4215946 1.3111429 0.2895519 16711746
-0.4842143 1.3369880 0.3626967 16711746
