# .PCD v.7 - Point Cloud Data file format
VERSION .7
FIELDS x y z rgb
SIZE 4 4 4 4
TYPE F F F F
COUNT 1 1 1 1
WIDTH 70
HEIGHT 1
VIEWPOINT 0 0 0 1 0 0 0
POINTS 70
DATA ascii

 0.1599196 -0.1438513 0.0435761 16777215
 -0.0026057 -0.0019910 -0.0002009 16777215
0.0015724 0.0115550 -0.0009110 16711746
-0.6793898 -0.8892745 0.4455879 16711746
0.0971795 -1.5466462 0.1310343 16711746
0.2260329 -1.4942420 0.2377405 16711746
0.3568191 -1.4494481 0.2022073 16711746
-0.1775953 -1.3686185 0.0889548 16711746
0.0976903 -1.6953915 0.2157016 16711746
0.5157506 1.2774456 0.0274830 16711746
0.4261512 1.0327766 0.0751998 16711746
0.8867045 1.7887245 0.7933982 16711746
0.2322199 -1.4588689 0.3203181 16711746
0.3867718 -1.6840507 0.3294217 16711746
0.4622615 -1.2746128 0.0552829 16711746
0.1159404 -1.5751700 0.0427605 16711746
-0.3416823 -1.0512590 0.6368157 16711746
0.4434229 -1.6430874 0.4626870 16711746
-0.4558557 -0.8196451 0.3064640 16711746
0.1695324 -1.3831706 0.5543668 16711746
-0.4560936 -0.7706669 0.2524023 16711746
-0.2981434 -1.3535424 0.8118080 16711746
-0.2534082 -1.0743496 0.6370860 16711746
-0.1179205 -0.2775403 0.0429981 16711746
1.1415875 -1.2769871 0.5575495 16711746
-0.4324126 -0.7173737 0.4450122 16711746
0.5600526 -1.5767318 0.2514727 16711746
0.5215239 -1.6078858 0.2502126 16711746
-0.1994421 -1.4083010 0.0929342 16711746
0.4270816 -1.3087112 0.0946107 16711746
-0.1843527 -0.5199860 0.0893651 16711746
0.3558088 -1.3633236 0.4423677 16711746
0.3300275 -1.3971261 0.3887550 16711746
0.2130705 -1.2755392 0.3303344 16711746
-0.6309615 -0.9439040 0.5519536 16711746
-0.5961475 -0.8625553 0.4568639 16711746
-0.4226866 -0.9574339 0.4549215 16711746
0.4656297 1.1461688 -0.0132933 16711746
-0.4872131 -0.9514085 0.5137667 16711746
-0.4926586 -0.9277420 0.4776508 16711746
-0.5890656 -0.6930228 0.1575445 16711746
0.1057159 0.7463320 -0.0145173 16711746
0.1718002 1.3093373 0.2121198 16711746
0.4816748 1.6588954 0.5349261 16711746
-0.2106046 -1.0837409 0.5886342 16711746
-0.4495957 -0.7720946 0.2521359 16711746
-0.3656203 -1.1942571 0.4065830 16711746
-0.2967362 -1.0800782 0.2684437 16711746
-0.2316490 -0.6563566 0.1255432 16711746
0.0724676 -1.5502434 0.0464631 16711746
-0.6537701 -0.5929993 0.0743096 16711746
0.1818400 1.4663936 0.1289057 16711746
0.3292096 -1.6740420 0.0326015 16711746
-0.2842004 1.7356583 0.1566045 16711746
0.2382157 0.8223935 0.0295059 16711746
0.4270118 1.1175642 0.0260363 16711746
0.3806500 1.0966556 0.0809197 16711746
0.4700143 1.3944734 0.3215042 16711746
0.4279100 1.3313578 0.2634605 16711746
0.2546880 1.0893494 0.1259367 16711746
0.3637384 1.7471828 0.8338704 16711746
0.4007912 1.6331242 0.4671456 16711746
0.2599396 1.2126312 0.1783631 16711746
0.2247684 1.6153468 0.3886390 16711746
-0.2940531 -1.2865450 0.5378826 16711746
0.3256665 -1.1259916 0.5412304 16711746
-5.8350964 -3.5826366 -0.8717334 16711746
-1.9543908 -9.6972599 -0.8138658 16711746
-6.8108816 -5.4029112 -2.2132380 16711746
-6.8145313 -4.8721180 1.9021168 16711746
