# .PCD v.7 - Point Cloud Data file format
VERSION .7
FIELDS x y z rgb
SIZE 4 4 4 4
TYPE F F F F
COUNT 1 1 1 1
WIDTH 87
HEIGHT 1
VIEWPOINT 0 0 0 1 0 0 0
POINTS 87
DATA ascii

-0.5413375 -0.9138284 0.0677144 16711746
-3.9891031 -17.0184288 -1.7365800 16711746
2.2594349 -4.0784535 1.3429490 16711746
1.8025545 -7.2145548 -0.1258571 16711746
2.1361639 -6.1291752 0.4533499 16711746
1.5953562 -7.6690845 -0.1321416 16711746
2.3144591 -6.5636001 0.3015284 16711746
-3.3762035 -16.5446396 -0.7517400 16711746
1.6559736 -7.3501778 -0.0397547 16711746
0.8551993 -8.8947964 -0.6518682 16711746
0.5568233 -4.3008342 2.4557750 16711746
1.8440285 -7.2330756 -0.4576932 16711746
1.2759017 -8.0860405 -0.4101621 16711746
2.2835031 -4.8431072 1.0673417 16711746
-2.7014720 -14.7029190 -0.8098527 16711746
-2.1004975 -13.6223145 -0.7028555 16711746
1.5684794 -7.6549792 -0.1434802 16711746
-18.6757679 -39.9580650 0.8068500 16711746
1.8565748 -2.9831979 1.6245656 16711746
1.1964113 -8.3838120 -0.4653355 16711746
2.3737018 -4.2514791 1.2233198 16711746
2.2856641 -4.8417702 1.0694205 16711746
-2.5006895 -14.2615242 -1.7494978 16711746
0.3228778 -9.7847643 -0.7529562 16711746
-2.2950156 -14.5135050 -0.8456511 16711746
1.4095882 -7.7956109 -0.1012065 16711746
-3.0496793 -15.9361973 -0.3805461 16711746
-18.6757927 -39.9581223 0.8068513 16711746
-2.5193903 -13.8983269 -0.7961099 16711746
2.3008394 -4.8449473 1.0566156 16711746
2.2692087 -5.4595118 0.7742826 16711746
0.8589379 -8.7739525 -0.6457269 16711746
-0.0592764 -10.3513956 -1.0173873 16711746
0.7020693 -8.8400640 -0.9974722 16711746
1.4286245 -7.7649922 -0.1011970 16711746
-2.0791976 -13.5934429 -0.7046664 16711746
-3.2326345 -16.7037964 -0.4982775 16711746
2.1833305 -6.0901747 0.3987885 16711746
2.1564605 -4.2435846 1.3758924 16711746
1.8359940 -7.2644491 -0.1580910 16711746
-19.7068501 -42.1808968 0.8099623 16711746
0.5513128 -3.9166799 2.0291317 16711746
-2.6732666 -14.5507841 -0.9370354 16711746
0.3244635 -9.8459568 -0.8075437 16711746
-0.0304892 -10.2924299 -1.3381863 16711746
-0.5600591 -11.0991640 -1.3157175 16711746
2.2075932 -4.6294127 1.2354358 16711746
1.4138368 -8.0068054 -0.1231227 16711746
0.3866760 -10.0489054 -1.8858907 16711746
-0.8018562 -11.7612448 -0.6375234 16711746
-0.6007689 -10.9748983 -0.8741392 16711746
2.2554226 -5.4531002 0.7752803 16711746
2.1964040 -5.8847108 0.5791367 16711746
0.0682038 -10.6758642 -0.4199004 16711746
1.4337256 -7.8816209 -0.6103895 16711746
-2.2419372 -14.5152760 -0.8069765 16711746
1.4700400 -7.4142075 0.3881607 16711746
-20.4894905 -44.3644104 -1.2206844 16711746
2.2783160 -5.4091759 0.9086288 16711746
2.2854533 -5.6413298 0.7570620 16711746
0.0349058 -10.5017052 -0.3983207 16711746
-1.4159780 -11.6832113 -1.1299247 16711746
1.5359342 -7.7996559 0.0427130 16711746
2.1776130 -6.4507866 0.2288241 16711746
0.3083862 -9.5552244 -0.7837298 16711746
1.2494520 -8.7033882 -0.4768248 16711746
1.4131751 -7.9141259 -0.5906391 16711746
1.8192096 -2.8821034 1.6646959 16711746
-1.3523870 -12.0215740 -1.2256360 16711746
-0.5046049 -11.1521549 -1.3071609 16711746
1.5633041 -7.7858672 0.0328655 16711746
-1.5681978 -12.6048098 -0.7467046 16711746
-1.6513354 -13.9760494 -1.3805838 16711746
1.4216907 -8.1226130 -0.1298217 16711746
2.2463162 -6.3286219 -0.7313040 16711746
0.5962361 -9.1691713 -0.8928896 16711746
0.7384654 -8.9376850 -1.0298083 16711746
-0.7149433 -11.3622475 -0.2156663 16711746
-2.4110632 -13.7807970 -0.9323196 16711746
-20.4894905 -44.3644104 -1.2206844 16711746
2.1547117 -5.8970528 0.4145948 16711746
2.2661023 -4.9244208 1.1674720 16711746
0.3414763 -9.9601641 -0.8252078 16711746
1.4985901 -8.0767889 -0.6465548 16711746
2.0232854 -3.6800802 1.4943069 16711746
-28.2133369 -59.3437500 0.6304361 16711746
-31.8209667 -75.1922913 5.8872457 16711746
