# .PCD v.7 - Point Cloud Data file format
VERSION .7
FIELDS x y z rgb
SIZE 4 4 4 4
TYPE F F F F
COUNT 1 1 1 1
WIDTH 105
HEIGHT 1
VIEWPOINT 0 0 0 1 0 0 0
POINTS 105
DATA ascii

-0.2490857 -0.8115511 0.8820421 16711746
-0.1493919 -0.7197228 0.8875199 16711746
-0.1986513 -0.8891510 0.8455193 16711746
0.2047914 -0.8456215 0.7888701 16711746
0.1948891 -0.8277307 0.7377827 16711746
-0.0626362 -0.7852073 0.7856443 16711746
0.2005994 -1.0391412 0.3696487 16711746
0.0646012 -0.8526922 0.6042084 16711746
0.2507006 -0.9412442 0.6296749 16711746
-0.1930629 -0.8763061 0.8929383 16711746
-0.4308799 -0.7162525 0.7887629 16711746
0.2683738 -0.8599005 0.4504521 16711746
-0.0528419 -1.1615396 0.3643107 16711746
-0.0169500 -0.8060668 0.7569789 16711746
-0.0460734 -0.8084407 0.7293503 16711746
0.1603415 -1.0533861 0.6074477 16711746
0.2200049 -0.8313054 0.7315757 16711746
0.0066937 -0.8456472 1.0343846 16711746
-0.4405203 -1.2153515 0.6056911 16711746
0.2563002 -1.0210084 0.7150089 16711746
0.5352018 -0.7531822 0.4176975 16711746
0.6367913 -0.9816923 0.7466872 16711746
0.5313293 -0.8217236 0.6086916 16711746
0.1321768 -0.9135149 0.4748508 16711746
0.0668469 -0.8372626 0.6944997 16711746
0.0068898 0.0781026 -0.1592883 16711746
0.2480292 0.3808351 -0.7255740 16711746
-0.0546758 -0.8599634 0.7099187 16711746
-0.2541093 -0.6814066 0.9481252 16711746
0.2283002 -0.7809908 0.9108216 16711746
0.0097411 0.1298124 -0.2007013 16711746
0.0590887 0.1895977 -0.3515449 16711746
0.2053068 -0.8462051 0.6475255 16711746
0.1176840 -0.8412644 0.6311737 16711746
0.0828903 -0.8345457 0.7218446 16711746
0.0901980 -0.8352525 0.7028394 16711746
-0.1115051 -0.8578568 0.6312531 16711746
0.0866224 -1.0277863 0.5115110 16711746
-0.0041910 -0.7580510 0.8980467 16711746
0.0990098 -0.7420157 0.9455234 16711746
-0.0552435 -0.8420922 0.6203709 16711746
-0.0799584 -0.8557231 0.6084711 16711746
-0.0240231 -0.6367576 1.0745407 16711746
-0.0146876 0.1680811 -0.2552629 16711746
0.2395465 -0.8191877 0.7717347 16711746
0.5135478 -0.8330103 0.5220123 16711746
0.0451804 -0.7990772 0.8305117 16711746
0.0432628 -0.8062047 0.8060343 16711746
0.1679926 -0.8455032 0.6957283 16711746
0.1215249 -0.7807803 0.9131923 16711746
-0.0106312 -0.7202913 0.9708677 16711746
0.1116357 -0.7339581 0.9618473 16711746
0.6277518 -0.9381641 0.7353498 16711746
0.0532053 -0.9036015 0.6926983 16711746
0.5256091 -0.9450455 0.7290093 16711746
0.0310642 -0.7955865 0.7331880 16711746
0.0717421 -0.8226393 0.7696788 16711746
0.1417626 -0.8150621 0.7523120 16711746
-0.0099169 -0.8830662 0.9221538 16711746
-0.0267632 -0.7978461 0.8133445 16711746
0.2862026 -0.8456309 0.6764573 16711746
-0.2604159 0.3360753 -0.4329076 16711746
-0.2322225 0.3349869 -0.4461415 16711746
0.4388615 -0.7668883 0.9043609 16711746
-0.1832742 -0.7452012 0.8469853 16711746
0.0478130 -0.8552836 0.5894787 16711746
0.0006733 -1.0566431 0.6969252 16711746
-0.1930884 -0.7062011 1.0381622 16711746
-0.0325967 0.0836410 -0.1140444 16711746
-0.0095663 0.1521925 -0.2185199 16711746
0.0014725 0.1622018 -0.2284295 16711746
-0.1620134 -0.6838070 1.0732840 16711746
-0.0499691 0.1073297 -0.1245521 16711746
0.2822382 -0.8398802 0.8783841 16711746
0.1456622 -0.8609025 0.5285679 16711746
-0.0640854 -1.0130370 0.5813174 16711746
0.0205053 -0.8409238 0.6492353 16711746
0.1581989 -0.9287446 0.8317253 16711746
-0.1626651 -0.8555769 0.6448956 16711746
0.1436419 -0.8535761 0.6547410 16711746
0.2766853 -0.8408866 0.7141433 16711746
-0.4637131 -0.9748142 0.6942044 16711746
0.1551183 -0.8525330 0.8710476 16711746
0.7050017 -0.9179757 0.7552416 16711746
-0.0105106 -0.7255489 1.0155362 16711746
-0.1040710 -0.6956513 0.9580513 16711746
0.1072067 -0.7227118 1.1451222 16711746
-14.2162237 -224.3524170 141.6919708 16711746
29.9254589 -135.9038849 121.1978226 16711746
-28.2153320 -222.3157806 92.5497055 16711746
-3.5370770 -6.4335980 6.8138771 16711746
-10.8429012 -23.9185238 9.6389122 16711746
6.6571732 -10.2063112 13.2372761 16711746
4.6107788 -130.9327545 137.1026306 16711746
25.8930492 -124.6177063 104.9124374 16711746
-55.3547745 -243.4483948 91.9758987 16711746
-143.9421692 -291.6917725 127.5918655 16711746
6.4951415 -10.3417006 13.6700802 16711746
-155.7970276 -301.1884766 124.7429581 16711746
-174.1302948 -338.1143188 139.6409302 16711746
39.3591881 -148.5034332 137.0292053 16711746
-161.1209869 -272.4178162 95.0659714 16711746
1.6668333 -141.2984314 89.6684494 16711746
-78.0607681 -163.9329071 63.2420235 16711746
-30.7971230 -320.7332153 97.0007629 16711746
