# .PCD v.7 - Point Cloud Data file format
VERSION .7
FIELDS x y z rgb
SIZE 4 4 4 4
TYPE F F F F
COUNT 1 1 1 1
WIDTH 1218
HEIGHT 1
VIEWPOINT 0 0 0 1 0 0 0
POINTS 1218
DATA ascii
0.0890546 0.1402678 0.8813531 16711746
0.0256219 -0.0033170 1.0733054 16711746
0.1951623 0.0333556 0.7425853 16711746
0.3335365 -0.0283514 0.9344572 16711746
0.0770090 0.1455055 0.8397105 16711746
0.4813976 -0.0252056 0.8349708 16711746
0.2145260 -0.0197258 0.9461685 16711746
0.1811218 -0.0155220 0.8733088 16711746
0.3712486 0.1279633 0.7876921 16711746
0.0967388 0.1608844 0.8482756 16711746
0.3371246 -0.0146819 0.9636721 16711746
0.4269491 -0.0177503 1.2416348 16711746
0.2912805 -0.0587720 1.0450574 16711746
0.3654350 -0.0343102 1.2711005 16711746
0.2825525 -0.0315099 0.9299289 16711746
0.1499289 -0.0716386 0.9793229 16711746
-0.1626460 0.0219241 1.1372635 16711746
0.3458809 0.1768575 0.9768748 16711746
1.0587204 0.2869994 1.4626470 16711746
0.2191379 0.1562678 0.8247463 16711746
0.2251330 0.1520043 0.8521302 16711746
0.2935439 0.0441205 0.9575003 16711746
0.1493076 0.1461605 0.8263296 16711746
0.3054528 0.1668156 0.9667283 16711746
0.0884585 0.1489139 0.7781186 16711746
0.1835639 0.1034858 0.7248226 16711746
0.1536983 0.1462741 0.8004322 16711746
0.0672380 0.1472097 0.8842296 16711746
0.0773062 0.1414059 0.7809073 16711746
0.1120282 0.1373921 0.7691498 16711746
0.0896240 0.1423807 0.7880210 16711746
0.0877304 -0.0480120 0.9050657 16711746
0.4341625 -0.0493253 0.8109410 16711746
0.1227194 0.1350280 0.7497652 16711746
0.0725857 0.1463153 0.8439642 16711746
0.2077758 0.0643844 0.7891740 16711746
0.1165607 0.1421755 0.7729190 16711746
-0.0385072 0.1641881 1.0340115 16711746
0.3426475 -0.0506081 0.9094909 16711746
0.1331312 -0.1035546 1.0291314 16711746
0.2062566 0.1496106 0.7997429 16711746
0.4644413 0.1550072 0.8629565 16711746
0.2895155 0.1762456 1.0388349 16711746
0.0886754 0.1588441 0.8209961 16711746
0.1254699 0.1424701 0.7649242 16711746
0.2769652 0.1001589 0.6914132 16711746
0.2549387 0.1477583 0.8006106 16711746
0.4102636 0.1691757 0.8428408 16711746
0.4145289 -0.0795151 0.9544772 16711746
0.0728933 -0.0131230 1.0984678 16711746
0.2157435 0.1510532 0.7888892 16711746
0.2038599 -0.0312311 0.9240549 16711746
0.0214614 0.1548197 0.9786574 16711746
0.1975258 0.1487509 0.8663464 16711746
0.3666614 -0.0696616 0.9810665 16711746
0.5185114 -0.1489743 0.9871785 16711746
0.3423441 0.1540555 0.8678321 16711746
0.1346781 -0.1006011 1.0225002 16711746
0.1836930 0.1027161 0.7220350 16711746
0.1882649 0.1447082 0.8209784 16711746
0.0731502 0.1306553 0.8140799 16711746
-0.0305854 0.1462945 0.8987865 16711746
0.1798920 0.0999742 0.7113714 16711746
-0.0237358 0.0980030 1.1941872 16711746
0.4734043 -0.1171265 0.9379098 16711746
0.0993540 0.1413606 0.7659006 16711746
0.1165065 0.1443456 0.7731184 16711746
0.2118269 -0.0610280 0.9762123 16711746
0.2031187 0.1339716 0.8726395 16711746
0.3534346 0.1235338 0.8156360 16711746
0.0749236 -0.0924253 0.9677276 16711746
0.3831850 0.0197047 0.7841552 16711746
0.2951170 -0.0826826 0.9677561 16711746
0.2850939 0.1553161 0.7852745 16711746
0.1061334 0.1451227 0.7973130 16711746
0.2081110 0.0605604 0.7795896 16711746
0.2449654 0.1521719 0.7812724 16711746
0.2052443 0.0936811 0.8410602 16711746
-0.0545630 0.0741224 1.2439964 16711746
0.0804198 0.1377881 0.7454374 16711746
0.8682063 0.0228175 1.2539338 16711746
0.2907793 0.0433354 0.9552234 16711746
0.2959577 0.1650028 0.8570337 16711746
0.5350133 0.1948324 1.0208403 16711746
1.0014353 0.2702299 1.4166002 16711746
0.0479004 -0.0510683 1.4778503 16711746
0.1966125 0.1010493 0.7415976 16711746
0.1828089 0.1008136 0.7345091 16711746
0.2960617 0.1241271 0.7286408 16711746
0.0766292 0.1419986 0.7819843 16711746
0.3905726 0.1339333 0.8038117 16711746
0.0381933 -0.0061999 0.9128485 16711746
0.0064367 0.1528732 0.8869698 16711746
0.1090097 0.1321819 0.8556253 16711746
-0.1090625 0.0944853 0.9546005 16711746
0.2936812 0.1541205 0.7948535 16711746
0.2265576 0.1480755 0.8107623 16711746
0.1011421 0.1434726 0.7871283 16711746
0.2000426 0.1165381 0.7997786 16711746
0.1987899 0.1436909 0.8516521 16711746
0.1998398 0.1214869 0.8234475 16711746
0.2042391 0.1266311 0.8675954 16711746
0.3743869 -0.0404262 0.9208815 16711746
0.6123914 -0.1229860 0.9960463 16711746
0.2732578 -0.0437864 0.9348660 16711746
0.2857447 0.0268957 0.9533523 16711746
0.3518395 -0.0514438 0.9422860 16711746
0.2848844 0.1289018 0.9976459 16711746
0.1022884 0.1461403 0.8148423 16711746
-0.0021830 0.1582624 1.0289390 16711746
0.3096382 0.1751314 1.0438769 16711746
0.3450543 0.0706806 1.0388153 16711746
0.4438023 -0.0219128 1.2230545 16711746
0.2510370 -0.0302308 1.1827604 16711746
0.2985519 0.0320093 0.7691889 16711746
0.1862589 0.0936834 0.7098894 16711746
0.1075747 0.1445155 0.7972350 16711746
0.3551646 0.1375047 0.7814017 16711746
0.0986772 -0.0337101 0.8930430 16711746
0.1827755 0.0604885 0.7214323 16711746
0.0892892 0.1225072 0.8453403 16711746
0.1856166 0.0874584 0.7201678 16711746
0.0145146 0.1258236 0.8379945 16711746
0.0821383 0.1256130 0.8591657 16711746
0.1409882 0.1508903 0.8329003 16711746
0.1347232 0.1470017 0.8279259 16711746
-0.1471832 0.0972302 0.9939249 16711746
-0.0354879 0.1584809 0.9351980 16711746
0.3877383 -0.0633364 0.9249737 16711746
0.3453514 0.1437883 0.7660385 16711746
0.3754387 -0.0446409 0.9278854 16711746
0.2017381 0.1204365 0.8265780 16711746
0.0016314 0.1360900 0.8623301 16711746
0.0664241 -0.0757148 1.0765095 16711746
0.3303232 0.0047497 0.9799221 16711746
-0.0891217 0.1487313 0.9824443 16711746
0.4459113 0.0967669 1.0089800 16711746
0.5197073 0.1829089 0.9352412 16711746
0.2066147 0.1386406 0.8898192 16711746
0.3567224 0.0128695 1.0656240 16711746
0.2802964 -0.0600753 0.9293211 16711746
-0.0520241 0.1634120 1.0297724 16711746
0.4902588 -0.0273345 1.1211990 16711746
0.2894986 -0.0386602 0.9315766 16711746
0.4102302 0.0592188 1.0318899 16711746
0.4940706 0.1745827 0.9125044 16711746
0.3415910 0.0410216 1.0714582 16711746
0.2873842 0.0374417 0.7570839 16711746
0.3300032 0.0400705 0.7569889 16711746
0.2672319 -0.0394865 0.9150980 16711746
0.3335627 -0.0570317 0.9014722 16711746
0.2047042 0.1426780 0.7850353 16711746
0.4966226 0.1718609 0.9358835 16711746
0.4950588 0.1640213 0.8838428 16711746
0.4078127 -0.0755921 0.9454982 16711746
0.1245246 0.1487423 0.8240347 16711746
0.2450605 0.1452007 0.7882040 16711746
0.2668897 0.1393337 0.7891402 16711746
0.1221319 0.1397574 0.7646389 16711746
-0.0665012 -0.0977861 1.0189222 16711746
0.1043507 0.1446804 0.8123295 16711746
0.2777233 -0.0146433 0.9674281 16711746
0.2555026 -0.0183872 0.9182792 16711746
0.3014264 -0.0344322 0.9614748 16711746
0.3582542 0.0124709 0.8475910 16711746
0.3853590 -0.0435190 0.9499790 16711746
0.3452450 0.1396082 0.8486840 16711746
0.0683628 0.1116408 0.8187490 16711746
-0.1289124 -0.0826787 1.0393246 16711746
0.3045235 0.1572939 0.8637907 16711746
0.2144809 0.1514565 0.8291152 16711746
0.2008384 0.1152668 0.8173078 16711746
0.2670690 -0.0064654 0.8662579 16711746
0.2143252 0.1444382 0.8684699 16711746
0.3061224 -0.0384697 0.9758594 16711746
0.3582647 0.1312933 0.9144799 16711746
0.1036825 0.1471310 0.7936601 16711746
0.0902622 0.0229556 0.8214310 16711746
0.1371960 0.0580206 0.8444725 16711746
0.1178552 -0.0250653 0.8903312 16711746
0.0937645 -0.0178937 0.8814681 16711746
0.3108258 0.1382193 0.8216936 16711746
0.3078351 -0.0373989 0.8895156 16711746
0.2549374 0.1569192 0.8875501 16711746
0.2691912 0.1527622 0.8694063 16711746
0.5516545 0.2209421 0.9469139 16711746
0.3819780 -0.0003296 0.9748288 16711746
0.2838965 0.0832477 0.9782286 16711746
-0.0423203 0.1597442 1.0167385 16711746
0.3000188 -0.0498192 0.9580008 16711746
0.1895377 -0.0398617 1.0704569 16711746
0.1832440 0.1021702 0.7210343 16711746
0.1223157 0.1166616 0.7458143 16711746
0.1134765 0.1445172 0.8200467 16711746
0.0048169 -0.0506889 0.9229230 16711746
0.0982685 0.1557996 0.8490402 16711746
0.0702240 0.1455511 0.8468322 16711746
0.1131962 0.1447422 0.8200450 16711746
0.1122333 0.1102122 0.7537177 16711746
0.1952638 0.1188255 0.7819056 16711746
0.0908257 0.1344843 0.7668341 16711746
0.3153179 0.0268613 0.7533619 16711746
0.0196999 -0.0509991 0.9628891 16711746
0.0309924 -0.0097349 0.9249498 16711746
0.4431881 0.0384457 0.8582465 16711746
0.0714065 0.1493711 0.8887776 16711746
0.2532159 0.1597017 0.8686258 16711746
-0.1319494 0.0281556 1.0817847 16711746
0.6080797 0.1773541 1.0302343 16711746
0.3024155 0.1555542 0.8338404 16711746
0.2373261 0.1537915 0.8762125 16711746
0.3506682 0.0360835 1.0287168 16711746
0.2124512 0.1529499 0.8461981 16711746
0.6170032 0.1801253 1.0304394 16711746
0.3514521 0.1126559 1.0099007 16711746
0.6303759 0.2109974 1.1735207 16711746
0.1988554 -0.0243515 0.9589502 16711746
0.5719212 0.1694772 1.0026628 16711746
0.3875032 0.1661544 0.8269792 16711746
0.3620074 0.0900604 0.9397474 16711746
0.1992363 -0.0137605 0.9299625 16711746
0.0305494 -0.0392804 0.9387332 16711746
-0.1445461 -0.0371242 1.0421395 16711746
-0.1353824 -0.0459886 1.0310755 16711746
0.3186417 0.0687537 0.9641320 16711746
0.2081598 0.1492265 0.8080235 16711746
0.0954550 0.1391614 0.8194259 16711746
0.1814203 0.0976879 0.7089922 16711746
0.1816773 0.1435298 0.8280239 16711746
-0.0448008 0.1241598 0.8798874 16711746
0.1824753 0.1455999 0.8328860 16711746
0.3127956 0.0339067 0.8427330 16711746
-0.0224287 0.1512986 0.9109919 16711746
0.3653626 0.1502306 0.8008538 16711746
0.3700745 -0.0261728 0.9650259 16711746
0.3683863 -0.0262504 1.1372271 16711746
0.3764302 0.1613298 0.8186053 16711746
0.0849942 0.1435643 0.8327449 16711746
0.2522810 0.1580148 0.9549753 16711746
0.3461239 0.0196137 1.0098149 16711746
0.8658998 0.2386215 1.2525361 16711746
0.3450844 0.0499035 1.0004238 16711746
0.1687575 -0.0019996 1.1062152 16711746
0.0615000 0.2407928 1.5843049 16711746
0.3833269 -0.0396420 0.9262483 16711746
0.1982920 -0.0140645 0.9204037 16711746
0.0766019 0.1550647 0.8869368 16711746
0.2520493 -0.0231475 0.8937440 16711746
0.0729703 0.1446630 0.8445182 16711746
0.3289458 0.1417325 0.8049265 16711746
0.2072115 0.1437794 0.7972585 16711746
0.3227007 -0.0023945 0.9122900 16711746
0.2680773 -0.0128894 0.8728464 16711746
0.0748531 -0.0278086 0.9241944 16711746
0.1913064 0.1387742 0.8544288 16711746
0.2916160 0.1520100 0.8495411 16711746
0.3217605 0.0091466 0.9615287 16711746
0.3505327 0.1420676 0.8617094 16711746
0.3438981 -0.0055035 0.9796111 16711746
0.1522888 0.1660736 0.9967865 16711746
0.3142143 0.0170250 0.7758601 16711746
0.2072506 0.1472698 0.8158612 16711746
0.4129194 0.0622210 0.8149270 16711746
0.4049968 0.1374948 0.8329597 16711746
0.2883805 0.0543183 0.8223907 16711746
-0.0655236 -0.0934577 0.9917632 16711746
0.2792919 0.0074659 0.9680126 16711746
0.2772173 -0.0180942 0.9744262 16711746
0.5217375 0.1555127 0.9434458 16711746
0.4286641 0.1125912 1.1025486 16711746
0.2726031 0.0906462 0.9513010 16711746
0.4245718 0.1888154 1.0940070 16711746
0.5157608 -0.0625396 0.9186825 16711746
0.0166129 0.1386617 0.8682144 16711746
-0.1712205 -0.0611609 1.0732056 16711746
0.3459274 -0.0050641 0.9807268 16711746
-0.0664401 -0.0304617 0.9243734 16711746
0.0174894 0.1314350 0.7985493 16711746
0.2076224 0.1461110 0.8016939 16711746
0.4315549 0.0409626 0.8487460 16711746
-0.0402194 -0.0299974 1.0370322 16711746
0.2133359 0.0607004 0.7780212 16711746
-0.1034580 -0.0804788 0.9983612 16711746
0.2021450 0.0969265 0.7790368 16711746
0.3091990 0.1466618 0.8271065 16711746
-0.1634723 -0.0352706 1.0338736 16711746
0.2899230 0.1507133 0.8258876 16711746
0.3107886 0.0150146 0.9360030 16711746
0.0371477 0.1525309 0.9090629 16711746
-0.2125733 -0.0680042 1.1420152 16711746
0.3769179 0.0075185 1.0017220 16711746
0.1353198 -0.0681714 1.0343090 16711746
0.3708589 0.0127724 1.0756131 16711746
0.0820169 0.1307947 0.8270628 16711746
0.3039577 0.1479130 0.7924522 16711746
0.3400300 0.1241622 0.8105300 16711746
0.1193642 0.1157668 0.7470482 16711746
0.2996773 0.1275123 0.7752407 16711746
0.2584358 0.1237193 0.7724274 16711746
0.2678722 0.1007067 0.7347828 16711746
0.3205915 0.0740743 0.8277018 16711746
0.2536342 0.1463501 0.7973686 16711746
0.3724943 -0.0051659 0.9618830 16711746
0.5728046 0.0536155 0.9308338 16711746
0.3017230 0.1273552 0.7546387 16711746
0.1469829 0.1469023 0.8950657 16711746
0.3700155 0.0847320 0.9506856 16711746
0.3744737 0.1463999 0.8862672 16711746
0.4576110 -0.0306482 0.8365615 16711746
0.6194330 0.0565251 1.0165230 16711746
0.1822297 0.1420400 0.8242105 16711746
0.5135004 -0.0797553 1.1107447 16711746
0.2868827 -0.0334637 0.9576556 16711746
0.4944094 -0.0395563 1.0568190 16711746
0.2946599 0.0055478 0.9054597 16711746
0.7117758 0.0881611 1.0135694 16711746
0.3694811 0.1382459 0.9738095 16711746
0.3168687 0.0479270 0.9471965 16711746
0.3346009 0.1247934 0.8752814 16711746
0.2231497 -0.0011433 0.9634451 16711746
0.2871157 0.1576858 0.9037026 16711746
0.4003408 0.1661016 0.9419292 16711746
0.4327579 0.1520605 0.9029493 16711746
0.2909040 -0.0029642 0.9754430 16711746
0.2919552 0.0404797 0.9820756 16711746
0.3365373 0.1305780 0.8413808 16711746
0.5025361 -0.0538755 0.9017223 16711746
0.1582115 -0.0519263 0.9895349 16711746
0.3035815 0.1519041 0.8391944 16711746
0.3240079 0.1620280 0.9290355 16711746
-0.0091621 -0.0324068 0.9813607 16711746
0.3254031 -0.0596422 1.0290031 16711746
0.2807529 0.1444363 0.7767382 16711746
-0.3306106 -0.0527903 1.2092538 16711746
0.2509325 -0.0367421 0.9687380 16711746
0.2801185 -0.0073410 0.9680163 16711746
0.3184263 0.1183715 0.8500546 16711746
0.3396654 0.1527848 0.8649384 16711746
0.2864091 0.1421251 0.7655178 16711746
0.3363326 0.1181040 0.8074102 16711746
0.1826956 -0.0146357 0.9205841 16711746
0.2036386 -0.0331782 0.9288791 16711746
0.2330954 0.0931835 0.7531007 16711746
0.3285701 0.0620887 0.8739700 16711746
0.2886314 0.0281188 0.9640939 16711746
0.1078245 -0.0350453 1.1452444 16711746
0.4391373 0.1333141 1.0529001 16711746
0.6104305 -0.1264415 1.3574095 16711746
0.1615306 0.1349727 0.8124923 16711746
0.1374396 0.1421305 0.7925171 16711746
0.1976699 0.1096737 0.7870305 16711746
0.0137886 -0.0369085 0.9741970 16711746
0.1769677 0.1371546 0.8239434 16711746
0.1567480 0.1458923 0.8342879 16711746
0.2066611 0.1436767 0.8084180 16711746
0.3352069 0.1311609 0.7701648 16711746
0.1778061 0.1381779 0.8194680 16711746
0.3318020 0.1361146 0.8080412 16711746
0.3963208 -0.0520324 0.9430603 16711746
0.1631640 0.0620424 0.9442847 16711746
0.1958779 0.1242763 0.7811547 16711746
0.3395642 -0.0345812 0.9306285 16711746
0.2799295 0.1455137 0.8284307 16711746
0.3140430 -0.0153432 0.9232927 16711746
0.7201352 0.0883121 1.0216537 16711746
0.4280849 -0.0153090 1.1845752 16711746
0.6351371 -0.0734820 1.0519226 16711746
0.2866355 -0.0206776 0.9675541 16711746
0.3329358 0.0161609 0.9074559 16711746
0.0705679 0.1597221 1.0909410 16711746
0.3126169 -0.0241875 0.9364495 16711746
0.4303551 -0.0122362 0.9769608 16711746
0.1029146 0.1410382 0.7831872 16711746
0.1616472 0.1318826 0.8488790 16711746
0.1449000 0.1349883 0.9181845 16711746
0.1617672 0.1431150 0.8615158 16711746
0.1555128 0.1349912 0.9261389 16711746
0.2274587 0.1484020 0.8046903 16711746
0.1646595 0.1414141 0.7983310 16711746
0.1986270 0.1017281 0.7882261 16711746
0.2067089 0.1232555 0.8349755 16711746
0.1567942 0.1211834 0.9013671 16711746
0.4259982 0.1527837 0.8570452 16711746
0.2810566 0.0919130 0.9789147 16711746
0.2948571 0.0212279 1.0691279 16711746
0.1443091 0.1391049 0.8139583 16711746
0.2948553 0.1742904 1.0353099 16711746
0.1336961 0.1642203 1.1716170 16711746
0.3809247 0.1310717 0.9150600 16711746
0.4897406 -0.0103395 1.0828519 16711746
0.3726181 0.1511984 0.8125761 16711746
0.3198847 0.1358441 0.7717977 16711746
0.2865010 0.0464683 0.9411040 16711746
0.2915358 -0.0055004 0.9332536 16711746
0.2665764 0.0103274 1.0041659 16711746
0.2974536 -0.0247399 0.9141028 16711746
0.4690875 0.1572754 0.8681055 16711746
0.4686093 -0.0326175 0.8952972 16711746
0.2782080 -0.0424478 0.9969934 16711746
0.3492373 0.1429887 0.8620005 16711746
0.4392974 0.1686987 0.9474643 16711746
0.2523719 -0.0311258 0.9242409 16711746
0.1144891 0.1402902 0.9029944 16711746
0.1376661 0.1453137 0.8243140 16711746
-0.1421881 0.0267171 1.0902948 16711746
0.3211320 0.0438054 0.7518842 16711746
0.1562265 0.1451686 0.8379388 16711746
0.2144425 0.1399419 0.8544688 16711746
0.1188472 0.0351629 1.0838095 16711746
0.4820262 0.0318570 0.8864571 16711746
0.1787428 0.1434634 0.8323874 16711746
0.1377487 0.1440601 0.8209139 16711746
0.1479531 0.1388196 0.8251091 16711746
0.2279276 0.1453841 0.8188232 16711746
0.1669662 0.1371661 0.8923720 16711746
0.2838848 -0.0152166 0.9544207 16711746
0.2073681 0.1449841 0.7994326 16711746
0.1473021 0.1398077 0.8269252 16711746
0.1618857 -0.0411714 0.9656753 16711746
0.1123974 0.1296052 0.8458093 16711746
0.2192514 0.1481622 0.8354665 16711746
0.1453418 0.1564901 1.0217751 16711746
0.2941277 0.1581846 0.8550716 16711746
0.2218403 0.1527792 0.8650407 16711746
0.1408487 0.2170511 1.5334127 16711746
0.2925574 0.1454832 0.7912282 16711746
0.3211167 0.1168897 0.7841792 16711746
0.2789055 -0.0344493 0.9882303 16711746
0.3165537 -0.0275827 0.9603957 16711746
0.1943685 0.1140255 0.7761057 16711746
0.1987756 0.1365497 0.8018934 16711746
0.1581840 0.1364219 0.8055794 16711746
0.1494229 0.1451572 0.8282634 16711746
0.1826017 0.1435536 0.7990490 16711746
0.1567639 0.1412279 0.7887841 16711746
0.1824629 0.1436976 0.7994447 16711746
0.0968886 -0.0246783 1.0305948 16711746
0.2126142 0.1414980 0.8072572 16711746
0.2395133 0.1483480 0.8408898 16711746
0.2417253 0.1531990 0.8528915 16711746
0.2012526 0.1479919 0.8066788 16711746
0.1967116 0.1141805 0.7908840 16711746
0.1499090 0.1335302 0.7977346 16711746
0.1437181 0.0282041 0.9994717 16711746
-0.1207379 -0.1040094 0.9969930 16711746
0.1570039 0.1579723 0.9656368 16711746
0.3156496 0.1258048 0.7813427 16711746
0.1546233 0.0442644 1.0062661 16711746
0.1481937 -0.0385737 1.0183955 16711746
0.2406715 0.1626249 0.9263539 16711746
0.2668790 0.1579106 0.9560646 16711746
0.3261988 0.1451531 0.8274806 16711746
0.3746631 -0.0383989 0.9205389 16711746
0.2945304 0.1496836 0.8205156 16711746
0.6027517 0.0605641 0.9550627 16711746
0.4485505 -0.0424818 0.9684710 16711746
0.2170480 0.1522651 0.8932132 16711746
0.3989529 -0.0445109 1.0125982 16711746
0.3542536 0.1448454 0.8287394 16711746
0.1983061 0.1425909 0.8141203 16711746
0.1476034 0.1430319 0.8000546 16711746
0.2819261 0.0547933 0.7640831 16711746
0.3316075 0.1488304 0.8332369 16711746
0.0878857 -0.0459274 1.0630716 16711746
0.1294935 0.1781759 1.2295731 16711746
0.3254952 0.1543868 0.8692240 16711746
0.3220363 0.1537015 0.8346326 16711746
0.1048625 -0.0467885 1.1875180 16711746
0.0651525 -0.0740544 1.0691636 16711746
0.3358378 0.1368047 0.8486072 16711746
0.5423722 0.1776343 0.9168229 16711746
0.2374035 0.1467223 0.8390456 16711746
0.1829918 0.1448186 0.8314151 16711746
0.1962180 0.1118785 0.7852822 16711746
0.1956349 0.1124331 0.7876809 16711746
0.2864738 -0.0353247 0.9871867 16711746
0.3532948 -0.0456499 0.9212998 16711746
0.2134133 0.1480970 0.8209366 16711746
0.3221745 0.1105326 0.7860617 16711746
0.4747251 -0.0014946 0.8865913 16711746
0.1219403 0.0449696 1.0529786 16711746
0.2586409 0.1380755 0.7846178 16711746
0.4259747 0.0313944 0.9260793 16711746
0.1195648 0.1404060 0.9066171 16711746
0.4493273 0.1760072 1.0184294 16711746
0.4568162 0.1633673 0.8820335 16711746
0.4106016 0.0707288 1.0735126 16711746
0.1447460 -0.0494619 1.0442115 16711746
0.6446016 -0.0989631 1.5354961 16711746
0.2562759 0.1649029 0.9775096 16711746
0.3863419 0.1568925 0.8222094 16711746
0.2475341 -0.0286234 0.9512619 16711746
0.1434569 0.1200134 1.0320159 16711746
0.3523096 0.1369583 0.8235178 16711746
0.1306385 0.1434985 0.7789240 16711746
0.3418210 0.1274690 0.8988327 16711746
0.3096421 0.1521387 0.7981504 16711746
0.3272421 0.1204877 0.7978308 16711746
0.3432536 0.1384125 0.7832233 16711746
0.2702992 0.1505165 0.8061027 16711746
0.1999695 0.1368819 0.8343900 16711746
0.1830510 0.1380525 0.8152259 16711746
0.3360625 0.1029244 0.8932690 16711746
0.1213718 0.1440462 0.8504107 16711746
0.4822004 0.1649223 0.9431767 16711746
0.3109233 0.1151041 0.8188098 16711746
0.2932112 0.1608991 0.9895865 16711746
0.1417840 0.1153079 0.8005193 16711746
0.1292785 0.1449986 0.8147897 16711746
0.2035940 0.0959092 0.7599585 16711746
0.1963706 0.1130298 0.7721508 16711746
0.1970096 0.1118621 0.7706190 16711746
0.1969531 0.1127312 0.7724542 16711746
0.1031533 -0.0448096 1.1795443 16711746
0.1515186 0.1439159 0.8205251 16711746
0.2488168 0.1510267 0.9779150 16711746
0.2389607 0.1527769 0.8581451 16711746
0.3587322 0.1067663 0.9280382 16711746
0.4885777 -0.0461705 0.8960648 16711746
0.0058225 0.1832983 1.0294400 16711746
-0.0267383 0.1562448 0.9277968 16711746
0.4114307 0.0389942 0.9059574 16711746
0.2711141 0.0479327 0.9599945 16711746
0.3066156 0.1503240 0.8211260 16711746
0.2030692 0.1384485 0.8315706 16711746
0.2388970 0.1476380 0.8379466 16711746
0.2987102 0.0524811 0.8296739 16711746
0.2851631 -0.0287644 0.9498351 16711746
0.2750521 0.0172673 0.9315321 16711746
0.1369654 0.1660102 1.0746270 16711746
0.2565866 -0.0146177 0.8939669 16711746
0.2884645 0.1494270 0.8234069 16711746
0.0860119 -0.0513706 1.0195609 16711746
0.2812560 0.1475956 0.8053451 16711746
0.0720284 -0.0307862 1.0579547 16711746
0.0878094 -0.0024412 1.0419911 16711746
0.2066422 0.1127006 0.8151226 16711746
0.1372800 0.1304265 0.8772663 16711746
0.1657707 0.1402895 0.8466750 16711746
0.2895707 0.1442138 0.8232281 16711746
0.3234611 0.1365003 0.8291903 16711746
0.2787674 0.0196371 0.8883364 16711746
0.2885055 0.1415718 0.7860030 16711746
0.1317054 0.1429344 0.8124403 16711746
0.1435351 0.1357245 0.7991753 16711746
0.2687477 0.1333451 0.7916990 16711746
0.2643950 0.0404744 0.9423492 16711746
0.3957533 -0.0520714 0.9650560 16711746
0.3758430 0.1475668 0.9169673 16711746
0.3478332 -0.0120666 1.0107610 16711746
-0.0367494 -0.0892624 1.0965705 16711746
0.3097610 0.0038661 1.0638249 16711746
0.3082993 0.1508837 0.8995661 16711746
0.2972176 0.0030595 0.9776641 16711746
0.2847911 0.0720223 0.9546695 16711746
0.3672527 -0.0325977 0.9086246 16711746
0.3551972 0.0934967 1.0234126 16711746
0.3096300 0.1181285 0.8408075 16711746
0.1280709 0.0267283 1.1088297 16711746
0.2731710 -0.0395375 0.9542386 16711746
0.2806884 0.1503424 0.8215517 16711746
0.1944396 0.1155933 0.7802120 16711746
0.1206240 0.1355841 0.7943084 16711746
0.1524799 0.1440303 0.8526511 16711746
0.0884835 0.1425753 0.8272188 16711746
0.1637723 0.1455989 0.8351187 16711746
0.3296874 0.1330748 0.8013550 16711746
0.2404611 0.0002130 0.9001749 16711746
0.0384190 0.0086308 0.9436597 16711746
0.1749019 0.1395141 0.8281259 16711746
0.0655203 0.1341099 0.8294947 16711746
0.1983459 0.1419392 0.8127540 16711746
0.2887574 -0.0366331 0.9645346 16711746
0.1120248 0.1615217 1.0100307 16711746
0.3246508 -0.0189690 0.9600046 16711746
0.4214246 0.1482623 0.8199037 16711746
0.2203595 0.1515224 0.8628341 16711746
0.1115384 0.0149201 0.9724884 16711746
0.1216326 0.0119524 0.9542726 16711746
0.2508778 0.0600966 0.8731523 16711746
0.2770560 -0.0225688 0.9857650 16711746
0.3093038 -0.0031109 0.8951392 16711746
0.3286944 0.1412339 0.8021843 16711746
0.3235835 -0.0174178 0.9552356 16711746
0.0052553 0.1580513 0.8971513 16711746
0.2474902 0.1517601 0.8656237 16711746
0.2998748 0.0047100 0.9420850 16711746
0.1983741 0.1520545 0.8778098 16711746
0.1563892 0.1403202 0.8309537 16711746
0.1141010 0.1457112 0.8497406 16711746
0.1911430 0.1247264 0.7888719 16711746
0.2419872 0.0976136 0.7600902 16711746
0.2159355 0.1377251 0.8516218 16711746
0.2184954 0.1459309 0.8329401 16711746
0.3877908 0.1348068 0.8129022 16711746
0.1015688 0.1349498 0.8618944 16711746
0.1155259 0.1433991 0.8067528 16711746
0.2636891 0.1097614 0.7336895 16711746
0.0961459 0.1405599 0.8455855 16711746
0.0600307 0.1479090 0.8842713 16711746
-0.0189888 0.0986746 0.9356424 16711746
0.0979305 0.1419083 0.8611388 16711746
0.1019662 -0.0327717 1.0269922 16711746
0.1582688 -0.0260995 0.9555594 16711746
0.3290814 -0.0233700 0.9707525 16711746
0.0980627 -0.0378444 1.0430160 16711746
0.0305523 0.0060103 0.9800929 16711746
0.1060886 0.1209640 0.9238223 16711746
0.0767645 0.0272313 0.9131237 16711746
0.2035613 0.0913086 0.8133428 16711746
0.0415203 -0.0098579 0.9587554 16711746
-0.0246203 -0.0399980 1.0046927 16711746
0.2642206 0.0436825 0.9399738 16711746
0.3021232 0.1556887 0.8836564 16711746
0.4317252 0.0194098 1.1795577 16711746
-0.2261308 0.0936866 1.4113201 16711746
0.1970733 0.0975997 0.7765107 16711746
0.0254399 0.0962645 0.8922472 16711746
0.2188310 0.1459664 0.8436703 16711746
0.1130156 0.1440772 0.9225969 16711746
0.0707261 0.1353630 0.8357320 16711746
0.1993352 0.1404863 0.8474266 16711746
0.0233382 0.1348076 0.9472403 16711746
0.1998834 0.1079884 0.7782148 16711746
0.2161470 0.1425596 0.8653088 16711746
0.1898753 0.0244148 0.8903784 16711746
0.1170624 0.1361956 0.8867681 16711746
0.2005521 0.0983721 0.7856879 16711746
0.0616271 0.1378031 0.9240183 16711746
-0.0029442 0.1294547 0.9090307 16711746
0.2437617 -0.0067426 0.9208697 16711746
-0.0108231 -0.0732776 1.0417129 16711746
0.2841694 -0.0175470 0.9489253 16711746
0.0815004 0.1435423 0.8477431 16711746
0.2822952 0.0089488 0.9430972 16711746
0.2747277 -0.0013459 1.0461863 16711746
0.3914599 0.0052392 1.0554633 16711746
0.2469513 -0.0019574 1.1030624 16711746
0.3819562 -0.0150158 1.0702790 16711746
0.4012372 -0.0435947 1.1240922 16711746
0.1967203 0.1488238 0.8677638 16711746
0.2766983 -0.0027468 1.0614326 16711746
0.5054937 -0.0720677 1.0524610 16711746
0.2865883 -0.0112962 0.9557280 16711746
-0.0022033 -0.0653966 1.0356337 16711746
0.2456453 0.1478625 0.8568167 16711746
-0.0193414 -0.0420180 1.0242947 16711746
-0.0109691 -0.0393057 1.0417162 16711746
0.2374208 0.1263530 0.9426439 16711746
-0.0578423 -0.1043693 1.1098033 16711746
0.2280681 0.1261818 0.9034675 16711746
-0.1164031 -0.0676125 1.0647337 16711746
0.3293697 0.1433494 0.8368323 16711746
0.3355746 0.1143279 0.8041825 16711746
-0.2312414 -0.0305254 1.1301113 16711746
-0.0375578 0.1585682 1.0107491 16711746
0.3983012 0.1073195 1.0466021 16711746
0.7661333 0.2370639 1.4411682 16711746
0.2039325 0.0948421 0.7644029 16711746
0.2641944 0.1483293 0.8305597 16711746
0.2007501 0.1424942 0.8443015 16711746
0.2253080 0.1312064 0.8433477 16711746
0.0339450 0.0958285 0.8854464 16711746
0.4399213 0.0099739 0.9120762 16711746
0.1244736 0.1361160 0.8867351 16711746
0.2574193 0.0679183 0.9657359 16711746
0.2436109 0.1721600 1.1847868 16711746
-0.4028992 -0.0877246 1.3222120 16711746
0.3008924 0.0689679 1.0079231 16711746
0.3075362 0.0679170 1.0285496 16711746
0.2284224 -0.0123965 1.1085242 16711746
0.1227431 0.1660519 0.8771560 16711746
0.4234749 0.1995777 1.1321118 16711746
0.2132981 0.1455528 0.8430058 16711746
0.2161360 0.1328733 0.8383899 16711746
0.2007127 0.1212939 0.8233163 16711746
0.3837125 -0.0426019 0.9468499 16711746
0.3398247 -0.0161349 0.9253048 16711746
0.4103562 -0.0627960 1.0315015 16711746
0.0645179 -0.0509447 1.0144570 16711746
0.2602139 0.1497698 0.8412493 16711746
0.3416736 0.1242063 0.8114831 16711746
0.3775625 0.0380229 0.9929588 16711746
0.2072683 0.1124537 0.7999970 16711746
0.2737048 0.1460511 0.8479111 16711746
0.2704085 0.1367330 0.8121100 16711746
0.2642695 0.1485471 0.8318561 16711746
0.2979926 0.0421587 0.8232238 16711746
0.3107717 0.0450799 0.8221257 16711746
0.4508965 0.0676548 0.9203384 16711746
0.2134998 0.1475466 0.8474950 16711746
0.3044825 0.1534571 0.8603086 16711746
0.0489302 0.1492887 0.8976574 16711746
0.3112256 0.1540709 0.8887070 16711746
0.3337042 0.0618839 0.9772381 16711746
0.3055725 0.1495665 0.8202751 16711746
0.3541375 0.0759998 0.9653501 16711746
0.2539387 0.0117516 1.1213366 16711746
0.0181648 0.1528242 1.1177697 16711746
0.4793562 -0.0981539 1.0544957 16711746
0.2532838 -0.0091482 1.1162949 16711746
0.2310702 -0.0231907 1.0639689 16711746
-0.2790370 -0.0611861 1.1961266 16711746
-0.2518406 -0.0407702 1.1287246 16711746
0.3917314 0.0831304 0.9895436 16711746
0.2556629 -0.0242289 1.1088715 16711746
0.3736741 0.0830551 0.9621302 16711746
0.2368959 0.1536820 0.8752581 16711746
0.3368855 0.1326665 0.8309880 16711746
0.2696431 0.1469396 0.8264501 16711746
0.3224051 -0.0020385 0.9062933 16711746
0.3578020 0.0566445 0.9319370 16711746
0.1153976 0.1400680 0.9028229 16711746
0.3251619 -0.0034171 0.9086922 16711746
0.2935677 0.1415070 0.8076846 16711746
0.2852024 0.1073477 0.7663578 16711746
0.1981993 0.1039639 0.7597274 16711746
0.2785718 0.1490595 0.8808199 16711746
0.3067518 0.1448476 0.8185660 16711746
0.3042974 0.0037558 0.8936910 16711746
0.5363436 -0.0091185 0.9554368 16711746
0.3672559 0.0837034 0.9729317 16711746
0.2070222 0.1405028 0.8339888 16711746
0.0573198 -0.0361531 1.0039960 16711746
0.4066162 0.0567048 0.8861254 16711746
0.1490573 0.1381499 0.8235169 16711746
0.2830404 0.0115033 0.9393516 16711746
0.4300337 0.0124055 0.8576072 16711746
0.2673337 0.0501611 0.9439674 16711746
0.0132844 -0.1004039 1.1240523 16711746
0.3499390 0.1478840 0.8439288 16711746
0.6130262 0.0510305 0.9607968 16711746
0.2877005 0.0341702 0.9686618 16711746
0.2764637 0.0928427 0.9859421 16711746
0.3824757 0.0927862 0.9728841 16711746
0.3490665 0.1160552 1.0460759 16711746
0.5782796 0.2206796 1.2911389 16711746
0.3325883 0.1299196 0.8384973 16711746
0.4135294 0.1467099 0.8796915 16711746
0.0648023 0.0188132 0.9176141 16711746
0.3412585 0.0964205 0.8872057 16711746
0.2479936 -0.0115660 1.0602429 16711746
0.4125915 0.0542161 1.0233551 16711746
0.3578484 0.0158924 1.0514885 16711746
0.3698696 0.0864271 0.9512568 16711746
0.2189035 0.1444378 0.8395250 16711746
-0.0239732 -0.0638951 0.9985866 16711746
0.2641208 -0.0103652 0.9407922 16711746
0.3738663 0.1488050 0.8402413 16711746
0.3249859 -0.0031574 0.9323016 16711746
0.2075620 0.1322730 0.8154221 16711746
0.1932454 0.1343795 0.8420084 16711746
0.1956946 0.1303347 0.8323471 16711746
0.1085413 0.1333749 0.8432559 16711746
0.4039642 0.0597676 0.8829299 16711746
0.2322410 0.0056936 0.9259838 16711746
0.3210207 0.0006796 0.9250849 16711746
0.3084146 -0.0212422 0.9357406 16711746
0.3108852 -0.0056924 0.9295166 16711746
-0.0811430 0.0085800 0.9875409 16711746
0.3079206 0.1157077 0.8158215 16711746
0.3095456 0.1445399 0.8479905 16711746
-0.1164385 -0.0067787 1.0422770 16711746
0.2724818 0.0226450 0.9073013 16711746
0.3707956 0.0733832 1.0007983 16711746
0.3215221 -0.0105174 0.9341772 16711746
0.2801423 0.1708968 0.9048865 16711746
0.3485833 0.1429283 0.9429101 16711746
0.3837391 -0.0111556 1.0498935 16711746
0.2895486 0.0222540 0.9626690 16711746
0.3468755 0.0992103 0.9550748 16711746
0.5853921 0.1554033 1.1400648 16711746
0.3769803 0.1545765 1.0034678 16711746
0.7743036 0.1501193 1.1227137 16711746
0.0858433 0.1811754 1.2289748 16711746
0.1996997 0.1202926 0.8235388 16711746
0.2801279 0.0570875 0.8122824 16711746
0.2055334 0.1077470 0.8272767 16711746
0.2845799 -0.0010431 0.9616690 16711746
0.3157231 0.1560496 0.9120041 16711746
-0.0356588 -0.0703720 1.0114262 16711746
-0.0866087 -0.0997276 1.0857862 16711746
-0.1476364 -0.0475031 1.0801153 16711746
0.4441018 0.0892637 1.0111254 16711746
-0.0970403 -0.0292610 1.0300083 16711746
-0.1083891 -0.0042094 1.0329802 16711746
0.3417585 0.1486932 0.8315377 16711746
0.0681084 -0.0262128 0.9864625 16711746
0.1891029 0.1754090 1.0931429 16711746
0.5366212 0.1931376 1.2289811 16711746
0.5254997 0.1821014 1.1152016 16711746
0.3425521 0.0227943 0.9284117 16711746
0.1954454 0.1363258 0.8210581 16711746
0.2357023 -0.0138517 0.9751623 16711746
0.3532523 0.0412782 0.9012797 16711746
0.3672057 0.0394385 0.8360843 16711746
-0.0216205 -0.0327838 1.0469872 16711746
0.3210610 0.1388466 0.8274523 16711746
0.1989966 0.1234257 0.8149628 16711746
0.1175647 0.1338591 0.8319296 16711746
0.2289444 0.1469647 0.8405921 16711746
0.2249300 0.0032206 0.8935384 16711746
0.2854825 -0.0018830 0.9637371 16711746
0.2686611 0.1513020 0.8644173 16711746
-0.0347850 -0.0113608 0.9655142 16711746
0.3427845 0.1068674 0.8907264 16711746
0.1357396 0.1453038 0.8317078 16711746
0.5635720 -0.0250017 0.9779924 16711746
0.3196145 0.1110627 0.7999341 16711746
0.3690782 0.0544423 0.9261101 16711746
0.3972828 0.0544373 0.9955276 16711746
0.0863000 0.1413940 0.8442324 16711746
-0.0057061 -0.0333645 0.9770331 16711746
0.3293536 0.1264951 0.9409547 16711746
0.2523623 0.1530615 0.8773466 16711746
0.2007704 0.1017476 0.7540880 16711746
0.0239496 0.0276330 0.9777101 16711746
-0.0213934 0.1698013 1.0148542 16711746
0.1650052 0.1809643 1.0062624 16711746
0.2308932 0.0243296 1.0734845 16711746
0.4590999 0.1628532 0.9916757 16711746
0.2688584 0.0965066 0.9146358 16711746
0.1861919 0.1323998 0.8325688 16711746
0.3464982 0.1430808 0.8800253 16711746
0.2826561 -0.0075947 0.9735797 16711746
0.3374901 0.1328024 0.8771676 16711746
0.3307831 0.0972803 0.9436284 16711746
0.0345781 0.2156796 1.2297062 16711746
0.1280930 0.1738577 1.0077523 16711746
0.2731023 0.1804813 1.0099748 16711746
0.4964085 0.1798055 1.1573199 16711746
0.2999203 0.1405205 0.8159730 16711746
0.2283042 0.1439602 0.8345166 16711746
0.2559505 0.1381056 0.8122841 16711746
0.2687203 0.1460854 0.8253041 16711746
0.2689041 0.1090356 0.7801821 16711746
0.4400357 0.1556387 0.8962178 16711746
0.1324393 0.1227424 0.8014964 16711746
0.2256272 0.0216999 0.9820760 16711746
0.2809969 0.1527251 0.8635934 16711746
0.2722286 0.1447874 0.8452868 16711746
0.2246636 0.1494664 0.8857095 16711746
0.3384762 0.0203921 0.8551043 16711746
0.3580917 0.1458193 0.8298452 16711746
0.3417375 0.1515663 0.9529085 16711746
0.3656410 0.1516494 0.9030589 16711746
0.5589278 0.0348252 1.0160791 16711746
0.4283707 0.0163977 0.9987450 16711746
0.2850812 0.1467074 0.8193922 16711746
0.2015333 0.1044990 0.8051409 16711746
0.2066063 0.1132060 0.8064777 16711746
0.1912853 0.1309508 0.8056555 16711746
0.2957654 0.1474995 0.8118479 16711746
0.2374610 0.1435128 0.8300128 16711746
0.2588491 0.1416524 0.8181925 16711746
0.2900558 0.1459022 0.8212782 16711746
0.2138298 0.1418324 0.8577163 16711746
0.2768120 0.0622954 0.7952003 16711746
0.1115034 0.1301765 0.8473353 16711746
0.2061796 0.1308820 0.8178538 16711746
0.3039407 0.1345243 0.8143140 16711746
0.1935445 0.1318792 0.8338483 16711746
0.2048400 0.1366668 0.8312644 16711746
0.0703983 0.1467852 0.8960570 16711746
0.2028058 0.0906180 0.8044999 16711746
0.1972342 0.1082060 0.8225746 16711746
0.2273327 -0.0018663 1.0251353 16711746
0.1055077 0.1342594 0.8258098 16711746
0.1939505 -0.0032953 0.9567057 16711746
0.2246254 0.1420470 0.9335151 16711746
0.2548891 0.1652235 1.0428033 16711746
0.3803399 0.0553786 0.8678961 16711746
0.0813395 -0.0266117 0.9542299 16711746
0.3652426 0.1327664 0.8408124 16711746
0.1748281 0.1368911 0.8689768 16711746
0.0922562 0.1536841 0.8794156 16711746
0.2981273 0.1487958 0.8348125 16711746
0.0711016 -0.0027308 0.8992727 16711746
0.1968384 0.1286764 0.8271892 16711746
0.2133159 0.1385347 0.8281128 16711746
0.2776093 -0.0275524 0.9685290 16711746
0.3021750 0.1463245 0.8254023 16711746
0.2561128 -0.0067630 1.1211270 16711746
0.3236915 0.0973274 0.9309834 16711746
0.2800350 0.0517430 0.9124337 16711746
0.5824634 0.2076839 1.2164119 16711746
0.2698000 0.1773745 1.2190151 16711746
0.1534226 0.1143761 0.7851113 16711746
0.2904162 0.1228805 0.7826779 16711746
0.1336606 0.0566795 0.8145743 16711746
0.2042916 0.1273127 0.8202233 16711746
0.2136945 0.1358421 0.8234649 16711746
0.2056895 0.1325741 0.8213508 16711746
0.3195230 0.1434380 0.8287813 16711746
0.3388171 0.1464452 0.8091192 16711746
0.1606439 0.1249777 0.8628814 16711746
0.2761178 0.0555837 0.8219602 16711746
0.2024056 0.1002372 0.8000348 16711746
0.2718527 0.0609398 0.8003350 16711746
0.3090141 0.0016758 1.0136617 16711746
0.2718475 0.0165822 0.9433238 16711746
0.4682039 -0.0006578 0.9481476 16711746
0.2296772 0.0039950 1.1443847 16711746
0.2720968 0.0484030 0.9604724 16711746
0.2980466 0.1585413 0.9462296 16711746
0.2336663 0.1450826 0.8546891 16711746
0.2852349 -0.0093640 0.9531782 16711746
0.4513575 0.0124631 0.8958603 16711746
0.1623572 0.1652485 0.9550121 16711746
0.3031381 0.0703932 0.9239708 16711746
0.1978642 0.1391508 0.8518595 16711746
0.1705745 0.1351764 0.8422148 16711746
0.3135505 0.1304412 0.7923739 16711746
0.2147025 0.1391796 0.8982359 16711746
0.3515138 0.0556983 0.8453755 16711746
0.3463408 0.1465136 0.8433610 16711746
-0.1016945 -0.0141680 0.9996657 16711746
0.2142822 0.1423133 0.9092290 16711746
0.2636850 0.0504336 0.8709888 16711746
0.1862494 0.0250315 0.9456616 16711746
0.3251511 0.0258733 0.9506672 16711746
0.2224769 0.0114712 1.0501560 16711746
0.2483956 -0.0005860 0.9220109 16711746
0.3252059 0.1580847 0.8881808 16711746
0.2863822 0.1459758 0.8434829 16711746
0.3299980 0.1429764 0.8212881 16711746
0.1556321 0.1313018 0.8970684 16711746
0.3332655 0.0604239 0.8292494 16711746
0.2755972 0.0214720 0.8916416 16711746
0.3027548 0.0234461 0.9184303 16711746
0.1405991 0.1293568 0.8654562 16711746
0.3256642 0.0565409 0.9549968 16711746
0.1578486 0.1400335 0.8237625 16711746
0.3297671 0.1247979 0.8801516 16711746
0.2274766 0.1535011 0.9793656 16711746
0.2716632 -0.0002833 0.9445350 16711746
0.2043963 0.1287103 0.8224252 16711746
0.2031109 0.1107940 0.7992039 16711746
0.2980008 0.0102179 0.8809358 16711746
0.2554857 0.1491986 0.9147807 16711746
0.2455585 0.1500663 0.9209751 16711746
0.3475030 0.1410311 0.8730698 16711746
0.1224313 0.1509083 0.9483664 16711746
0.3154595 0.1051805 0.8734522 16711746
0.1219045 0.1499691 0.9482947 16711746
0.2077387 0.1050280 0.7822181 16711746
0.2124729 0.0950936 0.7745783 16711746
0.1641686 0.1346369 0.8306413 16711746
0.3211314 0.1197358 0.8188836 16711746
0.1707890 0.1347175 0.8413556 16711746
0.2010619 0.1221979 0.8091911 16711746
0.3294787 0.0636334 0.8262022 16711746
0.3007286 0.0074234 0.9132926 16711746
0.3069659 0.1434079 0.8553316 16711746
0.0504066 0.1457802 0.9290688 16711746
0.4081876 0.0460823 0.8903001 16711746
0.2950586 0.1519749 0.8552289 16711746
0.1699032 0.1303703 0.8739669 16711746
0.2967895 0.0115560 0.8792790 16711746
0.0818883 0.1659158 1.1481774 16711746
-0.0738518 0.1600136 1.0694808 16711746
0.2267426 -0.0118583 1.0617433 16711746
0.1194869 -0.0528123 1.0709633 16711746
0.6204373 0.2175728 1.3285646 16711746
0.3810611 0.1783272 1.1120181 16711746
0.2219768 0.1371781 0.8329381 16711746
0.1588786 0.1294672 0.8885960 16711746
0.4267300 0.1546047 0.8568558 16711746
0.1680763 0.1365712 0.8317009 16711746
0.2907542 0.1494784 0.8500283 16711746
0.3545158 0.1293993 0.8450991 16711746
0.3835259 0.1376042 0.8601814 16711746
0.3621758 0.0563386 0.8517153 16711746
0.2200319 0.0011989 0.9936849 16711746
0.2306806 0.0523461 0.9568193 16711746
0.2480439 0.0793297 0.9194670 16711746
0.2483248 0.0795285 0.9222634 16711746
0.0233982 0.2268505 1.3398581 16711746
0.2028776 0.1189133 0.8031759 16711746
0.2097462 0.0976827 0.7900676 16711746
0.2950473 0.0536569 0.8151722 16711746
0.1469819 0.1230915 0.8477637 16711746
0.2998777 0.0510477 0.8219292 16711746
0.3137071 0.1383230 0.8214329 16711746
0.2160677 0.0818399 0.8711294 16711746
0.2153371 0.0802731 0.8931433 16711746
0.2896394 0.0462275 0.9757749 16711746
0.5953444 0.1977670 1.0324628 16711746
0.2865084 0.0782962 0.9587795 16711746
0.4179446 0.1559260 1.1098670 16711746
0.2762764 -0.0025429 0.9261342 16711746
0.1987593 0.1515305 0.9963387 16711746
0.3980367 0.0170248 0.9746940 16711746
0.2882292 0.1478722 0.8471471 16711746
0.2906184 0.1459546 0.8603714 16711746
0.2538516 0.0646640 0.8789255 16711746
0.2880653 0.0380696 0.9265992 16711746
0.2118946 0.0130618 1.0212072 16711746
0.2419185 0.0238729 0.8852939 16711746
0.4226525 0.1536185 0.8535545 16711746
0.0677389 0.1464755 0.9494418 16711746
0.2326834 0.1459791 0.8644127 16711746
0.1200497 0.1336911 0.8476263 16711746
0.1451572 0.1418285 0.8849863 16711746
0.1186593 0.1000067 0.9113020 16711746
0.1427050 0.1355010 0.9040428 16711746
0.2103756 0.1387783 0.8470412 16711746
0.1610790 0.1357699 0.8631391 16711746
0.0631910 0.1361596 0.9324499 16711746
0.1732148 0.1216995 0.7938896 16711746
0.2854391 0.0053272 0.8875838 16711746
0.2520647 0.1434685 0.8516467 16711746
0.1392877 0.1296018 0.8691702 16711746
0.0674034 0.1346574 0.9271170 16711746
0.2835616 0.0274091 0.9287396 16711746
0.0525813 -0.0514540 1.0021566 16711746
0.2013142 0.1445490 0.9695326 16711746
0.3464985 0.0598135 0.9000321 16711746
0.2164589 -0.0038746 1.0651942 16711746
0.2462915 0.1345039 0.9225879 16711746
0.4226636 0.1631492 0.9318394 16711746
0.2074648 0.0046563 0.9140494 16711746
0.2174193 0.1424239 0.9043828 16711746
0.3422976 0.0425250 0.8705069 16711746
0.2943128 0.1493255 0.8688887 16711746
0.0996931 0.1372100 0.8540857 16711746
0.2339561 0.0500889 0.9161262 16711746
0.2476545 0.1183769 0.9662541 16711746
0.2657112 0.1241976 0.9317724 16711746
0.2278879 0.1218727 0.8889887 16711746
0.2372434 0.1056196 0.8714179 16711746
0.2442244 0.1296075 0.9037776 16711746
0.3559712 0.0305064 0.9388796 16711746
0.2883775 0.1365930 0.8481376 16711746
0.2445000 -0.0034802 0.9161677 16711746
0.1988835 -0.0012189 0.9593994 16711746
0.2682817 -0.0694980 1.4400506 16711746
0.3264689 0.1592839 0.9900659 16711746
0.2809307 0.0565265 0.8056451 16711746
0.2142436 0.0829591 0.8864871 16711746
0.1042373 0.1305217 0.9273731 16711746
0.0755078 0.1041260 0.9838762 16711746
0.1041993 0.1013495 0.9356444 16711746
0.1643952 0.1343685 0.8301789 16711746
0.2025189 0.1369693 0.8812281 16711746
0.2850320 0.0588529 0.8049175 16711746
0.1326408 0.1295982 0.8637230 16711746
0.2264447 -0.0196509 1.0833269 16711746
0.2731326 0.1433455 0.8449212 16711746
0.1552998 0.1346043 0.8535186 16711746
0.1581518 0.1323485 0.8481678 16711746
0.1651536 0.1335163 0.8284115 16711746
0.3371384 0.1156455 0.8281038 16711746
0.2160151 -0.0069493 1.0762833 16711746
0.2969930 0.0162604 0.9848794 16711746
0.2639402 0.1547407 1.0062896 16711746
0.3329012 0.0820849 0.9391686 16711746
0.0560252 0.1497248 0.8906704 16711746
0.1841831 -0.0176268 0.9886149 16711746
0.2579223 0.1436104 0.8674107 16711746
0.3687442 0.0248846 0.9239460 16711746
0.4748971 0.0048429 0.9143948 16711746
0.2777664 0.1444061 0.8958821 16711746
0.2590511 0.1439535 0.8694833 16711746
0.0153020 -0.0377302 1.0219796 16711746
0.3206355 0.1423918 0.8442711 16711746
0.2890401 0.1046906 0.8317264 16711746
0.3119116 0.0014475 0.9123464 16711746
0.1332703 0.1326674 0.8536337 16711746
0.1875503 0.1307932 0.8290775 16711746
0.2064182 0.1393182 0.8908936 16711746
0.2323829 0.1158165 0.8661653 16711746
0.3376545 0.0128274 1.0157276 16711746
-0.3299685 -0.0818082 1.2466476 16711746
0.2998161 0.0297029 0.9590967 16711746
0.2238108 0.1482762 1.0252417 16711746
0.3265979 0.1373539 0.9961240 16711746
0.3565405 0.1533870 0.9664294 16711746
0.2612565 0.1429983 0.8701766 16711746
0.1753910 -0.0344352 1.0012069 16711746
0.2356002 0.0462908 0.9363912 16711746
0.2043678 0.0755218 0.9541550 16711746
0.3049345 0.0041720 0.9221984 16711746
0.2921311 0.0264678 0.8866196 16711746
0.3458470 0.0343855 0.9240717 16711746
0.2846418 0.0515558 0.9159097 16711746
0.2202635 0.0049562 1.0756938 16711746
0.3110341 0.1363557 0.8197137 16711746
0.2061248 0.1222608 0.8371363 16711746
0.1186182 0.0390858 0.8836744 16711746
0.3238770 0.1247094 0.8620063 16711746
0.0657857 0.0118364 0.9367532 16711746
0.1966483 0.1204285 0.8499970 16711746
0.2098662 0.1130600 0.8361604 16711746
0.2152053 0.0854405 0.8634335 16711746
0.2986395 0.1301567 0.8052802 16711746
0.2597140 0.1395810 0.8429949 16711746
0.3367041 0.0929989 0.9088256 16711746
0.3343050 0.0921308 0.9077688 16711746
0.2795623 0.0110662 0.9315588 16711746
0.2325458 0.0150750 0.9115899 16711746
0.3377854 0.0688591 0.9204444 16711746
0.2086015 0.0770751 0.8713243 16711746
0.2552259 0.0644176 0.8670109 16711746
0.2386951 0.0698126 0.8673971 16711746
0.2243920 0.1382674 0.8731965 16711746
0.2389568 0.0702319 0.8670384 16711746
0.0567170 0.1414893 0.9648196 16711746
0.2822748 -0.0040649 0.9412515 16711746
0.3803112 0.0746046 0.9284838 16711746
0.0101955 0.1288663 0.9875647 16711746
0.3383142 0.1497144 0.9480795 16711746
0.2804832 0.0002506 0.9433707 16711746
0.1942287 0.0018829 0.9925808 16711746
0.3547700 0.0503638 0.9284949 16711746
0.3248819 0.0837907 0.9464241 16711746
0.3414831 0.0432652 0.9724991 16711746
0.2291510 0.0363925 1.0152997 16711746
0.2497166 0.1494811 0.9275964 16711746
0.5853775 0.1727474 1.0216209 16711746
0.2087192 0.0965456 0.7898381 16711746
0.2059935 0.1043946 0.7882754 16711746
0.2074821 0.0743853 0.8021439 16711746
0.2766881 0.0006670 0.9486465 16711746
0.2421415 0.1382044 0.8534355 16711746
0.3009648 0.1314568 0.8113610 16711746
0.2676471 0.1333159 0.8635989 16711746
0.3372683 -0.0022715 0.9653802 16711746
0.3831305 0.0314165 0.9449767 16711746
0.2797973 0.0386689 0.9587864 16711746
0.1609270 0.0028377 0.9585457 16711746
0.3293961 0.1538820 1.0374602 16711746
0.2830550 0.0369227 0.9484414 16711746
0.5221651 -0.0118693 0.9486271 16711746
0.2647094 -0.0122206 0.9446883 16711746
0.1999226 0.1374016 0.8724416 16711746
0.2903751 0.1419705 0.8415039 16711746
0.5904625 0.0661737 0.9700773 16711746
0.3498409 0.0714164 0.9135908 16711746
0.2262164 0.0019234 1.0159192 16711746
0.3045781 0.1328343 0.8086482 16711746
0.0821517 0.0104046 1.0329307 16711746
0.1752915 0.0103892 1.0783987 16711746
0.2941246 0.1424424 0.8612960 16711746
0.2797214 0.1313767 0.8222125 16711746
0.1110477 0.1250880 0.8913285 16711746
0.1105706 0.0008234 0.9589913 16711746
0.3662340 0.0740996 0.9109470 16711746
0.1869210 0.0284525 1.0019896 16711746
0.5367048 -0.0597623 1.1075480 16711746
0.2770036 0.1177332 0.8434904 16711746
0.1327800 0.1185155 0.8684365 16711746
0.3425685 0.0817517 0.9559497 16711746
0.2826090 0.1477255 0.9473598 16711746
0.2677182 0.1490406 0.8779184 16711746
0.3401695 0.0960495 0.9261547 16711746
0.3831063 0.1585931 0.9216872 16711746
0.0778873 -0.0254526 1.0057596 16711746
0.3453549 0.0979070 0.9092298 16711746
0.3576044 0.0368159 0.9043803 16711746
0.2022213 0.1358469 0.8731999 16711746
0.2858587 0.1399167 0.8771199 16711746
0.3128500 0.1216227 0.9249541 16711746
0.1611884 0.0490621 0.8451614 16711746
0.2907938 0.1114063 0.8333935 16711746
0.1929100 0.1247378 0.8284376 16711746
0.2639557 0.0297893 0.9107157 16711746
0.2522241 0.0874231 0.9379331 16711746
0.2200459 0.0028925 0.9895293 16711746
0.2604769 0.0266438 0.9410319 16711746
-0.0447368 -0.0281393 1.0082327 16711746
0.6926860 0.0549582 1.0831140 16711746
0.0396603 0.2253794 1.4858375 16711746
0.3743649 0.1736875 1.0946569 16711746
0.1960730 0.0087238 0.9532614 16711746
0.2088902 0.0772954 0.8681013 16711746
0.3449247 0.0422518 0.9793929 16711746
0.2722471 0.1349351 0.8555344 16711746
0.2866964 0.1299406 0.8116883 16711746
0.0705064 0.0110718 0.9182853 16711746
0.2458898 0.0596457 0.8733107 16711746
0.0700165 0.0172505 0.9436593 16711746
0.1388491 0.1260538 0.8280421 16711746
0.1875014 0.1147663 0.8848353 16711746
0.2262438 0.0076778 0.9360686 16711746
0.2992131 0.0154751 0.9190343 16711746
0.0623119 0.1422231 0.9174200 16711746
0.0748589 0.0185759 0.9378757 16711746
0.0703305 0.0144871 0.8911341 16711746
0.2296824 0.0349340 0.9081247 16711746
0.2695457 0.1384121 0.8560658 16711746
0.1564170 0.1570130 1.0128026 16711746
0.1357435 0.1294668 0.8645322 16711746
0.2530162 0.1355270 0.8461519 16711746
0.3301226 0.0746339 0.9667185 16711746
0.3976170 0.0639492 0.9757722 16711746
0.3448782 0.0316294 0.9132869 16711746
0.3199748 0.0716083 0.9295054 16711746
0.3070015 0.0086050 0.9218663 16711746
0.3931588 0.1417187 0.8845446 16711746
0.1892430 0.1416543 1.0687165 16711746
0.2322587 0.1362944 0.8453063 16711746
0.2876034 0.0308366 0.9367635 16711746
0.2203159 0.1338656 0.8425923 16711746
0.1850152 0.1325938 0.8739216 16711746
0.2194310 0.1136773 0.8775494 16711746
0.0098472 -0.0051890 0.9570781 16711746
0.0539665 0.0067617 0.9074368 16711746
0.2697041 0.0331356 0.9085132 16711746
0.3251187 0.1082641 0.8799890 16711746
0.2476524 0.1407221 0.8623104 16711746
0.1828939 0.1303605 0.8548745 16711746
0.1889892 0.1313611 0.8579793 16711746
0.4055866 0.1617715 1.0209348 16711746
0.4265783 0.1261122 0.9580534 16711746
0.2589162 0.1392304 0.9658411 16711746
0.2153234 0.0803086 0.8912292 16711746
0.3138037 0.1268771 0.9755152 16711746
