# .PCD v0.7 - Point Cloud Data file format
VERSION 0.7
FIELDS x y z rgb
SIZE 4 4 4 4
TYPE F F F F
COUNT 1 1 1 1
WIDTH 409
HEIGHT 1
VIEWPOINT 0 0 0 1 0 0 0
POINTS 409
DATA ascii
0 0 0 16777215
0.23944373 -0.04832923 0.13808085 16777215
0.26342055 -0.05038517 0.14709432 16777215
0.28071606 -0.052329086 0.15718545 16777215
0.29871717 -0.049042929 0.16832532 16777215
0.3092711 -0.05020269 0.17952248 16777215
0.33000639 -0.056051672 0.21273479 16777215
0.35402879 -0.061287317 0.24576056 16777215
0.36945796 -0.059214145 0.27528223 16777215
0.38037124 -0.05990909 0.31571111 16777215
0.38603267 -0.071215227 0.3688578 16777215
0.41230723 -0.072407424 0.4381575 16777215
0.41252723 -0.1017238 0.55160308 16777215
0.43337706 -0.10307921 0.61876523 16777215
0.42278713 -0.10207355 0.65633672 16777215
0.45004907 -0.12667231 0.74773479 16777215
0.4582774 -0.12218078 0.79918188 16777215
0.50101721 -0.12913984 0.85920244 16777215
0.54122859 -0.13132453 0.93291056 16777215
0.6190744 -0.16602254 1.049073 16777215
0.72388875 -0.1824898 1.1225662 16777215
0.81592995 -0.21889502 1.2042102 16777215
0.82699424 -0.22754759 1.2944185 16777215
0.87086743 -0.24675459 1.407009 16777215
0.8827256 -0.24774554 1.4911488 16777215
0.89099699 -0.26549473 1.6143423 16777215
0.89002526 -0.27625951 1.7560327 16777215
0.91641033 -0.28965047 1.8637834 16777215
0.93860948 -0.30133474 1.9293686 16777215
0.9854728 -0.30528545 2.0179367 16777215
1.053188 -0.32396221 2.1295924 16777215
1.165341 -0.35302159 2.2604694 16777215
1.2339305 -0.37573829 2.351511 16777215
1.291736 -0.38956925 2.4514537 16777215
1.3417294 -0.39371252 2.5638402 16777215
1.3802305 -0.39689225 2.7062864 16777215
1.4156235 -0.41416192 2.8553112 16777215
1.4596361 -0.45099342 3.0173597 16777215
1.5153825 -0.46949533 3.1392102 16777215
1.596909 -0.48216298 3.3084333 16777215
1.6788849 -0.49451888 3.4507678 16777215
1.7513142 -0.53138739 3.581265 16777215
1.8314055 -0.56532454 3.6670966 16777215
1.9181533 -0.58437645 3.7695212 16777215
1.9608926 -0.61038381 3.9125762 16777215
1.9775064 -0.63546669 4.0651331 16777215
2.0128009 -0.66868299 4.1854 16777215
2.0265138 -0.69494337 4.2758374 16777215
2.0738044 -0.70920616 4.3957138 16777215
2.129636 -0.74025869 4.5171995 16777215
2.2069981 -0.76928717 4.6383166 16777215
2.2995489 -0.80704415 4.7422843 16777215
2.3549137 -0.84122264 4.8256774 16777215
2.4261007 -0.88920009 5.0271444 16777215
2.4214239 -0.8817656 5.1771669 16777215
2.4334986 -0.9159171 5.3297734 16777215
2.4518323 -0.94878531 5.4570379 16777215
2.5084774 -0.96901262 5.6050096 16777215
2.5680246 -0.9815703 5.7356133 16777215
2.644505 -0.994757 5.8590393 16777215
2.7022455 -1.0175329 5.9686966 16777215
2.7416034 -1.0331106 6.0879245 16777215
2.7816887 -1.0448685 6.2256141 16777215
2.8078845 -1.0619987 6.3689137 16777215
2.8187885 -1.0942154 6.4747505 16777215
2.8248167 -1.1212736 6.5880175 16777215
2.8511708 -1.1386635 6.6828418 16777215
2.9007719 -1.1434485 6.8328247 16777215
2.9649878 -1.1518476 6.9502764 16777215
3.0655386 -1.1710896 7.0646629 16777215
3.1262512 -1.1959099 7.1622338 16777215
3.1749473 -1.2091234 7.2660332 16777215
3.2255688 -1.2238324 7.4041414 16777215
3.2644222 -1.2143455 7.5467596 16777215
3.2941954 -1.2488472 7.6890111 16777215
3.3201001 -1.2895285 7.7899985 16777215
3.3535833 -1.3123486 7.868535 16777215
3.4124649 -1.3233045 7.9576697 16777215
3.4878173 -1.3246052 8.0403681 16777215
3.59179 -1.3349721 8.1256466 16777215
3.6275284 -1.360536 8.1914787 16777215
3.6578007 -1.3530918 8.2617979 16777215
3.6863499 -1.3653337 8.3421116 16777215
3.7139142 -1.3876245 8.4824324 16777215
3.7180226 -1.4079391 8.5425196 16777215
3.7256849 -1.4316006 8.6317797 16777215
3.7648864 -1.4371718 8.7164116 16777215
3.8053522 -1.4573698 8.8212385 16777215
3.8823481 -1.4760278 8.9281092 16777215
3.98685 -1.5001278 9.0261745 16777215
4.0518517 -1.5150425 9.1337585 16777215
4.1118097 -1.54654 9.2783537 16777215
4.1415305 -1.5548829 9.3999634 16777215
4.1704545 -1.5792627 9.5662394 16777215
4.2090931 -1.6146963 9.6920223 16777215
4.2605062 -1.6299611 9.7990894 16777215
4.3430052 -1.6432217 9.9306145 16777215
4.4729218 -1.6762233 10.058084 16777215
4.4923229 -1.6786174 10.138021 16777215
4.5108461 -1.7284296 10.243358 16777215
4.5546312 -1.7188692 10.349052 16777215
4.6331801 -1.7370057 10.520513 16777215
4.6069946 -1.7475017 10.649685 16777215
4.6704426 -1.7925752 10.810073 16777215
4.6992364 -1.8152409 10.954065 16777215
4.8274388 -1.8092514 11.065669 16777215
4.841846 -1.8020988 11.132721 16777215
4.8807106 -1.8421813 11.252223 16777215
4.9368715 -1.8318799 11.337933 16777215
4.9258547 -1.8742436 11.502972 16777215
4.9581075 -1.8960748 11.606269 16777215
5.0132742 -1.8607472 11.732385 16777215
5.0473342 -1.8999043 11.89058 16777215
5.162746 -1.9253136 12.053377 16777215
5.2470136 -1.9471745 12.150906 16777215
5.2701311 -1.9563251 12.253042 16777215
5.291461 -1.9913307 12.435282 16777215
5.2486005 -2.013406 12.600616 16777215
5.2792296 -2.0140383 12.728713 16777215
5.3013973 -2.0119827 12.821182 16777215
5.3525834 -2.0110302 12.933292 16777215
5.4414577 -2.0491879 13.074991 16777215
5.5077982 -2.0651255 13.173588 16777215
5.5551376 -2.0818725 13.276532 16777215
5.5865855 -2.0799828 13.366471 16777215
5.6226373 -2.1089048 13.518993 16777215
5.6402478 -2.112813 13.631068 16777215
5.6505108 -2.107594 13.768562 16777215
5.6770782 -2.1248987 13.918786 16777215
5.7552629 -2.1331782 14.071609 16777215
5.8005242 -2.1550312 14.206153 16777215
5.8721995 -2.1723332 14.331491 16777215
5.8928142 -2.1991882 14.459229 16777215
5.907517 -2.2155612 14.605109 16777215
5.8888254 -2.2169826 14.730562 16777215
5.9762301 -2.2826803 14.904133 16777215
5.9821196 -2.2869267 15.016854 16777215
6.0728531 -2.2859313 15.14161 16777215
6.1143217 -2.330241 15.2859 16777215
6.1690702 -2.3449519 15.422078 16777215
6.1324091 -2.3757772 15.584764 16777215
6.1643991 -2.3894744 15.745412 16777215
6.2470317 -2.4156888 15.869172 16777215
6.2835984 -2.4125657 15.979291 16777215
6.3483405 -2.453136 16.145002 16777215
6.4159641 -2.4689362 16.272184 16777215
6.4856811 -2.4862423 16.447206 16777215
6.5193872 -2.5144496 16.587902 16777215
6.5661244 -2.5146017 16.740704 16777215
6.6094155 -2.5205891 16.886503 16777215
6.6662335 -2.5209246 17.010431 16777215
6.7529407 -2.5385664 17.1101 16777215
6.7961884 -2.5619552 17.239765 16777215
6.836298 -2.5601835 17.397541 16777215
6.861711 -2.5837483 17.575523 16777215
6.8920002 -2.6207597 17.741955 16777215
6.9384747 -2.6435566 17.852041 16777215
7.0003023 -2.660548 18.016962 16777215
7.0696959 -2.677099 18.134121 16777215
7.1140485 -2.6854131 18.248312 16777215
7.1375742 -2.7114644 18.441704 16777215
7.1382904 -2.7236438 18.572454 16777215
7.1915197 -2.7625268 18.704821 16777215
7.2206111 -2.7752647 18.822979 16777215
7.3019428 -2.7765503 18.975948 16777215
7.3655205 -2.8072996 19.102806 16777215
7.432497 -2.8416352 19.258995 16777215
7.4313345 -2.8473265 19.416191 16777215
7.4406295 -2.8752735 19.537802 16777215
7.4539609 -2.8989961 19.689407 16777215
7.5152688 -2.9135549 19.823891 16777215
7.5774374 -2.9268816 19.924137 16777215
7.6313515 -2.9477479 20.017233 16777215
7.6826172 -2.9625518 20.160978 16777215
7.6686969 -2.9646606 20.260675 16777215
7.6940269 -2.9856267 20.375364 16777215
7.7211661 -3.0163076 20.504196 16777215
7.7728848 -3.0192726 20.578053 16777215
7.8442545 -3.0297112 20.696642 16777215
7.9249163 -3.0382149 20.825417 16777215
7.9789977 -3.0445261 20.941248 16777215
7.9932055 -3.0671227 21.12468 16777215
7.9951301 -3.0797255 21.2342 16777215
8.0437794 -3.0984561 21.35148 16777215
8.1191463 -3.1036906 21.500547 16777215
8.2106562 -3.1058025 21.621254 16777215
8.2663908 -3.1298971 21.740192 16777215
8.3134613 -3.1529856 21.881163 16777215
8.3354454 -3.1507323 22.047737 16777215
8.3474188 -3.1764519 22.15695 16777215
8.3855734 -3.1867862 22.303364 16777215
8.4929304 -3.2033737 22.464088 16777215
8.5399418 -3.2273932 22.598146 16777215
8.5641651 -3.250803 22.750444 16777215
8.5657158 -3.2420251 22.924103 16777215
8.5705814 -3.2818806 23.02779 16777215
8.6209736 -3.3077173 23.158562 16777215
8.6745758 -3.3092418 23.279417 16777215
8.7568369 -3.3159328 23.409138 16777215
8.7947311 -3.3362627 23.571459 16777215
8.7994699 -3.3509588 23.726141 16777215
8.8053255 -3.3636632 23.87821 16777215
8.8401031 -3.3831892 24.006245 16777215
8.9146852 -3.4008446 24.163147 16777215
9.0318298 -3.4265139 24.283056 16777215
9.0671167 -3.4299328 24.398634 16777215
9.0863314 -3.435982 24.560963 16777215
9.1125879 -3.4643128 24.730247 16777215
9.1270323 -3.4808092 24.863646 16777215
9.1990442 -3.5021796 25.070969 16777215
9.3173628 -3.4965568 25.211838 16777215
9.3757153 -3.5442483 25.345901 16777215
9.4224682 -3.5417509 25.481232 16777215
9.4382715 -3.5665779 25.64809 16777215
9.4534693 -3.6137722 25.812439 16777215
9.4926119 -3.6379349 25.947561 16777215
9.5768671 -3.6394353 26.119738 16777215
9.6387501 -3.6497757 26.256916 16777215
9.6910505 -3.6945679 26.397316 16777215
9.6967621 -3.7137172 26.50852 16777215
9.6971703 -3.7344561 26.612856 16777215
9.6981535 -3.7515235 26.725576 16777215
9.7278271 -3.7736835 26.83868 16777215
9.8033447 -3.7838671 26.945539 16777215
9.8322763 -3.8195372 27.034758 16777215
9.8777008 -3.8196993 27.153999 16777215
9.8959599 -3.8434711 27.297331 16777215
9.9073944 -3.8638761 27.404221 16777215
9.9526119 -3.8997483 27.534998 16777215
10.020811 -3.9103572 27.656607 16777215
10.085697 -3.9050219 27.798834 16777215
10.15136 -3.9319234 27.919638 16777215
10.163806 -3.9503629 28.069138 16777215
10.202549 -3.9702549 28.231804 16777215
10.229534 -3.9983597 28.363634 16777215
10.288474 -3.997179 28.525063 16777215
10.388318 -4.0264564 28.665758 16777215
10.470437 -4.04777 28.799101 16777215
10.507823 -4.0644259 28.916033 16777215
10.517273 -4.0737243 29.041985 16777215
10.539053 -4.092525 29.148724 16777215
10.553946 -4.0983453 29.245287 16777215
10.614507 -4.1036482 29.33535 16777215
10.699545 -4.1125202 29.418694 16777215
10.792702 -4.1013288 29.489944 16777215
10.850943 -4.122437 29.585819 16777215
10.882777 -4.1290426 29.702436 16777215
10.902771 -4.1752453 29.880447 16777215
10.897801 -4.1911254 30.008444 16777215
10.913615 -4.1928163 30.131109 16777215
10.930857 -4.2198653 30.267464 16777215
10.988862 -4.2404594 30.370443 16777215
11.060706 -4.2627068 30.489798 16777215
11.105829 -4.2817025 30.604214 16777215
11.137431 -4.3037305 30.7073 16777215
11.134659 -4.3159008 30.8566 16777215
11.138677 -4.3370109 30.987158 16777215
11.122059 -4.3556056 31.095852 16777215
11.157283 -4.3705978 31.196198 16777215
11.233104 -4.3799038 31.349361 16777215
11.330279 -4.3950076 31.485729 16777215
11.405327 -4.4086537 31.63316 16777215
11.439389 -4.4230108 31.769655 16777215
11.46104 -4.4426661 31.957411 16777215
11.484361 -4.4662948 32.103863 16777215
11.516535 -4.4791222 32.248844 16777215
11.573408 -4.4885769 32.384785 16777215
11.67823 -4.5156054 32.545315 16777215
11.708251 -4.5296321 32.670551 16777215
11.730087 -4.5402713 32.746655 16777215
11.745665 -4.5506072 32.896797 16777215
11.754087 -4.5767012 33.071209 16777215
11.772547 -4.6003609 33.200005 16777215
11.824171 -4.6142974 33.341553 16777215
11.891523 -4.6470995 33.464878 16777215
11.951122 -4.6564574 33.566128 16777215
11.991552 -4.6559553 33.704544 16777215
12.004243 -4.6743531 33.882854 16777215
12.022619 -4.7059932 34.025948 16777215
12.043508 -4.7220802 34.134693 16777215
12.092428 -4.7206507 34.259544 16777215
12.266704 -4.7688241 34.494579 16777215
12.343993 -4.7973824 34.622158 16777215
12.404773 -4.8202777 34.761185 16777215
12.411202 -4.8437557 34.925842 16777215
12.409656 -4.8813477 35.080509 16777215
12.407839 -4.8827081 35.207329 16777215
12.426484 -4.9065504 35.330688 16777215
12.45382 -4.9057584 35.475075 16777215
12.490876 -4.9385099 35.599884 16777215
12.551633 -4.9588265 35.713398 16777215
12.599333 -4.9713774 35.84116 16777215
12.616755 -4.9844608 35.973103 16777215
12.623272 -4.9907832 36.130703 16777215
12.644034 -5.0157914 36.248924 16777215
12.707649 -5.0082173 36.374233 16777215
12.769975 -5.0271449 36.507595 16777215
12.846889 -5.0584545 36.631695 16777215
12.863495 -5.0826139 36.774761 16777215
12.902279 -5.0949755 36.923923 16777215
12.894289 -5.1065998 37.099224 16777215
12.946223 -5.1230569 37.269814 16777215
12.989838 -5.139432 37.403435 16777215
13.044914 -5.1633539 37.550159 16777215
13.065408 -5.1723309 37.689327 16777215
13.043937 -5.1860976 37.882282 16777215
13.051261 -5.2120075 37.990116 16777215
13.065681 -5.2325525 38.103512 16777215
13.124196 -5.2370453 38.272732 16777215
13.241129 -5.2529092 38.424267 16777215
13.281353 -5.2757225 38.523399 16777215
13.342399 -5.2733665 38.691517 16777215
13.394002 -5.2916584 38.906456 16777215
13.379307 -5.2953305 39.034985 16777215
13.422709 -5.3124628 39.193428 16777215
13.570122 -5.3386974 39.417732 16777215
13.614836 -5.3586454 39.530224 16777215
13.639301 -5.3670354 39.643757 16777215
13.695454 -5.3581529 39.803787 16777215
13.703785 -5.3671393 39.963127 16777215
13.729377 -5.3853798 40.097179 16777215
13.800636 -5.3855147 40.21896 16777215
13.900367 -5.4095936 40.361862 16777215
13.953626 -5.4274254 40.526047 16777215
13.985603 -5.4483981 40.731892 16777215
14.004784 -5.468205 40.928585 16777215
14.020893 -5.4933352 41.048874 16777215
14.087798 -5.4830437 41.203953 16777215
14.191926 -5.5189662 41.340382 16777215
14.234656 -5.5295348 41.506622 16777215
14.260962 -5.5378652 41.685631 16777215
14.243628 -5.5627418 41.834206 16777215
14.253715 -5.5936446 42.00362 16777215
14.295128 -5.6006665 42.171288 16777215
14.404487 -5.6244249 42.344063 16777215
14.462631 -5.6643996 42.532833 16777215
14.469605 -5.6733394 42.733849 16777215
14.455363 -5.6633911 42.860962 16777215
14.481074 -5.6866417 43.036182 16777215
14.608906 -5.7004061 43.226761 16777215
14.725116 -5.7232928 43.377121 16777215
14.790148 -5.7469893 43.49884 16777215
14.849642 -5.7886629 43.717907 16777215
14.878435 -5.8225532 43.900406 16777215
14.868175 -5.8489242 44.0452 16777215
14.894509 -5.8580823 44.180569 16777215
14.967412 -5.8731003 44.308701 16777215
14.982713 -5.8898845 44.414688 16777215
14.985119 -5.8964319 44.505047 16777215
14.978889 -5.9010935 44.613064 16777215
14.969998 -5.9165087 44.705849 16777215
14.970291 -5.9194603 44.809975 16777215
15.025887 -5.928988 44.957554 16777215
15.125502 -5.9296918 45.094971 16777215
15.14749 -5.9461341 45.203728 16777215
15.174889 -5.9489431 45.346951 16777215
15.193838 -5.962676 45.518768 16777215
15.239691 -5.9758968 45.642204 16777215
15.310178 -5.9829822 45.787781 16777215
15.402157 -5.9994998 45.943279 16777215
15.436356 -6.0003467 46.066307 16777215
15.45792 -6.0299501 46.273651 16777215
15.458986 -6.0420618 46.40984 16777215
15.46518 -6.0470757 46.524578 16777215
15.52573 -6.0647683 46.705425 16777215
15.578338 -6.0840139 46.84708 16777215
15.609774 -6.0938659 46.969509 16777215
15.599005 -6.1078615 47.119678 16777215
15.634476 -6.1365199 47.320057 16777215
15.646935 -6.1621447 47.43803 16777215
15.701055 -6.1797118 47.610683 16777215
15.749911 -6.197762 47.754822 16777215
15.739507 -6.2280726 47.903297 16777215
15.717534 -6.2467103 48.031319 16777215
15.711771 -6.2612677 48.172852 16777215
15.748469 -6.2800703 48.311012 16777215
15.79564 -6.3039951 48.437698 16777215
15.825974 -6.3267388 48.600891 16777215
15.792917 -6.3467665 48.76207 16777215
15.792077 -6.353858 48.863918 16777215
15.842121 -6.360178 48.974396 16777215
15.941741 -6.3789792 49.112228 16777215
16.014273 -6.4027286 49.231804 16777215
16.06427 -6.4187584 49.35371 16777215
16.084154 -6.4262972 49.509064 16777215
16.106951 -6.4452338 49.605801 16777215
16.125694 -6.4413018 49.733875 16777215
16.201105 -6.4574261 49.864166 16777215
16.262062 -6.4727063 49.98296 16777215
16.288889 -6.4890347 50.096695 16777215
16.276394 -6.4961514 50.2444 16777215
16.263622 -6.5030246 50.355923 16777215
16.254175 -6.5020189 50.494968 16777215
16.297886 -6.5010958 50.66526 16777215
16.393265 -6.5252991 50.811993 16777215
16.42094 -6.5307708 50.950256 16777215
16.418507 -6.5163865 51.113358 16777215
16.363983 -6.5435896 51.291302 16777215
16.375153 -6.5425439 51.372868 16777215
16.379423 -6.5607858 51.457787 16777215
16.461317 -6.5710654 51.59338 16777215
16.583977 -6.584517 51.754436 16777215
16.592234 -6.582705 51.846287 16777215
16.618277 -6.6026592 51.946579 16777215
16.592819 -6.5805864 52.050747 16777215
16.596939 -6.5870829 52.110859 16777215
16.609457 -6.5743728 52.145565 16777215
16.615929 -6.5706582 52.16053 16777215
16.614237 -6.5697231 52.16785 16777215
