# .PCD v.7 - Point Cloud Data file format
VERSION .7
FIELDS x y z rgb
SIZE 4 4 4 4
TYPE F F F F
COUNT 1 1 1 1
WIDTH 230
HEIGHT 1
VIEWPOINT 0 0 0 1 0 0 0
POINTS 230
DATA ascii

 0.0000000 0.0000000 0.0000000 16777215
 0.0189374 0.0024397 0.0002514 16777215
 0.0205498 0.0025855 -0.0009039 16777215
 0.0206386 0.0023738 -0.0010101 16777215
 0.0204079 0.0025023 -0.0015688 16777215
 0.0202531 0.0023919 -0.0014295 16777215
 0.0186823 0.0015097 -0.0010202 16777215
 0.0167628 0.0009122 -0.0005500 16777215
 0.0158052 0.0008086 -0.0001920 16777215
 0.0123138 0.0001495 0.0020177 16777215
 0.0100859 0.0002180 0.0038746 16777215
 0.0028802 -0.0000396 0.0098296 16777215
 0.0013940 -0.0000537 0.0126078 16777215
 -0.0000480 -0.0003026 0.0181871 16777215
 0.0004415 -0.0005505 0.0251570 16777215
 0.0006487 -0.0013055 0.0329806 16777215
 0.0036018 -0.0044096 0.0432569 16777215
 0.0044347 -0.0025399 0.0491387 16777215
 0.0079027 -0.0075548 0.0598436 16777215
 0.0076851 -0.0067338 0.0720638 16777215
 0.0056228 -0.0056836 0.0818974 16777215
 0.0032462 -0.0055254 0.0953454 16777215
 0.0017590 -0.0084962 0.1075417 16777215
 0.0039793 -0.0114291 0.1257782 16777215
 0.0098609 -0.0102909 0.1385476 16777215
 0.0126688 -0.0156716 0.1509820 16777215
 0.0174964 -0.0206749 0.1656885 16777215
 0.0182999 -0.0205245 0.1825960 16777215
 0.0120861 -0.0215946 0.2006118 16777215
 0.0106292 -0.0231359 0.2098983 16777215
 0.0085283 -0.0288303 0.2247958 16777215
 0.0090988 -0.0297164 0.2387104 16777215
 0.0109669 -0.0321836 0.2553147 16777215
 0.0200325 -0.0337045 0.2659172 16777215
 0.0243069 -0.0351536 0.2819559 16777215
 0.0249959 -0.0360268 0.3014926 16777215
 0.0207929 -0.0385697 0.3204123 16777215
 0.0189732 -0.0408372 0.3363060 16777215
 0.0191160 -0.0432639 0.3540068 16777215
 0.0230931 -0.0445126 0.3689571 16777215
 0.0253717 -0.0471182 0.3860763 16777215
 0.0276050 -0.0494334 0.4042530 16777215
 0.0266948 -0.0494395 0.4220193 16777215
 0.0255880 -0.0497052 0.4409127 16777215
 0.0252252 -0.0508809 0.4592071 16777215
 0.0243740 -0.0523266 0.4731824 16777215
 0.0246476 -0.0552859 0.4968204 16777215
 0.0262824 -0.0582214 0.5128937 16777215
 0.0269844 -0.0583986 0.5298093 16777215
 0.0258700 -0.0577663 0.5500180 16777215
 0.0263167 -0.0606691 0.5674667 16777215
 0.0274589 -0.0643277 0.5823187 16777215
 0.0313577 -0.0644557 0.5988486 16777215
 0.0366177 -0.0667751 0.6182433 16777215
 0.0404005 -0.0681290 0.6344187 16777215
 0.0389559 -0.0688035 0.6531072 16777215
 0.0356898 -0.0708021 0.6704384 16777215
 0.0346459 -0.0752349 0.6857463 16777215
 0.0351376 -0.0762938 0.7003462 16777215
 0.0374043 -0.0780204 0.7179633 16777215
 0.0415982 -0.0796655 0.7288414 16777215
 0.0429852 -0.0811838 0.7422597 16777215
 0.0414561 -0.0802644 0.7580985 16777215
 0.0393794 -0.0830697 0.7733601 16777215
 0.0382062 -0.0851516 0.7871804 16777215
 0.0389471 -0.0863784 0.8022010 16777215
 0.0406643 -0.0889390 0.8173541 16777215
 0.0428135 -0.0902434 0.8277374 16777215
 0.0439651 -0.0918455 0.8347234 16777215
 0.0440530 -0.0921326 0.8484781 16777215
 0.0419543 -0.0933030 0.8608227 16777215
 0.0405415 -0.0954970 0.8736148 16777215
 0.0409240 -0.0969209 0.8868120 16777215
 0.0423127 -0.0980967 0.9011682 16777215
 0.0432492 -0.1012042 0.9162347 16777215
 0.0445775 -0.1033281 0.9306702 16777215
 0.0422512 -0.1027225 0.9449603 16777215
 0.0400093 -0.1038900 0.9595125 16777215
 0.0396520 -0.1054807 0.9751522 16777215
 0.0409434 -0.1054840 0.9865094 16777215
 0.0434534 -0.1084793 0.9998899 16777215
 0.0440527 -0.1089400 1.0109494 16777215
 0.0425945 -0.1095392 1.0238258 16777215
 0.0392230 -0.1097776 1.0412652 16777215
 0.0377274 -0.1105725 1.0505650 16777215
 0.0384079 -0.1116585 1.0636746 16777215
 0.0400433 -0.1122966 1.0769160 16777215
 0.0389956 -0.1140551 1.0885785 16777215
 0.0388103 -0.1145908 1.0963668 16777215
 0.0380478 -0.1141101 1.1089942 16777215
 0.0355864 -0.1148954 1.1217009 16777215
 0.0349139 -0.1178662 1.1350271 16777215
 0.0344365 -0.1189076 1.1442204 16777215
 0.0374294 -0.1200965 1.1588494 16777215
 0.0364150 -0.1219228 1.1712258 16777215
 0.0340970 -0.1220358 1.1836703 16777215
 0.0316883 -0.1234590 1.1968429 16777215
 0.0315568 -0.1247977 1.2043828 16777215
 0.0315631 -0.1255024 1.2137142 16777215
 0.0318720 -0.1267404 1.2245770 16777215
 0.0340584 -0.1282297 1.2341676 16777215
 0.0341677 -0.1291413 1.2408841 16777215
 0.0325037 -0.1287988 1.2505702 16777215
 0.0311424 -0.1292809 1.2607138 16777215
 0.0307035 -0.1308354 1.2679819 16777215
 0.0308148 -0.1313899 1.2769629 16777215
 0.0320782 -0.1323065 1.2867877 16777215
 0.0327547 -0.1332856 1.2942415 16777215
 0.0333687 -0.1348554 1.3000571 16777215
 0.0297442 -0.1348529 1.3138080 16777215
 0.0287337 -0.1368121 1.3219944 16777215
 0.0297221 -0.1372399 1.3312352 16777215
 0.0317760 -0.1379862 1.3395134 16777215
 0.0335597 -0.1393480 1.3468823 16777215
 0.0336603 -0.1398309 1.3573077 16777215
 0.0332510 -0.1404904 1.3647449 16777215
 0.0329824 -0.1419156 1.3756289 16777215
 0.0335842 -0.1424905 1.3865430 16777215
 0.0346051 -0.1431786 1.3942785 16777215
 0.0348414 -0.1447620 1.4042926 16777215
 0.0339157 -0.1443811 1.4125830 16777215
 0.0320784 -0.1440434 1.4212407 16777215
 0.0315496 -0.1451797 1.4294181 16777215
 0.0318478 -0.1454048 1.4401679 16777215
 0.0323791 -0.1459799 1.4489936 16777215
 0.0320980 -0.1472376 1.4563608 16777215
 0.0306509 -0.1473165 1.4649658 16777215
 0.0298948 -0.1472059 1.4720948 16777215
 0.0283241 -0.1495233 1.4801711 16777215
 0.0282256 -0.1502452 1.4882784 16777215
 0.0299045 -0.1512100 1.4983783 16777215
 0.0303072 -0.1529088 1.5041208 16777215
 0.0305901 -0.1534080 1.5115283 16777215
 0.0293937 -0.1538542 1.5192653 16777215
 0.0286115 -0.1546587 1.5256104 16777215
 0.0282796 -0.1556556 1.5323796 16777215
 0.0291932 -0.1562241 1.5391229 16777215
 0.0310632 -0.1574938 1.5448716 16777215
 0.0314528 -0.1579664 1.5507717 16777215
 0.0305765 -0.1583153 1.5575438 16777215
 0.0303280 -0.1587711 1.5638157 16777215
 0.0300086 -0.1600280 1.5700564 16777215
 0.0302279 -0.1603039 1.5763627 16777215
 0.0305201 -0.1618389 1.5833186 16777215
 0.0304881 -0.1626585 1.5888529 16777215
 0.0305766 -0.1632120 1.5952513 16777215
 0.0291383 -0.1633581 1.6009929 16777215
 0.0265786 -0.1642733 1.6062167 16777215
 0.0251559 -0.1639067 1.6123949 16777215
 0.0238129 -0.1649543 1.6193553 16777215
 0.0231852 -0.1651360 1.6251189 16777215
 0.0222591 -0.1666829 1.6304182 16777215
 0.0217603 -0.1668168 1.6354669 16777215
 0.0201600 -0.1672264 1.6425180 16777215
 0.0187009 -0.1667492 1.6480792 16777215
 0.0178295 -0.1680212 1.6521926 16777215
 0.0173277 -0.1688791 1.6575806 16777215
 0.0169520 -0.1688687 1.6630592 16777215
 0.0174134 -0.1693878 1.6690167 16777215
 0.0175649 -0.1704619 1.6752086 16777215
 0.0175869 -0.1716854 1.6806971 16777215
 0.0161543 -0.1714922 1.6876210 16777215
 0.0154632 -0.1719225 1.6927991 16777215
 0.0146983 -0.1735227 1.6976559 16777215
 0.0141344 -0.1742226 1.7027303 16777215
 0.0152588 -0.1741673 1.7107985 16777215
 0.0155705 -0.1753028 1.7169389 16777215
 0.0155784 -0.1760248 1.7235111 16777215
 0.0144897 -0.1757237 1.7301887 16777215
 0.0144005 -0.1762661 1.7355553 16777215
 0.0139553 -0.1771898 1.7424724 16777215
 0.0143685 -0.1773731 1.7490197 16777215
 0.0153795 -0.1784457 1.7554278 16777215
 0.0157149 -0.1785675 1.7609187 16777215
 0.0155639 -0.1790810 1.7669888 16777215
 0.0158645 -0.1797974 1.7733232 16777215
 0.0154434 -0.1799534 1.7786977 16777215
 0.0148684 -0.1806467 1.7850741 16777215
 0.0151771 -0.1811954 1.7916402 16777215
 0.0152129 -0.1817338 1.7967291 16777215
 0.0151812 -0.1816174 1.8036950 16777215
 0.0147151 -0.1828163 1.8102475 16777215
 0.0139243 -0.1837136 1.8145550 16777215
 0.0147052 -0.1843309 1.8204359 16777215
 0.0151829 -0.1845319 1.8264194 16777215
 0.0151080 -0.1856109 1.8313373 16777215
 0.0152101 -0.1855911 1.8359884 16777215
 0.0141549 -0.1852029 1.8403053 16777215
 0.0122471 -0.1855830 1.8464354 16777215
 0.0115201 -0.1865411 1.8524258 16777215
 0.0112837 -0.1865785 1.8583792 16777215
 0.0112406 -0.1869424 1.8627577 16777215
 0.0108646 -0.1874120 1.8672477 16777215
 0.0099920 -0.1872775 1.8721241 16777215
 0.0093189 -0.1873063 1.8765777 16777215
 0.0089729 -0.1882074 1.8811594 16777215
 0.0094942 -0.1877837 1.8854951 16777215
 0.0103193 -0.1890399 1.8901099 16777215
 0.0105115 -0.1893215 1.8928320 16777215
 0.0100184 -0.1890762 1.8965584 16777215
 0.0090242 -0.1893955 1.9004256 16777215
 0.0086750 -0.1896304 1.9035022 16777215
 0.0088741 -0.1902175 1.9065994 16777215
 0.0095706 -0.1901866 1.9097000 16777215
 0.0106331 -0.1908749 1.9129184 16777215
 0.0109518 -0.1910544 1.9150993 16777215
 0.0104080 -0.1909951 1.9166404 16777215
 0.0103299 -0.1910781 1.9175557 16777215
 0.0097361 -0.1910820 1.9182942 16777215
 0.0096060 -0.1909905 1.9186524 16777215
 0.0095655 -0.1910051 1.9190102 16777215
 0.0092357 -0.1909380 1.9193884 16777215
 0.0092547 -0.1908927 1.9194840 16777215
 0.0092544 -0.1908593 1.9194876 16777215
 0.0092757 -0.1908717 1.9195408 16777215
 0.0092872 -0.1908710 1.9195638 16777215
 0.0093122 -0.1909049 1.9196358 16777215
 0.0090254 -0.1907037 1.9199004 16777215
 0.0090078 -0.1907115 1.9199576 16777215
 0.0089687 -0.1906861 1.9198973 16777215
 0.0087546 -0.1906919 1.9199358 16777215
 0.0087694 -0.1906907 1.9199388 16777215
 0.0088236 -0.1907189 1.9200202 16777215
 0.0089085 -0.1905790 1.9200569 16777215
 0.0089991 -0.1904528 1.9203702 16777215
 0.0090697 -0.1906794 1.9207970 16777215
 0.0091052 -0.1903837 1.9210767 16777215
 0.0082182 -0.1900887 1.9212188 16777215
 0.0079005 -0.1901469 1.9211820 16777215
 0.0083832 -0.1901701 1.9211255 16777215
