# .PCD v.7 - Point Cloud Data file format
VERSION .7
FIELDS x y z rgb
SIZE 4 4 4 4
TYPE F F F F
COUNT 1 1 1 1
WIDTH 139
HEIGHT 1
VIEWPOINT 0 0 0 1 0 0 0
POINTS 139
DATA ascii

 0.0085072 -0.0177212 -0.0695707 16777215
 0.0097098 -0.0174711 -0.0700793 16777215
 0.0116162 -0.0238010 -0.0684122 16777215
 0.0175821 -0.0241194 -0.0639874 16777215
 0.0208237 -0.0247767 -0.0600571 16777215
 0.0200886 -0.0261928 -0.0530290 16777215
 0.0310368 -0.0265804 -0.0492706 16777215
 0.0384707 -0.0298574 -0.0330835 16777215
 0.0410159 -0.0338088 -0.0286624 16777215
 0.0451557 -0.0440459 -0.0166823 16777215
 0.0477443 -0.0692499 0.0108432 16777215
 0.0423283 -0.0885689 0.0259772 16777215
 0.0627820 -0.0691747 0.0651658 16777215
 0.0832359 -0.0733519 0.1149500 16777215
 0.1131302 -0.0572539 0.1945051 16777215
 0.1338604 -0.0819635 0.2289068 16777215
 0.1398952 -0.0931222 0.2840653 16777215
 0.1311325 -0.1362500 0.3617477 16777215
 0.1517493 -0.1389924 0.4905229 16777215
 0.1864322 -0.1673281 0.5648044 16777215
 0.2381874 -0.2123448 0.6444522 16777215
 0.2182470 -0.3010600 0.7134153 16777215
 0.2702129 -0.3330275 0.7496831 16777215
 0.3251963 -0.3258539 0.9386056 16777215
 0.3919908 -0.3558912 0.9304308 16777215
 0.3578472 -0.3794916 1.0311162 16777215
 0.2086221 -0.4086549 1.2858176 16777215
 0.0394610 -0.4155288 1.4541167 16777215
 0.0370332 -0.3767285 1.5584290 16777215
 0.0155648 -0.4793089 1.6399996 16777215
 0.0041008 -0.5371339 1.6736889 16777215
 -0.0742763 -0.4629000 1.8144419 16777215
 -0.0560778 -0.4591460 1.9303889 16777215
 -0.0785893 -0.5807673 2.0484958 16777215
 -0.1302964 -0.7093854 2.1584804 16777215
 -0.1259440 -0.6797532 2.2123129 16777215
 0.0441323 -0.5283498 2.3272572 16777215
 -0.0828832 -0.6304462 2.3517609 16777215
 -0.0728901 -0.6880886 2.4238527 16777215
 -0.1031104 -0.8699396 2.4889317 16777215
 -0.0638265 -0.8964725 2.5512187 16777215
 -0.0049782 -1.0144947 2.5822394 16777215
 -0.0179870 -0.9901574 2.6887012 16777215
 -0.3688515 -0.5371052 2.8493378 16777215
 -0.2103774 -0.5865514 2.8975058 16777215
 -0.1648823 -0.6170546 2.9802003 16777215
 -0.1058939 -0.7408169 3.0511706 16777215
 -0.1706376 -0.7570977 3.1076121 16777215
 -0.0832187 -0.8892678 3.1978412 16777215
 -0.0824198 -0.9443651 3.2149324 16777215
 -0.0343579 -0.9461623 3.2392979 16777215
 -0.2360305 -0.7731315 3.4182954 16777215
 -0.2316226 -0.8631110 3.4806843 16777215
 -0.1556017 -0.9015412 3.5205390 16777215
 -0.1150876 -0.9329492 3.5281823 16777215
 -0.0827503 -0.9977052 3.5707450 16777215
 -0.1214310 -1.0112654 3.6787570 16777215
 -0.0154900 -1.0864387 3.6925511 16777215
 0.0147178 -1.1219062 3.7286992 16777215
 -0.2394355 -1.0879117 3.9375799 16777215
 -0.2849218 -1.0623037 4.0359435 16777215
 -0.2515489 -1.1140301 4.0619540 16777215
 -0.1286230 -1.0379891 4.1543584 16777215
 -0.1025998 -1.1156763 4.2505312 16777215
 -0.0759148 -1.1714689 4.2697840 16777215
 -0.2431204 -1.1888772 4.4908891 16777215
 -0.2413983 -1.1097305 4.5985222 16777215
 -0.1786895 -1.1288637 4.6017814 16777215
 -0.1803537 -1.1375386 4.6427560 16777215
 -0.2025298 -1.1729032 4.6399627 16777215
 -0.1525363 -1.2320501 4.6796427 16777215
 -0.1413262 -1.2609347 4.7340117 16777215
 -0.1440176 -1.2613589 4.7758560 16777215
 -0.0978294 -1.2950571 4.8229389 16777215
 -0.0526210 -1.2420751 4.8748679 16777215
 -0.3012436 -1.2837081 5.1032739 16777215
 -0.3474176 -1.3417499 5.1936836 16777215
 -0.4252054 -1.3506573 5.2549558 16777215
 -0.2975290 -1.3735421 5.3337870 16777215
 -0.3074986 -1.3929870 5.4441948 16777215
 -0.2704186 -1.4522822 5.4576731 16777215
 -0.2468986 -1.4170787 5.4759188 16777215
 -0.4026907 -1.3491848 5.6225586 16777215
 -0.3353747 -1.3635144 5.6285076 16777215
 -0.3262283 -1.4044789 5.6801705 16777215
 -0.3196599 -1.4136167 5.7083035 16777215
 -0.3921273 -1.3665754 5.8056850 16777215
 -0.3732420 -1.4439747 5.8472495 16777215
 -0.3570819 -1.4385767 5.9431438 16777215
 -0.3237343 -1.5120857 5.9578934 16777215
 -0.3154273 -1.5774889 5.9770837 16777215
 -0.2879231 -1.5889161 6.0027647 16777215
 -0.2419119 -1.5997375 6.0450535 16777215
 -0.2342323 -1.5900345 6.0665240 16777215
 -0.2841053 -1.5694231 6.2032957 16777215
 -0.2679145 -1.5641340 6.2835102 16777215
 -0.4082482 -1.6143638 6.4349442 16777215
 -0.3344759 -1.6424265 6.4560022 16777215
 -0.3883242 -1.7046686 6.5367336 16777215
 -0.3608718 -1.7363325 6.5413465 16777215
 -0.3470838 -1.7669723 6.5653524 16777215
 -0.4629976 -1.7283012 6.6954918 16777215
 -0.4521579 -1.7717779 6.7601399 16777215
 -0.4750930 -1.7746404 6.7974524 16777215
 -0.4934580 -1.8154724 6.8132162 16777215
 -0.4479862 -1.8155043 6.8640165 16777215
 -0.3979711 -1.8209097 6.9299803 16777215
 -0.4055752 -1.8451047 6.9584160 16777215
 -0.4079655 -1.8110137 6.9730916 16777215
 -0.4396384 -1.8186185 7.0917673 16777215
 -0.4281561 -1.8413646 7.1088405 16777215
 -0.4573774 -1.8847575 7.1964817 16777215
 -0.4531282 -1.9273312 7.2656374 16777215
 -0.3867840 -1.9556258 7.3264985 16777215
 -0.3970337 -1.9554341 7.3761187 16777215
 -0.3743593 -1.9869401 7.4055076 16777215
 -0.3650337 -1.9940672 7.4501729 16777215
 -0.5665575 -1.8723273 7.5796180 16777215
 -0.5192252 -1.9159310 7.5103583 16777215
 -0.6514760 -1.8628833 7.6501079 16777215
 -0.6521304 -1.8975232 7.6963377 16777215
 -0.6399436 -1.9198518 7.7120371 16777215
 -0.6379148 -1.9422189 7.7209792 16777215
 -0.5791151 -1.9043164 7.7904711 16777215
 -0.5257432 -1.9349117 7.7940068 16777215
 -0.5237766 -1.9514189 7.8127437 16777215
 -0.5042533 -1.9584105 7.8333158 16777215
 -0.4894662 -1.9845461 7.8311977 16777215
 -0.4938959 -2.0024786 7.9621983 16777215
 -0.4500799 -2.0175698 7.9764423 16777215
 -0.4230777 -2.0435481 7.9876180 16777215
 -0.4200011 -2.0437083 8.0059738 16777215
 -0.4839259 -2.0650113 8.0711813 16777215
 -0.4256898 -2.0879235 8.0556564 16777215
 -0.4822884 -1.9862597 8.1237774 16777215
 -0.4987851 -1.9821894 8.2078619 16777215
 -0.5013040 -2.0162656 8.2252178 16777215
 -0.5062456 -2.0086617 8.2485981 16777215
 -0.5035920 -2.0248082 8.2407846 16777215
