# .PCD v.7 - Point Cloud Data file format
VERSION .7
FIELDS x y z rgb
SIZE 4 4 4 4
TYPE F F F F
COUNT 1 1 1 1
WIDTH 1179
HEIGHT 1
VIEWPOINT 0 0 0 1 0 0 0
POINTS 1179
DATA ascii
-0.5423849 -3.1129973 7.8265362 16711746
-0.4115896 -2.9529562 7.7958374 16711746
-0.9492789 -3.6340401 8.3053551 16711746
-2.0167968 -3.1658268 7.4914222 16711746
-0.9258053 -4.1441002 8.7745695 16711746
-0.9958513 -3.2384634 8.4333401 16711746
-0.1931401 -3.1019452 8.7398787 16711746
-0.6227610 -3.3484302 7.7022338 16711746
-1.2546096 -3.5699108 8.7615519 16711746
-0.8406453 -3.9373252 9.0619936 16711746
0.7252650 -3.5894744 8.6998720 16711746
-0.5130754 -3.3613632 7.8983097 16711746
-0.9568211 -3.5384982 8.6701612 16711746
-0.7210320 -3.8328207 9.1011639 16711746
-1.5689898 -2.8047419 7.5885229 16711746
1.0099064 -3.8631461 9.2370596 16711746
-0.9449681 -3.2504480 8.0015869 16711746
0.1924924 -3.4381437 8.5290709 16711746
-0.9325923 -3.2247186 7.9932003 16711746
-1.3257803 -2.7998035 7.6796827 16711746
-0.2328630 -3.2042503 8.0409575 16711746
0.0354970 -3.3684847 8.4856348 16711746
0.3295735 -3.5396228 9.1154842 16711746
0.3218352 -3.7063282 8.6611567 16711746
-1.8544477 -2.8199680 8.0371923 16711746
-1.9402546 -2.8789587 8.0628710 16711746
0.7098826 -3.5859573 8.7057333 16711746
-0.9075184 -3.2122324 8.4706326 16711746
-0.1481295 -4.0216823 8.6332521 16711746
-1.0260731 -3.5814052 8.6601725 16711746
-1.4614933 -3.5044279 8.1868944 16711746
0.4209060 -3.1977251 8.5991821 16711746
-0.2930976 -3.3732619 8.6735296 16711746
-0.8018045 -3.1025305 8.2777443 16711746
-4.7212796 -12.7526560 15.0516891 16711746
-2.8082595 -4.1477013 7.9432497 16711746
-9.5135622 -28.1474285 12.1077299 16711746
-5.6786890 -5.3520541 8.6874323 16711746
-1.0417132 -2.9191678 8.4183521 16711746
-0.9635906 -3.6717989 8.3724394 16711746
-1.9936421 -3.0455375 7.4717655 16711746
-1.0209485 -3.5566957 8.6078033 16711746
-0.9773495 -3.3134537 7.8500690 16711746
-0.8205140 -3.1580737 7.9592824 16711746
-0.3219550 -2.7288079 7.8058982 16711746
-0.7533499 -2.9518087 7.8566985 16711746
-0.8195667 -3.0108383 8.2550497 16711746
-2.5474827 -4.0029469 8.8314419 16711746
-2.5487680 -4.0009489 8.8253889 16711746
-0.5965661 -4.0402584 8.8003044 16711746
-1.0408616 -3.2536066 7.8970628 16711746
-0.3511550 -3.2764421 8.0058651 16711746
-0.4033370 -4.3329325 8.8643417 16711746
-0.3578278 -2.8294578 7.8572717 16711746
0.0395585 -3.4341741 8.4520931 16711746
-0.1226753 -3.1703486 8.2497091 16711746
-0.4924602 -4.1202035 9.0188770 16711746
-0.4029225 -3.2820563 8.0140705 16711746
-0.2293336 -3.0504472 8.0063324 16711746
-1.2556925 -3.4652827 8.0846434 16711746
-0.1457556 -3.1477678 8.0639410 16711746
-1.5469223 -4.1488318 8.1367884 16711746
-0.3983707 -3.5937507 8.0097666 16711746
-0.1805812 -3.4109619 8.1161280 16711746
-0.0010056 -3.5741878 8.1189690 16711746
-0.0186604 -3.8535633 8.0957937 16711746
-0.2746407 -3.0043693 7.9548130 16711746
-2.2271862 -3.3873510 8.5529327 16711746
-1.1483573 -3.2725794 8.0804157 16711746
-0.5020034 -3.4288716 7.9511352 16711746
0.2018104 -3.6849761 8.6175518 16711746
0.6827062 -4.8630629 10.2022085 16711746
0.2695410 -3.9512143 8.5731239 16711746
-0.7267675 -2.1621840 7.9068847 16711746
0.2806294 -3.8843558 9.4055243 16711746
-0.9172536 -3.8999236 8.9078026 16711746
-0.8313531 -3.3356738 8.2555799 16711746
-1.6148505 -3.1888533 8.0902443 16711746
-1.5544059 -5.6225724 8.2496643 16711746
0.4101520 -3.1897333 8.6116772 16711746
0.1317203 -3.5752623 8.6240435 16711746
-0.3453970 -3.4700694 8.1205130 16711746
-0.3108692 -3.3093696 7.9256425 16711746
-0.0636583 -3.2490084 8.6886663 16711746
0.3576633 -3.4720814 9.4217882 16711746
0.2368754 -3.2929702 9.0868511 16711746
-5.8345308 -5.7318416 10.1273117 16711746
-11.4508181 -13.7895956 7.1847816 16711746
0.6018409 -3.3840761 8.0948830 16711746
-0.3639148 -3.0780606 8.6403275 16711746
-0.3716376 -3.6922555 8.5521975 16711746
-0.1208073 -3.2695615 8.2360458 16711746
-0.0681192 -2.6878543 7.8872824 16711746
-1.0832962 -3.8484085 8.4879618 16711746
-0.4359104 -3.2336245 7.9292645 16711746
-1.9582561 -4.5220127 8.3162584 16711746
-0.8898922 -3.4624014 7.9530344 16711746
-0.4782292 -4.1803832 7.8336763 16711746
-0.9907486 -3.5566216 8.3900251 16711746
-0.7018927 -3.8684905 8.6636963 16711746
1.1845827 -5.1338739 10.8577509 16711746
-0.9117619 -4.3484755 9.3963175 16711746
-1.1510752 -4.2417188 9.5842390 16711746
-0.1126463 -3.4561284 8.3248386 16711746
-0.2326422 -3.3818557 8.1225433 16711746
-0.4417030 -3.5007741 7.9530606 16711746
-0.2426769 -4.0203786 8.9378424 16711746
-1.1342641 -3.6931474 8.4442959 16711746
-0.5051126 -2.9322529 8.2251835 16711746
-0.5057360 -3.2313712 7.9290357 16711746
-0.8947288 -4.4418631 9.1149836 16711746
-1.2344066 -4.5465055 9.9571466 16711746
0.6146630 -4.0771441 9.7954741 16711746
0.1574606 -4.2243505 9.8069401 16711746
-1.2248770 -4.4435267 9.8973045 16711746
-1.3766447 -4.9679465 10.3198242 16711746
-3.5294292 -5.3705187 9.8198662 16711746
0.3874661 -3.8521030 9.2530241 16711746
1.6727842 -4.0395799 8.3803625 16711746
-0.5144576 -4.6954250 8.4296551 16711746
-0.7132406 -4.3381910 9.3444290 16711746
0.5828614 -3.9799128 9.9277449 16711746
-0.9414881 -4.4006648 9.9897881 16711746
0.1080485 -3.2029660 8.9857616 16711746
-0.7490221 -4.1688752 8.5882330 16711746
0.5017059 -3.8035181 9.7442217 16711746
-0.4876654 -4.1497016 9.7856207 16711746
-0.6034455 -4.0125694 9.7427263 16711746
-1.2029253 -4.2780657 9.2752438 16711746
-0.0381935 -4.1784520 8.7462740 16711746
-1.7102966 -3.8712173 8.1495790 16711746
0.1707717 -3.9319289 8.7651320 16711746
-0.1987700 -3.6238639 8.2125988 16711746
-0.7516851 -4.3411384 8.4617882 16711746
0.2329985 -2.9096563 8.3857851 16711746
-2.2684753 -3.6084874 8.0343142 16711746
-1.0512938 -3.5078700 8.2268324 16711746
-0.6545927 -2.8816679 8.0995188 16711746
-0.0901916 -2.7015142 8.0562887 16711746
-0.0660294 -3.1060336 7.9447794 16711746
-0.3308306 -4.0157695 8.1404009 16711746
0.1687793 -3.6159894 9.1545258 16711746
-0.1225904 -3.2856817 9.0188656 16711746
-0.9935708 -4.4770718 7.9488363 16711746
-0.2565942 -3.3734469 9.0184793 16711746
0.2795969 -2.9562085 8.3214254 16711746
-0.1261710 -3.2891786 8.1342325 16711746
0.0518542 -4.2516165 8.1584406 16711746
-0.1260724 -3.8676860 8.3358335 16711746
-0.5308817 -3.9331634 8.5357857 16711746
-0.9255769 -3.5422366 8.0760517 16711746
-0.6576329 -2.9040604 8.1011744 16711746
0.0004553 -2.7769933 8.1066236 16711746
0.1230852 -3.3248398 8.3170538 16711746
-0.1426720 -3.1790051 8.2283182 16711746
0.3229885 -3.4646456 9.4225578 16711746
0.1465362 -4.0069208 8.9325857 16711746
-0.0641148 -3.1273959 8.3666420 16711746
0.0407845 -2.9700780 8.9095736 16711746
-0.0127114 -3.4372871 8.7152939 16711746
-0.5158304 -3.8719289 8.0467272 16711746
-0.5106154 -3.5759065 8.3404617 16711746
-0.7552478 -4.1930070 8.6709204 16711746
-0.7489049 -3.3370209 7.9357104 16711746
-1.8758302 -3.4900804 7.9867535 16711746
-0.0768414 -2.6572404 8.0310745 16711746
-0.4714578 -3.8409281 8.1717377 16711746
0.4375891 -3.3593721 8.9580860 16711746
-0.4070190 -3.8099427 8.6548815 16711746
-0.7805988 -4.7133861 8.8818226 16711746
-0.3476537 -4.0947709 8.4634533 16711746
0.1867592 -3.9028504 8.2790079 16711746
0.0832133 -3.7696998 8.8995686 16711746
-0.1116802 -3.1231902 7.9663463 16711746
0.2968415 -3.2798262 8.5683813 16711746
0.0463798 -3.5927792 8.8028641 16711746
0.0166583 -3.7990255 8.0583658 16711746
-1.8931141 -3.8545380 7.7733192 16711746
-0.7164201 -3.7938142 7.8233361 16711746
-0.3225687 -3.6760480 8.2585506 16711746
-0.0957719 -3.4810574 8.5164614 16711746
0.2943918 -3.5420139 8.4253473 16711746
-0.1805625 -3.6011057 8.4126225 16711746
-0.3750959 -3.6054716 7.9578438 16711746
-0.3342734 -3.7134387 8.1285038 16711746
-1.0500867 -3.8276627 8.9011421 16711746
-1.0450702 -3.5774038 8.1809130 16711746
-0.3218190 -4.1288815 8.0198259 16711746
-1.6432116 -3.8311422 8.5421944 16711746
-0.0562262 -4.1897163 8.0932140 16711746
-1.0670773 -3.4541161 8.1189127 16711746
-0.6646649 -3.8181963 8.6719007 16711746
-0.5234170 -3.8585708 8.0528011 16711746
-0.8574644 -3.9066024 9.1602888 16711746
-1.2682197 -3.9171872 9.7037725 16711746
0.0272827 -3.8349943 8.0590210 16711746
-0.3538231 -3.5039389 8.0526800 16711746
-0.3090177 -2.5499952 8.0409107 16711746
0.3454487 -4.5465117 8.7619820 16711746
-0.1935179 -3.7136803 8.2508039 16711746
-0.3770607 -3.5480285 7.8558354 16711746
-0.3731449 -4.1712794 8.4402466 16711746
-0.3139852 -3.8191335 8.2787342 16711746
0.1099305 -3.6422818 8.5432425 16711746
-1.1713802 -3.5809484 7.8122907 16711746
-1.3784549 -3.8822663 7.8192496 16711746
0.0289704 -3.8371809 8.3669939 16711746
-0.2035059 -3.7960126 8.4165812 16711746
0.4951254 -3.9553161 8.5444298 16711746
-1.8209563 -3.6718957 7.7055120 16711746
-0.0325388 -3.5265355 8.6984453 16711746
-2.2540994 -4.2665496 8.3258533 16711746
-1.8010522 -4.2311435 7.8635178 16711746
-2.3786366 -3.8824668 7.8919277 16711746
0.0988155 -4.1199718 8.7052946 16711746
-1.4231883 -3.8798602 7.9420156 16711746
-2.0691755 -4.1932969 7.9116750 16711746
-0.3051604 -3.4729872 8.3007202 16711746
-0.1523723 -4.0443139 8.4716845 16711746
-0.4521416 -4.1332579 8.3773947 16711746
-1.5073144 -3.8650634 8.1192617 16711746
-1.5118455 -4.1079164 8.3442459 16711746
-1.4533865 -3.6953421 8.0585165 16711746
-2.6892877 -4.0784178 8.3953571 16711746
-0.3745890 -3.6398542 7.9561296 16711746
0.2076233 -3.5707242 8.6351643 16711746
-0.0511127 -3.7788687 8.1458282 16711746
0.1708687 -3.7719617 8.3089170 16711746
0.4296314 -3.5281787 8.4967670 16711746
0.5628010 -3.4786963 8.5866804 16711746
-1.3376267 -3.7736566 8.2239704 16711746
-1.4884112 -3.7438622 8.1806526 16711746
-1.5142846 -3.5707150 8.1313696 16711746
-1.5922110 -3.9829760 8.1256313 16711746
-0.2552430 -3.8360498 8.5179892 16711746
-1.4067848 -4.1089811 9.5855970 16711746
-0.1308195 -4.2652574 8.7034483 16711746
-2.1891010 -4.2460470 7.9989085 16711746
0.0243306 -3.4952831 8.6196136 16711746
-1.5888354 -3.6911817 8.2908258 16711746
-2.3049469 -4.1797748 8.5770473 16711746
-1.3091233 -4.0851288 7.9486151 16711746
-1.1538651 -3.8065174 8.1347361 16711746
-0.0677722 -3.6991057 8.1081581 16711746
0.3951836 -4.2493134 8.9150972 16711746
0.1090046 -4.0429144 8.3613548 16711746
-2.1094856 -4.1150379 8.4589701 16711746
-0.0052619 -4.0102620 8.4574728 16711746
-0.0787148 -4.4035697 8.5699320 16711746
0.3394578 -3.5689757 8.4363270 16711746
0.1053996 -3.3021278 8.3150415 16711746
-1.9715250 -4.4749799 7.8397336 16711746
0.0767181 -3.1090078 7.9567485 16711746
0.6551363 -3.2438908 8.3556004 16711746
-0.2197121 -3.5375619 8.2039413 16711746
-0.8465796 -4.0529099 8.6826725 16711746
-2.1857877 -4.0533333 8.5403709 16711746
-0.1318142 -3.2683244 8.1312704 16711746
-1.0327084 -4.3084922 9.0713139 16711746
-0.0266371 -3.8477931 8.7498741 16711746
0.0601406 -3.8439789 8.8524237 16711746
-0.9162502 -3.8006816 8.9382381 16711746
-1.2302812 -3.7174494 8.1874542 16711746
-0.6442789 -4.6043501 7.8844013 16711746
0.0917895 -2.5346234 8.1486712 16711746
-0.1603979 -3.5494411 8.5243502 16711746
0.1994963 -3.4193285 8.4638691 16711746
-0.0274292 -3.1048875 7.9779449 16711746
-2.8455935 -3.8569155 8.9617205 16711746
0.7010270 -3.7535622 9.6248341 16711746
-1.9336320 -3.8056335 8.2704706 16711746
-1.3626398 -4.1843719 8.1645842 16711746
-2.3122883 -3.5683801 8.4911394 16711746
-2.0732653 -3.4930422 8.1067095 16711746
0.5939319 -3.7976310 8.5839472 16711746
0.5485747 -3.3107867 8.3311138 16711746
0.2732165 -2.7197092 8.1595068 16711746
-0.3976769 -4.1516666 7.9685936 16711746
-2.8173790 -4.1577916 8.9614677 16711746
0.1906018 -2.9459937 8.4276552 16711746
0.2834232 -2.7575970 8.3216915 16711746
0.8189788 -3.2892573 8.7185154 16711746
-0.6091053 -4.2801571 8.8002253 16711746
-0.9152505 -4.1391354 9.2887764 16711746
-1.7169689 -4.6245685 8.0522442 16711746
2.1348848 -6.6142521 8.6296921 16711746
-0.1637211 -4.0380702 8.6333179 16711746
-0.8747228 -3.7529750 7.8003464 16711746
-0.7791253 -4.0104208 8.3620825 16711746
-1.4157062 -3.9551773 7.8102622 16711746
-0.1102042 -3.4835036 8.5887356 16711746
-0.3251018 -3.6516521 8.2533979 16711746
-0.5312315 -3.7633934 7.8808970 16711746
-1.4178982 -3.8081310 8.2470093 16711746
-0.9402789 -3.9347038 8.7557602 16711746
-0.4666671 -3.9171755 8.1820316 16711746
-0.4118723 -4.1836476 8.3098154 16711746
-1.2253888 -3.8547029 8.0562563 16711746
-0.2325959 -3.0960529 8.2025042 16711746
-0.8434628 -4.0057516 8.4302073 16711746
-0.5232797 -3.8925750 8.5116043 16711746
-0.3484870 -4.1414723 8.1822166 16711746
0.0392724 -3.6413522 8.4940720 16711746
-0.2016899 -2.8708866 8.1540318 16711746
-0.8219070 -3.6624136 8.4503059 16711746
-2.4091768 -4.1559377 8.2478685 16711746
-1.5959175 -3.8677123 7.8795285 16711746
-0.6650991 -3.4912584 8.5492191 16711746
-1.3447329 -3.6206901 8.0946712 16711746
0.1639167 -4.2583609 8.6456041 16711746
0.5524530 -4.0165038 8.9505014 16711746
-1.1976426 -3.7442834 8.8219833 16711746
-0.3191736 -3.9508379 8.2005587 16711746
-0.1639279 -3.5345273 8.0891199 16711746
-1.1375598 -3.9386120 8.8141794 16711746
-1.0183153 -3.9942434 8.7266579 16711746
-0.0528182 -3.7271225 8.3969860 16711746
-0.7666088 -3.8459005 8.3507528 16711746
-0.4547464 -2.1144800 8.0613956 16711746
-0.9645526 -4.0512915 8.7993307 16711746
-0.0834681 -3.2945833 8.3451891 16711746
0.1883544 -4.2773204 8.3130512 16711746
-1.1530536 -3.7096064 9.1693153 16711746
-0.1582475 -4.0649419 8.2158957 16711746
-0.7818583 -3.7105844 8.3610964 16711746
-0.6775017 -4.1299787 8.3032227 16711746
-0.2640584 -4.0492105 8.2579699 16711746
-0.2553648 -3.5721784 8.4265604 16711746
-0.4543456 -4.0055604 8.3494377 16711746
-0.4785850 -3.2899802 8.9654903 16711746
-0.9692861 -3.9994590 8.7840290 16711746
-1.5212195 -3.9076149 8.3012218 16711746
-0.5024585 -3.5864723 8.3471813 16711746
-1.0161402 -3.2105577 8.9044189 16711746
-0.8840206 -3.8976610 8.4039001 16711746
-0.2995372 -3.6808925 8.2982855 16711746
-0.2987628 -4.0551448 8.2281494 16711746
-0.2524466 -3.9978776 8.1673822 16711746
-1.0841051 -3.3747559 9.0386753 16711746
-0.7678930 -3.6955180 8.8271475 16711746
-1.0350698 -3.0832520 7.9916162 16711746
-0.8255928 -3.9490838 8.4644718 16711746
-0.3898453 -3.9259436 8.3944540 16711746
-0.3053994 -3.6544042 8.2780313 16711746
-0.4058264 -4.0780687 8.2770367 16711746
-2.0273459 -5.6293039 10.6986599 16711746
0.8099632 -4.3682237 10.3394766 16711746
0.0682275 -3.0569181 8.9432392 16711746
-0.6681005 -2.6946297 8.3169451 16711746
0.8073057 -4.5866294 9.9750071 16711746
0.7505240 -4.8779755 9.1839380 16711746
1.4941069 -4.8470941 9.1631594 16711746
0.2414233 -4.5359497 8.6677427 16711746
-1.0459450 -4.8625827 7.7440710 16711746
-1.2793328 -4.5170097 7.9163542 16711746
1.2221121 -3.8870432 8.3237867 16711746
-0.1033111 -4.5228577 8.7902040 16711746
0.8038440 -5.0123496 9.2413034 16711746
-0.6877430 -4.5709958 8.2478867 16711746
-0.8066381 -4.5816312 8.2199764 16711746
0.4966137 -4.9028268 8.6557264 16711746
-0.9747327 -4.4580650 8.3459539 16711746
-0.0565990 -4.7177749 8.3828917 16711746
-0.2320018 -4.7314787 8.1767874 16711746
0.6291006 -5.2295322 8.7349653 16711746
0.1510133 -4.6251240 8.6077976 16711746
0.1361169 -4.6277752 8.5557632 16711746
0.9037027 -5.0127935 8.7703590 16711746
0.3282702 -4.8219371 9.2544107 16711746
-1.0366204 -3.6783342 8.9813251 16711746
-0.2426407 -4.6713562 8.1736774 16711746
-0.0416438 -4.4438238 8.9204817 16711746
0.0618633 -4.6607995 8.9196873 16711746
0.2663012 -4.8748379 8.4967775 16711746
0.8720013 -4.8626633 8.9722614 16711746
-0.7600940 -4.3520389 8.4724112 16711746
0.1318123 -4.6155825 9.7720890 16711746
-0.2570579 -4.6445856 8.1504097 16711746
1.1711773 -5.5892239 10.4065323 16711746
0.6999488 -4.6304488 8.6859617 16711746
-0.9659120 -4.0502167 8.7475929 16711746
0.4544190 -4.7839398 8.6275053 16711746
-0.7108647 -4.5704074 8.3955173 16711746
-0.4505230 -4.7154193 8.3659706 16711746
0.0842855 -4.3923006 8.9063063 16711746
-0.0338376 -3.9939799 8.7971220 16711746
-0.0553592 -4.9092326 8.5672197 16711746
0.4247726 -4.9752526 8.6092710 16711746
0.9015924 -5.0716987 8.6049185 16711746
-0.5435234 -4.5244069 8.6657114 16711746
-0.0930328 -4.5384641 8.1153774 16711746
0.8804502 -4.8222246 10.3819036 16711746
0.8267072 -4.9714608 9.3338804 16711746
0.3941070 -4.8167992 9.4385138 16711746
1.8377273 -5.0453601 8.6891603 16711746
-0.9895459 -4.7797208 8.3118830 16711746
-0.7509678 -4.5100799 8.4524231 16711746
0.7012678 -5.1091585 8.6187534 16711746
1.2809361 -4.8857522 9.0861931 16711746
-0.5398987 -5.0106468 8.1126337 16711746
-0.5177755 -4.7959194 8.0260754 16711746
0.5946259 -5.1328392 7.9688931 16711746
1.0633957 -5.3457708 10.2285480 16711746
-0.2271219 -4.4114213 8.3703213 16711746
-0.2760360 -4.7641230 8.2705221 16711746
1.2405154 -4.3161817 8.6996374 16711746
-1.4728199 -4.5374885 7.9648166 16711746
1.5864835 -4.2849221 8.3864927 16711746
1.7801405 -4.4967017 8.7487440 16711746
0.5533747 -4.5144744 8.7124405 16711746
0.9513419 -4.7707067 8.6155701 16711746
-0.2721099 -4.8388991 8.0019560 16711746
0.1326860 -4.1908770 8.1608601 16711746
-1.0011209 -3.8346703 8.8344135 16711746
1.8306521 -4.8396597 9.1511335 16711746
-0.5198277 -4.6911230 8.1526136 16711746
0.0551162 -4.5502276 8.9942341 16711746
-1.1860839 -4.1002269 8.8931341 16711746
1.3044552 -4.8756080 8.1838150 16711746
-0.5743871 -3.9329867 8.5488834 16711746
1.4037466 -4.7741380 8.2800369 16711746
-0.7389709 -4.2522683 8.4105186 16711746
1.5196211 -4.6397548 8.6044264 16711746
1.5748308 -4.0653515 7.7551212 16711746
1.4542863 -4.1579957 8.0765629 16711746
0.4984210 -4.8688288 7.9713316 16711746
-1.1092403 -3.6030738 9.0539322 16711746
0.0557091 -4.2799177 9.9246597 16711746
1.0591832 -5.1143212 10.7927294 16711746
0.1754219 -4.5151768 9.0645828 16711746
0.5532844 -4.4367380 9.4947481 16711746
1.7468187 -5.2083468 9.1361380 16711746
0.8369291 -4.4143605 8.8540211 16711746
-1.0826790 -4.1006923 8.4767427 16711746
0.8839940 -4.4168591 8.0157442 16711746
1.4363186 -4.6071038 8.5801706 16711746
-0.3091302 -4.5546927 8.0161972 16711746
-0.2141193 -4.8320379 8.0826683 16711746
-0.8776865 -4.0235124 9.1108456 16711746
-0.5846632 -4.4463649 9.1933384 16711746
0.0310705 -4.2123241 9.8691978 16711746
1.3665006 -4.2723961 8.9247923 16711746
2.5870175 -4.8111100 9.1153784 16711746
0.1844838 -4.6572800 9.1408234 16711746
-0.5027279 -5.0557222 8.6019859 16711746
-0.5437991 -4.5493059 8.7008352 16711746
-1.6784170 -4.0072608 8.2605867 16711746
-0.7956496 -4.7013044 8.1942663 16711746
1.1482180 -4.2191644 8.4383602 16711746
-0.0098291 -4.8055143 8.3973055 16711746
0.4181145 -4.5667958 7.9660511 16711746
-0.5879695 -3.8546844 9.3447847 16711746
-1.1029029 -3.7552848 8.8043699 16711746
-0.8369519 -4.0220442 8.9655581 16711746
1.5920821 -4.4127474 9.4189920 16711746
1.0633814 -5.2690015 9.0942307 16711746
2.9738529 -5.3208017 8.7521553 16711746
3.1607935 -5.2758174 8.5178795 16711746
-1.1310279 -3.9610031 8.7180738 16711746
-0.5855057 -5.3157697 7.8179026 16711746
-1.2521224 -3.9938643 9.0503416 16711746
1.1099985 -4.2815795 9.1968231 16711746
0.0529270 -4.5952263 8.4992208 16711746
0.0632748 -4.7692580 8.4673796 16711746
-1.0232265 -4.0066857 8.8324347 16711746
1.0688921 -5.2572832 8.9693632 16711746
0.1784251 -4.6104093 8.9153414 16711746
0.8294887 -4.7152128 8.8049164 16711746
0.2280663 -5.0013146 10.0003328 16711746
-0.4183464 -4.5986800 8.3571148 16711746
-0.3994618 -4.8538666 7.8236580 16711746
-1.6180904 -3.7452469 8.2982693 16711746
-1.1611425 -4.2190361 7.9349117 16711746
0.2608390 -5.0795660 10.0643597 16711746
0.9805930 -4.9086819 8.6755505 16711746
0.8718223 -5.1785107 8.9717798 16711746
-1.6227254 -3.9166811 8.2304239 16711746
-2.6248465 -3.5347979 8.4846277 16711746
0.1330963 -4.5327673 8.7635441 16711746
-0.3393634 -4.6137772 8.2207985 16711746
1.0164483 -3.9752727 8.6865854 16711746
0.8274436 -4.6114693 8.5939121 16711746
-0.1195831 -4.4563756 8.6201143 16711746
-1.1138700 -3.6044600 9.0606823 16711746
-1.1983804 -3.6351256 9.2244101 16711746
1.2890631 -5.2259574 9.1438704 16711746
0.5948647 -4.5179782 9.5475569 16711746
2.9023564 -5.3573909 8.8460999 16711746
-0.1454939 -4.4510937 8.9301100 16711746
-0.5677181 -4.4437594 8.0648012 16711746
-1.0363040 -3.8127983 9.0322332 16711746
-0.3308795 -4.2743487 8.5044174 16711746
-1.6903679 -4.3973870 8.1814508 16711746
-1.0324347 -3.6539292 8.7425566 16711746
2.1586323 -5.6796613 9.1862116 16711746
-0.3309052 -4.3250146 8.5177231 16711746
2.5757949 -5.3957095 9.0142508 16711746
-0.7838618 -3.7070918 8.5256748 16711746
-2.1328073 -3.7325506 8.2068586 16711746
0.0012280 -4.2923841 9.6897736 16711746
-1.5347390 -4.3921199 9.6007786 16711746
-0.0788551 -4.2631183 8.5935392 16711746
-1.0578734 -3.6370716 8.5540876 16711746
-0.1012203 -4.3856769 8.3428087 16711746
-0.5109049 -4.1351857 8.6935835 16711746
0.1620212 -4.1867371 8.3069782 16711746
-0.4230577 -3.9665422 8.6345797 16711746
-0.7166057 -3.8860302 8.5798922 16711746
-0.9860970 -3.9829438 8.4676857 16711746
0.1912962 -4.2214503 8.7361383 16711746
-0.3847815 -3.9678051 8.7608242 16711746
0.3287489 -3.2114198 9.1343813 16711746
0.3506908 -4.0492563 9.3318825 16711746
-0.2587271 -4.2988868 8.5101929 16711746
0.2288120 -4.1705561 8.5618572 16711746
-1.4340198 -3.5501885 8.9769945 16711746
0.4975124 -3.9619727 8.4501944 16711746
0.5275052 -3.9158020 8.0909901 16711746
-0.9125565 -3.4342756 8.7931547 16711746
-0.1644421 -3.5303199 8.0883827 16711746
0.7197507 -3.8526330 8.5496140 16711746
-0.2618518 -4.2334299 8.3827267 16711746
0.0209035 -4.9329529 8.8548193 16711746
1.3129605 -4.6095629 9.0663147 16711746
-0.2531947 -4.0256763 8.4195595 16711746
-0.0244077 -3.9539390 8.2402716 16711746
-0.4656715 -4.4200187 9.0883093 16711746
0.3246478 -3.8718028 9.0396948 16711746
-0.1802548 -4.0238729 8.4343033 16711746
1.5712180 -3.9641635 8.7799826 16711746
-0.0488553 -3.7299237 8.6173115 16711746
0.9168479 -4.4711366 9.0336857 16711746
0.8053975 -4.1460814 8.4711409 16711746
-0.5892129 -2.4490921 8.2586479 16711746
-0.6294110 -2.9601777 8.6768045 16711746
-1.2014425 -3.5623667 9.0434885 16711746
-1.1302996 -3.3104556 8.8474741 16711746
3.5828962 -6.0767808 8.5714502 16711746
-21.9032497 -25.1509724 18.0758171 16711746
0.7519267 -3.9636426 8.2832212 16711746
1.4893448 -13.2790470 10.0787430 16711746
1.5161138 -13.0667419 10.0048437 16711746
0.2019023 -6.3982363 9.6545267 16711746
-1.3461975 -6.4930773 11.8335524 16711746
-0.5788658 -2.9006529 8.5975542 16711746
-0.5991134 -2.2179918 8.3098249 16711746
0.2044198 -2.8317776 8.2564192 16711746
2.6796279 -10.3049603 12.8201628 16711746
-2.6345925 -8.0076208 9.4613276 16711746
-2.8327813 -6.7522936 9.9333534 16711746
-0.7502737 -2.5034299 8.2525291 16711746
-0.6701592 -3.2518463 8.4515972 16711746
-0.2173298 -2.6094043 8.8484917 16711746
-0.3281326 -3.2978373 8.4887457 16711746
-0.6191612 -3.3478868 8.7785387 16711746
-0.4297900 -3.0213985 8.2287178 16711746
-0.5385154 -3.1032279 8.4361515 16711746
-0.8943442 -2.7470992 8.5613880 16711746
-0.1937492 -3.3378704 8.6631384 16711746
-0.3745549 -2.8940632 8.4169140 16711746
-0.1038041 -2.8584964 8.4472656 16711746
-0.1270394 -2.8408394 8.3301134 16711746
-0.2785864 -2.7804205 8.6848059 16711746
-0.1716204 -2.8768280 8.7616110 16711746
-0.3472278 -2.5339124 8.5496712 16711746
-0.3385468 -2.4640803 8.5007458 16711746
-0.3709632 -3.1755657 8.4638758 16711746
-0.5253960 -2.8039584 8.3239098 16711746
-0.5761811 -3.1408019 8.6258888 16711746
-0.3644617 -2.7566688 8.2906818 16711746
-0.4239325 -2.6239846 8.2583475 16711746
-0.4484290 -3.2355101 8.4664259 16711746
1.5064603 -9.8628664 9.6014271 16711746
1.5788238 -4.1363235 8.6950407 16711746
0.9643008 -3.4514873 8.3461647 16711746
-0.3805698 -3.4086401 8.3343277 16711746
-0.1212265 -3.6827693 8.7952414 16711746
0.7246190 -3.2118649 8.3225260 16711746
0.6821181 -3.6828330 8.2645226 16711746
-0.2772161 -3.8508313 8.3814306 16711746
-0.1709289 -3.9087880 8.3244362 16711746
0.0818328 -4.0541506 8.4502964 16711746
-0.3583170 -3.7790415 8.4535484 16711746
0.1434811 -3.8482270 8.4925108 16711746
-0.3299826 -3.7311192 8.4152126 16711746
-0.2701375 -3.8268607 8.6012278 16711746
1.0786412 -3.5693953 8.3491316 16711746
0.3739797 -3.5919967 8.3078318 16711746
-0.3036240 -3.7207389 8.4657326 16711746
0.0443449 -3.7141047 8.6384211 16711746
0.5719211 -3.3182089 8.5486145 16711746
0.9682247 -3.4310036 8.3400373 16711746
0.2887802 -3.7239189 8.6840258 16711746
0.5677405 -3.5234740 8.2581234 16711746
-0.4055602 -3.9508996 8.3873158 16711746
-1.1528031 -3.0448089 8.4980354 16711746
-0.9965547 -3.2510462 8.4211054 16711746
-0.3528000 -3.2782500 8.4050903 16711746
-0.3682878 -3.2746115 8.4419317 16711746
-0.9792959 -3.2068338 8.4136696 16711746
-0.7111872 -3.3367746 8.4546890 16711746
-0.2987312 -3.0958152 8.4528408 16711746
-0.5977378 -3.0832093 8.5320520 16711746
-0.1661654 -2.7189596 8.9635019 16711746
-0.3041409 -3.1256735 8.6646976 16711746
-0.0252298 -2.9995553 8.4878492 16711746
0.0731242 -3.7846792 8.5864697 16711746
-0.5622188 -3.7344923 8.1256237 16711746
-0.4990511 -3.7730451 8.3089237 16711746
0.1332085 -3.6060936 8.6194592 16711746
-0.0804854 -3.6960065 8.4606314 16711746
-1.3696721 -3.7194324 8.6854982 16711746
-1.2940375 -4.0126548 8.4115162 16711746
-1.1132902 -3.9111776 8.3308182 16711746
0.0782489 -4.0169816 8.4082909 16711746
-0.0597328 -3.8856199 8.3525505 16711746
-0.1790083 -3.5532675 8.6227579 16711746
-0.2432589 -3.5577219 8.6575460 16711746
0.5165997 -3.5637400 8.4390469 16711746
-0.4117902 -3.5446146 8.6534805 16711746
-0.0929285 -3.2693112 8.5300236 16711746
0.4235517 -3.5006213 8.3832254 16711746
-0.4696861 -3.4046206 8.1643085 16711746
-0.2768489 -3.9534287 8.4946604 16711746
-0.4993500 -3.6154470 8.3053370 16711746
-0.7356668 -3.7034185 8.3419113 16711746
0.1648999 -3.5455070 8.3013897 16711746
0.1680328 -3.5810730 8.6047382 16711746
-0.8335295 -3.9328079 8.2699804 16711746
-0.5681227 -3.7182786 8.2369947 16711746
-0.8541234 -3.6661711 8.3853350 16711746
0.2657178 -3.5240936 8.5530338 16711746
0.3046291 -3.3298955 8.7011824 16711746
0.4445983 -3.4350173 8.3626776 16711746
0.3989465 -3.4718668 8.3833981 16711746
-0.4043516 -4.0143361 8.5099611 16711746
0.4503139 -3.2292433 8.4121904 16711746
-1.2627460 -3.4791937 8.6174812 16711746
-0.8976887 -3.7333689 8.2700195 16711746
0.5442254 -3.4299328 8.1920681 16711746
-2.7017617 -4.2867022 8.9451838 16711746
-0.6064589 -3.0351851 8.6194487 16711746
0.7174386 -3.3226216 8.3425980 16711746
0.5697215 -3.2696187 8.2807493 16711746
-0.0567942 -3.9755771 8.3915854 16711746
-0.1649412 -2.9894669 8.7179527 16711746
0.4384851 -3.1515880 8.3891954 16711746
-0.4729455 -3.3611112 8.4015675 16711746
-0.4065268 -3.9370952 8.4246235 16711746
0.5708602 -3.3245299 8.3675280 16711746
0.0015870 -3.9932694 8.5578060 16711746
-0.6015969 -2.6964490 8.5551949 16711746
-0.1726479 -2.9618695 8.7049208 16711746
-6.9515305 -12.6818676 15.6093216 16711746
-1.1531242 -6.0899897 11.3599453 16711746
-0.2065919 -3.8782189 8.5535231 16711746
-0.4786728 -2.3898542 8.4864111 16711746
-0.5645461 -2.3800154 8.3589611 16711746
-0.6446009 -2.4361272 8.4753866 16711746
-0.5124195 -2.4665804 8.4539948 16711746
-0.8154945 -2.4507823 8.4812059 16711746
0.2197386 -3.2287195 8.5692644 16711746
-0.3738025 -3.1772246 8.3834381 16711746
0.6166601 -3.2133086 8.3711061 16711746
0.8906863 -3.3374045 8.5154037 16711746
0.1143180 -3.4850976 8.4911795 16711746
-0.4934280 -3.0435328 8.2539310 16711746
-0.3495753 -2.4626107 8.1992626 16711746
-0.4803234 -2.1025424 8.2892399 16711746
-0.0767551 -2.6387553 8.2188978 16711746
-0.3512936 -2.4562199 8.1999550 16711746
-0.0271188 -2.6471138 8.2660837 16711746
-0.4623943 -2.0871866 8.2424269 16711746
-0.3437626 -2.5895016 8.2191372 16711746
-0.4618517 -2.5572166 8.2267971 16711746
-0.4436333 -2.5068741 8.3601513 16711746
-0.2446221 -2.5042195 8.4561605 16711746
-0.1072850 -2.7530880 8.1520567 16711746
-0.7633774 -2.8747931 8.2777176 16711746
-0.5634564 -3.2733688 8.9012585 16711746
-2.5529821 -5.5926981 10.6668205 16711746
-2.5471225 -5.5781069 10.6538858 16711746
-5.5586729 -13.1945801 13.2160892 16711746
-1.2734008 -2.9751933 8.4184380 16711746
-0.1691286 -3.8986015 8.9217930 16711746
-0.1679636 -3.8974216 8.9189577 16711746
-0.3980065 -2.2815144 8.4798670 16711746
-0.4911997 -2.1052966 8.2717571 16711746
-0.9462348 -2.4446647 8.5459394 16711746
-0.5988367 -2.4647350 8.5400763 16711746
-0.8347589 -2.4409094 8.4452200 16711746
-0.9027560 -2.5731602 8.4667053 16711746
-0.5094218 -2.3393979 8.3936062 16711746
-0.8403642 -2.4476058 8.4478531 16711746
-0.5033033 -2.3876922 8.3728323 16711746
-0.5120093 -2.4251168 8.4373693 16711746
-0.3904609 -2.3021133 8.4991693 16711746
-0.3715442 -3.2223604 8.3851147 16711746
-0.6692890 -2.2970772 8.4562740 16711746
0.4345723 -3.5492487 8.3849974 16711746
-0.8888648 -2.5473862 8.7201624 16711746
-0.5451972 -2.1420624 8.3469706 16711746
-0.2506126 -3.4219396 8.2993488 16711746
-0.4825058 -2.0798142 8.2883110 16711746
0.2861383 -3.0166245 8.3723536 16711746
-0.3657969 -3.0660963 8.2830725 16711746
0.2977554 -3.3127568 8.3677969 16711746
0.1704049 -3.0641098 8.2635069 16711746
0.3549892 -3.4065280 8.6753922 16711746
-0.6492277 -3.1685717 8.2296524 16711746
0.9356885 -2.2433376 1.7686753 16711746
0.7556476 -1.7757182 0.4173252 16711746
0.6042569 -1.9344743 1.9768031 16711746
2.1091201 -2.9900732 1.9400017 16711746
1.1012295 -1.7687646 0.3401968 16711746
1.1617875 -3.7416716 2.7799602 16711746
0.3499543 -0.4652095 0.1965366 16711746
0.8304951 -1.3632537 0.2019503 16711746
1.5238603 -1.6841109 0.4610747 16711746
1.7994792 -3.1675129 3.7634497 16711746
1.6793824 -1.9081808 0.0832259 16711746
-0.8297749 -4.1080647 2.9503176 16711746
2.2609258 -2.1435184 2.2388394 16711746
0.7615892 -1.7153640 0.3451087 16711746
-0.3920842 -0.4984758 0.0098293 16711746
-0.2195536 -0.3575065 -0.0331542 16711746
0.0363205 -0.4649446 0.0374153 16711746
-0.2613215 -2.3816426 0.9543039 16711746
-0.0096481 -0.1114822 -0.0037809 16711746
-0.8654404 -2.1748633 0.5440025 16711746
0.3771996 -1.3404516 0.0880858 16711746
-0.0470860 -0.9849224 0.2869877 16711746
0.6547692 -0.9016956 0.0628189 16711746
0.7525583 -0.8439810 0.0066565 16711746
0.6660640 -2.0007334 1.2700236 16711746
0.3105149 -1.2715858 0.5457166 16711746
0.8249351 -1.2468643 0.2197039 16711746
0.5995563 -0.8654522 0.1641380 16711746
0.2089882 -0.8636248 0.1826986 16711746
0.0692152 -0.8302842 0.1518483 16711746
-0.2740680 -0.7277343 0.1584386 16711746
0.5163929 -1.0275961 0.2891986 16711746
0.2636040 -0.7618911 -0.0124534 16711746
0.5392408 -1.4956195 0.6664981 16711746
1.3550414 -5.4525962 1.3294288 16711746
0.1588306 -0.8023962 0.1056941 16711746
0.8850197 -2.2189476 0.9661788 16711746
0.2792026 -0.8202946 0.0203826 16711746
1.3566399 -3.0485656 2.3502102 16711746
1.4809479 -1.6065669 0.3692243 16711746
0.6533411 -1.3120475 0.2948340 16711746
0.9473148 -1.7099895 0.5879515 16711746
1.0418999 -2.1936126 0.7238303 16711746
0.4967094 -0.7905495 -0.0158959 16711746
1.5201080 -2.0136962 0.6385594 16711746
1.3596997 -2.0862408 0.8198673 16711746
0.2168367 -0.6629146 0.0371315 16711746
0.2468928 -0.7166134 0.0095431 16711746
1.0325619 -1.8523967 0.6429522 16711746
0.0933099 -1.4615840 0.7844144 16711746
-0.3810556 -0.8376659 0.2120248 16711746
0.8594111 -2.7062151 1.3580896 16711746
0.7897647 -2.0946343 1.0436906 16711746
0.4846706 -0.8201604 -0.0535176 16711746
0.6083165 -1.8275273 1.0195118 16711746
0.4516745 -1.5432792 0.5643710 16711746
0.8317134 -2.0372996 0.5657951 16711746
0.0428841 -0.7812183 0.0612688 16711746
0.2011670 -1.3841397 0.4367979 16711746
1.3828670 -1.5113217 0.4034353 16711746
0.3424618 -1.0372118 0.2114707 16711746
0.9440843 -1.9459504 0.5464756 16711746
0.0851544 -0.8426272 0.2347769 16711746
0.9852973 -1.5847811 0.4142408 16711746
0.2186393 -1.0396899 0.4580438 16711746
0.4350243 -1.3691590 0.6115417 16711746
1.4544548 -2.1168976 0.2089996 16711746
-0.9882016 -2.9835570 1.9327949 16711746
0.5220139 -2.7808928 2.6362998 16711746
0.3688954 -1.7936811 0.5937281 16711746
1.2154248 -1.3945441 0.3113506 16711746
0.1674649 -1.0759048 0.0370193 16711746
0.1655650 -1.0212255 0.1524171 16711746
-0.6451210 -0.9259348 0.3022521 16711746
0.6893609 -1.5682672 0.5121787 16711746
0.3840183 -1.3425791 0.5388271 16711746
0.4541982 -0.9031416 0.0382857 16711746
0.7986045 -1.7659059 0.3560629 16711746
1.1276767 -2.5566988 1.9751296 16711746
0.2710173 -0.6549505 0.0452554 16711746
1.2833934 -1.8708090 0.4279919 16711746
0.8298377 -1.1454871 0.6323603 16711746
0.7182503 -1.1651918 0.2875762 16711746
-0.0741316 -0.4187002 0.0326038 16711746
1.3560233 -1.7550418 0.6581874 16711746
1.0820242 -1.8993976 0.7733096 16711746
0.9983254 -1.8020527 0.2303257 16711746
1.1474468 -1.7195069 0.0379544 16711746
0.6754287 -1.3224823 0.0867437 16711746
-1.1331944 -1.2083057 0.5031239 16711746
0.4532542 -1.3267926 0.6746541 16711746
2.7962403 -3.9850535 2.5708899 16711746
0.2716513 -0.9711302 0.2037966 16711746
-0.5204091 -0.9825189 0.3338382 16711746
0.3526771 -1.9286324 0.4446795 16711746
-0.3174460 -0.5168232 0.0733942 16711746
-0.0154206 -0.7271340 0.3778050 16711746
0.9015135 -1.9879692 1.7466662 16711746
0.6738055 -2.4411676 1.6358156 16711746
-0.1204712 -0.6351362 0.2199592 16711746
0.4456310 -1.5430890 0.6293663 16711746
-0.2195736 -0.6663114 0.0230816 16711746
-0.1795106 -0.8807762 0.6377358 16711746
0.0948076 -0.8277232 0.1379470 16711746
0.1341851 -0.8549867 0.2001021 16711746
-0.1844033 -0.5700331 0.0631004 16711746
-0.6582612 -0.8296136 0.1980333 16711746
-0.3244475 -0.9230191 0.0498292 16711746
0.0645601 -1.0342236 0.4256597 16711746
0.2183280 -1.5165247 0.5390688 16711746
-0.3089756 -1.2513511 0.8317087 16711746
0.1378875 -2.4652913 1.5209944 16711746
-0.0755410 -1.0957402 0.3404477 16711746
1.7277092 -3.6787837 3.7448432 16711746
0.1567360 -1.6709279 1.0229384 16711746
-0.2192187 -1.0153075 0.7489644 16711746
-0.5473115 -0.7245104 0.2010044 16711746
-0.5867060 -0.7411885 0.1736467 16711746
-0.8231477 -0.7545328 0.3334110 16711746
-0.9116712 -0.7742086 0.0894337 16711746
0.1021611 -0.6214068 0.2019802 16711746
-0.6910109 -0.8856652 0.5143268 16711746
0.2411773 -0.5690356 0.2447655 16711746
0.8284979 -1.8506618 1.4134436 16711746
0.2970927 -0.8689438 -0.0058625 16711746
0.4584485 -1.2671914 0.3393847 16711746
1.3825464 -2.5739119 2.7787497 16711746
1.1054500 -2.4438827 2.1285026 16711746
0.7091411 -1.4197682 0.5678929 16711746
-0.1014567 -0.7052687 0.2253572 16711746
0.4541486 -1.1175936 0.1251688 16711746
0.9932745 -2.0587420 1.0967031 16711746
0.4968020 -1.4925447 1.0726801 16711746
-0.3472808 -0.6440662 0.1356856 16711746
0.5535074 -2.7516732 2.1850681 16711746
0.4751478 -1.7256056 0.8835654 16711746
0.4929096 -1.4536953 0.8001065 16711746
0.4658065 -1.0558439 0.1769767 16711746
0.7946827 -2.4333687 1.7901343 16711746
0.6191655 -1.7693212 1.2047064 16711746
1.1370722 -1.5184265 0.9076250 16711746
0.9585891 -1.8034028 0.7809730 16711746
0.6999496 -1.5445156 1.0248582 16711746
1.1680429 -2.7782900 1.8139423 16711746
1.4658684 -2.3088968 1.3956412 16711746
1.5501741 -2.1798329 1.0402970 16711746
0.4368142 -0.9726980 0.3545646 16711746
0.0975200 -0.6576953 0.0107617 16711746
1.2181336 -1.6629236 0.3445646 16711746
-0.6438653 -0.8483506 0.2490710 16711746
-1.5298225 -1.4216201 -0.0252821 16711746
-0.6013379 -3.8129992 3.7389936 16711746
-0.6793684 -0.8991427 0.3785647 16711746
1.0994897 -3.0450356 1.1875278 16711746
0.1598838 -1.3425139 0.5561876 16711746
0.3955379 -2.9230075 1.0753317 16711746
0.7646871 -1.5716494 0.4380553 16711746
0.5578417 -2.3730967 1.0527616 16711746
1.6067334 -1.8399405 0.3130985 16711746
-0.2321174 -0.4672877 0.0206933 16711746
-0.1893995 -1.0310179 1.0009257 16711746
0.8309305 -1.5705655 0.7728251 16711746
0.3582042 -1.3592824 0.6682809 16711746
-0.5191289 -0.6490461 0.1651621 16711746
0.5702633 -2.1089680 0.9998283 16711746
0.2427858 -1.1045732 0.1264181 16711746
-0.2223643 -1.0580240 0.5493141 16711746
-0.4411839 -0.6564079 0.1205537 16711746
0.5440899 -0.9229331 0.1286513 16711746
0.4916682 -1.5673461 0.7132777 16711746
0.8416357 -2.2292089 0.6867750 16711746
-0.4834964 -0.5144967 -0.0138911 16711746
0.9352957 -1.7575747 0.7533118 16711746
0.8466289 -2.1145904 0.9148164 16711746
-0.8881413 -0.7514039 0.0845077 16711746
-0.4654134 -0.4578265 0.0017865 16711746
-0.4518044 -0.7989659 0.1057933 16711746
-0.5146710 -0.7613008 -0.0100940 16711746
-0.6412092 -0.8348252 0.2441575 16711746
-0.9528211 -0.8461757 0.1945184 16711746
1.2575049 -1.5938678 0.2749384 16711746
-0.6764026 -0.6607968 0.1090153 16711746
0.8906019 -2.0398355 0.6851049 16711746
1.1041087 -1.3855189 0.1801024 16711746
0.3145683 -1.1936629 0.1870745 16711746
-1.1807724 -0.9420235 0.5650470 16711746
0.2046210 -1.2949964 0.9175402 16711746
0.0794609 -0.8968806 0.1405665 16711746
0.0290234 -0.9695756 0.0585623 16711746
-0.1318255 -1.2311605 0.4649947 16711746
0.4128439 -1.0311590 0.1120549 16711746
-0.0145804 -0.4803223 0.1514918 16711746
0.1474707 -1.1787268 0.4792565 16711746
-0.0395489 -2.3692987 2.3055415 16711746
0.2594110 -1.8287728 0.5976433 16711746
0.6913266 -1.9845493 0.3459749 16711746
-0.0612410 -1.2684268 0.5260720 16711746
0.1658175 -1.8056064 1.1037456 16711746
0.1145162 -1.2668703 0.9495512 16711746
0.4293606 -1.7758520 0.7723331 16711746
0.2972479 -1.3560576 0.1740672 16711746
0.1753785 -0.4493286 0.0824461 16711746
0.2535020 -0.7412668 0.0269693 16711746
-0.0060075 -0.7038597 0.0566254 16711746
-0.1197125 -1.2303224 0.9475514 16711746
0.3331561 -1.1321681 0.0474980 16711746
-0.3161116 -1.6860535 0.9695760 16711746
0.7114617 -1.4716096 1.4509529 16711746
-0.6320697 -2.2454300 1.3342551 16711746
0.5546693 -1.1788027 0.0987272 16711746
0.0233884 -1.1075629 0.2594451 16711746
0.0372205 -0.9951646 0.2134725 16711746
0.1769100 -0.8812023 0.0177434 16711746
1.5443411 -3.0078588 1.8937086 16711746
0.4281176 -1.2984079 0.2795778 16711746
0.3446425 -1.3254284 0.3064854 16711746
0.9814635 -1.9912893 0.5750782 16711746
0.4215414 -0.9079350 0.0954568 16711746
0.8760840 -2.9418404 1.8760046 16711746
1.1246320 -1.4580387 0.3385465 16711746
0.9710910 -0.9416742 0.1643936 16711746
-0.2333783 -1.1265597 1.1947030 16711746
0.1399368 -1.5843642 0.7300661 16711746
0.8959405 -2.1172938 1.2063652 16711746
1.0179759 -2.3601809 1.4796579 16711746
0.7783116 -2.2900901 1.2225549 16711746
0.7786652 -1.5486609 0.4746566 16711746
1.1167707 -1.7855017 0.7236804 16711746
0.1646124 -0.9610586 0.6539141 16711746
0.1155439 -1.4038813 0.8179205 16711746
1.2046980 -2.3014307 1.4344962 16711746
0.3525590 -1.0437157 0.4188394 16711746
-0.5912049 -0.5662087 0.0392876 16711746
-0.5922108 -0.5320166 0.1421694 16711746
-0.8996087 -0.9714704 0.3911807 16711746
0.1388918 -1.0183002 0.7893705 16711746
-0.0012140 -0.5526195 0.0850966 16711746
0.2191774 -0.8744640 0.3357924 16711746
-0.1369241 -0.9532399 0.5753554 16711746
0.2016603 -0.8743322 0.1379106 16711746
0.0196786 -0.8752743 0.1949152 16711746
1.0598575 -2.1133049 1.8548125 16711746
0.3256300 -1.4399909 0.8050780 16711746
0.8691378 -1.3900559 0.0184643 16711746
1.1606773 -2.2034976 1.3711830 16711746
0.7466693 -1.4747338 0.3760551 16711746
0.6168371 -1.5075836 1.1728954 16711746
0.3178433 -1.1311433 0.2570257 16711746
1.0798885 -2.2401354 1.1927125 16711746
0.6521607 -1.6085062 0.3075756 16711746
0.6260421 -1.6657645 0.4256646 16711746
0.4141988 -1.1460930 1.2510812 16711746
-0.2593379 -0.8107814 -0.0530321 16711746
0.4241266 -1.1349927 0.7554121 16711746
0.8242497 -1.6688948 0.1249265 16711746
0.5214311 -1.3510056 0.4939697 16711746
0.6462625 -1.5109260 0.1859054 16711746
0.1140399 -1.1275420 0.2108956 16711746
0.3222539 -1.0748713 0.1432133 16711746
0.6445969 -1.4236957 0.9440799 16711746
0.6599187 -1.4255955 0.1936660 16711746
0.1449542 -1.3945329 0.1900672 16711746
0.5610628 -1.3830117 -0.0342832 16711746
-0.4404612 -0.9716900 0.0153754 16711746
0.2675983 -0.8191738 0.7650306 16711746
0.9874914 -1.7876523 0.4309911 16711746
1.4648019 -2.6611574 0.4300633 16711746
0.3749634 -1.7505394 0.4937951 16711746
1.0480952 -1.5468217 0.3930296 16711746
0.8411326 -1.9173069 0.7142261 16711746
-0.5373485 -1.1477280 0.0213624 16711746
1.2467973 -1.9645691 0.6829914 16711746
2.6325691 -5.1876578 4.7149715 16711746
3.1560826 -3.4838624 2.8002307 16711746
2.2834954 -4.4897838 4.9098530 16711746
-0.2906344 -1.1741109 0.7853633 16711746
0.3372190 -1.4337397 0.6021650 16711746
0.2169224 -1.1426815 0.1768588 16711746
-0.1928719 -0.9452677 0.9923895 16711746
0.1376301 -0.9212867 -0.0254764 16711746
1.0547953 -1.4242775 -0.0505759 16711746
0.2591534 -1.2800717 0.9695774 16711746
1.7734438 -2.4803014 1.1987330 16711746
0.2141223 -1.1180158 0.7497491 16711746
-0.4304504 -0.9525942 0.0153499 16711746
0.0475435 -1.0698647 0.1676636 16711746
0.7798882 -1.3822776 -0.0841825 16711746
0.3046413 -1.0166968 0.1331341 16711746
0.1844762 -1.1562403 0.1827096 16711746
0.3409904 -1.9082757 0.7436562 16711746
-0.0599423 -1.4081582 0.6632103 16711746
-0.6536867 -0.9870226 0.1924001 16711746
0.5219386 -1.5010352 1.6473099 16711746
0.0463966 -0.8789887 0.2333120 16711746
-0.6157634 -1.2385126 -0.0039646 16711746
-0.4696345 -0.5186726 -0.0797535 16711746
-0.8066624 -0.9917868 -0.0988458 16711746
-0.4277573 -1.1735357 1.1499795 16711746
-0.6897621 -1.7977328 1.3486211 16711746
-1.1073620 -0.9034801 0.6731368 16711746
0.7870611 -1.7098281 0.2750123 16711746
1.3190944 -1.9794852 0.8485177 16711746
-0.4544311 -0.6790253 0.0599532 16711746
0.8712063 -1.9924729 1.2041185 16711746
1.2879701 -1.6241155 0.3919219 16711746
1.9416277 -2.8118198 2.1906400 16711746
-0.4594288 -0.7227274 0.0335645 16711746
0.5502785 -1.5325166 0.4237755 16711746
1.1353562 -1.6908026 1.1534299 16711746
1.7044643 -2.2384751 0.7235903 16711746
1.5737730 -1.8159293 0.8040511 16711746
0.6799628 -1.8248475 1.3562047 16711746
1.4593976 -1.9085221 1.0589564 16711746
0.4059756 -1.4155349 0.7681800 16711746
1.7137003 -2.0933483 1.3934176 16711746
-0.5917515 -0.7782931 0.0419619 16711746
0.1609131 -1.8622044 0.9283174 16711746
1.7037933 -2.3631506 2.5659335 16711746
2.9228768 -3.0425344 1.9438190 16711746
-0.5024328 -1.0502166 0.4743883 16711746
0.3396176 -1.1128812 -0.0223159 16711746
0.1834208 -1.0935801 0.2016481 16711746
0.7784264 -1.5827546 -0.0274382 16711746
4.4011559 -4.2376213 4.4908004 16711746
0.7510051 -2.2130504 2.4610462 16711746
4.1476474 -4.1015711 2.8512957 16711746
1.3894894 -2.1500561 1.4210114 16711746
0.6445238 -1.7310240 0.3892457 16711746
0.6938092 -1.8589025 0.6867262 16711746
1.4138863 -1.8548729 0.9184619 16711746
1.7506428 -2.3702207 1.5203911 16711746
0.2717350 -1.1406763 0.2679893 16711746
1.3097265 -2.0118315 0.7877916 16711746
1.3133547 -1.6201438 0.2213380 16711746
0.6600692 -1.7659968 0.6628843 16711746
1.1978723 -2.1247690 0.7464706 16711746
-0.6929510 -0.6911643 0.1560923 16711746
2.8382049 -4.2411294 3.6932762 16711746
1.0457565 -1.4831802 0.4034947 16711746
0.9609377 -3.7441447 2.2906635 16711746
1.0057013 -1.5500524 0.4039325 16711746
-1.0024251 -0.9778699 0.6422088 16711746
-0.6327134 -0.6466733 0.0379925 16711746
0.8273968 -1.6619734 1.0138396 16711746
0.5814631 -1.2612964 0.8589922 16711746
1.9755980 -2.2140546 0.7122602 16711746
1.8411231 -2.3727081 1.4928445 16711746
0.4666856 -1.4710346 0.6635650 16711746
1.7678809 -2.8338306 1.9712454 16711746
-0.2417340 -1.3828483 0.7784298 16711746
0.5668698 -1.2960013 0.2331169 16711746
-0.3933383 -1.1708002 0.6039478 16711746
1.0176193 -1.6013581 0.0346785 16711746
0.0238314 -1.0036315 0.0377968 16711746
0.3785764 -1.3634475 0.3345244 16711746
1.3959446 -2.3949785 1.4198682 16711746
0.5193179 -1.4820321 0.1612270 16711746
0.3211704 -1.2038521 0.1890346 16711746
0.3075338 -1.1613884 0.3762640 16711746
-0.6156756 -2.7375281 1.5361722 16711746
0.5184372 -1.7122021 1.0613530 16711746
0.4499793 -1.5092188 0.9328716 16711746
-0.7981862 -3.4138021 1.4286158 16711746
-0.8238053 -0.7478304 0.1605387 16711746
-0.4899256 -0.2760796 0.2519313 16711746
1.2395563 -1.7916120 0.1635214 16711746
0.7952895 -1.9498032 1.3609855 16711746
-0.2342327 -1.7586014 0.4167154 16711746
-0.6769997 -3.3732996 1.9890620 16711746
-0.3195633 -1.9331157 0.5564600 16711746
0.7273668 -1.9296603 1.1149637 16711746
0.7848009 -1.9525843 0.8744714 16711746
0.7384058 -1.2582238 0.6814154 16711746
1.3981462 -3.4800835 1.9340038 16711746
0.4945270 -1.2224485 0.7316720 16711746
0.9513896 -1.7573185 0.6468041 16711746
0.8098089 -1.7702903 1.3804312 16711746
0.6766245 -1.8037305 0.8862813 16711746
0.8122079 -1.8030587 0.3681579 16711746
0.7421746 -2.0917091 0.7410411 16711746
-0.3238389 -1.5081173 0.9778215 16711746
0.1908557 -0.9022827 0.2524812 16711746
0.1339894 -0.9823449 0.6171972 16711746
0.2196709 -0.9534409 0.2112655 16711746
0.1107784 -1.5753411 0.8403378 16711746
0.2957115 -1.1819512 0.3397317 16711746
-0.1142308 -0.8720714 0.5248060 16711746
1.6420002 -2.1583509 1.2037275 16711746
0.1239172 -1.2371936 0.3186806 16711746
1.7051690 -3.4058673 1.3936925 16711746
1.7630222 -1.8591336 0.6601182 16711746
1.8062478 -2.0369718 0.3415747 16711746
0.1139243 -1.0181080 0.3781631 16711746
-0.1646090 -1.6352421 1.0860823 16711746
0.9094840 -1.7068301 0.2355932 16711746
1.0336360 -1.7934768 0.5545077 16711746
0.0878300 -1.1593134 0.2467914 16711746
0.4492997 -1.2677066 0.3028920 16711746
-0.4915732 -0.5897112 0.1109064 16711746
1.1710541 -2.8046668 1.6169049 16711746
0.2717417 -1.0441447 0.4983769 16711746
0.6329175 -2.2310090 0.4654646 16711746
1.3489546 -2.3937879 1.6872706 16711746
1.0554682 -2.5321240 1.0200509 16711746
0.5231220 -1.7171936 1.0704880 16711746
0.0238967 -1.2503010 1.0412589 16711746
0.9804243 -2.3117790 1.5075321 16711746
1.5559201 -2.9895225 0.5596648 16711746
1.5501363 -2.8031707 0.6615155 16711746
1.2497245 -1.5988784 0.2243709 16711746
1.5130970 -1.7509363 0.1069603 16711746
2.4424653 -3.6345699 3.1840818 16711746
3.5621917 -3.7730951 2.4460893 16711746
-0.6948904 -2.7435255 1.3787059 16711746
0.6161935 -1.1053239 0.0625538 16711746
0.4651504 -1.7001035 0.3066588 16711746
1.7212578 -1.9080471 0.3203880 16711746
2.9167948 -2.5243063 0.5872350 16711746
2.7606752 -4.7432113 5.6843023 16711746
2.2539318 -3.1595409 2.3327074 16711746
0.6762365 -1.9645216 0.5163103 16711746
0.6103138 -2.1429260 0.6249261 16711746
0.2574520 -1.8471005 0.5804837 16711746
1.0489454 -2.1249511 0.8468015 16711746
2.0548875 -2.0185990 0.5425509 16711746
1.6002877 -1.7577423 1.6391622 16711746
-0.9146568 -2.7315226 1.7534157 16711746
2.2235799 -2.4765639 2.3456602 16711746
1.7544882 -2.4563768 2.0161271 16711746
1.2008624 -2.1185932 1.2376119 16711746
1.4634180 -1.7089363 0.4859352 16711746
1.5176562 -1.9433531 0.7207264 16711746
3.0563376 -3.0356884 1.0479540 16711746
0.2201063 -1.8864539 0.1610895 16711746
1.0417389 -1.9884859 0.5632381 16711746
1.0714782 -1.7446795 0.9344900 16711746
2.9423323 -2.5343370 0.8067099 16711746
-0.7853006 -1.6052363 0.8744460 16711746
0.4469500 -1.5578187 0.0758171 16711746
0.4112342 -1.2036291 0.5532435 16711746
1.4035302 -2.0891364 1.2093066 16711746
0.5484778 -1.5464021 0.6416684 16711746
1.5973092 -2.8373563 1.5756935 16711746
-1.2446244 -1.2584783 0.3029163 16711746
0.4242957 -1.9141369 0.7315702 16711746
1.8977051 -3.2775474 1.9497120 16711746
2.2997141 -2.1406126 0.7860575 16711746
-1.4706968 -1.6384894 0.3229502 16711746
0.2579866 -3.3090858 2.3201828 16711746
0.9123585 -1.8174738 0.9611231 16711746
1.0056766 -1.9533607 1.2103436 16711746
1.1139820 -1.6976314 0.3869983 16711746
-0.0376284 -2.6201825 1.2414865 16711746
0.2558960 -1.8148403 1.2901387 16711746
1.4895523 -1.6293780 0.5715352 16711746
0.5969611 -2.9210551 0.5928482 16711746
1.8617947 -2.1391413 0.9571441 16711746
1.3941535 -1.4292605 0.4829588 16711746
0.9952561 -1.7062197 1.9931074 16711746
1.0549884 -1.4818112 0.9248699 16711746
0.7150877 -1.4954945 1.4760109 16711746
1.2702450 -2.1704800 1.2771741 16711746
0.0837954 -1.6519942 0.1456564 16711746
0.5591567 -2.3944831 0.4090549 16711746
1.2240525 -1.2656662 0.0294013 16711746
-0.3156838 -2.5181265 0.7831625 16711746
0.5036248 -1.3145154 0.3724935 16711746
0.4868006 -2.8406138 1.6140811 16711746
-1.1511884 -2.9079752 2.0289340 16711746
