# .PCD v.7 - Point Cloud Data file format
VERSION .7
FIELDS x y z rgb
SIZE 4 4 4 4
TYPE F F F F
COUNT 1 1 1 1
WIDTH 1187
HEIGHT 1
VIEWPOINT 0 0 0 1 0 0 0
POINTS 1187
DATA ascii
1.1534750 -0.1718003 2.7582476 16711746
1.4932517 -0.3256355 3.0168922 16711746
1.6326163 -0.3395278 2.9185784 16711746
1.2216927 -0.2502867 2.7794237 16711746
1.3449730 -0.2908982 2.8265893 16711746
1.3742117 -0.3392898 2.9158223 16711746
1.3220603 -0.3036688 2.7110920 16711746
1.5425868 -0.3325256 2.9526362 16711746
1.2986128 -0.2429707 2.8143268 16711746
1.2880474 -0.1801578 2.6739426 16711746
1.2985671 -0.2363234 2.7503364 16711746
1.2629625 -0.1062740 2.8985920 16711746
0.9361634 -0.2142198 2.9143012 16711746
1.3127251 -0.5887565 3.4128718 16711746
1.6908730 -0.3352344 3.0135880 16711746
1.6402272 -0.3554548 2.8270638 16711746
1.4354006 -0.4460877 3.0308850 16711746
1.7506934 -0.2145986 3.1705503 16711746
1.9274023 -1.2882223 3.5379333 16711746
1.6251297 -0.3032911 2.8965394 16711746
1.7659533 -1.1325275 3.6440425 16711746
1.3503149 -0.2847024 2.7310417 16711746
1.3356200 -0.3054215 2.8450718 16711746
1.3372478 -0.3346036 2.9211333 16711746
1.3163971 -0.2939875 2.8961568 16711746
1.2334223 -0.1057139 2.6547382 16711746
1.2801118 -0.1424315 2.6654091 16711746
1.2531314 -0.1665894 2.7344291 16711746
1.3712281 -0.3290302 2.8663597 16711746
1.3961778 -0.1804092 2.7645006 16711746
1.1399978 -0.0191828 2.6742246 16711746
1.4020804 -0.3379520 3.0626919 16711746
1.2190317 -0.1499226 2.8910570 16711746
1.2813621 -0.2536528 2.7979708 16711746
1.2012438 -0.1832536 2.9361901 16711746
1.1513221 -0.0689174 2.6764984 16711746
1.3059615 -0.2993718 3.1028719 16711746
1.2455184 -0.1981461 2.8453703 16711746
1.6556237 -1.0478796 4.2262287 16711746
0.9937860 -0.6219386 3.0122604 16711746
1.3650858 -0.3253485 3.0500677 16711746
1.3756803 -0.3026373 2.8546441 16711746
1.7425549 -0.4204309 2.8463416 16711746
1.6149580 -0.3017184 2.8927848 16711746
1.4763840 -0.3238363 2.7901497 16711746
1.1806375 -0.1420079 2.7290773 16711746
1.7086164 -0.3308527 3.2630248 16711746
1.6205587 -0.3591312 3.1350303 16711746
1.6972996 -0.3408957 2.8910658 16711746
1.8217149 -0.2617313 3.4760811 16711746
1.9793940 -0.3830412 3.6077323 16711746
1.7262613 -0.3679981 3.6477985 16711746
1.7914659 -0.4702788 2.9067311 16711746
1.4582094 -0.3637902 2.8953242 16711746
1.4899701 -0.3488608 2.9649491 16711746
1.5469788 -0.3552057 2.9880972 16711746
1.7213494 -0.3618712 3.6421895 16711746
1.4093610 -0.4709150 3.1864929 16711746
1.7298350 -0.4146020 3.0509238 16711746
1.6604669 -0.3156832 2.8720040 16711746
1.7754505 -0.3613690 3.3390481 16711746
1.5981369 -0.4422060 3.4252975 16711746
1.4719123 -0.4041786 3.0153391 16711746
1.4371495 -0.4277849 2.9131439 16711746
1.5124847 -0.4521976 3.0620673 16711746
1.3302057 -0.3338403 2.8285236 16711746
1.3976893 -0.4778424 3.4825265 16711746
1.5303169 -0.2746377 2.9159808 16711746
1.4619654 -0.3514886 3.0936766 16711746
1.7147465 -0.3506810 3.1327238 16711746
1.3182726 -0.3081995 2.8293757 16711746
1.5987120 -0.3467698 3.0724914 16711746
1.3591969 -0.3021723 3.0104451 16711746
1.2759207 -0.3586877 2.9221978 16711746
1.4915936 -0.2799890 2.9279766 16711746
1.3593611 -0.3182117 2.9043143 16711746
1.3925551 -0.2086363 2.6617739 16711746
1.3833977 -0.2018688 2.6493037 16711746
1.3074455 -0.3076628 2.9963815 16711746
1.3915195 -0.2647245 3.0150814 16711746
1.4431230 -0.2761551 2.8067429 16711746
1.4284213 -0.2674542 2.9527907 16711746
1.2659121 -0.3022867 3.0253570 16711746
1.3690728 -0.2451585 3.0748525 16711746
1.4340892 -0.2751077 2.9598963 16711746
1.4439825 -0.2794845 2.9547863 16711746
1.0884097 -0.1753977 2.8627031 16711746
1.1909900 -0.3003505 2.8440630 16711746
1.4141252 -0.2294916 2.8545623 16711746
1.3912749 -0.2323044 2.7142556 16711746
1.4112411 -0.2879020 3.0448108 16711746
1.1432384 -0.3156846 3.0999551 16711746
1.4536117 -0.2182996 2.7551584 16711746
1.3926405 -0.3099165 2.9355338 16711746
1.4001601 -0.3160072 3.0171897 16711746
1.1517079 -0.3185127 3.0600152 16711746
1.3539178 -0.2268768 2.6895394 16711746
1.4913521 -0.2696684 2.8989129 16711746
1.3346046 -0.2844288 3.0216517 16711746
1.3073769 -0.3034066 3.0066428 16711746
1.3940068 -0.1903345 2.8148942 16711746
1.2258241 -0.3505151 2.8900638 16711746
1.2435529 -0.3025459 3.1048734 16711746
1.3973169 -0.3131872 3.0142539 16711746
1.0845301 -0.2928244 3.0625095 16711746
1.0154735 -0.2276256 3.0924771 16711746
1.3329787 -0.2343141 3.0495481 16711746
1.2253969 -0.2519155 3.0313718 16711746
0.9747362 -0.2868713 3.1681397 16711746
1.3136497 -0.2851602 3.0016532 16711746
1.1560822 -0.2794659 2.9867294 16711746
1.3296208 -0.2164297 2.6880491 16711746
1.1454605 -0.2693985 2.9987874 16711746
1.2350699 -0.3763539 2.9077199 16711746
1.2346857 -0.2975457 2.9837668 16711746
1.2531888 -0.2351925 2.8051226 16711746
1.2680551 -0.2501872 3.1129580 16711746
1.3277692 -0.2261986 3.0374651 16711746
1.3125284 -0.2999428 3.1004856 16711746
1.2631428 -0.2684270 2.7706139 16711746
1.0282168 -0.3378312 2.9611731 16711746
1.1462560 -0.3146352 2.8819895 16711746
1.2967087 -0.2604704 2.9727612 16711746
1.3082348 -0.2460642 2.8459435 16711746
1.3260826 -0.2247397 3.0377314 16711746
1.6305425 -0.2090633 2.9282768 16711746
1.5777073 -0.1450830 3.0216997 16711746
0.9773116 -0.2882153 3.0310042 16711746
0.8788163 -0.2585574 3.0770950 16711746
1.2489108 -0.2158165 2.7364552 16711746
1.1154670 -0.3161811 2.9097195 16711746
1.2594324 -0.2571818 2.8067660 16711746
1.1382136 -0.2045126 2.8401611 16711746
1.3172129 -0.3036538 2.8639891 16711746
1.4330366 -0.2224929 2.6941164 16711746
0.9940715 -0.1874493 3.0614290 16711746
0.9864909 -0.1995772 3.0436885 16711746
1.0240875 -0.2060901 3.0548267 16711746
1.0625008 -0.2834742 2.9469671 16711746
0.9023645 -0.3039209 3.0694995 16711746
1.4235443 -0.1900105 3.0002489 16711746
1.1267540 -0.2541996 2.8802664 16711746
0.9597930 -0.2671855 2.9385190 16711746
1.1760119 -0.2736209 3.0337169 16711746
1.2399670 -0.1998005 2.7290857 16711746
1.0509020 -0.2684316 3.0690489 16711746
1.0174673 -0.2314881 3.0969164 16711746
0.8990995 -0.2287371 2.9670489 16711746
1.6234810 -0.4467504 3.2013564 16711746
1.6501204 -0.4168419 3.0566232 16711746
1.5665089 -0.4023486 3.1130602 16711746
1.3249242 -0.2513606 2.6687543 16711746
1.4961100 -0.3329938 2.9921579 16711746
1.6640795 -0.4891722 3.2095401 16711746
1.3370316 -0.2838989 2.7083471 16711746
1.7004875 -0.4724571 3.1653252 16711746
1.5456742 -0.2951624 2.8428595 16711746
1.3725228 -0.3235878 2.7281525 16711746
1.1275367 -0.3828497 3.1162064 16711746
1.6729861 -0.4623780 3.1413383 16711746
1.1269777 -0.0428267 2.7132204 16711746
1.5484282 -0.5401108 3.2287073 16711746
1.5751166 -0.4398988 3.1708200 16711746
1.5867449 -0.3084546 2.7925308 16711746
1.1158131 0.0080486 2.6677051 16711746
4.2918768 -3.9984241 7.4424877 16711746
0.7718425 -0.2876543 2.7654519 16711746
0.9691772 -0.2016340 2.7765617 16711746
1.3459240 -0.1555022 2.6445031 16711746
1.0914012 -0.1906287 2.7503996 16711746
1.0530725 -0.2079010 2.7692592 16711746
1.3719254 -0.2193452 2.7915885 16711746
1.1826957 -0.2226324 2.8056955 16711746
1.1558645 -0.1596717 2.7547789 16711746
1.2713636 -0.2622741 2.7216916 16711746
1.3580632 -0.2348213 2.7593172 16711746
1.2589002 -0.2106642 2.7338793 16711746
1.0923711 -0.1554136 2.7848694 16711746
1.2206130 -0.2121755 2.8541842 16711746
1.1760510 -0.1335545 2.7701817 16711746
1.0540479 -0.2070369 2.8442647 16711746
1.0734322 -0.2347313 2.7961154 16711746
0.9723164 -0.1708288 2.7820745 16711746
1.2536274 -0.1990052 2.6839683 16711746
1.0702925 -0.1962326 2.9289277 16711746
1.0788370 -0.1333260 2.7091830 16711746
1.3625569 -0.2324493 2.7689362 16711746
1.0920545 -0.1724305 2.8522732 16711746
1.1078775 -0.1211351 2.7673776 16711746
1.0716342 -0.2563588 2.8095760 16711746
1.1109625 -0.1878574 2.7800117 16711746
1.0666372 -0.2293123 2.9700224 16711746
1.0019040 -0.1211598 2.7321072 16711746
1.0034393 -0.1380923 2.7359920 16711746
1.2264132 -0.2222483 2.8600936 16711746
1.0173813 -0.1328453 2.7110536 16711746
1.0431560 -0.2324598 2.8501992 16711746
1.0488845 -0.2297112 2.8308737 16711746
1.1415921 -0.2444168 2.8753915 16711746
1.0871955 -0.1833640 2.7614853 16711746
1.3362063 -0.2585738 2.7615740 16711746
1.1742675 -0.1568461 2.7009184 16711746
1.1645182 -0.1716282 2.8285811 16711746
1.1879587 -0.2363835 2.8643312 16711746
1.4093629 -0.1451698 2.8329062 16711746
1.5665199 -0.1226602 2.8125844 16711746
1.5541530 -0.3703070 2.9761689 16711746
1.6887001 -0.4099580 3.2018936 16711746
1.5854206 -0.3951899 3.1790473 16711746
1.6943417 -0.4472538 3.0873151 16711746
1.7301909 -0.4179357 3.4550514 16711746
1.5192391 -0.3725777 2.9502883 16711746
1.5891614 -0.4232476 3.1105807 16711746
1.2893938 -0.2604928 2.8254919 16711746
1.3812892 -0.2327215 2.8386762 16711746
1.1623089 -0.1864507 2.8210640 16711746
1.3485913 -0.2169613 2.8173895 16711746
1.0999218 -0.2539562 2.8152909 16711746
1.2979422 -0.2580423 2.7914684 16711746
1.3273730 -0.2344403 2.6672845 16711746
1.3161305 -0.2483795 2.8127866 16711746
1.1229562 -0.2045331 2.8254759 16711746
1.0865650 -0.1881724 2.7427754 16711746
1.0657668 -0.2398416 2.7668240 16711746
1.3034334 -0.2058404 2.7373877 16711746
1.2186524 -0.2002356 2.8937750 16711746
1.1507256 -0.2005525 2.8161130 16711746
1.3117733 -0.1801221 2.7298491 16711746
1.1934016 -0.2584144 2.8293877 16711746
1.5090134 -0.3321621 2.9429545 16711746
1.3507041 -0.3112665 2.7178440 16711746
1.4332955 -0.3983033 2.7701139 16711746
1.5059819 -0.2982962 2.9624453 16711746
1.6880385 -0.3339735 3.0117917 16711746
1.3819863 -0.3618971 2.9644506 16711746
1.4190748 -0.3760851 3.1051633 16711746
1.6870022 -0.4016646 2.9130247 16711746
1.2132488 -0.1388988 2.7973514 16711746
1.3644866 -0.3165405 3.0533831 16711746
1.3844857 -0.3190666 2.8646929 16711746
1.2433448 -0.1610674 2.8519580 16711746
1.3187584 -0.4107530 3.1339841 16711746
1.3028643 -0.1792064 2.6619666 16711746
1.3412033 -0.1703103 2.6479292 16711746
1.3374484 -0.2933297 2.9778779 16711746
1.0671157 -0.0063224 2.6530197 16711746
1.0671732 -0.0068722 2.6530442 16711746
1.1320921 -0.0583179 2.7251415 16711746
1.1512103 -0.0124620 2.6971624 16711746
1.1413459 -0.0039690 2.6805341 16711746
1.4472567 -0.2058026 2.7427595 16711746
1.6743124 -0.3797320 3.4947686 16711746
1.6489745 -0.2949218 3.0052607 16711746
1.5224905 -0.2387394 2.8415887 16711746
1.4984355 -0.3454061 3.2641430 16711746
1.3302629 -0.2634959 2.9894662 16711746
1.0813558 0.0078712 2.6377842 16711746
1.1242507 0.0124607 2.6448529 16711746
1.1717360 -0.0899611 2.8169601 16711746
1.4104667 -0.3579386 3.0913754 16711746
1.1361988 0.0006798 2.6678429 16711746
4.9859114 -8.4006796 5.4579620 16711746
1.9228808 -1.1850352 3.9020314 16711746
1.1218477 -0.0061738 2.6766829 16711746
1.1982269 -0.0941134 2.7383053 16711746
1.1390986 -0.1015793 2.8224249 16711746
1.1360629 -0.1493327 2.7659528 16711746
1.2083838 -0.1284764 2.7743268 16711746
1.1155246 -0.0930326 2.7074525 16711746
1.1550709 -0.0817783 2.7116532 16711746
0.9739761 -0.1178692 2.7591758 16711746
1.1246356 0.0250988 2.6278126 16711746
1.3423764 -0.1764496 2.6813273 16711746
1.2300067 -0.1556965 2.7853456 16711746
1.2209027 -0.1425930 2.7741609 16711746
1.0970300 -0.0879575 2.7130570 16711746
1.2731668 -0.1183168 2.6969182 16711746
0.9696870 -0.0902283 2.7728341 16711746
1.2329152 -0.2056540 2.7591858 16711746
0.0302072 -1.2471657 1.1449146 16711746
-0.3884622 -2.7563710 1.1567056 16711746
-0.2012005 -0.5425735 0.5425177 16711746
-0.3367804 -0.8630891 0.2885010 16711746
0.0737632 -1.0903274 0.7141987 16711746
-0.0915872 -1.0983093 1.3086480 16711746
0.0700834 -1.0134087 0.8689076 16711746
-0.2055185 -0.9868781 1.0997158 16711746
-2.1538160 -1.3018764 2.1312044 16711746
-0.1852761 -1.2484232 1.0940504 16711746
0.1299958 -0.9981319 0.4582197 16711746
0.2797476 -1.1869254 1.3286120 16711746
0.5526468 -1.8740512 1.8044354 16711746
-0.1192133 -0.8066084 0.6360027 16711746
0.0770794 -0.7506830 1.3885171 16711746
0.1496512 -1.4433109 1.4883584 16711746
0.4106615 -1.0115347 0.7051723 16711746
-1.5925609 -0.5631741 1.5528792 16711746
-0.4857117 -1.4394736 0.5950648 16711746
1.6760031 -3.5010114 2.5991700 16711746
0.2286443 -1.8038980 0.9206402 16711746
-0.4746561 -1.0719396 0.9914947 16711746
0.0146091 -1.2649133 0.9647659 16711746
-0.0311756 -1.0681216 0.7696300 16711746
-0.0063744 -0.9270721 0.7236753 16711746
-0.6635833 -0.8353471 1.1147858 16711746
0.5153558 -1.6620442 1.4295896 16711746
0.2866705 -1.1743628 0.7134330 16711746
1.5516508 -4.2250652 7.0745044 16711746
0.0932220 -0.2571624 0.3336133 16711746
-0.0838797 -0.6658320 0.3707373 16711746
-0.4997913 -1.0078975 0.7776110 16711746
-1.9630301 -4.0286078 3.6066785 16711746
1.8680645 -2.3793709 3.8574750 16711746
-0.9584778 -1.4715232 0.7830401 16711746
-0.2070649 -1.3058227 1.0738807 16711746
-0.1257993 -1.3469414 0.8637798 16711746
0.2419846 -1.0493568 0.9167467 16711746
-0.0741159 -0.3761154 0.6842793 16711746
-0.6936992 -1.3702428 0.6129578 16711746
0.2112202 -1.3991210 0.9197156 16711746
-0.1478175 -1.5641567 0.7491277 16711746
0.2408262 -0.6064718 0.3675191 16711746
-0.9141387 -1.2284652 0.9394436 16711746
-0.3763978 -4.3043332 2.7671690 16711746
-0.0079929 -2.2949300 1.5402188 16711746
-1.2835457 -0.7783870 1.2601354 16711746
0.2651358 -0.9648265 1.1558865 16711746
0.1102707 -1.2156620 1.4523736 16711746
-0.0707364 -1.0235586 0.9774145 16711746
0.0668904 -3.1975503 3.0005679 16711746
1.1806527 -1.7251240 1.4830506 16711746
-0.7141490 -0.8375376 0.9141300 16711746
-1.5214864 -0.6555871 2.0038481 16711746
-1.6731277 -4.2664537 4.1842752 16711746
-0.3274185 -1.3076519 0.8179683 16711746
-0.7917072 -1.1250937 1.6403636 16711746
-1.1795470 -1.3899561 1.8126889 16711746
-0.0964777 -0.9339234 0.8075317 16711746
-0.9656767 -1.1651905 1.2158313 16711746
-0.5210885 -1.4100106 1.0498478 16711746
0.5172058 -1.0021063 1.0256037 16711746
0.5848485 -0.9516623 0.4184299 16711746
-1.4885703 -1.1851815 2.5008578 16711746
-0.5247678 -4.3459721 4.3848629 16711746
0.1874726 -2.1095691 2.2403817 16711746
-0.8936964 -1.2658622 1.8588048 16711746
-0.7356908 -1.4399642 2.1419420 16711746
-0.6054909 -2.6062214 1.0713311 16711746
-1.3202125 -1.9907438 1.4751239 16711746
-0.5637739 -1.1212305 1.4141041 16711746
-0.9072676 -1.1492634 1.3865275 16711746
-0.9956000 -0.7542014 1.4599671 16711746
-0.8895894 -1.7253970 2.2437000 16711746
-0.8094765 -1.5698820 1.1207885 16711746
-1.6893284 -0.7647642 2.0404046 16711746
-0.9154620 -1.0973057 1.8312545 16711746
0.6629392 -0.5436310 0.9564322 16711746
-0.1314060 -1.4327023 1.2114255 16711746
-3.3309970 -4.2876344 4.8301592 16711746
-0.9441868 -2.6325307 1.7763500 16711746
0.0125854 -1.2973262 0.7141385 16711746
-1.3717965 -0.8855940 1.9851117 16711746
-0.9168134 -1.2999663 1.9088860 16711746
0.2429839 -0.8049519 1.5410175 16711746
0.4259677 -1.0885948 1.3177584 16711746
0.0178731 -0.4275048 0.3845460 16711746
0.0672366 -1.1855042 0.5230578 16711746
0.0166325 -0.5219557 0.4929303 16711746
0.4931481 -0.9921343 1.0590408 16711746
0.6197658 -1.0383149 1.1125100 16711746
0.9446412 -1.3337480 0.6851470 16711746
-0.1409540 -0.3310546 0.5963805 16711746
0.4957107 -0.3203278 0.9203153 16711746
0.4531343 -0.5461888 1.1885331 16711746
0.4395056 -0.1655054 0.6414954 16711746
0.0254758 -0.1701773 0.1156195 16711746
0.3937808 -0.0957801 0.4884287 16711746
0.1755546 -0.1525882 0.4581176 16711746
0.2169000 -0.4915477 0.9599199 16711746
0.8570426 -1.1315578 1.6311122 16711746
0.0232627 -0.1801761 0.1259158 16711746
0.1451706 -0.9814265 0.5989998 16711746
0.4587005 -0.0849333 0.3355726 16711746
0.2856056 -1.0090116 1.5098716 16711746
1.0142975 -1.0814141 0.3928680 16711746
-0.2455566 -0.9818789 1.1906338 16711746
1.0336457 -1.0478485 2.1357729 16711746
0.7178004 -0.8900536 1.3803035 16711746
0.0090551 -0.2171691 0.1619050 16711746
0.0366199 -1.6123105 1.5653193 16711746
0.5102314 -0.1655065 0.6316429 16711746
0.6604344 -1.5107100 1.3041846 16711746
-0.0097102 -0.1895430 0.1414986 16711746
0.0721719 -0.6626825 0.7641923 16711746
0.3690192 -1.3046130 0.6692695 16711746
0.3776816 -0.6216895 0.7665465 16711746
0.8155292 -0.6005218 1.4352546 16711746
0.5922830 -0.7191589 1.1172372 16711746
-0.2114170 -0.9690911 0.5197003 16711746
-1.0310591 -1.7374777 1.3175763 16711746
-0.2737432 -0.5461552 0.3436520 16711746
-1.1766380 -2.7514412 1.3410352 16711746
0.7211053 -1.0066087 1.2290324 16711746
0.5673444 -1.0665469 0.8414778 16711746
-0.8601007 -1.6414584 0.9921923 16711746
0.2160535 -0.1944283 0.5970733 16711746
0.0257730 -0.2433573 0.6179455 16711746
0.3530833 -0.0667142 0.2572507 16711746
0.5538141 -1.3463079 1.4138080 16711746
-0.1210449 -0.2199866 0.0662083 16711746
0.2902001 -0.3276415 0.8166099 16711746
-0.1018703 -0.2598490 0.3262972 16711746
-0.4093442 -1.9580942 1.1515559 16711746
0.1451016 -0.7557489 0.2913586 16711746
0.1715643 -0.8993474 0.3916463 16711746
0.2370968 -1.7829902 1.1426439 16711746
-0.6839459 -1.9292641 1.2971848 16711746
-0.7970825 -1.6584251 0.9253246 16711746
0.2352869 -0.9917117 0.4434128 16711746
-0.4271194 -1.2247375 0.5010447 16711746
-0.3788214 -1.2321972 0.4342989 16711746
0.1676370 -1.0421065 0.5556487 16711746
0.7035169 -1.9674560 1.0843116 16711746
-0.2621631 -1.2175143 0.8036266 16711746
0.2870694 -0.7457024 0.4355491 16711746
-0.9387825 -0.6881192 0.3660589 16711746
0.0191671 -1.2628869 0.6917564 16711746
0.0297855 -1.1481508 0.5539082 16711746
-1.6071270 -1.9671723 1.3216851 16711746
-0.2963420 -1.0786556 1.0114571 16711746
0.2697597 -1.3156961 0.6579704 16711746
-1.0248940 -1.5808334 0.8412589 16711746
1.7827953 -3.3028641 1.5658349 16711746
-0.1705660 -1.0937207 0.7739685 16711746
0.6423082 -1.2204754 0.6027218 16711746
-0.9891832 -1.1919326 1.2452430 16711746
-1.2340766 -0.6911816 0.7254190 16711746
-0.1313284 -1.6325420 0.8987566 16711746
0.9794521 -4.6604156 2.0776994 16711746
0.1858210 -3.5943525 2.6283054 16711746
0.6502736 -2.1270258 1.7651587 16711746
0.3298644 -1.4852546 1.1734463 16711746
0.8954846 -2.0434937 1.9289968 16711746
1.1557351 -3.3082261 1.8945926 16711746
0.9988356 -0.6142110 2.0467021 16711746
1.2330178 -0.9186960 2.2206576 16711746
1.1285355 -0.7637390 1.4939480 16711746
0.2985615 -1.3639783 0.9774405 16711746
1.2019448 -1.1840572 2.2833436 16711746
0.3235497 -0.8279039 1.0699697 16711746
-0.6222450 -0.9955404 0.5853308 16711746
0.3254094 -0.1139942 0.3111158 16711746
-0.6406447 -3.1983893 3.4300380 16711746
0.2664168 -0.4345086 0.2034067 16711746
0.0195024 -0.0644972 0.0444828 16711746
-0.7604078 -0.9787683 1.1691474 16711746
-0.2709167 -0.9824304 0.4517700 16711746
-0.8780121 -1.3900492 0.8391085 16711746
0.8286000 -1.5710719 0.8423756 16711746
-0.0371160 -0.4559640 0.3461752 16711746
-0.6554998 -0.5313236 0.2312757 16711746
-0.2250832 -1.2116084 0.5370469 16711746
-0.1761405 -0.9703341 0.4182832 16711746
0.2570937 -0.9210674 0.3810411 16711746
0.6444384 -1.9211811 0.8287542 16711746
0.0562725 -0.8989546 0.3815722 16711746
0.1357582 -1.0449945 0.5077766 16711746
0.4229372 -1.2403224 0.6039337 16711746
-0.3205719 -1.6404779 0.7517122 16711746
0.0245014 -0.3020889 0.2569354 16711746
0.2655285 -0.9299112 0.3338833 16711746
-0.3683157 -0.8311210 0.6505679 16711746
0.5987486 -1.2406626 1.3029158 16711746
-1.2352695 -2.1829832 1.6733041 16711746
0.6852696 -0.6678383 0.8348258 16711746
0.4530239 -0.4427759 0.3126264 16711746
0.1231905 -0.1205912 0.1355236 16711746
-0.8264503 -1.5656797 0.7943614 16711746
0.3198656 -1.0240774 0.4687201 16711746
0.0657798 -0.9270688 0.6891099 16711746
-0.1006864 -2.3143969 3.3044629 16711746
0.0228801 -0.3498150 0.3068013 16711746
1.4913909 -2.1637051 2.8381636 16711746
0.4929731 -0.6680136 0.7367994 16711746
0.9381305 -0.6886237 0.9104931 16711746
-0.0067227 -0.2004272 0.1208044 16711746
-0.6315436 -0.5015754 0.6974672 16711746
0.1364956 -0.4899649 0.6289557 16711746
-0.7626949 -0.5240257 0.6367670 16711746
0.1328004 -4.3940997 3.4044974 16711746
0.0871939 -1.0919973 0.8886876 16711746
0.6693248 -1.2815106 1.5760320 16711746
0.0565549 -0.0925938 0.1647892 16711746
0.0178365 -0.4527946 0.4144426 16711746
-0.4798028 -0.5848326 0.1271536 16711746
0.0759347 -0.6756541 1.0891947 16711746
-0.0908451 -0.2402486 0.0444015 16711746
0.2532040 -0.2907551 0.7137547 16711746
-0.2417718 -0.7573873 0.7426332 16711746
0.6012841 -0.7990139 0.4519006 16711746
0.4695704 -0.0740984 0.5041957 16711746
0.9138221 -1.6700665 1.3068206 16711746
1.0214788 -0.5462416 0.9376652 16711746
1.5245785 -1.3634520 2.0665486 16711746
0.3444013 -1.2261889 0.9136199 16711746
0.3263578 -0.5325710 0.5814159 16711746
-1.5151027 -1.9970429 0.8734544 16711746
0.3920369 -0.9346542 0.4314581 16711746
0.4772912 -0.3538804 0.2739589 16711746
0.0781925 -0.8830637 0.3126888 16711746
1.2328850 -0.7311363 1.0497185 16711746
-0.0919794 -0.6901799 0.5098261 16711746
0.4047329 -0.1831532 0.2351312 16711746
-0.0056176 -0.5296794 0.3901134 16711746
-0.0002699 -0.3637256 0.4684728 16711746
-0.0327225 -0.4275673 0.3357274 16711746
1.0234660 -0.7504817 1.8017884 16711746
-0.5493219 -1.1772696 0.8349999 16711746
-0.5831912 -1.0807072 0.8724765 16711746
-1.5544224 -1.2210677 1.7879268 16711746
0.0191264 -0.5009434 0.4644427 16711746
0.5224105 -0.5298985 0.5839676 16711746
0.8127880 -2.0264125 0.9212876 16711746
0.9815150 -0.7381991 0.8740011 16711746
1.2636588 -0.8903951 0.8765793 16711746
0.3902801 -1.3929969 0.6162853 16711746
0.5028834 -1.1018102 0.8756706 16711746
1.7060162 -1.2152916 1.2231339 16711746
-0.2112586 -2.4479334 2.4094856 16711746
-0.2312232 -0.6763191 0.8862669 16711746
0.2866129 -0.9202268 0.5012104 16711746
0.5162840 -0.8455647 0.9527290 16711746
0.0376210 -0.6073698 0.5714816 16711746
-0.9932414 -1.5805018 1.0671088 16711746
-0.1941863 -1.8976717 1.3575783 16711746
-0.2341620 -0.4530728 0.2566613 16711746
-0.0854003 -0.5242202 0.5470343 16711746
-0.0099847 -0.6679241 0.6896513 16711746
0.5618268 -0.4479536 0.1850022 16711746
0.3719733 -1.5893679 1.0789068 16711746
-0.7115492 -0.8050114 0.3935371 16711746
-0.5886145 -0.9448628 0.5522797 16711746
-0.0562500 -1.7443177 1.2959388 16711746
-0.2519913 -1.1863714 0.7762386 16711746
0.6049805 -0.3226655 0.4753513 16711746
0.1368360 -0.8399754 0.9345585 16711746
-0.0526204 -0.6218343 0.9270390 16711746
-0.5260507 -1.7821177 1.3532526 16711746
-1.4756304 -1.2647599 1.6713846 16711746
-0.0359854 -1.0587417 1.6539661 16711746
-0.3915287 -0.6776307 0.8567672 16711746
-0.4042349 -1.0902982 0.5319798 16711746
0.8249000 -0.3893687 1.5312071 16711746
0.7537185 -0.2348024 0.7315444 16711746
-0.2169977 -1.0602814 1.0425214 16711746
0.7132775 -0.3451583 1.3104438 16711746
0.1646072 -0.8842682 1.1809126 16711746
0.4777745 -1.2725616 1.1434072 16711746
0.7787582 -0.7254159 1.5757852 16711746
1.0488278 -1.0578769 2.1449053 16711746
0.1497121 -1.1677417 1.1021785 16711746
0.3498599 -0.8597362 1.7225676 16711746
-0.1770024 -0.8400185 0.4429394 16711746
-0.2885758 -1.0017462 0.5076220 16711746
1.0593857 -1.2654326 2.1650999 16711746
-0.3277619 -0.7401126 0.2173905 16711746
0.4519584 -1.1769162 0.6463715 16711746
0.5450335 -1.0247812 0.7987037 16711746
-0.2824175 -1.4347365 1.0961946 16711746
-0.2611690 -1.6221414 0.7013467 16711746
1.2583698 -2.7186687 3.1413720 16711746
-0.0481318 -0.9755679 0.7583242 16711746
-0.9911907 -0.1726235 0.9206737 16711746
0.6793962 -0.8730605 1.0514531 16711746
-0.9208948 -0.5618635 1.1773719 16711746
-0.0450265 -0.4517656 0.2895557 16711746
-0.0105328 -0.3579178 0.2778898 16711746
-0.0289977 -0.4323465 0.4705814 16711746
-0.0500728 -0.6361906 0.4170697 16711746
-0.2071716 -0.6583904 0.6386195 16711746
0.0768838 -0.5773934 0.5307117 16711746
0.4010791 -0.8827159 0.4520950 16711746
-0.0433188 -0.4169585 0.3255383 16711746
-0.2560524 -0.1447782 0.5545977 16711746
0.7080410 -0.6902682 0.8417541 16711746
0.4225654 -0.8110817 0.9527521 16711746
0.6610069 -0.9245504 1.2332486 16711746
0.6647416 -0.5725090 1.3542980 16711746
0.8943208 -0.5688272 1.1401249 16711746
1.0533199 -0.7897745 1.6857684 16711746
1.0025448 -0.6561134 1.9701966 16711746
0.4208244 -0.3589731 0.8167005 16711746
0.0237695 -0.2403093 0.6178870 16711746
0.6293030 -1.0314782 0.7456937 16711746
-0.0710556 -0.7789608 0.8266336 16711746
0.9211485 -1.1148289 1.1756042 16711746
-0.6174976 -0.4097275 0.8881013 16711746
1.1046714 -0.8290513 1.7770489 16711746
0.5808699 -0.1914610 0.7338368 16711746
-0.0216959 -0.4347243 0.4068121 16711746
-0.1690853 -0.8370464 0.8082458 16711746
0.2601838 -0.7218299 0.9855520 16711746
-0.4863671 -0.7973667 0.9008838 16711746
-0.3238702 -0.5089930 1.0043826 16711746
0.3062163 -0.7242352 0.5113692 16711746
0.0771697 -0.7104956 0.6179889 16711746
0.1012873 -0.7431323 0.4638963 16711746
0.6697375 -0.6622600 1.0646987 16711746
0.1750494 -0.3961003 0.6109359 16711746
0.1341886 -0.6639737 0.8753515 16711746
1.3645221 -1.0072998 1.3836639 16711746
0.5806463 -0.6278473 0.2745297 16711746
0.1555702 -0.7169958 0.2849073 16711746
0.4852098 -0.8143141 1.0659928 16711746
-0.0282622 -0.4861945 0.2727518 16711746
0.5864839 -0.5062408 1.1881328 16711746
0.2760160 -0.6481611 0.7155373 16711746
-0.1928568 -0.7161468 0.7368277 16711746
-0.2289023 -0.8401986 0.8318608 16711746
-0.4530753 -0.6721203 1.3855008 16711746
-0.2292204 -0.4693539 0.8272376 16711746
1.0870452 -1.0555921 1.4883034 16711746
-0.2865187 -0.8724841 0.8612029 16711746
-0.2878264 -0.4518462 0.8860317 16711746
-0.2296375 -0.9119554 1.1113620 16711746
1.1479495 -0.8781317 1.0391130 16711746
-0.4892965 -0.9299285 1.0399246 16711746
0.0199054 -0.3092551 0.2613597 16711746
0.3607910 -0.6892194 0.7236379 16711746
0.6360142 -0.8617582 1.1431519 16711746
0.9547731 -1.6757144 2.0837760 16711746
1.1313602 -0.9294463 1.6908337 16711746
0.1493289 -0.7457241 0.2973639 16711746
0.0108058 -0.7216433 0.6938158 16711746
0.9101948 -1.1948502 1.5646415 16711746
-0.2193090 -0.3917398 0.8968445 16711746
0.6831729 -0.8154879 1.8417196 16711746
-0.0940918 -0.9344253 0.4363167 16711746
0.6204312 -0.8004286 0.5429116 16711746
-0.0252695 -0.7730500 0.4515537 16711746
0.6077535 -0.7309402 0.7360045 16711746
0.4505608 -0.1888587 0.3951207 16711746
0.5430454 -0.3708562 0.5510057 16711746
0.7746109 -1.2546415 1.7669210 16711746
0.1995098 -0.5245125 0.3284827 16711746
0.7974051 -1.1019264 1.1264020 16711746
0.6493701 -0.3370983 0.8054113 16711746
0.0424231 -0.9487528 0.7705857 16711746
0.2962428 -0.7052539 0.4962500 16711746
0.2204340 -0.7245894 0.3459627 16711746
-0.2844320 -0.4442179 0.2089826 16711746
-0.1630156 -0.3498904 0.1081225 16711746
0.5480335 -1.3162771 1.3825655 16711746
0.5116652 -0.7234951 1.0774072 16711746
-0.2634322 -0.2607383 0.5121101 16711746
0.2647879 -0.9440489 0.3900041 16711746
-0.1531579 -0.2795728 0.6268189 16711746
0.2242985 -0.9995744 0.3782504 16711746
0.5469734 -0.7410041 0.4152709 16711746
0.3229156 -1.2889798 1.7403692 16711746
0.0749022 -0.8272646 0.5823723 16711746
-0.0752791 -0.9414557 0.4747493 16711746
0.5423308 -0.3204003 0.7575316 16711746
0.5671705 -0.9513472 1.2614940 16711746
0.0679201 -1.0043927 0.7552704 16711746
0.5380314 -0.8760130 0.6916113 16711746
-0.1709253 -0.8296747 0.2932276 16711746
0.3095165 -1.0024776 0.9319713 16711746
0.3574383 -0.8554884 0.3343221 16711746
0.8300900 -1.4240344 1.6463021 16711746
0.3876823 -1.2571102 1.0634173 16711746
0.4455684 -0.9190438 1.0215306 16711746
0.7526572 -0.7380009 0.9044033 16711746
0.1386188 -1.0301578 0.8989248 16711746
0.0183784 -0.9950220 0.5314705 16711746
0.0197513 -0.3065163 0.2585515 16711746
0.5242527 -1.2881349 1.3481919 16711746
0.2955687 -0.7108217 0.4706578 16711746
0.3485369 -0.8251501 0.7800956 16711746
-0.0368943 -0.4235625 0.2422908 16711746
-0.1826973 -0.1056470 0.3879661 16711746
0.1848606 -0.6373746 0.3702502 16711746
0.3583125 -1.1737469 0.9918463 16711746
0.7474916 -0.9579752 0.6605674 16711746
0.2405405 -1.0251626 0.4541102 16711746
0.3569538 -0.9619120 0.5788444 16711746
-0.0834509 -0.5913619 0.4195252 16711746
-0.0310799 -0.4741197 0.3641286 16711746
0.3838521 -0.9331091 0.3050554 16711746
0.1285894 -1.3652985 0.5617715 16711746
-0.2074044 -0.7415259 0.4445238 16711746
0.5125104 -0.9578085 0.4599938 16711746
-0.1599398 -0.8140904 0.5296632 16711746
-0.0554516 -0.2881991 0.3089158 16711746
0.6054015 -0.5849351 0.7312597 16711746
0.3879103 -1.2098680 0.5091951 16711746
0.4987813 -1.0691842 0.3577167 16711746
-0.2998917 -0.5216881 0.4273991 16711746
-0.0322366 -0.2842129 0.2253728 16711746
-0.1374273 -0.3122738 0.3849646 16711746
0.9084206 -1.2701211 1.5680813 16711746
0.4410633 -0.6105834 0.7246222 16711746
-0.1370445 -0.4194359 0.2680393 16711746
0.7790098 -0.8765349 1.2813039 16711746
0.2395243 -0.9563768 0.3325259 16711746
0.1053995 -1.0711621 0.4401681 16711746
-0.1016473 -0.4348052 0.5027418 16711746
-0.0959541 -0.7679546 0.4097091 16711746
0.2745612 -0.5416215 0.5784422 16711746
-0.1171046 -0.4506364 0.3604529 16711746
1.1719987 -1.7967714 1.7302341 16711746
-0.1121970 -0.5698290 0.3724157 16711746
0.5674998 -0.6827920 0.5164557 16711746
0.4129216 -0.6489916 0.6145169 16711746
0.1829512 -0.8471794 0.3089885 16711746
0.2223544 -1.0829425 0.7554236 16711746
0.4303749 -0.8507856 0.2858384 16711746
0.3765102 -0.8207632 0.4951470 16711746
0.0346813 -0.7488480 0.3427232 16711746
-0.1805894 -0.3336774 0.3193600 16711746
0.8189514 -0.8401284 0.9013962 16711746
0.4689537 -0.8846829 0.3183120 16711746
0.6882358 -1.0018116 0.5173110 16711746
0.5030845 -0.9642685 0.9151568 16711746
0.4774959 -1.0192082 0.5179186 16711746
0.4932858 -0.7328005 0.2651665 16711746
-0.0077116 -1.1101243 0.9454054 16711746
0.1763622 -1.4843106 0.6412048 16711746
-0.0994994 -0.5776351 0.4035937 16711746
-0.1310629 -0.6378430 0.6779091 16711746
0.5952968 -0.9821684 0.3723838 16711746
0.1845805 -0.4151356 0.6464280 16711746
-0.2341403 -0.6007774 0.3519914 16711746
0.3923550 -0.9933830 0.4780807 16711746
0.1852114 -0.7247088 0.3768516 16711746
0.2824110 -1.2322447 0.9657569 16711746
0.0363145 -0.5956159 0.4582837 16711746
0.6562351 -0.9435140 0.3655398 16711746
0.8463386 -0.5988079 0.7337301 16711746
0.1186130 -0.6520894 0.3269356 16711746
1.2207395 -1.1965637 1.4581960 16711746
0.0290418 -0.9900705 0.3504623 16711746
0.1963625 -0.6752482 0.7740787 16711746
0.5137089 -0.8455372 0.3173641 16711746
0.7031510 -0.7077409 0.7861688 16711746
0.3837768 -1.0144227 0.3426170 16711746
0.2779108 -0.8290566 0.5742451 16711746
0.4379310 -1.0812349 0.5023052 16711746
0.0611865 -0.9000405 0.3836419 16711746
0.1331095 -0.8244531 0.2898244 16711746
0.6761028 -0.5023823 0.5781470 16711746
0.3033656 -0.6163918 0.4573012 16711746
0.3013721 -0.6287567 0.5433809 16711746
0.1078839 -1.2911235 1.3451719 16711746
0.8187150 -0.9823034 1.0283016 16711746
0.0038698 -0.8443879 0.3298941 16711746
-0.2568896 -0.8159367 0.7329915 16711746
0.1590090 -1.1128781 0.8319048 16711746
0.8465521 -0.9757004 0.9923220 16711746
0.7375559 -0.8315451 0.3495370 16711746
0.5759387 -0.9159769 0.5231718 16711746
0.4456641 -0.6370588 0.1748420 16711746
0.2583757 -0.6158279 0.4205018 16711746
0.4633689 -0.4150921 0.2520682 16711746
0.3311709 -0.7909202 0.3050687 16711746
0.4338230 -0.7483386 0.3835580 16711746
0.4831578 -0.6871970 0.2072037 16711746
0.0878164 -1.1161897 0.4078248 16711746
0.1169702 -0.6575624 0.3129032 16711746
-0.0255005 -0.5728856 0.2745025 16711746
0.0168854 -1.0327539 0.5555447 16711746
-0.2151434 -0.9812024 0.5521668 16711746
0.0631852 -1.0681956 0.5340967 16711746
0.4353531 -0.7666782 1.0239803 16711746
-0.1127949 -1.1343980 0.5040250 16711746
0.6825991 -0.3234610 0.6430493 16711746
0.8056867 -1.3576730 1.1850420 16711746
0.2410928 -1.0768329 0.7243338 16711746
0.6484346 -0.4523073 0.5175288 16711746
0.1775510 -0.8337634 0.7756416 16711746
0.7067701 -0.6410835 0.8601738 16711746
0.1239172 -1.0047278 0.5441229 16711746
0.3716656 -0.8107905 0.8607475 16711746
0.7717354 -0.8761569 0.4572054 16711746
0.2832933 -0.7221097 0.6278242 16711746
0.6893010 -1.2591736 0.5989736 16711746
-0.3019975 -0.9802580 0.8239309 16711746
0.5099443 -1.0502160 0.5727845 16711746
0.7065629 -1.1837823 1.0291122 16711746
0.5391222 -1.2381951 0.4974135 16711746
0.6842323 -0.8938619 0.4524422 16711746
0.5738313 -0.8119608 0.3047466 16711746
0.3604738 -1.1986532 1.0123271 16711746
0.5670148 -0.9814161 0.4645822 16711746
0.5979341 -0.9396801 0.4482912 16711746
-0.2409103 -0.8075806 0.4207880 16711746
0.4545830 -0.8361101 0.7165342 16711746
0.3188622 -0.3609236 0.3157707 16711746
0.2569373 -0.7648674 0.3029710 16711746
0.2650074 -1.3000169 0.9228227 16711746
0.2537512 -0.7531542 0.2957527 16711746
0.3069337 -1.5326830 1.0972505 16711746
-0.1305171 -0.6385009 0.2903202 16711746
0.5688791 -0.1998376 0.7612755 16711746
0.4158950 -0.7495390 0.5316297 16711746
-0.4089776 -0.4653324 0.1630999 16711746
1.0530235 -1.2438221 2.1341362 16711746
0.4777064 -1.1046767 1.1623627 16711746
0.2340861 -0.8486809 0.9467656 16711746
0.4921956 -1.0170612 0.5537018 16711746
0.0561115 -0.7505256 0.2331489 16711746
0.5385921 -1.1001867 0.4266444 16711746
0.4643062 -0.8796598 1.0726393 16711746
0.2086625 -1.0184193 0.5753457 16711746
-0.2226672 -0.4475338 0.3550843 16711746
0.4451543 -0.5801713 0.6179726 16711746
-0.2688228 -0.5329172 0.2607180 16711746
1.0403891 -1.1610820 1.5446662 16711746
0.2482326 -0.8901171 0.2756196 16711746
0.5145082 -0.8822819 0.4085357 16711746
-0.1234457 -0.1827607 0.1726739 16711746
0.4648869 -0.5268737 0.1955654 16711746
0.2845978 -0.2927079 0.3043953 16711746
0.1198698 -0.5813046 0.5254908 16711746
-0.0100389 -0.5048920 0.3866642 16711746
-0.0120067 -0.8537362 0.4666847 16711746
0.1174678 -0.2458047 0.3572369 16711746
0.1489612 -0.8572849 0.8501850 16711746
-0.0907034 -0.5220670 0.5549994 16711746
0.1814990 -0.0196530 0.0944427 16711746
0.4052286 -0.3623317 0.2489675 16711746
0.4255445 -0.6986820 0.1789131 16711746
-0.0421586 -0.4350203 0.3085798 16711746
0.1401365 -0.7769982 0.3193288 16711746
0.7253953 -1.1850384 0.9516455 16711746
0.4764431 -0.2425540 0.8949918 16711746
1.2664685 -0.8402110 1.6650916 16711746
0.1038940 -0.2089360 0.3565190 16711746
-0.1037931 -0.5883654 0.3295890 16711746
0.4803921 -0.7867259 0.2885137 16711746
0.5630404 -0.5477615 0.2629077 16711746
0.0583101 -0.7149287 0.3005908 16711746
0.4011509 -0.5661170 0.1609491 16711746
-0.1956378 -0.6911861 0.5127361 16711746
-0.0838603 -0.4898070 0.2114919 16711746
0.4019445 -0.4723902 0.2939613 16711746
0.4429712 -0.8857914 0.3382360 16711746
0.2395991 -0.8422232 0.2854674 16711746
0.3891466 -0.9052967 0.3370363 16711746
-0.4467050 -0.8343266 0.4325306 16711746
-0.0106544 -1.0212432 0.4665862 16711746
-0.0933369 -0.7212770 0.3851918 16711746
0.2401145 -0.3533622 0.1247190 16711746
0.4816359 -0.6410735 0.2840504 16711746
-0.2490510 -0.6629609 0.4212329 16711746
-0.3172415 -0.6566648 0.3752751 16711746
0.2348675 -0.7085617 0.4645925 16711746
-0.0579021 -0.9279950 0.4818043 16711746
-0.5651512 -0.8381817 0.8996208 16711746
0.1424228 -0.4548116 0.1420905 16711746
0.4979163 -0.7312920 0.3576450 16711746
0.4098199 -0.7759806 0.2727075 16711746
0.6082910 -0.8910236 0.4490594 16711746
-0.0081096 -0.7766410 0.4177955 16711746
0.0565435 -0.4709151 0.7408296 16711746
-0.5408407 -0.4421606 0.6050522 16711746
0.3393546 -0.5057707 0.2196823 16711746
0.5658772 -0.8381399 0.3072786 16711746
0.4607932 -0.8626564 0.3109617 16711746
-0.3454687 -0.7040233 0.4068294 16711746
-0.5781264 -0.7802410 0.7839659 16711746
-0.6138946 -0.5718637 0.7168523 16711746
0.3938535 -1.0561639 0.3685621 16711746
0.5106880 -0.7567722 0.3739322 16711746
0.0058625 -0.1291002 0.1606765 16711746
-0.2485095 -0.7382439 0.3721065 16711746
0.0755930 -0.4912499 0.5219843 16711746
0.6232668 -0.9373879 0.4805497 16711746
-0.2933428 -0.6202527 0.4138492 16711746
-0.6931775 -0.6570227 0.7636635 16711746
-0.4919764 -0.9867401 0.7264846 16711746
-0.3628234 -0.8348837 0.4700988 16711746
-0.6873296 -0.9159644 0.9797931 16711746
-0.7192533 -0.6867233 1.0361308 16711746
-0.8885211 -0.6691473 1.2886175 16711746
-0.1817421 -0.7187150 0.4663598 16711746
-0.1587287 -0.5661392 0.3956928 16711746
0.4761958 -0.9040418 0.3268067 16711746
-0.0291677 -0.0965126 0.0574879 16711746
0.2801732 -0.6842198 0.2974427 16711746
0.5370038 -0.9733276 0.4139030 16711746
-0.6175531 -0.9952226 1.1440974 16711746
-0.5756549 -0.9307266 1.0755938 16711746
1.0164567 -0.9103953 0.4306854 16711746
-0.7533057 -0.9611716 1.1275645 16711746
0.2949624 -0.8925586 0.6049535 16711746
0.4777608 -1.1244688 0.5090958 16711746
-1.1071655 -1.2702672 1.4597542 16711746
0.7803885 -1.0259098 1.3272088 16711746
-0.9180317 -1.0988941 1.2240043 16711746
-0.4293475 -0.6790726 0.8232461 16711746
0.4785098 -0.9827947 0.5327314 16711746
-0.7757244 -1.4055403 1.0149596 16711746
0.7665349 -1.2405579 0.6502330 16711746
-0.7953374 -0.9977947 1.0930864 16711746
-0.6305652 -1.3397788 1.4828067 16711746
-0.9505321 -1.2282635 1.2717513 16711746
-0.6982368 -1.1789175 0.8621745 16711746
-0.3858832 -0.8891111 0.8028727 16711746
0.0785479 -0.2373427 0.2134785 16711746
-0.0223912 -0.5636384 0.8143121 16711746
-0.7303042 -0.9446357 1.1263741 16711746
-1.0325924 -0.7620353 0.9193498 16711746
0.2300319 -0.7807333 0.3958105 16711746
-0.7806922 -0.5641649 0.6661282 16711746
-0.9078490 -1.0113480 0.9531892 16711746
0.1064558 -0.4869563 0.4271319 16711746
-0.6306210 -0.8292056 0.9541634 16711746
1.2669314 -1.2254919 1.5163678 16711746
-0.2842414 -0.9384549 0.8283308 16711746
-0.7822608 -1.0146458 1.0949639 16711746
-0.4154152 -1.1442783 1.0954555 16711746
-0.8003787 -1.4680932 1.3137299 16711746
0.0170456 -0.5703416 0.8031463 16711746
0.1231805 -0.4663323 0.4428181 16711746
-0.7095632 -1.2827324 1.0610267 16711746
-0.1770947 -0.7123253 0.5335771 16711746
-0.4363978 -1.1312162 1.0085799 16711746
-0.3054808 -1.0605987 0.6987578 16711746
0.0274013 -0.2825184 0.2244350 16711746
-0.7577929 -1.0062202 1.0848981 16711746
-0.7071754 -0.6439639 0.8158491 16711746
-0.4986954 -0.9686069 1.4469194 16711746
-0.4619915 -0.7759041 0.9177561 16711746
-0.1633794 -0.4064022 0.5654648 16711746
-0.0656893 -0.3535543 0.3398085 16711746
-0.0842373 -0.4250062 0.3616975 16711746
-0.1053521 -0.3798896 0.5320323 16711746
-0.4313977 -0.7904934 0.8842489 16711746
0.4854283 -0.7994954 0.6433064 16711746
0.0257619 -0.8557504 0.6974099 16711746
-0.3068632 -1.1046882 1.0386550 16711746
0.1613950 -0.3834248 0.4156371 16711746
-0.5919439 -1.4274173 1.1031474 16711746
0.1492834 -1.2146429 0.8408087 16711746
-0.7138159 -0.9506937 1.0851561 16711746
-1.3427693 -1.3841622 1.8705482 16711746
0.5462134 -0.9452708 1.1379161 16711746
0.5470476 -0.4605543 0.1733322 16711746
0.4582809 -0.9292179 0.9980597 16711746
-0.2936662 -0.9541777 0.7258541 16711746
0.5427273 -1.1317637 1.0205984 16711746
0.8878694 -1.4343368 1.0677208 16711746
0.3568924 -0.7475548 0.5688006 16711746
0.2855453 -1.0329845 0.4284321 16711746
-0.5429106 -1.0274004 0.5760703 16711746
0.0944644 -0.0881859 0.0936396 16711746
0.5684622 -0.7439175 0.3681644 16711746
0.6205338 -0.9649742 0.7168539 16711746
0.3607408 -1.2367038 0.9750457 16711746
0.8053775 -1.0324773 0.9741290 16711746
-0.1129000 -0.1889904 0.0576228 16711746
0.3566067 -0.9543386 0.5741740 16711746
-0.7240134 -0.9618186 1.1000570 16711746
0.5414633 -0.7346991 0.3022116 16711746
0.5733485 -0.9637213 0.8363615 16711746
-0.2736558 -0.9123129 0.8016827 16711746
0.0754109 -0.0864055 0.0467999 16711746
-0.4505349 -1.0546476 0.9060544 16711746
0.4715727 -0.7965715 0.8758780 16711746
-0.8194647 -0.9357281 1.1283113 16711746
0.4637245 -1.3334972 1.1024580 16711746
1.0206083 -0.9965364 1.1363170 16711746
0.8443975 -1.0456361 0.8192286 16711746
0.4449433 -1.1426194 1.3249629 16711746
0.6926854 -0.7982143 0.9036707 16711746
-0.0649325 -0.9454845 1.2757269 16711746
-0.8155738 -1.5550513 1.9869227 16711746
0.4706259 -1.3976378 1.5985101 16711746
0.3361736 -0.9701721 0.5981220 16711746
0.7588828 -1.1648393 1.2332708 16711746
0.2200562 -0.5417452 0.6737188 16711746
0.2418243 -1.3581434 1.4316900 16711746
0.8428158 -1.0258827 0.9266298 16711746
-1.1826308 -1.0547117 1.4105861 16711746
0.6433974 -0.7433748 0.3032502 16711746
0.8332796 -1.1781898 1.4565883 16711746
-0.8629261 -1.2870331 1.7970508 16711746
0.8464737 -1.3077261 1.3875221 16711746
-0.7782209 -0.6838126 0.8430949 16711746
-0.9837538 -0.8973591 0.7560087 16711746
0.2883230 -0.8553923 0.4616655 16711746
0.7538386 -1.1710749 0.8388887 16711746
-0.4903730 -1.0186343 0.4463468 16711746
-0.2929177 -0.9665436 0.9650477 16711746
0.3144043 -1.1427650 0.7857949 16711746
1.0030069 -1.4010612 1.6066191 16711746
-0.6498093 -1.2132045 0.8299358 16711746
-0.8127746 -0.5240997 0.6573257 16711746
-0.4934833 -0.8777261 1.1134176 16711746
-0.3755207 -0.5633805 0.6865979 16711746
1.4276308 -1.3203653 0.7034585 16711746
0.5767031 -0.8044255 1.2130294 16711746
0.2048939 -0.8672155 0.9677734 16711746
0.6394582 -1.2024673 0.8182954 16711746
0.3511626 -1.0394306 1.2706412 16711746
-0.8441752 -1.2575302 1.7525916 16711746
0.9202036 -1.2067600 1.7327802 16711746
0.8842645 -0.7908673 1.1735388 16711746
1.1790069 -0.8997868 1.2561903 16711746
0.0957286 -1.1837357 1.8700135 16711746
0.8289930 -1.0730813 1.6554785 16711746
-0.0333063 -1.0916620 1.5246658 16711746
0.5485149 -0.7373610 1.1419563 16711746
0.3251243 -0.4604067 0.6215618 16711746
0.5389014 -1.3431056 0.6261090 16711746
0.5573092 -1.1303343 0.9565686 16711746
0.1550879 -0.3416935 0.4777990 16711746
0.5665386 -0.7589912 1.0675927 16711746
0.5157142 -1.1443670 1.3406854 16711746
0.8254427 -1.2591200 1.5800521 16711746
0.6648870 -0.9353557 1.3882442 16711746
0.5147676 -1.0569439 0.9476513 16711746
0.9875240 -1.3122549 1.7106117 16711746
0.3435750 -1.0154647 0.7820984 16711746
0.7816970 -1.0335081 0.5147210 16711746
0.1579638 -1.2746658 0.6121002 16711746
0.7176699 -1.4089398 0.5174897 16711746
-0.6921837 -1.0975299 0.5898361 16711746
0.9194415 -1.2293321 0.4745663 16711746
0.6730759 -1.1256573 0.4274203 16711746
0.5018900 -1.1155387 0.9289954 16711746
-0.8735203 -1.4553441 1.0502007 16711746
0.1025016 -1.2872438 0.7136380 16711746
-0.6353557 -1.0180342 0.5478204 16711746
-0.7423325 -1.2502842 0.9067580 16711746
-0.4448895 -0.9084249 0.3980896 16711746
0.1018542 -1.3844227 0.7636752 16711746
-0.0206516 -1.0413797 0.7524784 16711746
0.5484408 -1.2671636 0.7126877 16711746
-0.7163712 -0.5537350 0.4382935 16711746
-0.0886362 -1.2389125 1.3011730 16711746
-1.0497180 -1.4074979 0.9421062 16711746
0.5947866 -1.0096122 1.0791512 16711746
-0.4416662 -1.1037651 0.5003161 16711746
0.8088005 -0.6921970 0.5708953 16711746
0.3977185 -1.1158655 0.6619048 16711746
-1.0758542 -1.4560724 0.9725431 16711746
0.7749053 -0.6435515 0.5297841 16711746
-1.2233392 -0.9702212 1.4245632 16711746
0.7948040 -1.1602166 1.4872760 16711746
1.0459788 -1.0235324 1.5897284 16711746
0.7624012 -1.5152342 1.6586500 16711746
0.5842807 -0.9099784 1.0805476 16711746
0.5748110 -1.1483374 0.5662994 16711746
0.3002990 -1.1327349 1.3791621 16711746
0.4263825 -1.2533247 1.4226015 16711746
0.4610222 -1.3582259 1.5410742 16711746
0.9186519 -1.4083810 1.4901235 16711746
0.9728903 -1.2883321 1.0760194 16711746
1.1450765 -1.3305212 1.5344422 16711746
-0.8000829 -1.0927837 1.1707950 16711746
0.3166278 -0.9945103 0.8765391 16711746
1.0469475 -0.7918389 0.9482241 16711746
-1.0750512 -0.9214478 0.6728466 16711746
1.0621806 -1.0873929 0.4220310 16711746
0.7515686 -1.3415537 1.6246138 16711746
0.0803271 -1.1409240 1.6903975 16711746
0.6320485 -1.1331686 0.8066388 16711746
1.0760103 -1.1519177 1.2135739 16711746
-0.4642438 -1.2283779 0.9537117 16711746
1.4010316 -1.1606252 2.1345544 16711746
0.0987350 -0.9729482 1.5434642 16711746
0.3529388 -1.1534381 0.6338822 16711746
0.8572569 -0.8409543 0.9419258 16711746
-2.0602710 -1.2717192 1.3777529 16711746
-1.9307015 -1.2583899 1.1970460 16711746
0.5064442 -0.8459429 1.0327636 16711746
0.7913652 -1.0741584 0.9381275 16711746
-0.7273029 -1.0009332 1.1212499 16711746
-0.9145957 -1.3026021 1.9006875 16711746
1.0834992 -1.0301983 0.3726524 16711746
-0.4605474 -1.0918823 0.7008445 16711746
0.0779828 -0.7290604 0.6874711 16711746
0.9175514 -1.1852430 1.1287086 16711746
0.6255291 -0.8249432 0.3501660 16711746
-2.0132942 -1.1072885 1.2450656 16711746
0.8044142 -0.9653922 0.8752921 16711746
0.5716518 -0.4651843 1.1189617 16711746
0.4521778 -1.2374103 1.2238190 16711746
0.9431385 -1.0853889 1.6075995 16711746
0.5645596 -1.1414645 0.3906498 16711746
0.8893143 -1.1768987 1.5256066 16711746
-1.4301999 -1.0425175 0.7833837 16711746
-1.7682651 -1.1473649 1.0998869 16711746
-0.7151066 -1.0446659 0.7938051 16711746
-1.8120928 -1.1911745 1.2190562 16711746
0.2693941 -0.6495434 0.4226675 16711746
0.3078271 -1.3536735 1.0597169 16711746
0.6264826 -0.7538087 1.6825749 16711746
0.2991151 -1.1260624 1.3537900 16711746
-2.3915129 -1.4418168 1.8553406 16711746
-0.0084493 -0.8028406 1.2632499 16711746
1.1361486 -0.8856862 1.2181857 16711746
1.9065291 -1.1042851 2.0630772 16711746
0.9152203 -2.0186875 1.9309063 16711746
-0.9922321 -1.2558954 0.9395238 16711746
0.3261547 -1.4758327 1.1474771 16711746
1.0063032 -1.0352879 0.6677527 16711746
0.0707222 -0.6949907 1.2503371 16711746
0.6758884 -0.6532801 0.7261016 16711746
0.3078619 -0.6310059 0.9381813 16711746
0.5244436 -1.0143138 1.6992024 16711746
0.4710164 -0.9630975 0.4686068 16711746
0.3891134 -1.2410200 1.2078356 16711746
1.3681319 -0.9711627 1.5516337 16711746
0.2999871 -1.1305728 1.2772197 16711746
0.8839586 -1.0414641 1.1940464 16711746
0.0851251 -0.7724009 1.4013621 16711746
1.4004712 -1.0646966 1.2824055 16711746
-0.0463732 -1.0457883 1.2916874 16711746
-0.0504133 -1.0504301 1.2942895 16711746
0.2611765 -1.2096707 1.3620250 16711746
0.2185232 -0.9398722 0.6391932 16711746
0.1024538 -1.2459742 1.2741451 16711746
-1.6826212 -0.9516944 1.0567994 16711746
-0.3394394 -0.7638242 0.4192345 16711746
-0.7045226 -0.9776208 0.8273888 16711746
-1.2525510 -1.1838765 0.7527108 16711746
0.8892916 -1.1945648 0.4970181 16711746
0.7432083 -1.1359193 1.1988031 16711746
0.5000194 -0.7037011 0.8843958 16711746
1.6548232 -1.4113619 0.7033296 16711746
0.4428344 -0.9767862 1.2656308 16711746
-0.1026671 -0.9935187 1.4022446 16711746
0.1300731 -1.2775557 1.1544229 16711746
0.0666382 -0.7940898 0.7653955 16711746
-1.5890763 -1.9410390 0.8711537 16711746
0.7601402 -1.2101297 0.8566105 16711746
1.3019835 -1.2887936 1.1290076 16711746
1.5471539 -1.4173410 1.4021220 16711746
-0.2042527 -1.5289508 1.5350982 16711746
-1.6959434 -0.9612879 1.0569044 16711746
-0.8068196 -1.1073604 0.7799425 16711746
0.1157613 -1.7359599 2.6285770 16711746
0.2199007 -0.8798223 0.9148320 16711746
1.1075697 -1.0779072 1.5210027 16711746
0.5503450 -0.9104130 0.9675354 16711746
0.9412238 -0.9872479 1.8063648 16711746
-0.2811800 -1.0212183 0.9964681 16711746
0.6249088 -1.4790509 1.4427742 16711746
0.4041513 -1.2965207 1.0558034 16711746
0.4308999 -0.9093730 1.3803607 16711746
0.4304659 -1.1246781 1.4596796 16711746
-0.4197798 -1.0984174 0.9699919 16711746
0.5998626 -0.7969436 1.0860069 16711746
1.1483107 -1.0792925 1.5037357 16711746
1.2771605 -1.2579106 1.4573845 16711746
0.6289098 -0.7000417 0.7721621 16711746
-0.0370778 -1.2374969 1.3347840 16711746
1.1049596 -1.5419710 1.7563142 16711746
1.2155334 -1.4040915 1.3747431 16711746
0.1815277 -1.7186356 0.7942305 16711746
-0.0815986 -1.0306673 1.2507379 16711746
0.6068122 -1.0694777 1.4502624 16711746
1.1444938 -1.5107824 1.5838805 16711746
1.1690282 -1.5396985 1.1049860 16711746
0.2157762 -0.4112081 0.7183500 16711746
1.2123988 -1.4839864 1.1664436 16711746
0.5524265 -1.1938134 1.1795750 16711746
0.8402888 -1.5170888 1.8178790 16711746
0.5401751 -1.1811228 1.2953860 16711746
-0.0895151 -1.3912839 2.0187225 16711746
1.2927667 -1.5851392 1.4579563 16711746
0.9599103 -0.8351176 2.0061421 16711746
0.0374232 -1.4457157 1.2346549 16711746
1.0791661 -1.4929223 1.4960995 16711746
0.5051465 -1.2536139 1.1897533 16711746
0.0686827 -1.1968657 1.3333237 16711746
0.0740600 -0.6685413 1.0610037 16711746
-0.2650851 -1.1622471 1.4337586 16711746
1.3362013 -1.3217721 1.1294413 16711746
0.8299770 -1.4956832 1.0951015 16711746
0.7729009 -1.3732315 1.1477948 16711746
0.8799343 -1.8373710 1.6535801 16711746
1.6976621 -1.5711755 0.6409136 16711746
0.6903206 -1.2349720 1.6900101 16711746
