# .PCD v.7 - Point Cloud Data file format
VERSION .7
FIELDS x y z rgb
SIZE 4 4 4 4
TYPE F F F F
COUNT 1 1 1 1
WIDTH 185
HEIGHT 1
VIEWPOINT 0 0 0 1 0 0 0
POINTS 185
DATA ascii

 0.0000000 0.0000000 0.0000000 16777215
 -0.0049559 -0.0002236 0.0044500 16777215
 -0.0061803 -0.0001021 0.0054524 16777215
 -0.0058618 -0.0001821 0.0057695 16777215
 -0.0056149 -0.0002489 0.0060116 16777215
 -0.0056585 -0.0002312 0.0059690 16777215
 -0.0056676 -0.0001399 0.0060196 16777215
 -0.0058417 -0.0001873 0.0057522 16777215
 -0.0055734 -0.0001113 0.0057366 16777215
 -0.0058638 -0.0001667 0.0056740 16777215
 -0.0026410 0.0005857 0.0032210 16777215
 -0.0022475 -0.0002713 0.0009832 16777215
 0.0007231 0.0000485 -0.0025389 16777215
 0.0036503 0.0003226 -0.0067682 16777215
 0.0042893 0.0004265 -0.0070506 16777215
 0.0045709 0.0005122 -0.0071672 16777215
 0.0013688 -0.0008113 -0.0073765 16777215
 -0.0035775 -0.0010711 -0.0051795 16777215
 -0.0094708 -0.0008262 -0.0035851 16777215
 -0.0120079 -0.0007516 -0.0018731 16777215
 -0.0123198 -0.0009390 -0.0016847 16777215
 -0.0098066 -0.0017249 -0.0010862 16777215
 -0.0047440 -0.0007928 -0.0019513 16777215
 0.0019312 -0.0016835 -0.0014590 16777215
 0.0037987 -0.0006597 -0.0000160 16777215
 0.0074146 0.0003241 0.0035106 16777215
 0.0122024 -0.0009704 0.0132828 16777215
 0.0150575 -0.0000502 0.0222434 16777215
 0.0176022 0.0021908 0.0314339 16777215
 0.0190214 0.0048672 0.0388489 16777215
 0.0246405 0.0056266 0.0510354 16777215
 0.0344379 0.0050874 0.0646059 16777215
 0.0451364 0.0060386 0.0752759 16777215
 0.0526943 0.0056075 0.0883868 16777215
 0.0580758 0.0080129 0.1039239 16777215
 0.0615582 0.0083721 0.1228779 16777215
 0.0659082 0.0083234 0.1387971 16777215
 0.0734318 0.0099522 0.1511056 16777215
 0.0851111 0.0085996 0.1651363 16777215
 0.0964000 0.0088099 0.1770961 16777215
 0.1003987 0.0095472 0.1911366 16777215
 0.1073924 0.0112412 0.2070827 16777215
 0.1151825 0.0118989 0.2269002 16777215
 0.1226745 0.0125043 0.2401261 16777215
 0.1364728 0.0143877 0.2569380 16777215
 0.1460111 0.0151820 0.2680133 16777215
 0.1548042 0.0175770 0.2908466 16777215
 0.1589824 0.0187062 0.3073338 16777215
 0.1664130 0.0194897 0.3251074 16777215
 0.1797886 0.0207022 0.3446325 16777215
 0.1904899 0.0209274 0.3556485 16777215
 0.1972650 0.0200832 0.3695516 16777215
 0.2019902 0.0226869 0.3857482 16777215
 0.2083654 0.0240757 0.4016638 16777215
 0.2138316 0.0246499 0.4196141 16777215
 0.2213094 0.0258788 0.4345734 16777215
 0.2321658 0.0253751 0.4537810 16777215
 0.2358987 0.0262286 0.4677255 16777215
 0.2349676 0.0275381 0.4839478 16777215
 0.2354061 0.0305668 0.5002170 16777215
 0.2393795 0.0299003 0.5143912 16777215
 0.2444741 0.0319931 0.5279964 16777215
 0.2507163 0.0321681 0.5401400 16777215
 0.2552897 0.0322125 0.5523462 16777215
 0.2600755 0.0337324 0.5686442 16777215
 0.2656841 0.0353705 0.5826794 16777215
 0.2681494 0.0365434 0.5956561 16777215
 0.2711535 0.0385566 0.6091379 16777215
 0.2767710 0.0381401 0.6218763 16777215
 0.2811284 0.0371817 0.6332771 16777215
 0.2862196 0.0375380 0.6464177 16777215
 0.2881214 0.0391719 0.6606070 16777215
 0.2901753 0.0388262 0.6733214 16777215
 0.2976780 0.0402920 0.6871837 16777215
 0.3059839 0.0402697 0.6979438 16777215
 0.3144015 0.0409366 0.7080765 16777215
 0.3216518 0.0420009 0.7205673 16777215
 0.3273323 0.0434472 0.7368286 16777215
 0.3320850 0.0418095 0.7489014 16777215
 0.3370051 0.0421979 0.7605559 16777215
 0.3450482 0.0452814 0.7732829 16777215
 0.3509625 0.0441342 0.7850258 16777215
 0.3572930 0.0454283 0.7957560 16777215
 0.3604930 0.0485026 0.8085329 16777215
 0.3683564 0.0494236 0.8255964 16777215
 0.3732132 0.0493040 0.8372347 16777215
 0.3838359 0.0494220 0.8491907 16777215
 0.3891225 0.0497300 0.8600645 16777215
 0.3920583 0.0512533 0.8731226 16777215
 0.3932863 0.0526624 0.8878674 16777215
 0.3953199 0.0527133 0.9003035 16777215
 0.4002034 0.0540415 0.9142979 16777215
 0.4040964 0.0542151 0.9267799 16777215
 0.4118983 0.0536854 0.9399406 16777215
 0.4154511 0.0542586 0.9545187 16777215
 0.4155395 0.0564309 0.9682393 16777215
 0.4176047 0.0567237 0.9798591 16777215
 0.4208879 0.0578468 0.9909239 16777215
 0.4263817 0.0579838 1.0023326 16777215
 0.4345640 0.0581159 1.0127885 16777215
 0.4386110 0.0585671 1.0218678 16777215
 0.4416382 0.0601536 1.0334082 16777215
 0.4456183 0.0606636 1.0451665 16777215
 0.4498097 0.0603541 1.0553006 16777215
 0.4537645 0.0626025 1.0661469 16777215
 0.4621791 0.0626184 1.0785673 16777215
 0.4696177 0.0622731 1.0925614 16777215
 0.4713018 0.0646943 1.1043224 16777215
 0.4754772 0.0648409 1.1185764 16777215
 0.4790505 0.0663395 1.1288285 16777215
 0.4829404 0.0681425 1.1396089 16777215
 0.4900130 0.0686458 1.1501287 16777215
 0.4935266 0.0687635 1.1605694 16777215
 0.4972427 0.0697061 1.1721063 16777215
 0.5011020 0.0707791 1.1856229 16777215
 0.5039926 0.0714004 1.1957390 16777215
 0.5073065 0.0725122 1.2062576 16777215
 0.5131634 0.0731143 1.2162127 16777215
 0.5172484 0.0732485 1.2244843 16777215
 0.5202662 0.0741204 1.2345527 16777215
 0.5207723 0.0759757 1.2455893 16777215
 0.5238976 0.0756400 1.2551498 16777215
 0.5280136 0.0760950 1.2644035 16777215
 0.5351792 0.0766649 1.2770978 16777215
 0.5418065 0.0760078 1.2896382 16777215
 0.5449330 0.0772190 1.2994072 16777215
 0.5472143 0.0776790 1.3092904 16777215
 0.5520858 0.0778358 1.3193966 16777215
 0.5557060 0.0790926 1.3283734 16777215
 0.5603432 0.0791201 1.3367531 16777215
 0.5659422 0.0800475 1.3481116 16777215
 0.5687386 0.0812400 1.3600410 16777215
 0.5719219 0.0821317 1.3709857 16777215
 0.5744927 0.0824773 1.3798386 16777215
 0.5773025 0.0830177 1.3891714 16777215
 0.5810691 0.0829715 1.3972257 16777215
 0.5833205 0.0828380 1.4056115 16777215
 0.5854620 0.0836798 1.4148850 16777215
 0.5882224 0.0840349 1.4234352 16777215
 0.5916164 0.0847371 1.4328161 16777215
 0.5968751 0.0854705 1.4408723 16777215
 0.6022883 0.0846097 1.4494487 16777215
 0.6062242 0.0848916 1.4588400 16777215
 0.6089367 0.0858258 1.4706231 16777215
 0.6107388 0.0863839 1.4808348 16777215
 0.6146101 0.0873453 1.4906648 16777215
 0.6202262 0.0870042 1.5000273 16777215
 0.6252181 0.0872760 1.5108024 16777215
 0.6269507 0.0887812 1.5214850 16777215
 0.6301887 0.0892186 1.5332386 16777215
 0.6325942 0.0917697 1.5444263 16777215
 0.6368440 0.0913963 1.5537521 16777215
 0.6404595 0.0916418 1.5626583 16777215
 0.6431674 0.0928370 1.5724119 16777215
 0.6452571 0.0932100 1.5803806 16777215
 0.6486795 0.0934344 1.5890664 16777215
 0.6513281 0.0932752 1.5967290 16777215
 0.6563166 0.0923006 1.6063251 16777215
 0.6577859 0.0919507 1.6174340 16777215
 0.6583546 0.0927007 1.6273715 16777215
 0.6583365 0.0924569 1.6318334 16777215
 0.6618450 0.0929498 1.6365006 16777215
 0.6654671 0.0923467 1.6413945 16777215
 0.6682155 0.0919785 1.6460153 16777215
 0.6697050 0.0916162 1.6511781 16777215
 0.6719503 0.0921044 1.6566212 16777215
 0.6754544 0.0926982 1.6622725 16777215
 0.6787831 0.0928083 1.6674315 16777215
 0.6826309 0.0933178 1.6735977 16777215
 0.6844595 0.0929662 1.6794277 16777215
 0.6863701 0.0933955 1.6840780 16777215
 0.6899903 0.0934042 1.6883870 16777215
 0.6931325 0.0924475 1.6911023 16777215
 0.6950988 0.0928867 1.6938187 16777215
 0.6977614 0.0930059 1.6987379 16777215
 0.6985167 0.0930350 1.7032082 16777215
 0.7001891 0.0932381 1.7075527 16777215
 0.7022060 0.0933323 1.7117920 16777215
 0.7036882 0.0928284 1.7153653 16777215
 0.7052934 0.0932362 1.7195438 16777215
 0.7063655 0.0933998 1.7241931 16777215
 0.7070061 0.0936533 1.7286662 16777215
 0.7076904 0.0938256 1.7318550 16777215
 0.7081653 0.0935555 1.7350841 16777215
 0.7094849 0.0942987 1.7378820 16777215
