# .PCD v.7 - Point Cloud Data file format
VERSION .7
FIELDS x y z rgb
SIZE 4 4 4 4
TYPE F F F F
COUNT 1 1 1 1
WIDTH 1169
HEIGHT 1
VIEWPOINT 0 0 0 1 0 0 0
POINTS 1169
DATA ascii
-0.1152670 -0.5368679 3.1215641 16711746
-0.1258189 -0.6444218 3.3714221 16711746
-0.1283000 -0.5385189 3.1379526 16711746
-0.3858579 -0.5435534 3.3084984 16711746
0.0848011 -0.5589901 3.1498413 16711746
-0.6371838 -0.5574973 3.3170190 16711746
-0.8545694 -0.5826923 3.4938264 16711746
-0.1193558 -0.5133271 3.0433369 16711746
-0.0331741 -0.6491266 3.5865855 16711746
-0.2652890 -0.5243416 3.0757480 16711746
-0.8446160 -0.7112896 3.8047469 16711746
-0.2156234 -0.7636261 4.2238007 16711746
-0.5516956 -0.7287264 4.1116462 16711746
-0.3899195 -0.7103416 3.9857275 16711746
-0.4843122 -0.5009420 3.0565970 16711746
-0.2053028 -0.5230343 3.0822933 16711746
-0.0642648 -0.5436462 3.1223958 16711746
-0.4440704 -0.5062713 3.0544541 16711746
-0.4521063 -0.5233884 3.1220305 16711746
-0.3600177 -0.5131503 3.0359597 16711746
-0.3157874 -0.5475120 3.1525936 16711746
-0.2622047 -0.5478600 3.1764951 16711746
-0.2914487 -0.5222569 3.0398736 16711746
0.0461876 -0.5324948 3.0905771 16711746
-0.0667628 -0.5453934 3.1147187 16711746
-0.5896991 -0.4834575 3.0520585 16711746
-0.8118326 -0.6254598 3.5625114 16711746
-0.3648483 -0.5295472 3.1079865 16711746
-0.0100212 -0.5792462 3.2688041 16711746
-0.5889258 -0.5008855 3.0325007 16711746
-0.2580596 -0.5123660 2.9978783 16711746
-0.7567422 -0.5145559 3.1174371 16711746
-0.9502755 -0.5636646 3.4299369 16711746
-0.5490538 -0.5618622 3.3418407 16711746
-0.4596550 -0.5203319 3.1285720 16711746
-0.0295361 -0.5443126 3.1126318 16711746
-0.5350147 -0.5562921 3.1090314 16711746
-0.3809738 -0.5335623 3.1265116 16711746
-0.2019917 -0.5412080 3.1363740 16711746
-0.1717909 -0.5114786 3.0529370 16711746
-0.4856640 -0.4925630 2.9985294 16711746
-0.0334248 -0.5468453 3.1357148 16711746
-0.1459984 -0.5517578 3.4525857 16711746
0.0637114 -0.5415159 3.1073205 16711746
0.1233444 -0.5426995 3.1241870 16711746
-0.0417908 -0.5224804 3.0504098 16711746
-0.1050361 -0.5207446 3.0702963 16711746
0.1318981 -0.5577956 3.1765153 16711746
-0.6205269 -0.4827561 3.0941787 16711746
-0.2336631 -0.5091788 3.0368278 16711746
-0.0672002 -0.5451235 3.1238334 16711746
-0.2627398 -0.5318680 3.0519557 16711746
-0.2131764 -0.5309003 3.0529583 16711746
-0.5629693 -0.4929844 3.0804806 16711746
-0.5621156 -0.5447087 3.2272141 16711746
-1.2435484 -0.6049152 3.6086979 16711746
-0.1158384 -0.5889349 3.3409891 16711746
-0.1297316 -0.5196930 3.0749187 16711746
-0.6020983 -0.5675189 3.3682277 16711746
-1.2558669 -0.6610454 3.8995366 16711746
-0.4450395 -0.6170228 3.6326344 16711746
-0.3363992 -0.5378003 3.1347609 16711746
-0.0785720 -0.5244641 3.0167050 16711746
-0.8177029 -0.6138334 3.5641925 16711746
0.2731914 -0.5434816 3.2277274 16711746
-0.4463350 -0.5381843 3.1690843 16711746
-0.5784291 -0.5114639 3.1241534 16711746
-0.0286906 -0.5204362 3.0338206 16711746
-0.6249599 -0.4950791 3.1126583 16711746
-0.6969844 -0.5101988 3.1589272 16711746
-0.1405761 -0.5189094 3.0648384 16711746
-0.3224697 -0.5131099 3.0397155 16711746
-0.3031965 -0.5082676 2.9897447 16711746
-0.5333707 -0.4754998 3.0048947 16711746
-0.3196371 -0.5109011 3.0162127 16711746
0.0120224 -0.5233532 3.0596194 16711746
-0.0283771 -0.5539247 3.1545382 16711746
-0.5879850 -0.4847962 3.0507441 16711746
-0.2602930 -0.5084527 3.0084126 16711746
-0.6053917 -0.4841228 2.9960837 16711746
-0.7054867 -0.5023670 3.0310512 16711746
0.0140935 -0.5193062 3.0198593 16711746
-0.2230701 -0.5291331 3.1291168 16711746
-0.2611014 -0.5333709 3.0928071 16711746
-1.2390988 -0.6061168 3.6030850 16711746
-0.4456316 -0.5136004 3.0746839 16711746
-0.5211928 -0.4845660 2.9687810 16711746
-0.0499197 -0.6087586 3.4460502 16711746
-0.5786843 -0.4821503 3.0253062 16711746
-0.2492663 -0.5232627 3.0613379 16711746
-0.1279177 -0.5372304 3.1385427 16711746
-0.3658551 -0.5231038 3.0886042 16711746
-0.2357152 -0.5274542 3.0977943 16711746
-0.0604880 -0.5558647 3.1703844 16711746
-0.1681452 -0.5501896 3.2153819 16711746
-0.5442593 -0.5224937 3.1624384 16711746
-0.2214403 -0.5321578 3.1161985 16711746
-0.5889519 -0.4896923 2.9813974 16711746
-0.0942903 -0.5965816 3.3690875 16711746
-0.0611971 -0.5159980 3.0341687 16711746
-0.3212968 -0.5610812 3.2330427 16711746
-0.2226388 -0.5313972 3.1194239 16711746
-0.4560194 -0.5483294 3.1511955 16711746
0.1452270 -0.5555468 3.1890690 16711746
-0.2879341 -0.5308264 3.0907078 16711746
0.0551941 -0.6075414 3.3727417 16711746
-0.2782059 -0.5667157 3.2555428 16711746
-0.6246590 -0.4861001 3.0650036 16711746
-0.0876974 -0.5591949 3.2119999 16711746
-0.5319319 -0.5533128 3.2666361 16711746
-0.1834915 -0.5286980 3.0737214 16711746
-0.0575622 -0.5898598 3.3833964 16711746
-0.6107921 -0.5351474 3.2047029 16711746
0.2680304 -0.5835359 3.3262949 16711746
-0.4199183 -0.6177623 3.5682504 16711746
-0.3839916 -0.5243979 3.1395659 16711746
-0.1269151 -0.5344151 3.0867660 16711746
-0.0341670 -0.5475977 3.1035163 16711746
-0.7352887 -0.5239907 3.1666446 16711746
-0.3372011 -0.5344778 3.1357725 16711746
-0.2926583 -0.5211703 3.0417435 16711746
-0.1366307 -0.5537765 3.1920531 16711746
-0.5761805 -0.4914327 3.0473590 16711746
-0.4507384 -0.5018503 3.0784171 16711746
-0.7243713 -0.5264860 3.1482575 16711746
-0.4261961 -0.6221186 3.5230372 16711746
-0.4541373 -0.6389794 3.6896904 16711746
-1.9548388 -0.7496289 4.4038091 16711746
-0.0080689 -0.6000937 3.3652222 16711746
-0.2694649 -0.7693783 4.2730913 16711746
-0.1844671 -0.5363310 3.1259542 16711746
-0.2701202 -0.5341333 3.1254373 16711746
-0.4477594 -0.5193947 3.1022975 16711746
-0.4285639 -0.5605486 3.2468221 16711746
0.0474802 -0.5468082 3.1483400 16711746
0.0825326 -0.5616014 3.1908190 16711746
-0.3540073 -0.5312775 3.1356587 16711746
-0.1531579 -0.5752391 3.3123634 16711746
-0.0260551 -0.5409243 3.1190493 16711746
-0.2581165 -0.5204196 3.0809247 16711746
-0.3877175 -0.5306761 3.1132851 16711746
-0.0948960 -0.5544320 3.1737309 16711746
-0.2481855 -0.5560073 3.2049227 16711746
0.0156586 -0.5210729 3.0633776 16711746
-0.4190121 -0.5443760 3.1525333 16711746
-0.5375500 -0.5513187 3.2775171 16711746
-0.0092482 -0.5777403 3.2713163 16711746
-0.3128980 -0.5313180 3.0853121 16711746
0.0434302 -0.5540304 3.1383433 16711746
-0.1600819 -0.5662423 3.2613976 16711746
-0.4446403 -0.5662619 3.2767706 16711746
-0.1864370 -0.5545921 3.2603021 16711746
-0.9094765 -0.5758732 3.4145625 16711746
-0.1103563 -0.5518191 3.1786985 16711746
-0.1906946 -0.5733486 3.2690234 16711746
0.2456479 -0.5859973 3.2976382 16711746
-0.2891189 -0.5274615 3.0914671 16711746
-0.7111634 -0.5367386 3.2164168 16711746
-0.5936205 -0.5713593 3.3082983 16711746
-0.1382652 -0.5379417 3.1705554 16711746
-0.2906372 -0.5417038 3.1530471 16711746
-0.2558980 -0.5483634 3.1604121 16711746
-0.6017331 -0.5337867 3.2029161 16711746
-0.1727911 -0.5973591 3.4571686 16711746
-0.3662877 -0.5726929 3.3129623 16711746
-0.1740867 -0.5497491 3.1938722 16711746
-0.5017258 -0.5369585 3.2052736 16711746
-0.1916659 -0.5577264 3.2463932 16711746
-0.2308861 -0.5245765 3.0854244 16711746
-0.2706812 -0.5184657 3.0845683 16711746
-0.0393982 -0.5208375 3.0533633 16711746
-0.0394529 -0.5582041 3.1894159 16711746
0.0330500 -0.6407909 3.5175962 16711746
-1.3992789 -0.9845884 3.7190573 16711746
-0.5049164 -0.5874043 3.4396110 16711746
-0.1228672 -0.5310789 3.0956652 16711746
-0.4151218 -0.5523086 3.1136203 16711746
-0.3342192 -0.5407083 3.1249626 16711746
-2.0330420 -1.1313257 4.3109560 16711746
-0.1713075 -0.5649927 3.2727535 16711746
-0.3051913 -0.6124581 3.4975684 16711746
0.0321723 -0.6399453 3.5162790 16711746
-0.2457433 -0.5818826 3.3328640 16711746
0.0834747 -0.6706346 3.7183616 16711746
0.1947981 -0.5700064 3.2381790 16711746
0.0856359 -0.6715641 3.7338858 16711746
-0.6126118 -0.4921512 3.0987129 16711746
-0.1155148 -0.5536990 3.1698341 16711746
-0.2920804 -0.5405005 3.1539502 16711746
-0.3258627 -0.6215020 3.4921875 16711746
-0.2025887 -0.5378044 3.1491976 16711746
-0.2602818 -0.6077910 3.4868059 16711746
-0.5444269 -0.6542972 3.7451127 16711746
-0.5433472 -0.4797949 3.0366366 16711746
-2.0148423 -1.3551569 4.6900492 16711746
-2.8965352 -1.2177880 4.8591008 16711746
0.0341431 -0.5927594 3.2866125 16711746
-0.7828428 -0.5277710 3.1481853 16711746
0.1261442 -0.5590243 3.1725447 16711746
0.0438397 -0.6036219 3.3282166 16711746
-0.3091568 -0.5505708 3.1680603 16711746
-0.1492583 -0.5347824 3.1148052 16711746
-0.1082267 -0.6924958 3.8374832 16711746
-0.4693421 -0.7025936 3.9596148 16711746
-0.0268784 -0.5602344 3.1777925 16711746
-0.0952217 -0.5297692 3.1164374 16711746
-0.3819752 -0.5226071 3.0748599 16711746
-0.4464875 -0.5121999 3.0772755 16711746
-0.1658709 -0.5545079 3.2132149 16711746
-0.4298799 -0.5604414 3.2489328 16711746
-0.0287040 -0.5461218 3.1387429 16711746
-0.1993401 -0.5367742 3.1507506 16711746
-0.2987980 -0.5479146 3.1581533 16711746
0.0174034 -0.5209615 3.0647724 16711746
-0.3459984 -0.5606259 3.2225351 16711746
-0.6273507 -0.4927658 3.1316662 16711746
-0.2775033 -0.5660861 3.2599947 16711746
-0.9017292 -0.5443616 3.3580682 16711746
-0.4504903 -0.5093252 3.0826573 16711746
-0.0180995 -0.5303125 3.0861361 16711746
-0.3476821 -0.5804233 3.3457980 16711746
-0.2990737 -0.5482602 3.1565857 16711746
-0.3858242 -0.5177945 3.0849791 16711746
-0.7516097 -0.5166818 3.1492012 16711746
-0.5564361 -0.5615460 3.3519080 16711746
-0.2969988 -0.5349702 3.1275537 16711746
-0.5711418 -0.5563300 3.3780870 16711746
-0.2632356 -0.5410054 3.1059961 16711746
-0.2153507 -0.5537297 3.1481636 16711746
-0.3417157 -0.5493540 3.1857903 16711746
-1.0881177 -0.6409291 3.4452114 16711746
-0.0820533 -0.5372097 3.1076248 16711746
-0.3386219 -0.6170066 3.5311594 16711746
-0.0876261 -0.5771310 3.3004353 16711746
-0.2521902 -0.5383101 3.1422341 16711746
-0.1721405 -0.5460929 3.2099180 16711746
-0.2712507 -0.5985017 3.4049616 16711746
-0.2778211 -0.5673716 3.2523489 16711746
-0.9308197 -0.6612878 3.5442061 16711746
0.1155539 -0.6717830 3.6787679 16711746
-0.4130663 -0.6213646 3.5266471 16711746
-0.2632251 -0.5332050 3.1261265 16711746
-0.6941327 -0.5779008 3.4036872 16711746
-0.7943690 -0.5308929 3.2629428 16711746
-0.3369358 -0.5388975 3.2491329 16711746
-0.2710554 -0.5351098 3.1267331 16711746
-2.0669520 -1.3792621 4.1499133 16711746
-0.0013471 -0.6826882 3.5976956 16711746
0.0320220 -0.5521843 3.1661158 16711746
0.0575031 -0.5383263 3.0684385 16711746
-0.4719816 -0.6055206 3.5054703 16711746
-0.4087560 -0.5291005 3.1200840 16711746
-0.3880035 -0.5180726 3.0829160 16711746
-0.1118974 -0.5887786 3.3506248 16711746
-0.1021763 -0.5345974 3.1006770 16711746
-0.1110487 -0.5520148 3.1794014 16711746
-0.5002234 -0.6157644 3.5420215 16711746
-0.0195423 -0.6328627 3.4637413 16711746
-0.4149781 -1.0013349 3.6952746 16711746
-2.6965632 -1.1697441 4.6966686 16711746
-1.0690572 -1.1062878 4.4460545 16711746
-0.4018302 -0.6104882 3.1624329 16711746
-0.4012267 -0.5891634 3.3818324 16711746
-0.3527644 -0.5325912 3.1317091 16711746
-0.1421869 -0.5428290 3.1452971 16711746
-0.1442376 -0.5451426 3.1396015 16711746
0.0411134 -0.5649256 3.1899800 16711746
-0.0699807 -0.5465602 3.1147079 16711746
0.0369063 -0.5524445 3.1644943 16711746
-0.4661164 -0.5219983 3.1197622 16711746
-0.0390727 -0.5528204 3.1217015 16711746
-0.3532507 -0.5175228 3.1938324 16711746
-1.3337222 -0.9532709 4.2957225 16711746
-0.1353526 -0.5525241 3.1948044 16711746
0.0171744 -0.6166388 3.4229262 16711746
-0.2850393 -0.5511698 3.1964271 16711746
-0.4509317 -1.0614210 3.8598208 16711746
-0.3251484 -0.9938808 3.5970478 16711746
-0.2805890 -0.5895730 3.3496895 16711746
0.5267695 -0.8384883 4.6406178 16711746
-0.3369934 -0.5247672 3.0943701 16711746
-0.7340443 -0.6053569 3.4876323 16711746
-0.1346235 -0.5512080 3.1978157 16711746
0.5731220 -0.6454021 3.5601540 16711746
0.1336995 -0.6721230 3.7319624 16711746
-0.2745289 -0.5832512 3.3394442 16711746
-1.1787407 -0.6532875 3.7649574 16711746
0.0196061 -0.5352527 3.1027813 16711746
0.2203195 -0.5801035 3.3232965 16711746
-0.2974227 -0.5334017 3.1299515 16711746
-0.2737231 -0.5829050 3.3401115 16711746
-1.1763961 -0.5832534 3.5050526 16711746
-0.5861183 -0.4912728 3.1131573 16711746
0.0945380 -0.6360060 3.5332665 16711746
-0.2899510 -0.5413586 3.1552556 16711746
-0.1084903 -0.5848356 3.3305886 16711746
-0.3970595 -0.6226467 3.5820181 16711746
-0.4110038 -0.5454774 3.1715324 16711746
-0.6291869 -0.5598438 3.3039978 16711746
-0.1957028 -0.5571342 3.2336822 16711746
-0.5735461 -0.5346437 3.1895962 16711746
-0.3895345 -0.5726066 3.3173361 16711746
-0.4138258 -0.5159345 3.0680633 16711746
-0.2608572 -0.5595332 3.2284925 16711746
-0.9534307 -0.5992533 3.5319812 16711746
0.0468126 -0.5839286 3.3224759 16711746
-0.0788137 -0.5721449 3.2732999 16711746
-0.5136664 -0.5839815 3.4319754 16711746
-0.5926264 -0.5387786 3.1911120 16711746
-0.5767630 -0.5331826 3.1916478 16711746
-0.1821303 -0.5799621 3.2020946 16711746
0.1905877 -0.5731428 3.2297585 16711746
-0.1032955 -0.5452859 3.1957741 16711746
-0.6849826 -0.5701934 3.3187869 16711746
-0.5600451 -0.5193964 3.1152203 16711746
-0.5414582 -0.5780562 3.0079315 16711746
-0.0868438 -0.5584937 3.1867936 16711746
-0.2893533 -0.5756526 3.3188953 16711746
-0.2147817 -0.5453410 3.1987710 16711746
-0.0069862 -0.5966887 3.3736656 16711746
-0.3435675 -0.6039236 3.4331276 16711746
-0.2698375 -0.5549188 3.1754270 16711746
-0.5535248 -0.5178263 3.1484268 16711746
-0.3952850 -0.6234323 3.5789809 16711746
-1.1410911 -0.5882673 3.4727786 16711746
-0.1198342 -0.5957519 3.3685493 16711746
-0.2651044 -0.6498590 3.7191916 16711746
-0.2797538 -0.5590487 3.1987226 16711746
-0.7022178 -0.5422586 3.2057331 16711746
-0.2648590 -0.6495678 3.7107098 16711746
-3.0205452 -1.7435030 4.8573833 16711746
-2.5321231 -1.5553485 4.4891515 16711746
-0.2291590 -0.5820031 3.3399756 16711746
-0.2801959 -0.5587736 3.1973312 16711746
-0.3514157 -0.7081420 4.0090418 16711746
-0.5302428 -0.7173698 4.0420032 16711746
-0.5286342 -0.8250560 4.4878135 16711746
-2.7872596 -1.4884840 6.2501264 16711746
-0.6103559 -0.5678439 3.3158317 16711746
-0.3219047 -0.5522465 3.1892109 16711746
-0.2563702 -0.5896510 3.3924348 16711746
-0.0870970 -0.5683102 3.2438271 16711746
0.1318952 -0.6731166 3.7287157 16711746
-0.7977319 -0.6182498 3.5530849 16711746
-0.0826525 -0.5689172 3.2188795 16711746
-0.3929414 -0.5567219 3.1828775 16711746
0.0550238 -0.6060058 3.3773131 16711746
-0.3573783 -0.5745526 3.2273483 16711746
-0.4161882 -0.5408062 3.2324493 16711746
-2.3831277 -0.9701306 4.2200422 16711746
-0.3454405 -0.5802514 3.3411767 16711746
-0.6530480 -0.5744796 3.3121939 16711746
0.1068287 -0.6334039 3.5295122 16711746
-0.3287179 -0.5609662 3.2251947 16711746
-0.3743354 -0.5821267 3.3496697 16711746
-0.2854984 -0.6025969 3.4464142 16711746
-0.4521255 -0.5317510 3.1263857 16711746
-0.5535954 -0.6165156 3.5775228 16711746
0.2378787 -0.6476007 3.6123610 16711746
-0.1063413 -0.5470873 3.1911113 16711746
-0.1034519 -0.5717251 3.2828279 16711746
-0.1812952 -0.5592346 3.2543564 16711746
-0.7383525 -0.5424958 3.2610097 16711746
-0.2468432 -0.5561499 3.2121611 16711746
-0.1519367 -0.5963953 3.3939927 16711746
-0.0234059 -0.5488052 3.2138410 16711746
-0.2594457 -0.5518672 3.1787443 16711746
-0.5608107 -0.5502877 3.2531629 16711746
-0.0420351 -0.5587968 3.2351007 16711746
-1.0491315 -0.6554580 3.6403239 16711746
-0.3523067 -0.5460755 3.1493940 16711746
-0.4596222 -0.5477382 3.1552503 16711746
-0.5896539 -0.5479562 3.2363122 16711746
-1.0554827 -0.5914052 3.3604321 16711746
-0.0785174 -0.5478474 3.1540663 16711746
-0.4988034 -0.6255583 3.5338397 16711746
-1.3326489 -0.9995789 3.8114405 16711746
-0.3512516 -0.5478811 3.1485403 16711746
-0.4054078 -0.5966271 3.4354885 16711746
-0.2990345 -0.5818357 3.2742205 16711746
-0.5613150 -0.7596721 3.8147254 16711746
-0.3001924 -0.5558212 3.1807218 16711746
-0.1081454 -0.6182824 3.4591043 16711746
-0.4477863 -0.5964857 3.2454014 16711746
0.0218077 -0.6176540 3.3373139 16711746
-0.0175960 -0.5430636 3.2278314 16711746
-0.4025810 -0.5582791 3.2548466 16711746
-0.8535706 -0.7557887 4.1899848 16711746
-0.9651311 -0.5843917 3.4527767 16711746
-0.2871809 -0.5801050 3.3220260 16711746
-0.2878391 -0.6283129 3.6073775 16711746
-0.0638030 -0.5457188 3.1820099 16711746
-0.6854278 -0.6930180 3.9582932 16711746
-0.2074212 -0.6054835 3.4757044 16711746
-1.0691842 -0.6240328 3.7086215 16711746
-0.2995767 -0.5477229 3.1587336 16711746
-0.0647560 -0.5958138 3.3671074 16711746
-0.5281306 -0.5123492 3.0841424 16711746
-0.0320909 -0.5786293 3.2864618 16711746
-0.6029394 -0.5681102 3.3281584 16711746
-0.2074296 -0.6067644 3.4760044 16711746
-0.2686405 -0.5573949 3.2071037 16711746
-0.5357923 -0.5078579 3.0923083 16711746
-0.1306875 -0.5570897 3.2374156 16711746
-0.2712098 -0.5983339 3.4041789 16711746
-0.5855052 -0.5293233 3.2011850 16711746
-2.3080809 -1.4628177 4.3207636 16711746
-0.2607686 -0.6101013 3.4698231 16711746
-2.2087433 -1.1053110 4.7351580 16711746
-0.2895288 -0.8186129 3.2948303 16711746
-0.3308600 -1.0583746 3.6948035 16711746
-0.1086210 -0.6457530 3.5880828 16711746
-0.2089498 -0.6353740 3.6089251 16711746
-0.3509859 -0.5913402 3.3805001 16711746
-0.4199958 -0.5827186 3.3695550 16711746
0.0328549 -0.6411179 3.5147195 16711746
-0.6711363 -0.6917899 3.9231076 16711746
-0.1196196 -0.5505605 3.2325306 16711746
-0.3909142 -0.5480431 3.1550572 16711746
-0.0558042 -0.5593627 3.2407687 16711746
-0.4550969 -0.5316553 3.1398304 16711746
0.0536598 -0.6009209 3.3450067 16711746
-1.7311254 -0.7164055 3.8577108 16711746
-0.6186284 -0.5645283 3.3475668 16711746
-0.7017353 -0.6945428 4.0003686 16711746
-0.1058960 -0.6471387 3.6025357 16711746
-0.4090662 -0.5941473 3.4473603 16711746
-0.1505087 -0.5740381 3.3204877 16711746
-0.1867737 -0.5859607 3.3479667 16711746
-0.1242652 -0.5952541 3.3885288 16711746
-0.6667748 -0.5525668 3.1835542 16711746
0.8348954 -0.8675438 4.6267076 16711746
-0.0572464 -0.6894425 3.8440599 16711746
-0.1603700 -0.5763071 3.3252110 16711746
-0.1932801 -0.6705453 3.7854748 16711746
-0.3694825 -0.5438116 3.1694643 16711746
-0.3510879 -0.5720137 3.2855697 16711746
-1.9410218 -0.7170849 4.0544686 16711746
-0.3284876 -0.5841609 3.3506114 16711746
-2.8174555 -1.3902531 4.8632731 16711746
0.0984494 -0.6346180 3.5412579 16711746
-0.3124864 -0.5922657 3.3338199 16711746
-0.1765588 -0.6059029 3.4426458 16711746
-0.0632294 -0.5774584 3.2325106 16711746
-0.7874966 -0.6898575 3.8469627 16711746
-0.1597122 -0.5775382 3.3261299 16711746
-0.1661816 -0.5908362 3.3946764 16711746
-0.2995744 -0.5530063 3.1996248 16711746
-0.0719356 -0.6185731 3.4320359 16711746
-0.2606207 -0.5594031 3.2290983 16711746
-0.2873406 -0.5597221 3.2128477 16711746
-0.0931616 -0.5959784 3.3673952 16711746
-0.0829429 -0.5656865 3.2511747 16711746
-0.1735680 -0.5623760 3.2702491 16711746
-0.2687700 -0.5601871 3.2006023 16711746
-0.2672558 -0.5713462 3.2494926 16711746
-0.0942115 -0.5961570 3.3685796 16711746
-0.2430732 -0.5639352 3.2010117 16711746
-0.3669320 -0.5577911 3.2108965 16711746
-0.4841410 -0.5754821 3.3614368 16711746
-0.3643018 -0.5727472 3.3090236 16711746
-0.7562615 -0.5473498 3.2897692 16711746
0.0158099 -0.5794139 3.2888198 16711746
-0.5755413 -0.5334555 3.1931298 16711746
-0.0309157 -0.6196703 3.4407284 16711746
-0.3085789 -0.6109275 3.4915767 16711746
-0.0420749 -0.5705215 3.2621777 16711746
-0.2895989 -0.5717434 3.3008227 16711746
-0.6055708 -0.5387769 3.1755106 16711746
-0.9548555 -0.5978624 3.5311363 16711746
-0.2460383 -0.5552787 3.2139874 16711746
-0.2419293 -0.6038118 3.4515772 16711746
-0.6142862 -0.5477949 3.2684965 16711746
-0.0757305 -0.6421843 3.5209703 16711746
-0.2729952 -0.5874865 3.3597910 16711746
-0.0390279 -0.7228081 3.5217974 16711746
-0.0699252 -0.5897189 3.3291650 16711746
-0.7007322 -0.5459045 3.2837436 16711746
-0.3808484 -0.5731462 3.3276262 16711746
-0.0495616 -0.6566637 3.5120671 16711746
-0.2701428 -0.5856395 3.3211591 16711746
-0.2560616 -0.5953051 3.3597069 16711746
-0.0463166 -0.7209970 3.5074103 16711746
-0.3947757 -0.6248271 3.5874240 16711746
-0.2024582 -0.5858665 3.3864777 16711746
-0.3310876 -0.5879739 3.2662334 16711746
-0.9954984 -0.5569116 3.3692255 16711746
-0.8111615 -0.5838667 3.4302013 16711746
-0.2616092 -0.5954903 3.4102175 16711746
-0.0255000 -1.0875113 3.7069161 16711746
-0.4030314 -0.5655058 3.2334263 16711746
-0.3990073 -0.5674359 3.2272503 16711746
-0.0773711 -0.5638387 3.2373021 16711746
-0.1871119 -0.5689980 3.2859919 16711746
-0.4055833 -0.5762681 3.3385208 16711746
-0.1432846 -0.7838934 4.2531567 16711746
-0.8584750 -0.6628131 3.5136752 16711746
-0.4220050 -0.5806528 3.3737741 16711746
-3.5947082 -1.7485653 5.4939904 16711746
-0.5879843 -0.9229918 4.6044159 16711746
-0.6695488 -0.6924387 3.9209623 16711746
-0.1342172 -0.6519156 3.6569738 16711746
-0.1591572 -0.6155273 3.4800222 16711746
-0.5992684 -0.6221274 3.6206489 16711746
-0.6774313 -0.5443430 3.2274690 16711746
-0.3215416 -0.5721753 3.2654026 16711746
-0.0872646 -0.5760607 3.2969661 16711746
-0.4104768 -0.6181757 3.5294912 16711746
0.0162632 -0.6272660 3.4734957 16711746
0.1500733 -0.6822838 3.7669029 16711746
0.0609458 -0.6049707 3.3808613 16711746
-0.0269522 -0.6487454 3.5443332 16711746
-0.3071169 -0.5766175 3.3164845 16711746
-0.0284859 -0.6192166 3.4450104 16711746
-0.1064619 -0.6455600 3.5979621 16711746
-0.4994040 -0.6187345 3.5438619 16711746
-0.1835992 -0.5637369 3.2666659 16711746
-0.7541390 -0.7495284 3.9816287 16711746
-0.2754036 -0.5843822 3.3366191 16711746
-0.2639409 -0.5963259 3.4071171 16711746
-0.3419013 -0.5845995 3.3248894 16711746
-0.2090235 -0.5583910 3.2807915 16711746
-0.3847788 -0.5702376 3.3230124 16711746
-0.4516273 -0.5774680 3.3940380 16711746
-0.1169817 -0.6352059 3.5370989 16711746
-0.0112123 -0.5787805 3.2691350 16711746
-0.5829090 -0.5252402 3.2720132 16711746
-0.2855380 -0.5802330 3.3195345 16711746
-0.1626485 -0.5802582 3.3169770 16711746
-0.3042061 -0.5837480 3.3424852 16711746
0.0404147 -0.6125472 3.3553302 16711746
-0.1498245 -0.5980822 3.3967378 16711746
0.0110310 -0.6178182 3.4114923 16711746
0.3523077 -0.6539203 3.6369462 16711746
-0.1522994 -0.5989692 3.3939378 16711746
-0.3568625 -0.5775715 3.3195677 16711746
-0.0740531 -0.5493432 3.3351352 16711746
-0.2201361 -0.5995347 3.3787265 16711746
0.2343771 -0.6446473 3.5785792 16711746
-0.2356035 -0.6788168 3.7937279 16711746
-0.1112103 -0.5522193 3.2244189 16711746
-0.3029887 -0.5946861 3.3969970 16711746
-0.0768021 -0.5718659 3.2913382 16711746
-0.1578464 -0.5669737 3.2935643 16711746
0.2926670 -0.6319020 3.5514743 16711746
0.0116160 -0.6182432 3.4147539 16711746
-0.0460643 -0.6068361 3.4238033 16711746
-0.0278417 -0.6384689 3.4999886 16711746
0.2216589 -0.6488460 3.5965929 16711746
-0.2180433 -0.6771036 3.8706002 16711746
-0.1811260 -0.5950470 3.3946781 16711746
-0.0331089 -0.5536180 3.2502129 16711746
-0.4426844 -0.6351243 3.6854303 16711746
-0.0840627 -0.5728043 3.3135111 16711746
-0.0087952 -0.5990205 3.3663144 16711746
-0.0547197 -0.6103534 3.4162550 16711746
-0.3644926 -0.5748751 3.3054609 16711746
-0.4282688 -0.5642424 3.2759438 16711746
-0.6866651 -0.6920647 3.9577801 16711746
-0.3050216 -0.5715128 3.2695348 16711746
-0.2191982 -0.6668100 3.8353362 16711746
-0.1031630 -0.6481695 3.6122451 16711746
-0.0972890 -0.7210672 3.9350553 16711746
0.0150006 -0.5969145 3.3546102 16711746
-0.6419944 -0.6368791 3.6824446 16711746
-0.5705702 -0.5354015 3.1867375 16711746
-0.1075367 -0.6480314 3.6002851 16711746
-0.2243223 -0.6373239 3.6293228 16711746
-0.4938881 -0.7256316 4.0592160 16711746
-0.2155524 -0.7582664 4.1853318 16711746
-0.2264984 -0.6681660 3.8077571 16711746
-0.1324401 -0.9532790 4.8519492 16711746
1.8397505 -1.7540084 6.5196009 16711746
-0.2366916 -0.5915014 3.3588097 16711746
-0.2757612 -0.5847717 3.3343735 16711746
0.1203483 -0.5954291 3.3704367 16711746
0.0027866 -0.6213703 3.4485950 16711746
-0.3754078 -0.5808948 3.3544309 16711746
-0.1754113 -0.6012012 3.4256876 16711746
-0.4264077 -0.6028608 3.4645321 16711746
-0.1623341 -0.6171810 3.4801857 16711746
-0.0780451 -0.6935685 3.7489119 16711746
-0.1276385 -0.5971705 3.3841610 16711746
-0.1636588 -0.6405414 3.6174562 16711746
-0.4849401 -0.5753219 3.3657038 16711746
-0.1645515 -0.5706698 3.2965577 16711746
-0.5031104 -0.6168319 3.5540612 16711746
0.1699861 -0.8676444 4.6613450 16711746
-2.2208872 -0.7357790 4.2020764 16711746
-0.5985221 -0.6230093 3.6189516 16711746
-0.5095302 -0.5856098 3.4232295 16711746
-0.4377175 -0.5999502 3.4904590 16711746
0.0063550 -0.5818802 3.2768223 16711746
-0.4395700 -0.6443391 3.6333771 16711746
-0.4411450 -0.5719820 3.3383546 16711746
-0.4723039 -0.6264087 3.5804722 16711746
-0.2723216 -0.6500669 3.6994231 16711746
-0.1309797 -0.6468602 3.6241088 16711746
-0.0487519 -0.6377386 3.4819095 16711746
1.5068680 -0.9449049 5.2365584 16711746
-0.3052433 -0.9023814 3.4082487 16711746
-0.2729685 -0.5890729 3.3530977 16711746
-0.2747141 -0.7647661 4.2370682 16711746
-0.1413124 -0.7831638 4.2894702 16711746
-0.1013147 -0.7221732 3.9025526 16711746
-0.1732769 -0.5998251 3.4279971 16711746
-0.0724470 -0.6416017 3.5272918 16711746
-0.0527684 -0.6097512 3.4054387 16711746
-0.0293573 -0.6193090 3.4436412 16711746
-0.1091341 -0.6276766 3.4702635 16711746
0.2756056 -0.6337325 3.5352161 16711746
-0.0481968 -0.5899961 3.3185682 16711746
0.1091076 -0.6557992 3.6393898 16711746
0.3439117 -0.6260555 3.6033523 16711746
0.0150625 -0.5977749 3.3473248 16711746
-0.0037410 -0.5861921 3.2045236 16711746
-0.0729861 -0.5675684 3.2835221 16711746
-0.2449419 -0.5827978 3.3334813 16711746
0.0327991 -0.5763593 3.2712064 16711746
-0.2094339 -0.6121080 3.4355979 16711746
-0.1618626 -0.5754857 3.3252409 16711746
-0.3424894 -0.6270638 3.5609319 16711746
0.3175981 -0.7541004 3.9872987 16711746
-0.2902546 -0.6193342 3.5305624 16711746
-0.1908160 -0.5681095 3.3063760 16711746
-0.3076828 -0.5766132 3.3163276 16711746
-0.7366465 -0.6456165 3.6715372 16711746
-0.2382382 -0.6079115 3.4814632 16711746
-0.4510430 -0.6443520 3.6487029 16711746
0.1439925 -0.6841407 3.7577851 16711746
-0.3963487 -0.5781973 3.3510768 16711746
0.1804947 -0.6158299 3.4502096 16711746
-0.3951398 -0.6247839 3.5821035 16711746
-0.2469711 -0.5821103 3.3331368 16711746
-0.1076471 -0.6208430 3.4535093 16711746
-0.6033620 -0.8829870 3.5587583 16711746
-0.0038714 -0.5752797 3.2798605 16711746
-0.2927015 -0.5999741 3.4157798 16711746
-0.2737944 -0.6502299 3.6878486 16711746
-0.1367998 -0.5940514 3.3869488 16711746
-0.2410357 -0.6040452 3.4463837 16711746
-0.1615779 -0.5798494 3.3204615 16711746
-0.5107548 -0.5846655 3.4243598 16711746
-0.4079198 -0.5966220 3.4403496 16711746
-0.6370295 -0.6089661 3.5086386 16711746
-0.2659569 -0.6362835 3.6355891 16711746
-0.1516658 -0.6628518 3.7214620 16711746
-0.1433525 -0.6030496 3.4056568 16711746
-0.1616654 -0.6166775 3.4774683 16711746
-0.0493658 -0.6348918 3.4807322 16711746
0.3243310 -0.6536042 3.5988870 16711746
-0.3205920 -0.7065970 3.9645126 16711746
-0.1034270 -0.6485960 3.4958317 16711746
-0.1431890 -0.6083261 3.3926713 16711746
-0.1369238 -0.5890464 3.3715997 16711746
0.3879743 -0.7615128 4.1169114 16711746
-0.3026222 -0.5960231 3.3941844 16711746
-0.1128834 -0.5813998 3.3407269 16711746
-0.0246989 -0.5630764 3.2478933 16711746
1.2444047 -0.9173017 4.9285264 16711746
-0.3624267 -0.6220097 3.5670846 16711746
-0.1914567 -0.8382111 4.5514240 16711746
-0.5348598 -0.8496467 4.6579576 16711746
-0.3452726 -0.5807111 3.3377991 16711746
0.0586433 -0.6060082 3.3753579 16711746
-0.1989453 -0.5785962 3.3461020 16711746
-0.0743057 -0.6025485 3.3773246 16711746
-0.0541700 -0.5864573 3.3182247 16711746
0.0644459 -0.6229365 3.4643111 16711746
-0.1912579 -0.6123160 3.4743419 16711746
-0.3815542 -0.5905572 3.3971376 16711746
-0.0534263 -0.5709876 3.2844739 16711746
-0.3004205 -0.6052476 3.4593239 16711746
-0.0200258 -0.6319355 3.4745951 16711746
-0.4229607 -0.5571499 3.2781911 16711746
-0.5631730 -0.5630596 3.3837376 16711746
0.0557522 -0.5995674 3.3467648 16711746
-0.0688976 -0.5710031 3.2691720 16711746
-0.0186790 -0.6321867 3.4737017 16711746
-0.2934130 -0.5846553 3.3518288 16711746
-0.3808150 -0.5751252 3.3124907 16711746
-0.1975623 -0.5870832 3.3437355 16711746
-0.5403317 -0.5567066 3.3646288 16711746
-0.1638969 -0.5819581 3.3111730 16711746
-0.0445943 -0.5767093 3.3013840 16711746
-0.5194301 -0.5623065 3.3589189 16711746
-0.1652661 -0.6169913 3.4810126 16711746
-0.0920491 -0.6238815 3.4270144 16711746
-0.4120072 -0.5834013 3.3888052 16711746
-0.0733371 -0.7022810 3.4989126 16711746
-0.3409404 -0.6166908 3.5309572 16711746
-0.2860593 -0.6018769 3.4513917 16711746
-0.0908346 -0.5766064 3.3210783 16711746
-0.1014011 -0.5989245 3.3911335 16711746
-0.5220958 -0.5765978 3.3987129 16711746
-0.1592959 -0.6158537 3.4775045 16711746
0.0425852 -0.6381375 3.5284286 16711746
-0.3933949 -0.5799325 3.3420637 16711746
-0.4618830 -0.5589659 3.3173809 16711746
-0.1649329 -0.5894142 3.3970323 16711746
-0.0160942 -0.5757364 3.2725196 16711746
-0.0180080 -0.5762348 3.3044384 16711746
-0.5250037 -0.5743881 3.4040761 16711746
-0.1248507 -0.6131549 3.4443724 16711746
-0.0274715 -0.5940467 3.3629372 16711746
-0.0817284 -0.5881124 3.3591275 16711746
-0.3956834 -0.5862452 3.3678756 16711746
-0.3652613 -0.5721753 3.3096323 16711746
-0.5922474 -0.5861076 3.4327343 16711746
-0.0955478 -0.5976340 3.3634679 16711746
-0.4953797 -0.5530844 3.3358285 16711746
-0.6032591 -0.5840032 3.4435873 16711746
-0.1828206 -0.6058195 3.5011916 16711746
-0.1261634 -0.5858222 3.3523521 16711746
-0.0920185 -0.6248099 3.4708712 16711746
-0.4433971 -0.6114517 3.5188751 16711746
-0.5319801 -0.5612137 3.3565564 16711746
-0.0074794 -0.6833884 3.7507992 16711746
-0.4191267 -0.8447936 3.4243462 16711746
-0.5078931 -0.5853810 3.4201086 16711746
-0.2233111 -0.6387309 3.6259465 16711746
-0.6560932 -0.6352018 3.7016289 16711746
0.0690538 -0.5962353 3.3216705 16711746
-0.6118053 -0.6143311 3.5672863 16711746
-0.1541138 -0.5838003 3.3464770 16711746
0.0396205 -0.6936354 3.5774012 16711746
-0.0079145 -0.5777256 3.2723455 16711746
-0.1655910 -0.6245043 3.5012991 16711746
-0.3168318 -0.5963906 3.3774922 16711746
-0.3130126 -0.6014648 3.3614995 16711746
-0.5895256 -0.5918317 3.4688570 16711746
-0.1721140 -0.5773621 3.4603584 16711746
-0.0693146 -0.6323529 3.4842072 16711746
-0.4984162 -0.5710174 3.3554902 16711746
-0.1613306 -0.6170973 3.4740360 16711746
-0.1174333 -0.6347938 3.5382557 16711746
-0.8313800 -0.7564253 4.1475892 16711746
-0.0378311 -0.5750031 3.2745755 16711746
-0.4484926 -0.6318577 3.6207554 16711746
-0.1686823 -0.6281961 3.4841659 16711746
-0.2193002 -0.5955318 3.3890831 16711746
-0.2041979 -0.6588003 3.7260499 16711746
-0.0448754 -0.5728410 3.2807128 16711746
-0.7363018 -0.7203032 3.9865205 16711746
-0.7449120 -0.7208468 4.0035558 16711746
-0.1912409 -0.6153514 3.4565909 16711746
-1.5936950 -0.8347921 4.6670938 16711746
-0.5960922 -0.5820048 3.4428315 16711746
0.1722108 -0.6098448 3.4118564 16711746
-0.6323955 -0.6384355 3.6715035 16711746
-0.5078417 -0.6176684 3.5630744 16711746
-0.5309702 -0.5618195 3.3570833 16711746
-0.4241219 -0.6292074 3.5957639 16711746
-0.2786891 -0.6070518 3.4441519 16711746
0.0389994 -0.6398902 3.5226736 16711746
-0.4601883 -0.6316444 3.5502167 16711746
-0.2162204 -0.5742492 3.3198767 16711746
-0.3313605 -0.5999748 3.4221168 16711746
-0.5345362 -0.7337561 4.0541568 16711746
-0.4405493 -0.6474733 3.6176472 16711746
-0.4789957 -0.5787517 3.3581908 16711746
-0.0740116 -0.5961210 3.3594961 16711746
-0.0376122 -0.6304357 3.4861178 16711746
-0.3007616 -0.5943365 3.3906474 16711746
-0.6686665 -0.5832403 3.4247391 16711746
0.0187481 -0.6162726 3.4254167 16711746
0.1865238 -0.6142452 3.4556909 16711746
-0.2179895 -0.5922056 3.4227743 16711746
-0.5384779 -0.5675844 3.3353915 16711746
-0.2062126 -0.6079517 3.4704552 16711746
-0.0803707 -0.6164194 3.4595001 16711746
-0.5213043 -0.5847879 3.3420208 16711746
0.2422865 -0.6448365 3.5959933 16711746
-0.5484791 -0.5698277 3.3734863 16711746
-0.9933610 -0.6661829 3.7586987 16711746
-0.4156630 -0.5892307 3.4598322 16711746
-0.5157521 -0.6071688 3.5077167 16711746
-0.4251282 -0.5909432 3.4089823 16711746
-0.4167356 -0.6496909 3.7488484 16711746
-0.4577336 -0.6925585 3.8584139 16711746
-0.9801851 -1.0894061 4.2500601 16711746
-0.1759270 -0.6024294 3.4206450 16711746
-0.0799176 -0.5909913 3.3278308 16711746
0.4138867 -1.8292319 5.6229978 16711746
-0.7994382 -0.6907068 3.8478894 16711746
-0.2644645 -0.5861785 3.3641629 16711746
-0.0756212 -0.5893659 3.3337491 16711746
-0.3624884 -0.6054571 3.4462175 16711746
0.0187474 -0.6162439 3.4252081 16711746
-0.1002281 -0.7148242 3.9218121 16711746
-0.4059490 -0.6885667 3.8667872 16711746
-0.4984534 -0.6095384 3.5034845 16711746
-0.0754291 -0.6168627 3.4249172 16711746
-0.3946325 -0.6280766 3.5819325 16711746
0.0029020 -0.5972548 3.3762987 16711746
-0.3114886 -0.6152576 3.4850862 16711746
-0.4114895 -0.6144155 3.5189781 16711746
-0.7281803 -0.6446409 3.6599541 16711746
-0.5049549 -0.5879675 3.4157693 16711746
-0.5215300 -0.6022106 3.5016348 16711746
-0.6808273 -0.6278468 3.6202047 16711746
0.5813092 -0.7008465 3.8822472 16711746
-0.8114647 -0.6259744 3.5644495 16711746
-0.6120347 -0.6027507 3.5171607 16711746
-0.4999972 -0.5706837 3.3583174 16711746
-0.4806070 -0.6057702 3.5040944 16711746
-0.5336561 -0.5606856 3.3596115 16711746
-0.4597543 -0.6575365 3.5542648 16711746
-0.8166062 -0.6236724 3.5719421 16711746
-0.4537793 -0.6567901 3.7475023 16711746
-0.3712220 -0.6068227 3.4816155 16711746
-0.1603172 -0.6328145 3.5463548 16711746
-0.2450888 -0.6510413 3.6260748 16711746
-0.1556984 -0.6815183 3.8191950 16711746
-0.3368879 -0.6130785 3.5127208 16711746
-0.4184520 -0.5847610 3.3648398 16711746
-0.6028435 -0.5652406 3.3676710 16711746
-0.1240028 -0.6038488 3.4203331 16711746
-0.2441791 -0.6458312 3.6611645 16711746
-0.0469749 -0.6672332 3.7185576 16711746
-0.4302128 -0.5985276 3.4691718 16711746
-0.6131079 -0.5962736 3.4931343 16711746
-0.2939435 -0.6247661 3.5384994 16711746
-0.2625829 -0.5963233 3.4079616 16711746
0.1462275 -0.6242171 3.4890196 16711746
-0.4304680 -0.5996897 3.4667192 16711746
-0.4640364 -0.6321483 3.5512919 16711746
-0.1257785 -0.6940069 3.8537810 16711746
-0.6245965 -0.5974925 3.5348969 16711746
-0.7913556 -0.7460536 3.8378694 16711746
-0.4501545 -0.7633851 3.5864670 16711746
-0.6040151 -0.5947102 3.4699733 16711746
-0.0870346 -0.6603387 3.6608176 16711746
-0.0027609 -0.5856554 3.3066812 16711746
-0.5679391 -0.5881206 3.3452871 16711746
-0.0190200 -0.6481008 3.5080929 16711746
-0.1427940 -0.6209354 3.4566097 16711746
-0.0061127 -0.6432468 3.5312915 16711746
-0.4309173 -0.5949114 3.4381049 16711746
-0.0667329 -0.6640419 3.7352209 16711746
-0.0673379 -0.5910338 3.3728435 16711746
-0.2607113 -0.6141442 3.5069933 16711746
-0.1443247 -0.6208264 3.4952855 16711746
-0.1173130 -0.6354769 3.5378428 16711746
-0.2681040 -0.6322123 3.6618202 16711746
-0.6072065 -0.5796839 3.4144192 16711746
-0.1811012 -0.5925112 3.4047613 16711746
1.6256814 -0.9067200 5.2407312 16711746
-0.1845095 -0.6496635 3.6432257 16711746
-0.3994739 -0.6391052 3.7051768 16711746
-0.1860355 -0.6478904 3.6656234 16711746
-0.3849925 -0.5874012 3.3659790 16711746
0.1774712 -0.8736341 4.6769547 16711746
-0.7223012 -0.6553698 3.7115080 16711746
-0.3876032 -0.7107214 3.9689567 16711746
-0.1416103 -0.6581234 3.5703874 16711746
-0.0701614 -0.6328755 3.4825907 16711746
-0.4241488 -0.6046439 3.4863880 16711746
0.0069843 -0.6295243 3.4547141 16711746
-0.3846444 -0.6055946 3.4877362 16711746
-0.4717495 -0.5966508 3.4514136 16711746
-0.4752172 -0.6022538 3.4763167 16711746
0.1372533 -0.6511762 3.6475990 16711746
-0.2122392 -0.6200092 3.4953518 16711746
-0.3281789 -0.6165444 3.5289841 16711746
-0.0880010 -0.6021587 3.3865275 16711746
-0.4606432 -0.6598982 3.5479248 16711746
-0.3559575 -0.6229459 3.5547175 16711746
-0.8387802 -0.6306211 3.6359937 16711746
-0.5477701 -0.5717294 3.3716626 16711746
-0.7501902 -0.6141601 3.5214896 16711746
0.0027129 -0.6411279 3.5421283 16711746
-0.3357341 -0.6176564 3.5264251 16711746
-0.0718851 -0.6663623 3.7069066 16711746
-0.8402320 -0.6471821 3.7294219 16711746
-0.6980390 -0.6239865 3.6452448 16711746
-0.5982544 -0.6223255 3.6232767 16711746
-0.1245587 -0.6130476 3.4434028 16711746
-0.0691593 -0.6323844 3.4837105 16711746
-0.2343278 -0.6299946 3.5873349 16711746
-0.1792880 -0.6317303 3.5773678 16711746
-0.3679083 -0.5997097 3.4582653 16711746
0.3262077 -0.6655044 3.7382331 16711746
-0.9665642 -0.6309215 3.7082348 16711746
-0.6763899 -0.6301737 3.6123993 16711746
-0.3896451 -0.6297361 3.5620451 16711746
-0.2487784 -0.6011993 3.4868379 16711746
-0.3539965 -0.6293430 3.5906024 16711746
-0.4697929 -0.6085074 3.4958818 16711746
0.0241840 -0.6074110 3.3665471 16711746
-0.6106200 -0.6425363 3.7067509 16711746
-0.2824241 -0.6412988 3.5315382 16711746
-0.4582521 -0.6103122 3.4871013 16711746
-0.3778913 -0.6697950 3.8160088 16711746
-1.4183651 -0.8221751 4.4306412 16711746
-0.7869396 -0.6187519 3.5167358 16711746
-1.6331370 -0.7829238 4.4147596 16711746
-0.3807281 -0.5924157 3.3963776 16711746
-0.6493273 -0.6044869 3.5223536 16711746
-0.3566384 -0.6234543 3.5552194 16711746
-0.2653784 -0.6151531 3.5074201 16711746
-0.2679789 -0.6186450 3.4964807 16711746
-0.3426666 -0.6816295 3.8741488 16711746
-0.3557546 -0.6127526 3.4695809 16711746
-0.5085172 -0.6773747 3.7836227 16711746
-0.6610880 -0.5930500 3.4720635 16711746
-0.5551336 -0.5686283 3.3747685 16711746
-0.4120341 -0.6115174 3.5243037 16711746
-0.4693437 -0.6064405 3.4991968 16711746
-0.1863966 -0.6492137 3.6603794 16711746
-0.8095170 -0.6275358 3.5608163 16711746
-2.5842893 -1.8615128 4.9867845 16711746
-0.1944280 -0.7069191 4.0016427 16711746
-0.3409199 -0.6164635 3.5253823 16711746
-0.4083056 -0.6188245 3.5269673 16711746
-0.4846568 -0.6037447 3.5102313 16711746
-0.0558682 -0.6767404 3.7519803 16711746
-0.4151056 -0.6738482 3.8820460 16711746
-0.4589064 -0.6374218 3.5347822 16711746
-0.6107265 -0.6331503 3.6553135 16711746
-0.5072497 -0.7276913 4.1231480 16711746
-0.1078713 -0.8433250 4.0195789 16711746
-3.2733576 -1.5323459 7.5601835 16711746
-0.2629704 -0.9797680 5.3237710 16711746
-0.5940260 -0.5880753 3.4862883 16711746
-0.8973219 -0.6821085 3.8905668 16711746
-0.1398390 -0.6878515 3.8336449 16711746
-0.5966033 -0.6062109 3.5308456 16711746
-0.5854057 -0.5865427 3.4711006 16711746
-0.2727884 -0.6489826 3.6965289 16711746
-0.2159094 -0.6375630 3.6240559 16711746
-0.1250692 -0.6728227 3.7481179 16711746
-0.1310208 -0.6513205 3.6539569 16711746
-0.2604494 -0.6468053 3.6660948 16711746
-0.2597452 -0.6134719 3.5077646 16711746
-0.0324817 -0.6917397 3.8207033 16711746
-0.3717329 -0.6149646 3.5306809 16711746
-0.7836558 -0.6406217 3.6743405 16711746
-1.0474741 -0.6556598 3.8081737 16711746
-0.4524403 -0.6743267 3.8343303 16711746
-0.4747797 -0.6158257 3.6902564 16711746
-0.2237531 -0.6663272 3.7674987 16711746
-0.4993767 -0.6183124 3.5463743 16711746
-0.2898859 -0.6200176 3.5273411 16711746
-0.1357383 -0.6261596 3.4949899 16711746
-0.1167385 -0.6341604 3.5405219 16711746
-0.0762519 -0.6432481 3.5180905 16711746
0.0653751 -0.6680234 3.7833118 16711746
-0.3600399 -0.6242200 3.5498378 16711746
-0.1590705 -0.6186850 3.5259480 16711746
-0.3902144 -0.7046567 3.9990306 16711746
-0.3131671 -0.6526023 3.7098143 16711746
-0.3282693 -0.6345988 3.6025248 16711746
-0.4195139 -0.6404096 3.6652677 16711746
-0.4658902 -0.6780514 3.8348670 16711746
-0.3635504 -0.6574458 3.7560239 16711746
-1.7495700 -0.7887157 4.5272217 16711746
-0.3993748 -0.6760985 3.8275461 16711746
-0.3199244 -0.6139181 3.5545781 16711746
-0.0807570 -0.6832854 3.8177540 16711746
-0.6237344 -0.6099372 3.5787547 16711746
-0.6084543 -0.6345711 3.6507640 16711746
-0.3934994 -0.6472824 3.6660252 16711746
-0.4110511 -0.6870865 3.8825839 16711746
-0.1768529 -0.6749895 3.8081281 16711746
-0.4181674 -0.6453379 3.6422706 16711746
-0.5257639 -0.7684438 4.2385001 16711746
-0.0741893 -0.6919121 3.7871819 16711746
-0.3993295 -0.6761939 3.8203516 16711746
-0.8478066 -0.6983447 3.8194780 16711746
-0.4604173 -0.6973706 3.9209948 16711746
-0.1576424 -0.7144709 3.9772592 16711746
-0.3652919 -1.1803387 4.0560250 16711746
2.7502210 -1.8251541 6.0898628 16711746
-0.2137868 -0.6836023 3.8645828 16711746
-0.1783033 -0.8498861 4.6005893 16711746
-0.2604382 -0.9762915 5.3240509 16711746
-0.0290802 -0.6499137 3.5402129 16711746
-0.3082690 -0.6415900 3.6305833 16711746
-0.1163721 -0.6673952 3.7345769 16711746
-0.2263321 -0.6352794 3.6141131 16711746
-0.3433841 -0.6246793 3.5683804 16711746
-0.2219805 -0.6309503 3.5801177 16711746
-0.1027904 -0.7172137 3.9098926 16711746
-0.3303091 -0.6990798 3.9094987 16711746
-0.5810527 -0.6008927 3.5225048 16711746
-0.0091643 -0.7247218 4.0012774 16711746
-0.2244995 -0.6688527 3.7703822 16711746
-0.4258018 -0.6404946 3.6663783 16711746
-0.6289089 -0.6089817 3.5619867 16711746
-0.5879909 -0.7873816 4.1711402 16711746
-0.1873682 -0.6398031 3.6136746 16711746
-0.0473558 -0.6747169 3.7678621 16711746
0.0416732 -0.6385322 3.5288334 16711746
-0.1032483 -0.7212219 3.9072964 16711746
-0.4076115 -0.6616706 3.7523458 16711746
-0.0679984 -0.6398295 3.5330925 16711746
-0.4494240 -0.7265446 3.4923921 16711746
-0.3068141 -0.6297774 3.5647540 16711746
-0.3020108 -0.6734350 3.8375335 16711746
-0.4984890 -1.1896259 4.1165318 16711746
-0.4124231 -1.2546761 4.3261948 16711746
-2.0345194 -1.1898540 5.7491512 16711746
-0.3257144 -0.7163245 4.0071278 16711746
-0.0936831 -0.8056909 3.8225386 16711746
-0.4084205 -0.6317880 3.6260924 16711746
-0.2729249 -0.6504564 3.6818919 16711746
-0.1627602 -0.6350356 3.6040587 16711746
-0.1292401 -0.6494521 3.6564884 16711746
-0.1495756 -0.6603875 3.7252598 16711746
-0.3717524 -0.6739746 3.7998950 16711746
-0.3031332 -0.6727249 3.8360779 16711746
-0.3870112 -0.6457648 3.6827867 16711746
-0.1510997 -0.6551506 3.6823266 16711746
-0.2650912 -0.6373311 3.6371694 16711746
-0.7394739 -0.6361535 3.6023622 16711746
-0.1439771 -0.6209028 3.4934454 16711746
-0.3690295 -0.6346976 3.6375782 16711746
-0.5086436 -0.6174837 3.5610831 16711746
-0.5927988 -0.6368069 3.6888194 16711746
-0.4102729 -0.6528733 3.7195489 16711746
-0.0279112 -0.6314535 3.4920480 16711746
-0.2310806 -0.6549734 3.7333136 16711746
-0.6146990 -0.5975105 3.5499165 16711746
-0.3856341 -0.6214767 3.5795655 16711746
0.0651820 -0.6823028 3.8086038 16711746
-0.1350827 -0.6764510 3.7934234 16711746
-0.4362325 -0.6367882 3.6457613 16711746
-0.2674797 -0.6241917 3.5835264 16711746
-0.4259881 -0.6259859 3.5795140 16711746
-0.0598219 -0.6620702 3.7302480 16711746
-0.0086774 -0.7233284 4.1252789 16711746
-0.6062920 -0.5931421 3.5154321 16711746
-0.4287845 -0.6246089 3.5810230 16711746
-0.4077406 -0.6322900 3.6230309 16711746
-0.2016077 -0.6351725 3.6297660 16711746
-0.2908761 -0.6241741 3.5613101 16711746
-0.0114956 -0.6862037 3.8016989 16711746
-0.4039903 -0.6563582 3.7311916 16711746
-0.2724907 -0.6512182 3.6873035 16711746
-0.1863038 -0.6303920 3.5347579 16711746
-0.2731556 -0.6510147 3.6894474 16711746
-0.3950593 -0.6392913 3.6389978 16711746
-0.0970365 -0.6544104 3.5893242 16711746
-0.5125826 -0.6609350 3.7160342 16711746
-0.0083931 -0.6894208 3.7173355 16711746
-0.1463568 -0.6346653 3.6028571 16711746
-0.1916569 -0.6583388 3.6203732 16711746
-0.5579366 -0.6155714 3.5860841 16711746
-0.1386805 -0.6401959 3.5452764 16711746
0.0132064 -0.6824528 3.7551219 16711746
-0.0729232 -0.7012688 3.7635374 16711746
-0.1518836 -0.6383364 3.5985210 16711746
-0.8079900 -0.6717316 3.7788301 16711746
-1.1931622 -0.6801969 3.8524733 16711746
-0.2873756 -0.7203907 4.0676904 16711746
-0.3998039 -0.6550207 3.7377014 16711746
0.5190540 -0.8705938 4.6595731 16711746
-0.5970032 -0.6231812 3.6210599 16711746
-1.8760765 -0.7698480 4.3382168 16711746
-0.3359534 -0.6163435 3.5309615 16711746
-0.1130954 -0.6336016 3.5447099 16711746
-0.3035454 -0.6651666 3.7805777 16711746
-0.0751208 -0.6843039 3.8284657 16711746
-0.0519494 -0.6487907 3.5631230 16711746
-0.1269327 -0.6459274 3.6324065 16711746
-0.1530599 -0.6652598 3.7430375 16711746
-0.1191681 -0.8760131 4.8712168 16711746
-0.4087099 -0.6195403 3.5376756 16711746
-0.3876500 -0.7082044 3.9804947 16711746
-0.1988953 -0.6616617 3.7177742 16711746
-0.5229442 -0.7667566 4.2316232 16711746
-0.5470619 -0.6293748 3.6201708 16711746
-0.5053045 -0.6936688 3.9068177 16711746
-0.2581308 -0.7302348 4.0642433 16711746
-4.5002255 -2.0228274 6.2598701 16711746
-0.2988057 -0.7534705 4.2910938 16711746
-0.7033417 -0.6062560 3.5277538 16711746
-0.2504390 -0.6608203 3.7745633 16711746
-0.0036309 -0.6374086 3.5745842 16711746
-0.2819810 -0.6308951 3.5964804 16711746
-0.0092837 -0.6398652 3.5673892 16711746
-0.2257109 -0.6316432 3.6212401 16711746
-0.3614811 -0.6821956 3.8584363 16711746
-0.2903569 -0.6203606 3.5721734 16711746
-0.0510923 -0.6765085 3.7637949 16711746
-0.5998532 -0.6062515 3.5348434 16711746
-1.1667836 -0.6893045 3.9216189 16711746
-0.2878110 -0.6554741 3.7589250 16711746
0.0062432 -0.7066201 3.9168775 16711746
-1.1830075 -0.6842496 3.8491631 16711746
-0.0633982 -0.7022645 3.8718069 16711746
-0.4355221 -0.6175211 3.6274512 16711746
-0.0989910 -0.6423592 3.6129041 16711746
-0.0174246 -0.6450468 3.6144698 16711746
-0.4493433 -0.6550408 3.6950586 16711746
-0.1065949 -0.6402083 3.6404488 16711746
-0.1514948 -0.6658287 3.7186501 16711746
-0.4275047 -0.6283500 3.5993593 16711746
-0.8397142 -0.6458753 3.7340281 16711746
-0.2616253 -0.6550869 3.6649506 16711746
-0.2511320 -0.6256061 3.6344593 16711746
-0.5497079 -0.6439744 3.6440656 16711746
-0.2329139 -0.6493992 3.6753113 16711746
-0.3436447 -0.6238221 3.5689697 16711746
-0.6424035 -0.6097042 3.5817266 16711746
-0.4262405 -0.7147264 4.0057597 16711746
-0.4680574 -0.6779878 3.8374395 16711746
-0.1637387 -0.6447285 3.6616046 16711746
-0.2062614 -0.6306053 3.6171494 16711746
-0.3284435 -0.6339135 3.6058946 16711746
-0.2442136 -0.6437814 3.6751699 16711746
-0.5027874 -0.6956585 3.8765225 16711746
-0.0615465 -0.6362519 3.5401340 16711746
-0.4652326 -0.6775985 3.8398528 16711746
-0.3043792 -0.6668140 3.7714727 16711746
-0.8808929 -0.6393720 3.7726107 16711746
-0.2131821 -0.7440070 4.0365410 16711746
-0.2509502 -0.7680925 4.2827606 16711746
-0.1746567 -0.6351165 3.6091399 16711746
-0.1482200 -0.7120171 4.0091715 16711746
-0.7770008 -0.6638566 3.7584903 16711746
-0.1728396 -0.6420817 3.6366887 16711746
-0.5242738 -0.7640666 4.2449942 16711746
-0.3172047 -0.7348187 4.1164875 16711746
-0.1670803 -0.6837350 3.8252814 16711746
-0.1622668 -0.6447118 3.6598265 16711746
-0.0412475 -0.6837918 3.7928600 16711746
-0.1427844 -0.6624553 3.7447579 16711746
-0.1973717 -0.6596263 3.7367785 16711746
-0.1073745 -0.6645960 3.7419553 16711746
-0.0178127 -0.6426907 3.6123405 16711746
-0.0633418 -0.6814517 3.7386856 16711746
-0.0822789 -0.6424770 3.6427846 16711746
-0.1115422 -0.6368029 3.5910833 16711746
-0.3091926 -0.6405157 3.6352408 16711746
-0.3963845 -0.6357110 3.6472657 16711746
-0.0798804 -0.6543632 3.6666870 16711746
-0.5448862 -0.6312217 3.6164935 16711746
-0.4554509 -0.6479220 3.6006093 16711746
0.2248785 -0.7108960 3.9569237 16711746
-0.4265520 -0.6685883 3.7990770 16711746
-0.2994850 -0.6770018 3.8177695 16711746
-2.4297569 -1.1198342 4.6771512 16711746
-0.6366479 -0.7709720 4.1696262 16711746
-0.5025834 -0.6944270 3.9055436 16711746
-0.1882831 -0.7300998 4.0734825 16711746
0.4539510 -0.8274883 4.5026612 16711746
-0.1278751 -0.6937511 3.8364711 16711746
-0.3202976 -0.7123151 4.0475779 16711746
-0.7757092 -0.8203981 4.6433492 16711746
-0.2556398 -0.8525184 4.7262788 16711746
-0.0988054 -0.7604752 3.9426107 16711746
-4.4086514 -1.8265166 5.8415985 16711746
1.0485233 -2.9118273 8.0472975 16711746
-0.6745540 -0.6354378 3.6395156 16711746
-0.6280153 -0.6142706 3.5685356 16711746
-0.1730233 -0.6959038 3.9395685 16711746
-0.3165948 -0.6396170 3.6326394 16711746
-0.7455294 -0.6481940 3.7266014 16711746
-0.3433506 -0.6987541 3.9535182 16711746
-0.5654392 -0.6161605 3.5800800 16711746
-0.3975338 -0.6356991 3.6451354 16711746
-0.4775538 -0.6596515 3.7506435 16711746
0.1149621 -0.7354546 4.0862589 16711746
-0.2218918 -0.6831511 3.8194356 16711746
-0.6304665 -0.6385490 3.6702023 16711746
-0.1972385 -0.7200987 3.9710429 16711746
0.0995786 -0.7562594 4.2426047 16711746
