# .PCD v.7 - Point Cloud Data file format
VERSION .7
FIELDS x y z rgb
SIZE 4 4 4 4
TYPE F F F F
COUNT 1 1 1 1
WIDTH 1138
HEIGHT 1
VIEWPOINT 0 0 0 1 0 0 0
POINTS 1138
DATA ascii
-1.0898432 -1.6644465 11.5519314 16711746
-0.6678792 -1.8092510 12.5232430 16711746
-0.6665505 -1.7123247 11.6063423 16711746
-1.4411763 -1.7019598 11.6412315 16711746
-0.9299774 -1.7067173 11.7036533 16711746
-1.0386289 -1.7418227 12.0640049 16711746
-1.0031941 -1.6969676 11.6679440 16711746
-1.0896866 -1.6745195 11.6062355 16711746
-1.2282742 -1.6940342 11.6647930 16711746
-0.9472678 -1.7485434 12.0928154 16711746
-0.9915068 -1.7078328 11.7231016 16711746
-1.3535941 -1.7224228 12.0222244 16711746
-0.6768480 -1.8136537 12.4965811 16711746
-1.5815002 -1.7052528 11.8285332 16711746
-0.8796216 -1.7933110 12.4559650 16711746
-1.4448239 -1.7230027 11.7551451 16711746
-1.0493488 -1.7266995 11.8316908 16711746
-0.7995830 -1.7085576 11.5256376 16711746
-1.4530203 -1.6755599 11.6193638 16711746
-1.0588628 -1.6840206 11.6316357 16711746
-1.6750703 -1.6731079 11.7569895 16711746
-1.2303015 -1.6835463 11.5830135 16711746
-1.5205665 -1.6383201 11.5425730 16711746
-1.4531057 -1.6377882 11.5072393 16711746
-1.0057652 -1.6978796 11.6896286 16711746
-1.0645202 -1.6990865 11.6944828 16711746
-1.1841600 -1.7070298 11.8644228 16711746
-1.8844920 -1.6559968 11.8226252 16711746
-1.1213175 -1.6919236 11.7072506 16711746
-1.4394687 -1.7030796 11.6398191 16711746
-1.3327954 -1.7124622 11.6741037 16711746
-1.8262464 -1.6582892 11.6204805 16711746
-0.9730979 -1.7020050 11.6714363 16711746
-0.9474128 -1.7147888 11.7393360 16711746
-2.3726673 -1.7328645 11.9809752 16711746
-1.2303200 -1.6816318 11.5847082 16711746
-1.5551428 -1.6638777 11.6704769 16711746
-1.3324625 -1.6602503 11.5810804 16711746
-1.3618199 -1.6986351 11.6053104 16711746
-1.5618081 -1.6549830 11.6345844 16711746
-1.6710111 -1.6442590 11.5278835 16711746
-1.3638306 -1.6892205 11.6785383 16711746
-1.4345056 -1.6781886 11.6612473 16711746
-1.5814369 -1.6328981 11.5825338 16711746
-0.8346691 -1.7589691 11.7562542 16711746
-1.1828259 -1.7312677 12.1883936 16711746
-0.9771647 -1.7120879 11.7883406 16711746
-1.0503188 -1.7894517 12.4895096 16711746
-1.5081317 -1.9078828 12.2558212 16711746
-1.5685647 -2.6937509 13.5576172 16711746
-1.0477861 -1.8461310 12.7290802 16711746
-1.1417104 -1.8021542 12.7667589 16711746
-1.2817687 -1.7001387 11.7093248 16711746
-1.0365674 -1.7295434 11.8542032 16711746
-1.1666871 -1.7047261 11.7980232 16711746
-0.9683589 -1.6962721 11.6830301 16711746
-1.2644662 -1.7111553 11.8629951 16711746
-1.3583066 -1.6759461 11.6101885 16711746
-1.1197213 -1.7082832 11.8757019 16711746
-0.7818662 -1.7091689 11.6460676 16711746
-0.8433525 -1.7020117 11.6658659 16711746
-1.5210431 -1.6376238 11.5437193 16711746
-0.8739378 -1.7521380 11.9941587 16711746
-1.1279742 -1.7194718 11.9314203 16711746
-0.9700212 -1.7532295 12.1079855 16711746
-1.5064046 -1.6556814 11.6110353 16711746
-1.2009323 -1.6852174 11.6464481 16711746
-1.1197095 -1.7082692 11.8801374 16711746
-1.0047809 -1.6989107 11.6489983 16711746
-1.1522555 -1.6782093 11.6463079 16711746
-0.8652982 -1.7659585 12.1793537 16711746
-1.1856151 -1.6996078 11.7018805 16711746
-1.8202529 -1.6523978 11.7213440 16711746
-1.6180975 -1.6176010 11.5213280 16711746
-0.9572664 -1.7069906 11.6549006 16711746
-1.4093690 -1.6900792 11.5744658 16711746
-1.6425296 -1.6509017 11.6797476 16711746
-0.9570999 -1.7135272 11.7107935 16711746
-0.9190386 -1.7876910 11.7224321 16711746
-1.2391803 -1.7219893 11.7319479 16711746
-1.6557814 -1.7040925 11.8755150 16711746
-1.2407691 -1.7200844 12.0537453 16711746
-1.6870971 -1.6350580 11.5569172 16711746
-2.0948055 -1.7354357 12.1756086 16711746
-0.9545082 -1.7016329 11.6739836 16711746
-0.9644360 -1.7898432 12.3596449 16711746
-2.1022420 -1.7335263 12.1795626 16711746
-1.3263203 -1.7320846 12.1069794 16711746
-0.9730262 -1.8141907 12.7275705 16711746
-1.4904763 -1.6767690 11.6554117 16711746
-1.7323775 -1.6556702 11.6845322 16711746
-1.2067375 -1.7608198 12.4106693 16711746
-1.8157690 -1.6896867 11.9268312 16711746
-1.4657452 -1.7504896 12.2901058 16711746
-1.8357317 -1.6834053 11.9486103 16711746
3.5283687 -3.9547286 16.6149731 16711746
6.0893168 -3.3002698 23.9941540 16711746
8.2922840 -5.1242504 23.2692051 16711746
-1.3744464 -1.7529128 12.3413715 16711746
-1.1580119 -1.7166599 11.9887829 16711746
-1.3611631 -1.7507218 12.1633663 16711746
-1.7315301 -1.6839409 11.9683199 16711746
-1.9328662 -1.6529866 11.7490139 16711746
-0.9655153 -1.7936163 12.3421097 16711746
-1.5101346 -1.6484122 11.6101408 16711746
-0.9966267 -1.7171370 11.8064089 16711746
-1.6370527 -1.6553761 11.6739368 16711746
-1.8067213 -1.6394418 11.6725273 16711746
-1.0945157 -1.7050738 11.7779379 16711746
-2.7702658 -2.1778078 12.7227497 16711746
-1.3259712 -1.7286474 12.1147385 16711746
-1.4817415 -1.6543639 11.5594387 16711746
-1.0080279 -1.7209234 11.8582315 16711746
-1.1125746 -1.6992303 11.7424240 16711746
-1.3497429 -1.6929079 11.6512489 16711746
-1.4658141 -1.6642344 11.5989313 16711746
-1.0148947 -1.7022916 11.8270025 16711746
-1.6301823 -1.6458278 11.5963364 16711746
-1.0023167 -1.7385277 11.9838820 16711746
-1.0587398 -1.7338003 11.9657831 16711746
-1.2893339 -1.7016244 11.7705860 16711746
-1.5561079 -1.6630702 11.6700964 16711746
-1.5034313 -1.6984059 12.0557690 16711746
-1.2008526 -1.6867552 11.6422863 16711746
-0.8320221 -1.7599808 11.7682381 16711746
-1.9339727 -1.6727669 11.8375988 16711746
-1.8320699 -1.6738622 11.7721872 16711746
-1.4648962 -1.7181506 11.6585379 16711746
-1.7038637 -1.6588930 11.6634254 16711746
-0.9628239 -1.7352771 11.9260349 16711746
-1.3064103 -1.7098783 11.9586430 16711746
-1.1591755 -1.7118877 12.0063047 16711746
-1.3153647 -1.6915076 12.0299177 16711746
-1.3542662 -1.6850927 11.7400513 16711746
-1.3461194 -1.7481676 12.3062372 16711746
-2.2319226 -1.7135133 12.2677288 16711746
-2.0607712 -2.1155903 12.0274754 16711746
-1.5075724 -1.6648383 11.6775331 16711746
-1.4638554 -1.7595178 11.6385241 16711746
-1.4293618 -1.6903392 11.7594213 16711746
-1.7039778 -1.6395861 11.6172867 16711746
-0.9719505 -1.7550186 12.1028872 16711746
-1.1704749 -1.7195399 12.0453663 16711746
-1.4841678 -1.7470526 12.1761217 16711746
-2.0033426 -1.6532626 11.8711662 16711746
-0.6613206 -1.8080248 12.5393076 16711746
-1.1012745 -1.6859472 11.6687851 16711746
-1.1248815 -1.8491374 13.0743446 16711746
-1.0187217 -1.7062708 11.8061991 16711746
-1.7387885 -1.6683189 11.7343388 16711746
-1.9257432 -1.6877068 12.0427361 16711746
-2.4249647 -1.7262815 12.0189781 16711746
-1.3791893 -1.6839029 11.6496553 16711746
-0.8909943 -1.7187811 11.7423191 16711746
-1.1246266 -1.7136970 11.9523678 16711746
-1.8673501 -1.6930056 12.0421534 16711746
-1.1078082 -1.6929386 11.7249193 16711746
-1.1952312 -1.7090739 11.9757843 16711746
-1.6031135 -1.7202432 12.1033955 16711746
-1.5030327 -1.7057434 11.9489002 16711746
-0.9231668 -1.7019383 11.7100801 16711746
-1.1442271 -1.7009603 11.7758055 16711746
-1.4947722 -1.6597466 11.5955896 16711746
-2.3179297 -1.6985492 12.3490353 16711746
-0.8922642 -1.7062260 11.7649832 16711746
-1.1045110 -1.7252500 12.0632505 16711746
-1.2660450 -1.7038621 11.8853092 16711746
-1.0395323 -1.7415038 12.0489511 16711746
-1.6565244 -1.6546490 11.6597948 16711746
-1.3246746 -1.7278668 12.1145420 16711746
-1.0211381 -1.6960708 11.7301016 16711746
-1.2003592 -1.7276152 12.1770954 16711746
-3.3263297 -2.1962011 13.0071859 16711746
-1.3261988 -1.7341260 12.1052418 16711746
-1.3735046 -1.7527313 12.3408365 16711746
-1.0615371 -1.7049468 11.7621355 16711746
-2.2659810 -2.1380997 12.1304798 16711746
-1.7356282 -1.6541013 11.6869459 16711746
-1.1602843 -1.8454876 12.9312439 16711746
-1.4637837 -1.7909226 12.1495790 16711746
-2.3937747 -1.6633548 12.3072643 16711746
-1.4954041 -1.7026025 12.0328665 16711746
-1.0047638 -1.7170160 11.8714380 16711746
-0.7315637 -1.7731656 12.1621342 16711746
-1.5783756 -1.6395100 11.5686922 16711746
-0.9793065 -1.7995017 12.2957001 16711746
-0.8329518 -1.7778064 12.2599010 16711746
-0.8435305 -1.7235782 11.9234495 16711746
-0.9505822 -1.7179941 11.8453960 16711746
-1.1479563 -1.7088732 11.8940134 16711746
-1.2903153 -1.7006681 11.8042660 16711746
-1.3032637 -1.7106469 11.8568010 16711746
-1.0003135 -1.7370759 11.9854603 16711746
-0.6979621 -1.7714703 12.1843185 16711746
-0.9468372 -1.7493937 12.0676165 16711746
-1.0427725 -1.7020998 11.8844070 16711746
-1.2571124 -1.6915609 11.7754002 16711746
-0.7025984 -1.7725626 12.1818590 16711746
-0.9405100 -1.7262400 11.8982754 16711746
-1.3798069 -1.6831564 11.6502838 16711746
-0.7806343 -1.7208703 11.9550562 16711746
-2.0137899 -1.6636584 11.9199390 16711746
-0.8760462 -1.7511667 12.0024128 16711746
-1.1611093 -1.6974896 11.8784618 16711746
-1.1640202 -1.7011285 11.8709831 16711746
-0.9591365 -1.7320082 11.9382381 16711746
-1.0902505 -1.7648711 12.0731878 16711746
-0.9805098 -2.0303926 12.1476393 16711746
-1.4598827 -1.7307801 12.1413202 16711746
-1.2353094 -1.7748866 12.5934763 16711746
-1.9583191 -1.6954752 12.0546856 16711746
-2.4426320 -1.6530813 12.3494558 16711746
-2.2258253 -1.8434297 13.5580626 16711746
-1.3939788 -1.7179517 12.0345268 16711746
-3.4896617 -2.3807266 12.9555988 16711746
-1.0609622 -1.7634292 12.2449379 16711746
-1.1538075 -1.8430036 12.9411001 16711746
-0.7560462 -1.7431290 12.0516577 16711746
-1.3601700 -1.7175770 12.0329466 16711746
-1.2214011 -1.7097293 11.9973183 16711746
-1.3423764 -1.7086453 11.9509859 16711746
-1.4594870 -1.7087730 11.9909706 16711746
-0.9127596 -1.7209288 11.9169331 16711746
-1.1499887 -1.7425596 12.2003689 16711746
-0.5655013 -1.8159162 12.5042343 16711746
-0.8633023 -1.7281454 11.9264450 16711746
-1.1555585 -1.7092878 11.9324980 16711746
-1.0251530 -1.7185760 11.8866615 16711746
-0.9351853 -1.7676784 12.1859045 16711746
-1.5993915 -1.7226971 12.0968599 16711746
-1.3048658 -1.7117432 11.8551073 16711746
-0.6732598 -1.8117748 12.5156631 16711746
-0.9892570 -1.7320408 12.0090065 16711746
-0.8771635 -1.7495929 12.0071878 16711746
-1.5856298 -1.7591928 12.2027273 16711746
-1.3208590 -1.7135797 12.0710621 16711746
-1.3021599 -1.7279310 12.1761503 16711746
-1.0459547 -1.7438277 12.0996923 16711746
-1.6224167 -1.6530495 11.7132368 16711746
-1.4392928 -1.7107130 12.0225487 16711746
-1.1160713 -1.7067901 11.8796291 16711746
-1.1555943 -1.7100010 12.0087967 16711746
-1.1368433 -1.7086735 11.8998585 16711746
-1.0600946 -1.8010030 12.3982553 16711746
-1.2344996 -1.7060245 11.8524189 16711746
0.1313524 -1.9811472 13.7518206 16711746
-1.2068282 -1.7608930 12.4121332 16711746
-1.0637367 -1.7662748 12.2315531 16711746
-1.8498360 -1.6853882 11.9232750 16711746
-1.1812991 -1.7932675 12.6911793 16711746
-1.4566776 -1.7040187 11.9538221 16711746
-1.5360703 -1.7319782 12.1030064 16711746
-1.1960727 -1.7242242 12.1864576 16711746
-0.9784552 -1.7959381 12.3049803 16711746
-1.4522711 -1.8851181 13.3436413 16711746
-1.3966006 -1.7176423 12.0370884 16711746
-1.2363290 -1.7320939 12.2184410 16711746
-1.2797909 -1.7239947 12.1884928 16711746
-0.8929504 -1.7511590 12.0899725 16711746
-1.3790722 -1.7002270 11.9077454 16711746
-1.8782781 -1.7557489 12.7641392 16711746
-1.4850137 -1.7498107 12.3274174 16711746
-1.3723731 -1.7283471 12.0916328 16711746
-1.3975344 -1.7159802 12.0425129 16711746
-1.6553190 -1.7422038 12.3659601 16711746
-1.3714359 -1.7114613 11.9518251 16711746
-0.9300376 -1.8087789 12.5277300 16711746
-2.0919743 -1.7914336 13.0337353 16711746
-0.5323342 -1.8323951 12.6429224 16711746
-1.8845556 -1.7360971 12.6375399 16711746
-1.3231372 -1.7332767 12.1031914 16711746
-1.2734368 -1.7356004 12.0057678 16711746
-1.2783711 -1.7640375 12.4750910 16711746
-2.0863233 -1.8008486 13.0273209 16711746
-1.4938935 -1.7047620 12.0329018 16711746
-0.6593785 -1.8138295 12.4560013 16711746
-1.0061020 -1.7456089 11.9701281 16711746
-1.6744468 -1.8923900 13.6545773 16711746
-1.4770728 -1.9093734 12.1364155 16711746
-4.5333142 -4.7684402 17.7122555 16711746
4.4737554 -4.4351139 19.8942928 16711746
-0.8387793 -1.7784590 12.2515793 16711746
-0.9145009 -1.7561561 12.1202040 16711746
-0.9687513 -1.7539352 12.1013117 16711746
-1.5161494 -1.7116175 11.9945545 16711746
-0.5632411 -1.8152705 12.5040817 16711746
-1.3699473 -1.7264513 12.0948019 16711746
-1.3525444 -1.6996948 11.8513699 16711746
-1.6608574 -1.7411274 12.3741684 16711746
-1.2513902 -1.7076504 12.0309162 16711746
-0.5177909 -1.8071798 12.2823629 16711746
-1.7392027 -1.7220763 12.2205305 16711746
-0.6241283 -1.7704102 12.2910576 16711746
-1.4357196 -1.7008332 11.8520594 16711746
-0.6398298 -1.8084371 12.4970694 16711746
-1.5370138 -1.8121618 12.1559782 16711746
-1.1889665 -1.7251074 12.1984186 16711746
-1.4728943 -1.6908088 11.9893284 16711746
-1.3561360 -1.7182457 12.0423203 16711746
-1.0220467 -1.8327327 12.6996260 16711746
-1.4422421 -1.6976951 11.8884296 16711746
-1.5076618 -1.7026707 11.9553976 16711746
-1.0381716 -1.7732040 12.2313948 16711746
-1.0397589 -1.7199960 11.9286013 16711746
-1.4859728 -1.7007824 11.9772396 16711746
-0.9687550 -1.7431959 12.0841312 16711746
-1.0332087 -1.7352060 12.0595722 16711746
-1.0030892 -1.7600871 12.1667404 16711746
-1.6231509 -1.6714566 11.9615650 16711746
-1.1445785 -1.7031801 11.9067249 16711746
-0.9051200 -1.7155411 11.9262915 16711746
-1.2499210 -1.7096337 12.0257978 16711746
-0.4367092 -1.8539166 12.3527603 16711746
-1.3763394 -1.7058922 11.8952961 16711746
-0.6890009 -1.7678603 12.2049246 16711746
-1.4450128 -1.6908809 11.9057970 16711746
-0.9424474 -1.7290671 11.8966827 16711746
-0.8251537 -1.7381040 11.9715719 16711746
-1.0525059 -1.7532684 12.1148233 16711746
-0.8701482 -1.7807376 11.7819014 16711746
-1.6295037 -1.7551858 12.2934971 16711746
-0.9640020 -1.7665237 12.1976805 16711746
-1.0605974 -1.7627200 12.2467184 16711746
-1.5807796 -1.7709347 12.5249557 16711746
-1.5778316 -1.7806444 12.1779957 16711746
-1.3541934 -1.7214967 12.0294847 16711746
-0.9704784 -1.7524110 12.1115160 16711746
-1.3040590 -1.7122045 11.9456501 16711746
-0.9628956 -1.7736976 12.1823387 16711746
-1.0530410 -1.7709219 12.2477779 16711746
-0.0892019 -2.0128453 14.1954403 16711746
-1.3241949 -1.7389239 12.1825562 16711746
-0.6373163 -1.8359170 12.6692133 16711746
-1.2876180 -1.7817577 12.6010637 16711746
-0.6300831 -1.8346019 12.6883230 16711746
-0.9444363 -1.7498459 12.0776100 16711746
-1.2836924 -1.7602259 12.4884796 16711746
-1.0360019 -1.7899197 12.3874769 16711746
-1.6611512 -1.7270845 12.1838827 16711746
-1.4836807 -1.7463105 12.1837969 16711746
-1.4396057 -1.7105336 12.0193348 16711746
-1.2997282 -1.7412431 12.3001995 16711746
-0.8840705 -1.7520950 12.0666962 16711746
-0.8598552 -1.7619618 12.1242151 16711746
-0.9663367 -1.7242253 11.9292889 16711746
-1.2643667 -1.7056891 11.8824778 16711746
-1.2721578 -1.7190204 11.9072313 16711746
-1.2280923 -1.7201649 12.0686512 16711746
-1.4143177 -1.7295051 12.1386862 16711746
0.0227086 -1.9794194 13.5676880 16711746
-1.2921616 -1.7247608 12.0749512 16711746
-1.6773194 -1.7341393 12.4044390 16711746
-0.5758479 -1.7921047 12.3680687 16711746
-1.8246036 -1.7237163 12.1820278 16711746
-0.9988012 -1.7285205 11.9627752 16711746
-1.2362202 -1.7384354 12.2029133 16711746
-0.9572230 -1.7754245 12.2487593 16711746
-1.0973887 -1.7440649 12.2198324 16711746
-1.5993823 -1.7232655 12.0987568 16711746
-1.4030522 -1.7454264 12.2345228 16711746
-0.4968341 -1.8007331 12.3115559 16711746
-1.1011275 -1.7267140 12.1037436 16711746
-1.2299281 -1.7418330 12.3316164 16711746
-1.3785214 -1.7521142 12.2584782 16711746
-1.2833078 -1.7199486 12.1210022 16711746
-0.9074584 -1.7653747 12.1631441 16711746
-1.5984040 -1.7220926 12.0985012 16711746
-1.7897297 -1.7236294 12.3223553 16711746
-0.4939194 -1.8041114 12.3062172 16711746
-1.5324831 -1.7089814 11.9687109 16711746
-1.1985754 -1.7088845 12.0761538 16711746
-1.4588554 -1.7737375 12.2182722 16711746
-1.4668257 -1.7165811 12.0624590 16711746
-1.5929376 -1.7069511 12.0234509 16711746
-1.4700065 -2.1227732 12.0511274 16711746
-1.3746330 -1.7433186 12.2641420 16711746
-1.3776274 -1.7599086 12.3742037 16711746
-2.0514739 -1.8105847 12.9725533 16711746
-1.4509307 -1.8392293 12.1082897 16711746
-1.7540660 -2.5495932 13.0350676 16711746
-1.2729422 -1.9660677 14.1163092 16711746
-1.5837342 -2.6170299 13.6858788 16711746
-3.3214085 -2.4248757 14.7041321 16711746
-1.0154010 -1.7371113 12.0168924 16711746
-0.9687702 -1.7265811 11.9214106 16711746
-1.3529096 -1.7597132 12.3772116 16711746
-0.8952211 -1.7880310 12.2509785 16711746
-1.2782120 -1.7271010 12.1798611 16711746
-1.3698450 -1.7300103 12.0841475 16711746
-0.8746278 -1.7412097 12.0292988 16711746
-1.4308970 -1.7144542 12.0501242 16711746
-1.4135928 -1.7381595 12.2044153 16711746
-0.9318711 -1.8088859 12.5113401 16711746
-2.0315363 -1.7820075 12.9798908 16711746
-1.3738173 -1.7524847 12.3459654 16711746
-2.2254372 -1.7487804 12.9080019 16711746
-1.1540182 -1.7105892 12.0078039 16711746
-0.9517174 -1.7513030 12.0615120 16711746
-1.3563639 -1.7949437 12.6445427 16711746
-1.5142713 -1.8387564 12.3572979 16711746
-1.4685532 -1.7307086 12.1514568 16711746
-1.4649602 -1.7912712 12.1508894 16711746
-1.0697410 -1.8571035 12.3921347 16711746
-1.2804785 -1.7650242 12.4642344 16711746
-1.9981248 -1.9137584 12.5362263 16711746
0.0628906 -1.9848467 13.6130543 16711746
-0.9023268 -1.7909112 12.2809563 16711746
-1.1240488 -1.7518570 12.3838730 16711746
-0.8795505 -1.7757914 12.2127953 16711746
-1.3275369 -1.7206025 12.0613651 16711746
-1.8049812 -1.6970938 12.0485401 16711746
-1.6407839 -1.6768634 11.9185867 16711746
-1.0299451 -1.7858968 12.4102373 16711746
-1.1838497 -1.7347453 12.1858749 16711746
-1.1490314 -1.7199969 12.0794001 16711746
-1.2563283 -1.7178630 12.1293621 16711746
-2.7071314 -1.7529459 13.0481110 16711746
-1.3523537 -1.7146249 12.0465040 16711746
-2.7339573 -1.7509987 13.0731163 16711746
-1.3478087 -1.7198822 12.0346937 16711746
-1.5566097 -1.7101344 11.9132490 16711746
-0.4860767 -1.7780979 12.2078066 16711746
-0.9844502 -1.7670462 12.1999865 16711746
-0.5408021 -1.8124609 12.5387650 16711746
-1.4623531 -1.7345036 12.1355705 16711746
-1.3228819 -1.7271852 12.1112604 16711746
-1.9562230 -1.7138017 12.2823811 16711746
-1.5228094 -1.7985628 12.3605194 16711746
-1.4654409 -1.7661320 12.2607136 16711746
-2.0069144 -1.7560705 12.5192652 16711746
-1.2515877 -1.7541845 12.1937790 16711746
-1.4377419 -1.7289861 12.1496916 16711746
-0.9313018 -1.7647939 12.1951656 16711746
-2.0334809 -1.7926022 12.5327854 16711746
-1.2263020 -1.7913597 12.6884451 16711746
-1.3238025 -1.7251551 12.1163578 16711746
-1.4894968 -1.7743447 12.5533113 16711746
-0.9172176 -1.7717716 12.2253542 16711746
0.4439594 -1.9815948 13.5768223 16711746
-1.1380023 -1.7947606 12.7598686 16711746
-0.9176310 -1.7701895 12.2264099 16711746
-1.9482024 -1.7696090 12.4601212 16711746
-2.1877320 -1.7594219 12.8483095 16711746
-1.5733116 -1.6997693 11.9295874 16711746
-1.3599240 -1.7847027 12.2647457 16711746
-1.9185919 -1.7362823 12.3756733 16711746
-1.6416286 -1.7254034 12.1701756 16711746
-0.9624903 -1.7535653 12.0939522 16711746
-1.0670701 -1.7515392 12.1690388 16711746
-1.2205133 -1.7741773 12.5077190 16711746
-1.4035833 -1.7982855 12.7374887 16711746
-1.8203706 -1.7292868 12.4060516 16711746
-1.1823435 -1.7938477 12.6880808 16711746
-1.0539432 -1.7793546 12.4685907 16711746
-1.3738215 -1.7458886 12.2578163 16711746
-1.1961168 -1.7198241 12.4173403 16711746
-0.9587569 -1.7982624 12.3161478 16711746
-1.1826017 -1.7328538 12.1806631 16711746
-1.0582486 -1.7443751 12.2237825 16711746
-1.3841299 -1.7237413 12.0564432 16711746
-0.6395486 -1.8100179 12.5516224 16711746
-1.4459435 -1.7345440 12.1567745 16711746
-1.3299314 -1.7400185 12.1998386 16711746
-0.6777390 -1.8435612 12.6015015 16711746
-1.1284535 -1.7569201 12.3392439 16711746
-1.3085792 -1.7281533 12.2052088 16711746
-1.2063091 -1.7091299 12.1526146 16711746
-1.4467177 -1.7336869 12.1583853 16711746
-0.5410234 -1.8011248 12.3323641 16711746
-1.4472681 -1.7002422 12.0069513 16711746
-0.5371608 -1.7828579 12.4168367 16711746
-0.9620913 -1.7368748 12.0949354 16711746
-2.4569552 -1.7123108 12.6636839 16711746
-1.6579295 -1.6582643 11.9372244 16711746
-1.2474701 -1.7237766 12.0791969 16711746
-1.1047745 -1.7556933 12.3219500 16711746
-1.3265439 -1.7375096 12.1884098 16711746
-1.8731184 -1.6874415 12.0518303 16711746
-0.9723787 -1.7443203 12.0792694 16711746
-1.4138293 -1.7424161 12.1879663 16711746
-0.6650059 -1.8084450 12.5270367 16711746
-0.9517159 -1.7882203 12.2350826 16711746
-0.8991855 -1.7890801 12.2877874 16711746
-1.7239739 -1.7043561 12.1247406 16711746
-1.1128709 -1.7879479 12.5232286 16711746
-1.1128432 -1.7881234 12.5275068 16711746
-1.4382894 -1.7106115 11.9899149 16711746
-1.2319810 -1.7492361 12.3100386 16711746
-1.7072074 -1.6982625 12.0318918 16711746
-1.3777858 -1.7386169 12.2794075 16711746
-1.4157732 -1.7403166 12.1967201 16711746
-1.5546626 -1.7279958 12.0952711 16711746
-1.3194741 -1.7857181 12.6524839 16711746
-1.2780430 -1.7279322 12.1786585 16711746
-1.2370619 -1.7938919 12.4429207 16711746
-1.6501940 -1.7215908 12.1819992 16711746
-1.2816454 -1.9662416 14.1413336 16711746
-1.0381103 -1.7884904 12.2874432 16711746
-1.9934634 -1.7261856 12.6282806 16711746
-1.2875395 -1.7392015 12.2537098 16711746
-1.4406635 -1.7193698 12.1184464 16711746
-1.4081318 -1.7282982 12.1192341 16711746
-1.0464674 -1.7670715 12.2583609 16711746
-0.8121241 -1.7821624 12.3721113 16711746
-0.9185341 -1.8021559 12.5438089 16711746
-1.2121233 -1.7358810 12.2696867 16711746
-1.0241060 -1.7644254 12.2221889 16711746
-1.3369486 -1.7386903 12.1499424 16711746
-1.1282388 -1.7218428 12.1182461 16711746
-0.9109308 -1.7698659 12.2349138 16711746
-0.9514082 -1.7972072 12.3272762 16711746
-1.3310487 -1.7315131 12.2270308 16711746
-1.6777792 -1.7109140 12.1480885 16711746
-1.7507346 -1.7272424 12.2116652 16711746
-0.8899359 -1.7860315 12.2918892 16711746
-1.4439044 -1.7310880 12.0808220 16711746
-1.6004983 -1.6879798 11.9981241 16711746
-1.2477092 -1.7206702 12.0876932 16711746
-0.9400957 -2.0519853 12.2228251 16711746
-1.9734046 -1.7113786 12.3203773 16711746
-1.1282229 -1.7546337 12.2572718 16711746
-2.4286747 -1.6938530 12.6269436 16711746
-0.6993910 -1.7835132 12.2810564 16711746
-1.0376993 -1.7917478 12.3808489 16711746
-1.8825899 -1.7075504 12.1490736 16711746
-1.5276753 -1.7400993 12.0704727 16711746
-0.9689841 -1.8659012 12.2787104 16711746
-1.4628834 -1.7942646 12.1432371 16711746
-1.4822974 -1.7471926 12.1817827 16711746
-1.1384485 -1.7624745 12.2853498 16711746
-0.8889149 -1.7528025 12.1773767 16711746
-1.7143810 -1.6765429 11.9604530 16711746
-0.5130479 -1.8483001 12.6760931 16711746
-0.9307231 -1.7375847 12.0933800 16711746
0.4952405 -1.9855055 13.6461143 16711746
-1.5240595 -1.7063242 11.9943867 16711746
-1.8236585 -1.7160805 12.3174706 16711746
-0.9916048 -1.8183678 12.5693588 16711746
-2.8997591 -1.8323387 13.4076509 16711746
-1.4177352 -1.7855600 12.5675020 16711746
-1.5926855 -1.8378457 13.2347336 16711746
-1.2064013 -1.7237302 12.1581049 16711746
-1.1904273 -1.7543006 12.4081650 16711746
-1.0178564 -1.7613028 12.1905718 16711746
-1.5282148 -2.5374441 13.3351126 16711746
-2.0921807 -1.7094071 12.5004930 16711746
-2.5316658 -1.7284038 12.6997385 16711746
-1.4584242 -1.7218367 12.0537901 16711746
-1.8182855 -1.7055852 12.0262871 16711746
-1.3273903 -1.7301484 12.1189613 16711746
-1.3644991 -1.7478297 12.2861404 16711746
-1.8136935 -1.7325611 12.3995314 16711746
-1.0529422 -1.7470862 12.1945696 16711746
-1.7634929 -1.7008164 12.0572987 16711746
-1.0008308 -1.7662036 12.1753759 16711746
-1.3821387 -1.7254943 12.1081953 16711746
-1.1126668 -1.7495199 12.2875080 16711746
-2.6936338 -1.6763661 12.6672554 16711746
-1.0648479 -1.7983264 12.5458717 16711746
-1.9125621 -1.6942530 12.1743593 16711746
-1.4215996 -1.7157421 12.1652126 16711746
-0.8085976 -1.7684934 12.2968168 16711746
-1.0374901 -1.7756280 12.2867146 16711746
-0.8552172 -1.7651528 12.2580328 16711746
-1.4493309 -1.7621884 12.1853008 16711746
-0.8697662 -1.7735302 12.2432632 16711746
-1.7100924 -1.7039461 12.3053532 16711746
-1.6091176 -1.7177610 12.1089020 16711746
-1.4202338 -1.7304590 12.2177334 16711746
-1.3288893 -1.7294844 12.1198664 16711746
-1.0666115 -1.7976366 12.5427351 16711746
-1.2078719 -1.7284462 12.1123085 16711746
-1.2179873 -1.7679704 12.5251179 16711746
-1.7269392 -1.6782376 12.0169353 16711746
-1.4643707 -1.7896311 12.1508369 16711746
-1.3744198 -1.7499712 12.3587418 16711746
-1.2769417 -1.7279887 12.1822138 16711746
-0.5699109 -1.8669183 12.2262383 16711746
-1.1060370 -1.7726350 12.3996716 16711746
-1.3723470 -1.7367073 12.1418848 16711746
-1.3923011 -1.7493716 12.2995825 16711746
-0.9577844 -1.7997533 12.3126059 16711746
-1.9730031 -1.7275172 12.0629339 16711746
-1.5300225 -1.8137066 12.1405172 16711746
-1.2542243 -1.7360106 12.3437700 16711746
-1.7062492 -1.6978869 12.0980930 16711746
-1.2800519 -1.7717113 12.4409389 16711746
-1.0730538 -1.8001790 12.3812561 16711746
-1.4376291 -1.7716339 12.2161980 16711746
-0.9631550 -1.8022505 12.4054823 16711746
-1.0981852 -1.7617188 12.5842695 16711746
-1.0976971 -1.8267426 12.7253590 16711746
-1.3181528 -1.7556459 12.3660622 16711746
-1.4122884 -1.7562134 12.3117409 16711746
-0.9856089 -1.8168794 12.6383638 16711746
-1.2291671 -1.7349921 12.1957846 16711746
-1.2263196 -1.7428378 12.3273916 16711746
-1.5805167 -1.7694806 12.5344000 16711746
-1.1082374 -1.7368044 12.2185926 16711746
-1.0554081 -1.7511201 12.2148504 16711746
-1.2731860 -1.7410021 12.2759686 16711746
-2.0215168 -1.7292936 12.4350653 16711746
-1.7928107 -1.7190738 12.1816864 16711746
-0.9182190 -1.7729477 12.2254124 16711746
0.1827518 -1.9787856 13.0297680 16711746
-1.7087300 -1.6879299 12.1317530 16711746
-1.8480591 -1.7134930 12.2055044 16711746
-1.7920566 -1.7207246 12.1792507 16711746
-0.7642178 -1.8022813 12.1607323 16711746
-1.5624765 -1.7237835 12.1631699 16711746
-1.2351495 -1.7293200 12.2223339 16711746
-1.8997430 -1.7313875 12.4092665 16711746
-1.7749797 -1.7098272 12.1872797 16711746
-1.4170882 -1.7484770 12.2283163 16711746
-0.9842545 -1.8416569 12.2607269 16711746
-1.6732520 -1.7142242 12.1375256 16711746
-0.7894508 -1.7832268 12.4416456 16711746
-2.1506906 -2.1384180 12.5446978 16711746
-0.9847929 -1.7575957 12.1629152 16711746
-1.7081060 -1.6994739 12.0963421 16711746
-2.0946205 -1.7028605 12.3993340 16711746
-1.2835125 -1.7813461 12.5992346 16711746
-1.2251189 -1.7920921 12.6861315 16711746
-1.3775289 -1.7661759 12.4073887 16711746
-1.2847564 -1.7457755 12.3886747 16711746
-1.0259910 -1.7739282 12.2375231 16711746
-0.7288799 -1.8929360 13.3680782 16711746
-1.0342540 -1.7961079 12.5269632 16711746
-0.9944995 -1.7917106 12.2048988 16711746
-3.8221972 -1.9312153 13.9090538 16711746
-1.0050144 -1.8292146 12.6587095 16711746
-0.9023194 -1.7596221 12.1590652 16711746
-0.8369592 -1.9053270 13.0325842 16711746
-1.3745674 -1.7688298 12.4286146 16711746
-0.9380578 -1.8142849 12.5181427 16711746
-1.9146079 -1.7175574 12.1166143 16711746
-1.5291554 -1.7830197 12.6200848 16711746
-0.6663055 -1.7687658 12.3236876 16711746
-1.2571988 -1.7294955 12.3596964 16711746
-0.7748222 -2.0215821 13.5023165 16711746
-0.9313729 -1.7950337 12.2719469 16711746
-1.3547664 -1.7806330 12.5369892 16711746
-1.3323985 -1.7616123 12.3458891 16711746
-1.0484916 -1.8489128 12.7207251 16711746
-1.5621332 -1.8032014 12.5272923 16711746
-0.5773640 -1.7919496 12.3692398 16711746
-1.6563922 -1.8514997 13.5001221 16711746
-0.9749809 -2.0340636 12.1833296 16711746
-1.3192459 -1.7526287 12.3788128 16711746
-5.3314905 -2.5191247 16.2633533 16711746
-0.8909705 -1.7672813 12.2234726 16711746
-0.9332659 -1.7889289 12.3550196 16711746
-1.5216742 -1.7736665 12.5488749 16711746
-1.1089085 -1.7758992 12.3908424 16711746
-0.9888820 -1.7642024 12.2466125 16711746
-1.1105870 -1.7487721 12.2925997 16711746
-1.1524082 -1.7466540 12.2980404 16711746
-1.0186503 -1.7773877 12.4176846 16711746
-1.0368296 -1.7943878 12.4370403 16711746
-1.2165974 -1.7451063 12.3692102 16711746
-1.2683735 -1.7329297 12.2233953 16711746
-1.9280913 -1.7180957 12.2686262 16711746
-1.3290057 -1.7459040 12.2993593 16711746
-1.3336430 -1.7552183 12.3622046 16711746
-1.3779041 -1.7677183 12.4058466 16711746
-0.9496664 -1.8162369 12.5072432 16711746
-2.0827618 -1.7050892 12.3938932 16711746
-1.4592302 -1.7598531 12.4817295 16711746
-0.9034129 -1.7121525 12.3271790 16711746
-1.5597907 -1.7743627 12.1733618 16711746
-0.9178007 -1.7901189 12.2911777 16711746
-1.1659193 -1.7547294 12.3550301 16711746
-2.0581980 -1.7127103 12.3679304 16711746
-1.5680174 -1.7212393 12.1686964 16711746
-1.5578198 -1.7640413 12.3264952 16711746
-0.6389335 -1.9012164 13.2453194 16711746
-1.2254633 -1.7496542 12.4016991 16711746
-1.2761755 -1.7959163 12.7908115 16711746
-1.0577240 -1.7661210 12.2769222 16711746
-1.4461998 -1.7779211 12.5120888 16711746
-1.0779312 -1.8765393 13.0905161 16711746
-1.3003824 -1.7406328 12.3044968 16711746
-1.1154921 -1.7891786 12.5145216 16711746
-1.1161460 -1.7464917 12.1979599 16711746
-0.6486707 -1.7831227 12.4062614 16711746
-1.2142646 -1.7513537 12.6147261 16711746
-1.3871770 -1.7610554 12.2703695 16711746
-1.4217930 -1.7404369 12.4307585 16711746
-1.4076511 -1.7622890 12.3639450 16711746
-1.5891321 -1.7368350 12.1803484 16711746
-1.4023435 -1.7984161 12.7277441 16711746
-1.0325485 -1.7640759 12.2242842 16711746
-1.6319420 -2.0697987 12.9650021 16711746
-1.1177565 -1.8516151 13.1031904 16711746
-0.8341680 -1.7746943 12.2707396 16711746
-0.6450130 -1.8240674 12.2251577 16711746
-0.9267184 -1.7529222 12.1733541 16711746
-1.9628683 -1.8009560 12.5246563 16711746
-1.4487616 -1.7411413 12.3259048 16711746
-1.0982674 -1.8117772 12.5986185 16711746
-1.4382117 -1.7578003 12.3584909 16711746
-1.0945655 -1.7930301 12.5384302 16711746
-1.1507307 -1.7436302 12.2685966 16711746
-1.1964146 -1.7385015 12.2467556 16711746
-1.1254264 -1.8142072 12.6761885 16711746
-1.2739559 -1.7672402 12.4668121 16711746
-0.9177572 -1.7565911 12.2154303 16711746
-1.0674950 -1.7988912 12.5408239 16711746
-1.2822952 -1.7868391 12.5783005 16711746
-1.4143406 -1.7398415 12.2436380 16711746
-1.5495279 -1.8004457 12.6301680 16711746
-0.6632974 -1.7873091 12.3862524 16711746
-1.0221066 -1.7794354 12.4018450 16711746
-1.2678232 -1.7467890 12.3032160 16711746
-0.5384101 -1.8405567 12.5393600 16711746
-0.9503933 -1.8257222 12.7446098 16711746
-1.2758839 -1.7667063 12.4658518 16711746
-1.1152780 -1.7751924 12.4268103 16711746
-0.6945369 -1.8590859 12.8954458 16711746
-1.3169603 -1.7573980 12.3697338 16711746
-2.7107446 -1.7067264 12.8636923 16711746
-0.9369686 -1.8096836 12.5398979 16711746
-1.7379618 -1.7458451 12.1404428 16711746
-1.5593014 -1.7890415 12.6517782 16711746
-1.1175615 -1.7740475 12.4294357 16711746
-1.4257367 -1.7212985 12.4598207 16711746
-1.5542150 -1.7704341 12.6660748 16711746
-1.8281231 -1.7584175 12.1959219 16711746
-1.0423495 -1.7937058 12.2688961 16711746
-1.3207551 -1.7530566 12.4940815 16711746
-1.5498402 -1.8015714 12.6264257 16711746
-0.4954994 -1.8384761 12.4189749 16711746
-0.9566302 -1.8694110 13.1870213 16711746
-1.0609829 -1.7672971 12.2749138 16711746
-1.6623567 -1.8128027 13.1596498 16711746
-1.2565496 -1.7663378 12.5275230 16711746
-1.2693739 -1.7571467 12.4594421 16711746
-1.3309875 -1.7613643 12.4083214 16711746
-1.4423590 -1.7849109 12.6247826 16711746
-1.0869925 -1.8822631 13.0456238 16711746
-1.6934398 -1.9836076 13.4141722 16711746
-0.9324769 -1.7699456 12.2366915 16711746
-1.3176963 -1.7913899 12.6418591 16711746
-1.1061628 -1.7620531 12.3414698 16711746
-1.0953162 -1.8092215 12.6052599 16711746
-0.6816118 -1.8573219 12.9130058 16711746
-1.2073636 -1.7960269 12.7190590 16711746
-1.3936564 -1.7791320 12.4989777 16711746
-1.3061824 -1.7715448 12.4872446 16711746
-1.4431672 -2.2915490 12.8075590 16711746
-1.1563628 -1.8383253 12.8975191 16711746
-1.2252526 -1.7741579 12.5301523 16711746
-0.6187720 -1.8262751 12.4475508 16711746
-1.3218138 -1.7632170 12.4755440 16711746
-1.3336185 -1.7717166 12.4757252 16711746
-1.0077312 -1.8554640 12.7096062 16711746
-2.2156117 -1.7170048 12.3944712 16711746
-1.1571788 -1.7991810 12.6113873 16711746
-1.3461891 -1.7774962 12.5166616 16711746
-1.2257897 -1.7823100 12.6221333 16711746
-0.9047199 -1.7906692 12.4795017 16711746
-1.1859341 -1.7491819 12.4097748 16711746
-0.3622251 -1.9272115 13.4048777 16711746
-0.9632828 -1.7741120 12.3107214 16711746
-0.9776726 -1.7838224 12.4026270 16711746
-0.9103597 -1.7929025 12.4695120 16711746
-1.3769089 -1.7722961 12.3963614 16711746
-0.7101747 -1.9183456 13.1631165 16711746
-1.1876729 -1.7526548 12.4054489 16711746
-1.3412192 -1.7608829 12.3694353 16711746
-1.4346752 -2.2775452 12.7631960 16711746
-1.1497760 -1.8790736 13.2749405 16711746
-4.4111614 -2.4074035 13.9292002 16711746
-1.1991303 -1.9054332 13.7626057 16711746
-1.2044374 -1.7628559 12.4186983 16711746
-1.2557847 -1.7891655 12.7285585 16711746
-2.6333568 -1.7213380 12.8037052 16711746
-1.5642104 -2.5708046 13.5958061 16711746
-1.5560327 -2.5300851 13.4617653 16711746
-1.7266260 -1.9075608 13.9303675 16711746
-1.4941959 -1.7652943 12.4604530 16711746
-1.4840447 -1.7641373 12.2994499 16711746
-1.4825624 -1.7647079 12.2991037 16711746
-1.3965298 -1.7955629 12.6283941 16711746
-1.4701461 -1.7606683 12.3950748 16711746
-1.7980634 -1.7587603 12.8060379 16711746
-1.1362746 -1.7909735 12.5979118 16711746
-1.0790128 -1.8181409 12.6850452 16711746
-1.3123083 -1.7709016 12.4743357 16711746
-1.3405889 -1.7850660 12.6410456 16711746
-0.9890206 -1.8190098 12.6259747 16711746
-1.4008058 -1.7994970 12.7282581 16711746
-2.0075152 -1.7828493 12.9576206 16711746
-1.4111465 -1.7880055 12.5554447 16711746
-1.4472153 -1.7741978 12.5177956 16711746
-1.5179638 -1.7731794 12.5953131 16711746
-1.4877341 -1.7711796 12.3575344 16711746
-2.1778903 -1.7263113 12.3652792 16711746
-1.0606683 -1.7966663 12.5520096 16711746
-1.5671262 -1.7971126 12.5982008 16711746
-1.5701199 -1.7965448 12.6049528 16711746
-1.7116783 -1.7622598 12.6313601 16711746
-1.4636506 -1.7680423 12.3454084 16711746
-1.4834168 -1.7817037 12.5359898 16711746
-1.2769884 -1.7812659 12.5832033 16711746
-1.6196027 -1.7987497 12.6716995 16711746
-1.0813752 -1.8790667 13.0574942 16711746
-1.5025702 -1.7897995 12.6031084 16711746
-1.3716402 -1.7591285 12.3384457 16711746
-1.0344027 -1.7926947 12.4385509 16711746
-1.0345507 -1.7972151 12.5248222 16711746
-1.0642526 -1.7902497 12.5043325 16711746
-1.2265365 -1.7548652 12.3872786 16711746
-1.6258583 -1.8311334 13.0383835 16711746
-2.1184404 -1.8361713 13.4496756 16711746
-1.1927326 -1.7602440 12.4652624 16711746
-1.5268941 -1.8117787 12.9554157 16711746
-1.0570105 -1.8058715 12.5917444 16711746
-1.3624420 -1.8181245 12.9942961 16711746
-1.3976394 -1.7768298 12.5064878 16711746
-1.3511425 -1.7819554 12.5295019 16711746
-1.4520475 -1.7648833 12.4570923 16711746
-1.2463948 -1.7905720 12.6056623 16711746
-1.1494315 -1.8804506 13.2645988 16711746
-1.6539026 -1.8535835 13.4837303 16711746
-1.0088279 -1.8544837 12.7081070 16711746
-1.5123882 -1.9300742 12.0989943 16711746
-1.5343791 -1.8667598 13.6596642 16711746
-1.6115323 -1.9789073 13.1279831 16711746
-1.5247568 -1.8733288 13.6121502 16711746
-1.2645113 -1.7703229 12.5306625 16711746
-1.3743470 -1.7664907 12.3991547 16711746
-1.0338541 -1.7970325 12.5249634 16711746
-1.1021616 -1.7698206 12.4081793 16711746
-1.0648650 -1.8177671 12.6741524 16711746
-1.3599495 -1.7819015 12.5572529 16711746
-1.3371961 -1.7686800 12.3758163 16711746
-1.3718123 -1.7840428 12.3933115 16711746
-1.3968430 -1.7722318 12.5176201 16711746
-1.8727784 -1.7718165 12.8273506 16711746
-1.7914863 -1.7605717 12.7996016 16711746
-1.1638303 -1.7530640 12.4148540 16711746
-1.2246469 -1.7932457 12.6852789 16711746
-1.0687146 -1.8024060 12.5338478 16711746
-2.0279884 -1.8935990 13.0072145 16711746
-1.4438119 -1.8010188 12.7519026 16711746
-1.1858319 -1.8026142 12.6642084 16711746
-1.0605068 -1.7971691 12.5477543 16711746
-1.4885515 -1.7762705 12.3496113 16711746
-1.4417478 -1.7796836 12.4274445 16711746
-1.1983935 -1.7751108 12.5654879 16711746
-2.1309471 -1.7827852 13.0849752 16711746
-1.0667461 -1.8017640 12.5365143 16711746
-1.0439172 -1.8033366 12.4880800 16711746
-1.1950502 -1.7602776 12.6018238 16711746
-1.4223350 -1.7939713 12.5189285 16711746
-1.3140082 -1.8090682 12.5857096 16711746
-1.0953509 -1.8535116 12.9850674 16711746
-1.4842653 -1.8236718 13.0186729 16711746
-0.7093677 -1.8824062 13.1772079 16711746
-1.3411562 -1.7869810 12.6399975 16711746
-1.3744526 -1.7743018 12.3870506 16711746
-1.5198520 -1.8071015 12.9567652 16711746
-1.3984054 -1.7654648 12.3458681 16711746
-1.2723036 -1.7877691 12.6580544 16711746
-1.1476531 -1.7765025 12.4897594 16711746
-1.2782907 -1.7741011 12.4476871 16711746
-1.3203404 -1.7704060 12.4561024 16711746
-2.0471001 -1.8520508 13.3333473 16711746
-1.2220632 -1.8116363 12.8357611 16711746
-1.1635894 -1.8912355 13.4348001 16711746
-1.2936735 -1.8060125 12.8520412 16711746
-1.2667526 -1.7691833 12.5390863 16711746
-1.1901478 -1.8579384 13.2382431 16711746
-1.0825185 -1.8889121 13.1561947 16711746
-1.5655315 -1.8185879 12.7062130 16711746
-2.3503199 -2.1113133 14.5163431 16711746
-1.1543344 -1.8502351 13.0408611 16711746
-1.2048198 -1.9106390 13.8243933 16711746
-1.6844876 -1.7508016 12.4629011 16711746
-0.6685556 -1.8981791 12.8465137 16711746
-0.6805215 -1.8433287 12.6483812 16711746
-1.1067837 -1.8228334 12.7276907 16711746
-1.0586636 -1.8363351 12.7367220 16711746
-1.7000386 -1.7657892 12.7044201 16711746
-0.9145033 -1.7989019 12.5429287 16711746
-0.9957336 -1.8099066 12.6312475 16711746
-1.2479650 -1.7975452 12.7245054 16711746
-1.7933517 -1.7243711 12.4331331 16711746
-1.4974258 -1.7922001 12.5974884 16711746
-1.5484440 -1.7994807 12.6283236 16711746
-0.5811184 -1.8880128 12.9725847 16711746
-2.1584041 -1.7476140 12.8208933 16711746
-0.9006225 -1.8272871 12.6930704 16711746
-1.3181857 -1.7875687 12.6483135 16711746
-0.5469526 -1.8887601 12.8149176 16711746
-2.1985373 -1.7380714 12.8546381 16711746
-0.8862423 -1.8003461 12.4889498 16711746
-1.5376855 -1.7478362 12.3884640 16711746
-0.9392694 -1.8380270 12.7030258 16711746
-2.0206442 -1.7203999 12.7235861 16711746
-1.5776983 -1.7799972 12.6134396 16711746
-1.9751118 -1.7375503 12.6801357 16711746
-1.1831745 -1.7983747 12.6776581 16711746
-1.2423631 -1.7677259 12.5183096 16711746
-1.1004635 -1.8038007 12.5818796 16711746
-1.3854936 -1.7673866 12.3525438 16711746
-1.1652448 -1.7634709 12.4757919 16711746
-1.6583796 -2.1695399 12.8256445 16711746
-1.8974669 -1.7666503 12.8531132 16711746
-1.0019463 -1.7862045 12.4280224 16711746
-1.3232290 -1.8040054 12.8207846 16711746
-1.7137029 -1.7359514 12.4971952 16711746
-1.1267112 -1.8548185 13.0673256 16711746
-0.9310343 -1.8223948 12.6610060 16711746
-1.5075604 -1.7963340 12.7500591 16711746
-1.0868376 -1.8195022 12.6697769 16711746
-1.3400306 -1.7746812 12.5856619 16711746
-1.4260571 -1.8325818 13.0888090 16711746
-1.2421572 -1.8317912 12.9674053 16711746
-1.1565142 -1.8390472 12.8996735 16711746
-1.3217764 -1.8433036 13.0749331 16711746
-1.1661419 -1.8192893 13.0309305 16711746
-1.4879647 -1.7784382 12.5418425 16711746
-1.7666186 -3.0191607 14.9849148 16711746
-1.4138516 -1.9944611 14.5160198 16711746
-1.1267673 -1.7794937 12.5136766 16711746
-2.1796765 -1.7664093 13.0407648 16711746
-0.9932857 -1.8230850 12.6866951 16711746
-1.3230197 -1.8367143 13.1054258 16711746
-1.1071216 -1.8534698 13.6790686 16711746
-1.4146204 -1.7865078 12.5629816 16711746
-1.2971793 -1.7962391 12.7399406 16711746
-1.2494235 -1.7818878 12.5865240 16711746
-1.2196841 -1.8053044 12.8585691 16711746
-1.0475465 -1.7949764 12.4566460 16711746
-1.5205607 -1.7973390 12.7584181 16711746
-0.3840559 -1.9280372 13.3666048 16711746
-1.1451681 -1.8013779 12.6548424 16711746
-1.3429480 -1.7828567 12.6199493 16711746
-1.3506074 -1.7930014 12.6675892 16711746
-1.2676390 -1.7796344 12.6250467 16711746
-1.1887497 -1.8287746 12.9024734 16711746
-1.4531147 -1.7946973 12.6329765 16711746
-1.2247279 -1.7805781 12.6248264 16711746
-1.2510240 -1.7814626 12.5859900 16711746
-1.4489638 -1.7710972 12.5212975 16711746
-1.5547608 -1.7725794 12.5864086 16711746
-2.1890104 -1.7422800 12.9086685 16711746
-1.0314969 -1.8272278 12.6595936 16711746
0.0804803 -2.0133917 13.7437687 16711746
-0.8407402 -1.8279870 12.5601158 16711746
-2.0495937 -1.7232631 12.6653337 16711746
-1.2442232 -1.7746332 12.5020247 16711746
-1.1989992 -1.7747452 12.5625648 16711746
-1.3549337 -1.7785217 12.5380764 16711746
0.3661599 -2.1423869 14.2102060 16711746
-1.9064871 -1.7644935 12.8614016 16711746
-1.8586363 -1.7407662 12.5750074 16711746
-1.5526991 -1.7774516 12.5816050 16711746
-0.6732392 -1.8407788 12.6591587 16711746
-1.5083553 -1.7929381 12.7570229 16711746
-0.7116882 -1.8584895 12.8701296 16711746
-1.7621977 -1.6945518 12.5100946 16711746
-1.5645965 -1.7662947 12.6615467 16711746
-1.2270241 -1.7824301 12.6213074 16711746
-2.0574684 -1.7732664 12.9293251 16711746
-1.0010746 -1.8239696 12.6713839 16711746
-1.4088870 -1.8235440 13.1348352 16711746
-1.5906591 -1.8224790 13.1334400 16711746
-1.3771760 -2.6854260 15.4844456 16711746
-1.2402797 -1.8315910 12.9699564 16711746
-1.4426638 -1.8030344 12.7462778 16711746
-1.0948526 -1.7918477 12.5570736 16711746
-1.3218855 -1.7862859 12.6668167 16711746
-1.3392740 -1.8084081 12.8878889 16711746
-1.0517497 -1.8374469 12.8315897 16711746
-1.2664500 -1.7799547 12.6232653 16711746
-1.1899526 -1.8113723 12.8363533 16711746
-1.5418663 -1.7960283 12.6054153 16711746
-1.3976458 -1.8002269 12.7247543 16711746
-1.6226548 -1.7765489 12.6204453 16711746
-1.1660504 -1.8137226 12.8367052 16711746
-1.9037008 -1.7207437 12.6577816 16711746
-1.8701738 -1.7637696 12.8196354 16711746
-0.9675754 -1.8148806 12.6154156 16711746
-1.1086074 -1.7777381 12.5219288 16711746
-1.5518762 -1.7977371 12.6312742 16711746
-1.8043084 -1.7819483 12.4652300 16711746
-1.0533222 -1.8039938 12.5634184 16711746
-1.2120659 -1.7970198 12.7006178 16711746
-1.1312134 -1.8012769 12.6087532 16711746
-1.4545891 -1.7802010 12.5836029 16711746
-1.8733343 -1.7358168 12.6260223 16711746
-0.8951428 -1.8241664 12.6998606 16711746
-1.5236406 -1.8567309 12.5740662 16711746
-1.7726783 -1.7954887 12.4399376 16711746
-2.0724781 -1.7953655 13.0141830 16711746
-0.8944219 -1.7914231 12.5646677 16711746
-0.9759822 -1.8215142 12.5991888 16711746
-1.7887018 -1.7624943 12.7892351 16711746
-1.1719484 -1.7945743 12.5643435 16711746
-1.1271572 -1.8352249 12.7685099 16711746
-1.2855097 -1.7826319 12.5948086 16711746
-1.5771219 -1.8233348 12.6844511 16711746
-0.8136636 -1.8162165 12.6490917 16711746
-1.2204751 -1.9402499 13.7709684 16711746
-1.1509411 -1.7831160 12.5949802 16711746
-1.1930976 -1.8332391 12.8916607 16711746
-0.9739795 -1.8134826 12.6618490 16711746
-1.0052381 -1.8292967 12.6580944 16711746
-1.3567122 -1.8158487 12.9214668 16711746
-1.1549121 -1.8203548 12.7206869 16711746
-1.6669955 -1.8728437 13.4904003 16711746
-1.5360314 -1.8705863 13.6633730 16711746
-1.0902565 -1.8130550 12.6361504 16711746
-1.0860919 -1.8230464 12.6683588 16711746
-1.7252663 -1.7357478 12.5635433 16711746
-1.1911328 -1.8286883 12.8965559 16711746
-1.2269057 -1.8262539 13.0328970 16711746
-1.2670380 -1.8041388 12.8223400 16711746
-1.0816426 -1.8799336 13.0507183 16711746
-1.8949046 -1.7566260 12.7409801 16711746
-1.2219495 -1.7816890 12.6266317 16711746
-1.4523828 -1.7909690 12.6175718 16711746
-0.5870391 -1.8805144 13.0840435 16711746
-0.6875681 -1.8595545 12.9005051 16711746
-0.6266131 -1.8693323 12.7729330 16711746
-1.3956454 -1.8087196 12.8484087 16711746
-0.8839110 -1.8941041 13.3332024 16711746
-1.2984892 -1.8000598 12.7287884 16711746
-1.0499488 -1.8931519 12.7099838 16711746
-1.3084584 -1.7900654 12.7235603 16711746
-1.0782562 -1.8775338 13.0920496 16711746
-0.9330588 -1.8333960 12.7694550 16711746
-1.4692492 -1.7871155 12.6168327 16711746
-1.4008712 -1.8047078 12.7126303 16711746
-0.4194264 -1.8859898 13.0011911 16711746
-1.8347169 -1.7141380 12.6423473 16711746
-1.2112232 -1.9327304 13.8670816 16711746
-0.9560575 -1.8432056 12.6829967 16711746
-1.4968880 -1.7790009 12.5814438 16711746
-1.2485094 -1.7812216 12.5868731 16711746
-1.3327594 -1.8236290 12.9778261 16711746
-1.3853902 -1.7974992 12.7110119 16711746
-1.5219079 -1.7910404 12.6591949 16711746
-1.1310632 -1.8166177 12.7109957 16711746
-1.1990442 -1.8866531 13.5202198 16711746
-1.0026879 -1.8128670 12.7107048 16711746
-1.2238307 -1.8510846 13.1132498 16711746
-1.9904360 -1.8986017 12.9654446 16711746
-1.4469826 -1.7968929 12.6988649 16711746
-1.2238890 -1.7750558 12.6319284 16711746
-1.3693585 -1.7797863 12.5446777 16711746
-0.9959446 -1.8035293 12.5871906 16711746
-1.2924479 -1.8139517 12.8193026 16711746
-0.8772935 -1.8938026 13.3442955 16711746
-1.3163252 -1.8331228 13.0287867 16711746
-1.1980606 -1.8845737 13.5316391 16711746
-1.4247596 -1.7760495 12.5409260 16711746
-1.1467706 -1.8796754 13.1637249 16711746
-1.4295195 -1.8291321 12.9846268 16711746
-1.2046511 -1.7942927 12.7264996 16711746
-1.3273625 -1.7911131 12.7251530 16711746
-1.3216503 -1.8377349 13.1132584 16711746
-1.7304302 -1.9022454 13.9609642 16711746
-1.2281581 -1.9392960 13.7604446 16711746
-1.6627183 -2.6681242 14.0901165 16711746
-2.1118529 -1.7619756 12.9427490 16711746
-1.5436350 -1.7605077 12.5366640 16711746
-1.3843497 -1.7989421 12.7057638 16711746
-1.2552816 -1.8239311 12.8977823 16711746
-1.3237009 -1.8111806 12.8658724 16711746
-1.8002728 -1.7648858 12.8656740 16711746
-1.5027428 -1.7766191 12.5953398 16711746
-1.4218584 -1.8116511 12.8443518 16711746
-1.5555682 -1.8830179 12.6202211 16711746
-1.7381673 -1.7648621 12.8395271 16711746
-0.8402075 -1.8195589 12.7215929 16711746
-0.9121999 -1.8726196 13.1154308 16711746
-1.9545000 -1.7504861 12.6943951 16711746
-1.3535178 -1.8009877 12.6740885 16711746
-1.5603216 -1.8817655 12.6289797 16711746
-1.0434387 -1.8493994 12.7503681 16711746
-1.7765045 -1.7637147 12.8113213 16711746
-1.6065899 -1.7926885 12.5653191 16711746
-1.1329470 -1.7976230 12.6136723 16711746
-1.1424488 -1.8139200 12.6887531 16711746
-1.9510754 -1.7448895 12.6585846 16711746
-1.4758204 -1.8118198 12.8704977 16711746
-0.9002847 -1.8259404 12.6958265 16711746
-1.1563640 -1.8259383 12.6544790 16711746
-1.5498775 -1.8643832 12.6259003 16711746
-1.6071908 -1.8070112 12.6430149 16711746
-1.2049366 -1.8238552 12.7693415 16711746
-1.4570009 -1.7811866 12.7357035 16711746
-1.7130921 -1.7575909 12.6336708 16711746
-1.6660806 -1.8133779 13.0633297 16711746
-1.4537728 -1.7917790 12.6378489 16711746
-1.7727680 -1.7646903 12.8058329 16711746
-1.2982244 -1.7997439 12.7288170 16711746
-1.5444915 -1.7952242 12.7249794 16711746
-1.4240228 -1.8357251 13.0763540 16711746
-1.6664276 -1.8146877 13.0564423 16711746
-1.7776085 -1.7633460 12.8135214 16711746
-1.0219243 -1.8384397 12.7877502 16711746
-1.2840304 -1.8269969 12.8933477 16711746
-1.5459995 -1.7825035 12.5713511 16711746
-1.5485424 -1.8033937 12.8116083 16711746
-3.3704615 -2.3570049 14.1308784 16711746
-3.4833498 -2.5103040 14.0301619 16711746
-1.0741360 -1.8209294 12.6627617 16711746
-2.9261656 -2.3720822 13.5785084 16711746
-1.1459984 -1.8053806 12.6446352 16711746
-1.6184868 -1.7800652 12.6139526 16711746
-1.1552898 -1.8382773 12.9040270 16711746
-1.0564371 -1.7983657 12.5478764 16711746
-1.8579773 -1.7451355 12.6043415 16711746
-1.3825673 -1.8094105 12.8809738 16711746
-1.1895519 -1.8004907 12.8569918 16711746
-1.4951577 -1.8403009 13.1810904 16711746
-1.6019291 -1.8170507 13.0662174 16711746
-1.3240032 -1.8083206 12.8054562 16711746
-1.5478222 -1.8052367 12.8058729 16711746
-1.4430951 -1.8034403 12.7467594 16711746
-1.3992041 -1.8051010 12.7845440 16711746
-1.3164715 -1.7993847 12.7872934 16711746
-1.9841495 -1.7617160 12.7511883 16711746
-1.4664443 -1.8163526 12.9274254 16711746
-1.1585798 -1.8518019 13.0277843 16711746
-1.1383144 -1.8097578 12.7050095 16711746
-1.3548493 -1.8202662 12.9032726 16711746
-1.4958847 -1.8001505 12.7296810 16711746
-2.7463746 -1.7536823 13.1942959 16711746
-1.8472019 -1.8254004 13.4613123 16711746
-1.1593344 -1.8419874 12.8886375 16711746
-1.9164815 -1.7607881 12.6355000 16711746
-1.3355751 -1.8280009 12.9674225 16711746
