# .PCD v.7 - Point Cloud Data file format
VERSION .7
FIELDS x y z rgb
SIZE 4 4 4 4
TYPE F F F F
COUNT 1 1 1 1
WIDTH 1187
HEIGHT 1
VIEWPOINT 0 0 0 1 0 0 0
POINTS 1187
DATA ascii
1.3620889 -1.8573889 5.2132831 16711746
1.6603705 -2.4419699 5.7160106 16711746
1.6383135 -2.1107843 5.5337000 16711746
2.4605749 -1.8929427 5.2256765 16711746
2.0938108 -2.3715124 5.6529679 16711746
1.8502170 -1.9323471 5.4652057 16711746
1.6418754 -2.0200679 5.6465316 16711746
1.3005311 -1.9100574 5.5179515 16711746
2.1738114 -2.2685030 5.7706623 16711746
2.0573621 -2.0679228 5.5694394 16711746
1.5307051 -1.8718541 5.1813993 16711746
1.7234755 -1.8665048 5.4049497 16711746
1.4322865 -1.8131150 5.2614918 16711746
1.7414434 -1.7937945 5.3223162 16711746
1.8053201 -1.9836438 5.4362102 16711746
1.4361478 -2.0675189 5.5909972 16711746
2.1480265 -1.9169132 5.1662784 16711746
2.3857174 -1.8075880 5.2166567 16711746
1.6825809 -2.4113579 6.0375657 16711746
1.3584486 -2.2900293 5.7012649 16711746
2.2438366 -1.8427958 5.3257251 16711746
2.7158067 -2.1254947 6.0021882 16711746
2.8066401 -2.0803421 5.9310045 16711746
2.2667391 -2.2984033 5.2022624 16711746
1.6449472 -2.0300944 5.4991627 16711746
2.7039735 -1.8131002 5.4112806 16711746
1.9418706 -2.0390365 5.4251380 16711746
1.9371186 -1.8160384 5.2253585 16711746
1.6987954 -1.9980961 5.6246948 16711746
2.4144762 -1.9998951 5.5857201 16711746
2.0332789 -2.1160314 5.7693019 16711746
1.5063184 -2.2990408 6.2498245 16711746
1.8627399 -1.9011276 5.3796120 16711746
1.8146261 -2.0554025 5.4415331 16711746
1.8490721 -1.9028620 5.4508147 16711746
1.5113590 -1.9015591 5.4910598 16711746
2.2956121 -1.8849065 5.3053589 16711746
2.5522244 -1.7367268 5.3318739 16711746
1.9317256 -1.7841262 5.2194200 16711746
2.7664583 -2.2218258 6.1704340 16711746
1.9971642 -1.8898205 5.1196203 16711746
2.9780819 -2.0157402 5.4735203 16711746
2.1593213 -1.8399580 5.1280117 16711746
2.9214716 -2.2912877 6.3918338 16711746
1.7247552 -1.9782434 5.4894481 16711746
1.6392263 -2.5590811 5.4568448 16711746
2.6326709 -2.1277533 5.9951315 16711746
2.0383987 -1.7270783 5.6008115 16711746
1.9020152 -1.9831313 5.5329852 16711746
1.2022071 -2.2812266 5.3973961 16711746
1.8366294 -1.7276280 5.2498546 16711746
2.6624384 -2.0711381 5.7567072 16711746
2.0228477 -1.8492953 5.1308570 16711746
2.6308966 -1.8337741 5.2979641 16711746
2.7467873 -2.2883661 6.1335864 16711746
3.0329275 -2.4111447 6.4937496 16711746
2.2425749 -2.0058475 5.6314502 16711746
0.8156021 -1.8545357 5.2477369 16711746
3.1227448 -2.2968802 6.2426376 16711746
2.0536253 -1.6937100 5.6519041 16711746
2.3010278 -2.0394824 5.7065630 16711746
1.7606380 -1.4614336 5.1990466 16711746
1.7197858 -1.4857287 5.4058876 16711746
2.5461924 -2.3556397 6.1105590 16711746
2.7280855 -2.6432157 6.7563276 16711746
1.7867496 -2.2268832 5.5914240 16711746
1.4837428 -1.6378874 5.5540814 16711746
2.0833447 -1.9762555 5.6193695 16711746
1.4832833 -1.6794704 5.5492878 16711746
2.7744839 -2.8356354 7.0918317 16711746
1.5085378 -3.5605338 5.3878045 16711746
1.6580374 -2.1641283 6.0376821 16711746
2.6849449 -2.6873031 6.6542172 16711746
1.8130773 -1.5722464 5.3322716 16711746
0.8334703 -5.6281853 8.1281261 16711746
0.8311232 -5.7276750 8.1989155 16711746
1.5856549 -2.7653883 6.5827303 16711746
2.2761979 -2.6112773 5.9238596 16711746
1.5545578 -2.4027810 6.1174402 16711746
1.6103653 -2.2330627 5.9588771 16711746
1.3612264 -2.4419556 6.2439389 16711746
2.8450811 -2.1246593 5.6688280 16711746
1.6768389 -2.0512612 5.6148562 16711746
1.3830934 -2.7520151 6.6456280 16711746
1.9387783 -1.7504364 5.2252092 16711746
2.2064421 -2.0406263 5.2833757 16711746
1.3751174 -1.9199516 5.1876183 16711746
2.7381790 -2.0222659 5.5657101 16711746
1.3720046 -1.8460608 5.2842350 16711746
1.3384774 -2.2686667 5.8189402 16711746
2.2010067 -2.1192486 5.2106142 16711746
1.2924427 -2.2650166 5.8562922 16711746
1.7292413 -2.0651805 5.1480255 16711746
1.7368032 -1.7987446 5.3709269 16711746
1.8505427 -1.8133744 5.3654432 16711746
1.2821312 -1.7379290 5.2295489 16711746
1.8033402 -1.7771903 5.3429127 16711746
2.1119130 -2.0156431 5.2142539 16711746
1.3913413 -1.6823012 5.3497024 16711746
1.7227823 -2.0060506 5.2378588 16711746
1.6954640 -1.8932439 5.2132144 16711746
1.4813598 -1.8623515 5.2320228 16711746
1.7638228 -1.3930379 5.3135886 16711746
1.9523034 -1.9375932 5.3076262 16711746
1.1512315 -1.9359642 5.1339006 16711746
2.0824900 -1.7916794 5.7099867 16711746
1.6763054 -1.3439527 5.3126650 16711746
2.3940129 -2.1373198 5.9693584 16711746
0.6606140 -2.0928829 5.0619349 16711746
2.8101151 -2.3466651 6.1977572 16711746
2.6825299 -1.8780726 5.3179979 16711746
0.2185460 -2.4741094 5.9666495 16711746
3.6097777 -2.5208955 5.6842885 16711746
3.0939875 -2.1251872 5.8086567 16711746
3.1334622 -2.2926607 6.2527046 16711746
1.9217741 -1.5216714 5.2450385 16711746
2.7683127 -2.1814706 5.4145470 16711746
2.9589036 -1.9984665 5.4948111 16711746
0.5254083 -3.3391778 7.4912639 16711746
0.7722262 -2.7197323 6.9677539 16711746
2.1049750 -2.0069466 5.2904525 16711746
1.2998357 -2.0050161 5.6231236 16711746
1.3002043 -2.0032849 5.6224394 16711746
1.7671479 -1.3370043 5.2791390 16711746
0.5653587 -7.7103086 5.8541899 16711746
3.1864965 -2.3432996 6.3090348 16711746
2.4497802 -2.3510473 6.4838657 16711746
1.6460519 -1.9963592 5.6078835 16711746
3.7477276 -2.4129641 6.7521873 16711746
2.9061384 -2.3646910 5.9132781 16711746
1.6472553 -2.1870487 6.0513420 16711746
2.0306077 -1.7469192 5.2271247 16711746
3.8097384 -5.0741506 8.9772711 16711746
3.6120899 -2.0643263 6.0472164 16711746
2.8514209 -2.4604499 5.4693112 16711746
1.2097925 -2.1918647 5.2542744 16711746
1.6227698 -1.9154329 5.5955954 16711746
1.2736245 -2.4359419 6.0361490 16711746
2.3150134 -1.9692386 5.4121599 16711746
1.8648829 -1.1484993 5.1965938 16711746
1.6261897 -1.9139984 5.7146459 16711746
2.1529837 -2.0829444 5.1889157 16711746
1.7175879 -2.2439728 5.7047248 16711746
0.6482661 -2.0051310 5.1138024 16711746
1.3096244 -2.0594640 6.0613666 16711746
2.9455919 -2.3024330 5.9137402 16711746
2.4516656 -2.0312293 5.5983338 16711746
1.2244143 -2.2011123 5.1357279 16711746
1.5992887 -2.0698113 5.2604804 16711746
2.2353773 -1.8272485 5.3719382 16711746
1.6079229 -2.2196159 5.5795941 16711746
0.4068191 -2.2063406 5.1014028 16711746
1.6956033 -2.0338328 5.6480727 16711746
1.5233158 -2.2397819 5.9631815 16711746
1.2186953 -2.0534062 5.6115904 16711746
1.9015714 -1.7634028 5.7393179 16711746
1.7794031 -1.1610596 5.2125349 16711746
2.2729414 -1.8927640 5.3909183 16711746
1.5517818 -2.1200476 5.8796139 16711746
2.1814885 -1.9265206 5.1244788 16711746
1.9364696 -1.2373374 5.3147488 16711746
1.2326974 -2.1827307 5.2425790 16711746
1.7684903 -1.9899274 5.2188144 16711746
1.4895629 -2.1789036 5.6388497 16711746
1.5219387 -2.0611770 5.1789980 16711746
2.6509190 -2.0741239 5.5471239 16711746
1.6209456 -1.8365536 5.8582373 16711746
2.7948194 -1.7571934 5.6245918 16711746
1.6710103 -2.3399370 5.6321898 16711746
1.4958156 -2.3315265 6.0307889 16711746
1.4900385 -2.1118619 5.6129003 16711746
1.5657072 -2.2315798 5.5038900 16711746
0.9049412 -2.0880327 5.3988571 16711746
0.7537741 -2.2196090 5.3551755 16711746
2.1473553 -2.5088134 5.7509775 16711746
1.9250798 -1.7504535 5.2498145 16711746
2.6946635 -2.3083525 6.3165636 16711746
2.6197441 -2.2091136 6.1316075 16711746
1.9664010 -2.1154163 5.5749555 16711746
1.5285455 -2.0418434 5.6457477 16711746
1.5609641 -1.9872124 5.5898104 16711746
1.0300406 -2.3264990 5.2984719 16711746
1.3309774 -2.0160172 6.0201731 16711746
1.6031574 -2.2810714 5.5987778 16711746
1.0559984 -2.2842963 5.2932744 16711746
2.8518083 -1.9476216 5.6433697 16711746
1.6626015 -2.6670914 5.7134032 16711746
1.5909708 -2.0358729 5.7795072 16711746
0.9144948 -2.2339897 5.1251411 16711746
1.3243575 -2.0242665 6.0285201 16711746
2.9057162 -2.2571595 5.8877921 16711746
2.1499734 -1.8923006 5.4256754 16711746
1.2841587 -2.1981404 5.0957384 16711746
1.2452010 -2.1795187 5.0991726 16711746
2.9509997 -2.2697821 6.1368752 16711746
1.3884631 -2.1292770 5.8390160 16711746
1.7529680 -1.1661309 5.2342954 16711746
1.8296497 -1.1800228 5.2628975 16711746
1.7569878 -1.9973549 5.3610215 16711746
1.7746336 -1.7781624 5.4621754 16711746
1.2013478 -2.1813304 5.5383010 16711746
1.7006434 -1.9473679 5.2844419 16711746
3.0358193 -2.4931486 5.4700246 16711746
1.9268262 -1.7804924 5.3353548 16711746
2.5004697 -2.0098155 5.1741719 16711746
2.0894241 -2.0073204 5.1812816 16711746
1.6364651 -1.9825404 5.6285744 16711746
2.1629016 -1.9858660 5.8902364 16711746
1.8471614 -1.6757863 5.5735383 16711746
2.0712430 -1.9479380 5.4070501 16711746
2.8924451 -2.2903545 6.2351999 16711746
2.1900454 -1.8832701 5.3446078 16711746
2.1523788 -1.9078298 5.2611928 16711746
0.2805091 -2.3015592 5.8813806 16711746
1.7820021 -1.6746910 5.2497907 16711746
2.1512280 -1.9061842 5.2616129 16711746
1.5951786 -2.0742099 5.3636436 16711746
3.3956475 -2.5225284 6.4509974 16711746
3.4676447 -2.1087766 5.8487663 16711746
1.7760078 -1.9589517 5.4827857 16711746
0.7518772 -2.1066113 5.2474866 16711746
1.6116334 -2.4915037 6.3390422 16711746
0.7984467 -2.3857577 6.3768592 16711746
2.5022221 -2.3627949 6.3493323 16711746
1.2546632 -2.0095451 5.1710982 16711746
1.8268512 -2.0186563 5.4802570 16711746
1.8216488 -2.4187908 5.3487749 16711746
1.5041971 -3.0901830 6.7481647 16711746
2.1508992 -1.8440984 5.8381472 16711746
2.8177581 -1.9014506 5.6639624 16711746
1.9239429 -1.8296032 5.3296537 16711746
2.7889888 -1.8768764 5.6537533 16711746
1.3143368 -2.1542518 5.3589034 16711746
1.4462620 -2.2019119 5.6441336 16711746
2.5963750 -1.8450044 5.1395006 16711746
1.9029822 -1.9212993 5.6297345 16711746
2.1077273 -1.5911282 5.1740932 16711746
2.0649183 -1.7049178 5.5379844 16711746
1.8878614 -1.9117587 5.5116434 16711746
1.3432217 -2.0566499 5.7381639 16711746
2.0367961 -1.6966027 5.5529528 16711746
2.1440718 -1.6081748 5.1608129 16711746
1.9123713 -1.7182822 5.3396959 16711746
1.9076916 -1.7109889 5.3373194 16711746
2.1824970 -1.8288966 5.5018010 16711746
2.3018072 -1.7334886 5.4767976 16711746
1.9031082 -1.7071676 5.2700901 16711746
2.1753807 -1.9952272 5.5117145 16711746
2.0266545 -1.9657420 5.5340905 16711746
1.4407024 -2.0469992 5.5924511 16711746
1.7226657 -1.7891563 5.3084579 16711746
1.1500906 -2.2081811 5.1139445 16711746
1.6008099 -2.0432422 5.6594710 16711746
2.6416817 -1.7670516 5.6373935 16711746
2.0385096 -1.7824420 5.5645022 16711746
2.0162179 -1.8173679 5.5650120 16711746
1.8949245 -1.7347922 5.3074651 16711746
2.0018947 -1.7672865 5.2654810 16711746
2.1517582 -1.8651028 5.5294824 16711746
1.7287860 -1.8508319 5.2291780 16711746
2.5173604 -1.7098143 5.1743598 16711746
2.3302255 -1.6633109 5.1675644 16711746
1.3296566 -2.1368067 5.6947660 16711746
2.0609143 -1.7050524 5.5382743 16711746
2.7218680 -1.9053276 5.6041102 16711746
2.3592389 -1.7778529 5.4608269 16711746
2.0459256 -1.8832351 5.3927040 16711746
2.0473073 -1.8989007 5.3616481 16711746
1.4514042 -2.3528118 5.7098703 16711746
2.0111308 -1.7503300 5.1685796 16711746
1.9696324 -1.7328987 5.1462469 16711746
2.3185031 -1.7483282 5.1668525 16711746
1.7425244 -1.8293349 5.3077745 16711746
1.7419351 -1.7959884 5.2632284 16711746
2.4228461 -1.6494969 5.2756796 16711746
1.9598632 -1.9717531 5.5166421 16711746
1.3751937 -2.0606308 5.5780916 16711746
2.1128342 -1.6003047 5.1739335 16711746
2.0946801 -1.6703349 5.1592240 16711746
1.6362605 -2.1988420 5.4804564 16711746
2.1720111 -1.8816051 5.5025649 16711746
2.1780519 -2.0032613 5.5146079 16711746
1.1059868 -2.2292449 5.0517898 16711746
2.0540674 -1.6762086 5.1167936 16711746
1.4113311 -2.1121278 5.6223979 16711746
1.2131164 -2.2245190 5.2450800 16711746
1.2923346 -2.1621213 5.2179947 16711746
2.5370834 -1.8976201 5.7831507 16711746
2.3483510 -1.7092438 5.1317959 16711746
2.0280221 -1.9157054 5.2893991 16711746
2.0706134 -1.6244767 5.5549536 16711746
0.9545866 -2.3242543 5.2940445 16711746
2.1131637 -2.0121372 5.7732973 16711746
0.0757353 -2.7750516 7.4589138 16711746
3.0554144 -2.2058156 6.1716700 16711746
1.7937558 -1.2905328 5.2025013 16711746
2.0880463 -1.7682240 5.5729160 16711746
2.0002673 -1.9310482 5.5299692 16711746
1.9150840 -1.7417978 5.2756042 16711746
1.8404074 -1.8203765 5.3213129 16711746
2.0091321 -1.7460608 5.1685901 16711746
1.9410559 -1.6890494 5.3521490 16711746
1.8904191 -1.8257097 5.3891439 16711746
1.8851728 -1.7762520 5.3512149 16711746
2.1863968 -1.6326792 5.6274066 16711746
1.7747889 -1.8597398 5.6569781 16711746
2.1170588 -1.6219825 5.1623015 16711746
2.0693374 -1.7822748 5.3510032 16711746
2.3907225 -1.6640393 5.2583418 16711746
2.2334661 -1.7275105 5.3147945 16711746
1.7692764 -1.8905427 5.2882471 16711746
2.1542416 -1.7192483 5.2682962 16711746
2.1710055 -1.9898493 5.5095382 16711746
2.1168170 -1.7409052 5.2249637 16711746
1.1318808 -2.1533468 5.0553985 16711746
1.8123453 -1.9314697 5.2996469 16711746
1.9826393 -1.7470976 5.1269574 16711746
1.1653930 -2.1557379 5.2033920 16711746
2.5526965 -1.8209379 5.6024303 16711746
2.3683386 -1.7134932 5.5209908 16711746
1.4121889 -2.1185186 5.6233559 16711746
1.7165188 -1.9956396 5.6187339 16711746
1.6558571 -2.0607769 5.4420500 16711746
1.6225483 -1.9217027 5.4254861 16711746
0.8875059 -2.1954291 5.3284693 16711746
1.8580502 -1.8604296 5.3862033 16711746
2.0616548 -1.7086279 5.5375595 16711746
2.4861486 -1.7169772 5.1694388 16711746
2.2876213 -1.6573641 5.1872077 16711746
1.9805017 -1.9868935 5.5272093 16711746
2.1219378 -1.7050781 5.3756232 16711746
1.3206134 -2.2011304 5.6691737 16711746
1.8997132 -1.7995980 5.1928062 16711746
0.9435025 -2.1983571 5.2042909 16711746
1.7907463 -2.1008544 5.5203648 16711746
2.1781242 -1.6413417 5.3040071 16711746
2.6081319 -1.7332032 5.5686951 16711746
2.5746245 -1.7773143 5.5356183 16711746
2.1191549 -1.6376731 5.1708431 16711746
2.0902591 -1.6564097 5.1589675 16711746
1.7667546 -2.1378443 5.8232956 16711746
2.0350266 -1.7539660 5.5713277 16711746
1.7690251 -1.8261590 5.1580606 16711746
1.9419355 -1.6962413 5.3543673 16711746
1.8895870 -1.8208364 5.3619099 16711746
1.6140801 -1.9626557 5.4381528 16711746
1.7980766 -1.9414819 5.4220634 16711746
2.0247302 -1.6676995 5.2274580 16711746
2.0542715 -1.6796087 5.2063270 16711746
2.0780394 -1.7520705 5.3541393 16711746
2.0915983 -1.8340406 5.3644762 16711746
2.1599889 -1.7711511 5.3786960 16711746
2.1696224 -1.7956617 5.3259850 16711746
1.6656085 -2.1553838 5.4498243 16711746
1.4315127 -2.0635192 5.5996785 16711746
1.6954684 -2.2512531 5.5813227 16711746
1.7779540 -1.8209924 5.4087238 16711746
1.0412180 -2.0119746 5.2497487 16711746
1.7246774 -1.9173906 5.3609486 16711746
1.5591649 -1.9455966 5.6874738 16711746
1.0847175 -2.0865273 5.2195020 16711746
1.9320773 -1.7575098 5.2533884 16711746
1.7073947 -2.1230011 5.6798773 16711746
1.6539851 -1.8843491 5.4902430 16711746
0.8355024 -2.1767931 5.4182110 16711746
1.5463620 -2.0694258 5.3325591 16711746
0.8641953 -2.2999251 5.1208735 16711746
2.0755422 -1.8516473 5.3920798 16711746
1.8695681 -1.9831223 5.5053458 16711746
2.3597746 -1.7258167 5.2060776 16711746
1.8944825 -1.7266426 5.1661844 16711746
2.5006585 -1.5715452 5.8773437 16711746
1.8364841 -1.7611722 5.3127389 16711746
1.7318977 -1.8416392 5.2271123 16711746
2.0735564 -1.7911124 5.2387872 16711746
2.5295749 -1.6696863 5.5307188 16711746
1.9042886 -1.8185914 5.1933846 16711746
1.9355456 -1.6698436 5.3466625 16711746
1.5337974 -2.3209717 5.4448266 16711746
1.7542050 -2.1828494 5.6447735 16711746
2.0681024 -1.6936446 5.2974992 16711746
1.6230478 -2.0644474 5.2609897 16711746
1.7035130 -2.2051570 5.4260321 16711746
1.1332256 -2.1598077 5.2806349 16711746
1.0561213 -2.2163670 5.2273011 16711746
1.7989260 -1.9225595 5.4158158 16711746
1.9257673 -1.7260530 5.2490530 16711746
1.9011556 -1.7417868 5.2457809 16711746
1.5120651 -2.2310157 5.7929335 16711746
1.8304090 -1.8524036 5.3065481 16711746
2.1473389 -1.7318769 5.2918458 16711746
0.9461419 -2.1298079 5.2553825 16711746
1.0997767 -2.0755506 5.2184315 16711746
1.1583898 -1.8628244 5.2023191 16711746
1.6752068 -2.1041083 5.4356022 16711746
1.6016891 -2.2044673 5.4642987 16711746
1.6639487 -1.8331094 5.4700060 16711746
1.5689240 -1.9802924 5.3179893 16711746
0.9895857 -2.2965109 5.0653276 16711746
2.0732021 -1.8893347 5.3378677 16711746
2.2253721 -1.6549358 5.1530700 16711746
2.3777170 -1.6461858 5.1562767 16711746
2.0165260 -1.7680234 5.1954265 16711746
2.0485299 -1.7474182 5.1458230 16711746
1.8269225 -1.7841570 5.2586994 16711746
2.4937263 -1.7053118 5.4948845 16711746
2.3262711 -1.6043578 5.1606050 16711746
1.4272203 -1.9040554 5.6518593 16711746
2.1926186 -1.7579838 5.3383069 16711746
2.1437252 -2.0565324 5.1616387 16711746
2.0665467 -1.8262424 5.3845434 16711746
1.8649875 -1.7265463 5.2188525 16711746
2.2170014 -2.1349683 5.2456183 16711746
1.5837337 -1.9861296 5.1927714 16711746
1.8404127 -1.1491911 5.2324762 16711746
2.1651123 -1.4921410 5.4019628 16711746
1.8763888 -1.6754297 5.2361593 16711746
1.6003312 -2.2132568 5.7459960 16711746
1.0170202 -2.2821126 5.2613883 16711746
1.6278257 -1.9753057 5.2090015 16711746
1.6053123 -2.0890987 5.2707505 16711746
1.1723478 -2.0284941 5.1399369 16711746
2.3454342 -1.5845850 5.2624593 16711746
2.0696483 -1.8826432 5.3374538 16711746
2.2472627 -1.6880087 5.1864533 16711746
2.4769266 -1.8232589 5.1636314 16711746
1.7684008 -1.9564101 5.7130265 16711746
2.5327258 -1.6313744 5.4229822 16711746
1.9894264 -1.6338234 5.5488591 16711746
1.0701731 -2.0474658 5.1330323 16711746
1.8790621 -1.7258997 5.3008690 16711746
0.8604094 -2.1844277 5.3418493 16711746
1.6405607 -1.8898680 5.2614021 16711746
1.8174739 -1.6313210 5.3598619 16711746
1.9831402 -1.6066748 5.1814899 16711746
2.1290879 -1.5876575 5.1623120 16711746
1.1742029 -1.9699543 5.2179971 16711746
1.1520722 -1.8646934 5.4819345 16711746
1.5444115 -2.1424518 5.1933174 16711746
0.9884273 -2.1280816 5.2570038 16711746
2.3605187 -1.7414129 5.4274817 16711746
1.7973101 -1.8469455 5.3582826 16711746
2.1439660 -1.6666921 5.2722206 16711746
1.8395479 -1.7844511 5.2377501 16711746
1.7129413 -1.9911231 5.5870132 16711746
2.4561219 -1.7964495 5.5776091 16711746
2.3804305 -1.7718765 5.6525817 16711746
2.4372134 -1.8849171 5.6675005 16711746
2.0354743 -1.8279905 5.6237545 16711746
2.5570147 -2.1385176 5.4579854 16711746
2.0949278 -1.8195927 5.3918834 16711746
1.1003364 -1.9239677 5.2015328 16711746
0.9538718 -2.1748805 5.2602544 16711746
2.2998261 -1.7398933 5.1609254 16711746
1.8346699 -1.7644145 5.1999850 16711746
1.4168581 -2.0712318 5.8061981 16711746
3.3847585 -2.1282074 6.2909045 16711746
1.8291955 -1.1969967 5.2072272 16711746
2.1866305 -1.9193100 5.8971529 16711746
2.6657126 -2.0945070 6.0085974 16711746
1.3925678 -1.3881640 5.2765331 16711746
3.5988646 -2.2717137 6.6421432 16711746
1.7376626 -1.2839915 5.2367435 16711746
2.2348764 -2.0377445 5.8788137 16711746
1.7600284 -2.1366477 5.4089332 16711746
2.9047458 -2.3087785 6.3958135 16711746
0.1806761 -2.4827566 5.9948311 16711746
0.5381587 -2.1494398 5.1049376 16711746
2.9790897 -2.2500684 5.4120431 16711746
0.9223924 -7.1501207 5.2270842 16711746
0.7074410 -2.3274238 5.4418659 16711746
2.1499126 -3.0152509 6.8485599 16711746
1.6788030 -1.5630636 5.2675467 16711746
2.5523207 -2.5873156 6.2890701 16711746
0.5638123 -2.2357225 5.0474281 16711746
1.6901420 -2.2671170 5.6024261 16711746
1.0752931 -1.8452586 5.2448654 16711746
2.0843446 -1.7300584 5.6546712 16711746
2.2907121 -2.1215549 5.4983387 16711746
0.9586043 -1.8797293 5.1020660 16711746
1.1039139 -2.4722893 5.2434134 16711746
1.3839879 -1.8139254 5.6791434 16711746
1.6611687 -1.4935545 5.2757754 16711746
-3.7189612 -7.4914479 6.0769415 16711746
3.0337315 -3.1793187 7.5071387 16711746
2.2589173 -2.0623884 5.4827542 16711746
2.4996986 -2.2920353 5.6676669 16711746
5.8443685 -4.2670617 6.2833362 16711746
6.5600696 -11.9266138 11.1436176 16711746
2.6465919 -2.5020499 5.8189192 16711746
2.1797612 -1.9219826 5.7973871 16711746
2.7047741 -5.0393562 9.0321827 16711746
1.4438568 -2.2470353 5.4080701 16711746
2.3025692 -1.7187985 5.3073678 16711746
1.7257982 -2.3771331 5.4107490 16711746
2.3286164 -3.4462888 7.4948249 16711746
3.3165164 -3.7265098 8.0735836 16711746
0.8370883 -4.2523289 5.2126598 16711746
2.4089069 -2.8372381 6.3243599 16711746
1.9256593 -1.4547380 5.1986623 16711746
-1.2301838 -3.8820741 4.9625063 16711746
-1.3321894 -3.5771101 4.9621615 16711746
3.2819934 -2.6906986 6.0405898 16711746
1.2107940 -4.8598800 5.3750119 16711746
1.5590450 -3.3833871 1.4490341 16711746
2.1639154 -4.3201108 1.4700646 16711746
0.9580272 -0.8569648 0.5289249 16711746
-0.8674747 -1.2978307 0.0857975 16711746
1.6303310 -1.2585760 0.3154790 16711746
-1.2030044 -1.4271827 0.1431753 16711746
-0.8234809 -1.1690021 0.2209014 16711746
1.3375853 -1.2910973 0.6626979 16711746
-0.8669470 -1.0513009 0.2404063 16711746
-0.8351367 -0.8320302 0.2113611 16711746
-0.8682364 -0.9733656 0.1933684 16711746
-0.9199522 -1.2112550 0.2497954 16711746
2.1014471 -2.0876727 0.5355370 16711746
-0.7329462 -1.3047472 0.2276701 16711746
-1.0425187 -1.1502397 0.1200272 16711746
-0.7510360 -1.3232269 0.1639770 16711746
-0.9663991 -1.4672867 0.1676737 16711746
-0.9268279 -1.5835327 0.1402887 16711746
2.2474353 -2.3269122 0.4128807 16711746
2.1458251 -2.0915041 0.2061032 16711746
-0.8208677 -1.2338930 0.2618671 16711746
-0.7464634 -1.3869342 0.1801859 16711746
1.5316616 -1.6722060 0.4471099 16711746
2.2735081 -2.2907693 0.0618670 16711746
1.1885843 -1.0824914 0.7003839 16711746
0.3552662 -0.8213245 0.3133394 16711746
-0.4751349 -1.0539424 0.2106544 16711746
-0.7068356 -1.3832245 0.2520505 16711746
-0.9573992 -1.1454967 0.2722313 16711746
1.5586665 -1.2237530 0.5415075 16711746
-0.6110811 -1.8591268 0.0364594 16711746
1.5861070 -1.9906893 0.5124894 16711746
-0.6678512 -0.8784727 0.2585847 16711746
1.5086080 -1.2712356 0.5032916 16711746
1.1663375 -1.3866395 0.6176695 16711746
1.6782112 -2.3983092 0.3955021 16711746
1.1121356 -1.2269080 0.7053058 16711746
0.9431695 -1.1001978 0.5652844 16711746
-0.7228591 -1.1745851 0.2659825 16711746
-0.8244715 -1.3348122 0.2702567 16711746
-1.1092774 -1.4513638 0.1168261 16711746
-0.6863294 -0.8420912 0.0918344 16711746
-1.5384376 -1.5382149 0.2364047 16711746
-1.0765864 -1.3328935 0.1328276 16711746
-0.6171967 -1.3459884 0.3142949 16711746
-0.8203841 -1.4527193 0.3122948 16711746
1.1746781 -1.1729208 0.6420548 16711746
0.4049509 -1.8152409 0.2858365 16711746
-0.7802305 -1.0575294 0.2961950 16711746
-0.9685602 -1.4263815 0.3679334 16711746
-1.0719044 -1.1515112 0.0648109 16711746
-1.1183444 -2.1222324 0.2881089 16711746
0.7287762 -2.3967259 0.0230606 16711746
1.9261980 -2.2620914 -0.1018316 16711746
-0.7912180 -0.9551791 0.1006375 16711746
0.4401255 -1.0216309 0.4450125 16711746
0.0916571 -2.9797330 0.0865440 16711746
-0.8861296 -1.3580198 0.1204077 16711746
1.5766978 -2.4777660 0.3232940 16711746
2.4005785 -2.3357017 0.2008124 16711746
-0.8013708 -1.3691013 0.3337515 16711746
-0.4177140 -0.9988314 0.1788338 16711746
1.3437456 -1.3004016 0.6658784 16711746
-0.6673221 -0.7180107 0.1428880 16711746
-0.8765483 -1.3141202 0.2314451 16711746
-0.8806486 -1.1098551 0.0958300 16711746
1.7842709 -1.7313321 0.3670792 16711746
1.6793031 -2.2424476 0.4382311 16711746
1.3488148 -1.6073582 0.6267247 16711746
0.6053200 -1.8767666 0.7850546 16711746
0.7357619 -0.5475075 0.4906205 16711746
1.2086959 -1.0967213 0.8823223 16711746
1.3151469 -1.5626030 0.7699459 16711746
1.0440401 -0.9692173 0.7053745 16711746
1.4423437 -1.2293576 0.7373981 16711746
1.2896609 -1.5685048 0.1409817 16711746
0.9023975 -0.9066283 0.4744887 16711746
-0.6958845 -2.0914755 0.0858520 16711746
0.3702241 -1.3343711 0.1507460 16711746
0.8709323 -2.5379646 0.1401765 16711746
-0.4084186 -1.5866081 0.0226209 16711746
-1.3130072 -1.1374438 0.1169263 16711746
-0.0650737 -2.0986283 0.3373002 16711746
-0.7239529 -1.0489570 0.2526587 16711746
-0.7243435 -1.0343614 0.1892405 16711746
-0.4050441 -1.0975279 0.2329925 16711746
1.3065958 -2.0561361 0.2406945 16711746
1.4507169 -2.0658755 0.4912494 16711746
0.3420531 -1.4231818 0.3830624 16711746
1.0934222 -2.0059619 0.2560151 16711746
-0.1734105 -1.7018439 0.2023862 16711746
-0.5608802 -1.0308056 0.3655066 16711746
-0.7450096 -0.9503574 0.2845686 16711746
-0.7880119 -1.4053224 0.1241943 16711746
1.4625889 -1.8740810 0.4534062 16711746
2.1821911 -1.8498338 0.7854224 16711746
-0.0829492 -1.8508875 0.3560589 16711746
-0.5000361 -0.9036154 0.4023976 16711746
0.8983754 -1.0711528 0.5414735 16711746
1.2275571 -2.5834954 1.6680375 16711746
-0.6982827 -0.4999391 0.2108254 16711746
-0.7986546 -1.1216149 0.3049507 16711746
0.8354391 -2.2963204 0.4993395 16711746
1.8601714 -2.0214097 0.0394423 16711746
-0.4677222 -1.8087115 0.2482874 16711746
1.0177984 -1.0800258 0.6805092 16711746
-0.1648887 -1.5981525 0.5709169 16711746
1.1336443 -1.5555654 0.6243153 16711746
1.2958288 -1.5300828 0.5885416 16711746
1.3755368 -1.5512561 0.4749312 16711746
1.0022454 -2.0930696 0.1618629 16711746
1.4380959 -2.5404739 0.0778592 16711746
1.5592865 -1.8133680 0.1765365 16711746
0.8417109 -0.9318908 0.7235565 16711746
0.7424924 -0.8731366 0.5937784 16711746
-0.3518086 -0.6586329 0.3842026 16711746
0.1503678 -1.2610486 1.1456954 16711746
0.3829071 -2.0858610 0.6786599 16711746
0.2799483 -0.7881773 0.5987043 16711746
-0.6792826 -1.4512246 0.6253672 16711746
-0.0871860 -1.7909666 0.6480576 16711746
0.4793498 -2.9246583 -0.1064293 16711746
-0.4965653 -1.7867385 0.6605381 16711746
-0.0509224 -0.8681486 0.6153768 16711746
-0.1072855 -0.8883892 0.6407831 16711746
-0.6291410 -2.7003582 0.8532518 16711746
0.4073753 -3.1119232 0.4702314 16711746
0.1867531 -1.1422346 0.5986488 16711746
0.6736856 -1.8209786 0.4993717 16711746
0.3618006 -0.9347941 0.6717049 16711746
0.6481920 -1.6289204 1.2011250 16711746
-0.1420774 -1.8614799 0.6029450 16711746
-0.2882263 -1.8238610 0.4159377 16711746
-0.3865609 -0.4598024 0.4960806 16711746
0.1966537 -1.0056620 0.9009037 16711746
-0.1915483 -0.6054640 0.4906240 16711746
0.1442450 -0.7536485 0.6038797 16711746
-0.0879896 -0.9918212 0.6112913 16711746
0.9601129 -3.4438794 0.4097280 16711746
0.3842117 -2.0356929 0.7967926 16711746
-0.3110707 -0.8311223 0.5108063 16711746
0.9219300 -3.1916933 0.1345461 16711746
0.8596985 -3.3592868 0.0575192 16711746
-0.3885749 -0.8564131 0.4140851 16711746
-0.0800646 -1.0843583 0.7970626 16711746
1.1201030 -1.5658054 0.7488770 16711746
0.1553347 -1.7696420 0.9356940 16711746
-0.0808835 -2.0549901 0.7905754 16711746
-0.7942586 -2.4741118 0.6711838 16711746
-0.3540789 -0.9190625 0.5279884 16711746
-0.2947123 -0.7610068 0.3979742 16711746
0.1668642 -1.1507938 0.6915870 16711746
0.2771049 -3.3653252 -0.0646628 16711746
-0.8465195 -1.4975268 0.5423067 16711746
-0.9661821 -1.7824098 0.9576032 16711746
0.4012507 -2.1843019 1.1132444 16711746
1.6313866 -2.9958246 0.2666802 16711746
1.4371608 -3.3979032 0.4927400 16711746
0.7461217 -3.5753098 -0.1137509 16711746
-0.4819631 -2.2351041 0.5389590 16711746
0.4242971 -1.7020118 0.6554516 16711746
0.3524743 -0.9148153 0.6545666 16711746
-0.0274981 -3.3162456 0.4864113 16711746
-0.1049455 -0.9264340 0.5226547 16711746
-0.3016016 -1.6402504 0.8555681 16711746
1.3682233 -3.7468081 -0.1964229 16711746
-0.2836277 -2.6167185 0.8034175 16711746
0.2060262 -3.4315593 0.4176359 16711746
0.4241241 -3.2781575 0.3337177 16711746
1.0204645 -3.3459251 0.2864068 16711746
-0.2541450 -2.0786097 0.7883117 16711746
-0.4616329 -2.3645613 0.8349559 16711746
1.2641943 -3.5486941 0.0256751 16711746
0.0907352 -3.4779396 -0.0103760 16711746
-0.2651713 -2.2899249 0.4337808 16711746
-0.8332360 -3.1834595 0.3117428 16711746
-0.6756516 -2.4104619 0.2259342 16711746
-0.9426746 -2.9999068 0.1776341 16711746
-0.2949194 -2.6855381 0.0078556 16711746
0.4574606 -2.7201936 0.6840920 16711746
-0.7169791 -1.1603656 0.7147599 16711746
-1.5902001 -2.8900132 0.3334616 16711746
-0.1114119 -0.9110007 0.6570544 16711746
0.6275669 -3.2395647 0.3999318 16711746
0.8255562 -2.9961641 0.2913458 16711746
-0.0638485 -1.6468825 0.5523406 16711746
1.3301691 -2.8502021 0.7390577 16711746
0.4221536 -1.7882789 1.2510685 16711746
0.1536251 -1.5324323 1.0606744 16711746
-1.1370329 -2.8949399 -0.0656977 16711746
1.0683594 -2.1535761 1.3386381 16711746
0.7264646 -3.5062501 -0.1127654 16711746
-0.5514296 -2.5293436 0.6264477 16711746
-0.5626420 -2.4722388 0.5334360 16711746
0.1340486 -3.7759511 0.0130514 16711746
1.7047923 -3.5825896 0.3418172 16711746
0.6090979 -1.7727981 0.3475947 16711746
1.3005888 -3.7842298 -0.0971523 16711746
1.0553091 -2.9514468 0.4319467 16711746
0.4868471 -3.6872895 0.2670234 16711746
1.5167129 -3.1994839 0.1149870 16711746
1.3965633 -3.3665583 -0.0026710 16711746
-0.1844234 -1.4934297 0.7904783 16711746
-0.6357467 -2.2125659 0.2874249 16711746
-0.1916318 -3.0537889 0.0392286 16711746
0.3343723 -0.8857424 0.6480050 16711746
0.3354576 -1.0148823 0.7445531 16711746
0.4449005 -3.4054139 0.3527201 16711746
-0.3279755 -2.7278626 0.5349647 16711746
0.5280344 -1.6899974 0.4462879 16711746
0.4842250 -2.5645759 0.6801586 16711746
0.5530794 -2.3606920 0.4626344 16711746
-0.3856263 -3.2912025 0.3217108 16711746
-0.2699669 -1.9840770 0.7670326 16711746
-0.4525898 -3.6711974 0.0429945 16711746
-0.6636322 -3.2734883 0.0302919 16711746
-0.8324790 -3.1166382 0.1749189 16711746
0.4017181 -2.2600849 0.7350758 16711746
-0.2057725 -0.6320309 0.5556989 16711746
-0.3582008 -0.7070493 0.4581289 16711746
-1.0211791 -2.1324716 0.6973681 16711746
-0.8293559 -2.0033033 0.7165751 16711746
-0.1477855 -1.3690370 0.8820439 16711746
0.0213990 -3.3607745 0.5431207 16711746
-0.0780281 -2.7221668 0.4678495 16711746
0.4373557 -2.5701990 0.4011188 16711746
1.1807899 -2.2615869 1.6990784 16711746
-0.8681273 -2.5911996 -0.0115442 16711746
-0.1686813 -3.1785994 0.2803481 16711746
1.0043957 -2.1469512 0.7533285 16711746
0.2018274 -1.6192286 0.9416021 16711746
0.1812282 -1.2715178 0.8294714 16711746
-0.2211677 -1.3881485 0.8156915 16711746
-0.3195475 -1.5866458 0.9032792 16711746
-0.4533788 -1.7572064 0.7158505 16711746
1.6532444 -3.1609812 0.0203179 16711746
-0.4296768 -2.6650863 0.4750013 16711746
-0.7911677 -2.2832899 0.6518043 16711746
-0.6419779 -2.2415330 0.4262215 16711746
1.3542000 -3.5364437 0.4146412 16711746
1.1031784 -3.2760434 0.4121342 16711746
1.0123004 -2.6655092 0.2083266 16711746
-0.4193402 -2.4933991 0.8336207 16711746
-0.2083993 -2.0633018 0.6167797 16711746
-0.5602003 -2.4063163 0.1841779 16711746
-0.8547805 -2.6713970 0.1214389 16711746
1.2869188 -3.6890411 0.2497238 16711746
1.0817248 -2.9519732 0.0520350 16711746
0.8535880 -2.7945626 -0.0390246 16711746
-0.0165512 -2.7232792 0.3766483 16711746
-0.3309947 -2.9920282 0.4655760 16711746
-0.2820323 -2.5930982 0.0140991 16711746
0.6047162 -2.6255143 0.5219640 16711746
0.6246355 -2.5789630 0.4121804 16711746
-0.5941138 -2.5832739 0.2995750 16711746
-0.1997637 -1.9989821 0.8368372 16711746
-1.7502253 -2.8713894 0.7311382 16711746
-0.4504137 -2.3743117 0.9570887 16711746
-0.2700906 -2.6887548 0.6073778 16711746
0.4789606 -2.9098046 0.7356789 16711746
-0.2419838 -0.5886046 0.5417928 16711746
-0.4157254 -0.5638146 0.5043523 16711746
0.1571148 -1.8734192 1.1460212 16711746
1.2307731 -2.8981736 0.9030708 16711746
-0.3696988 -2.1261735 1.3114545 16711746
1.7982024 -3.1401749 0.5294921 16711746
0.3207762 -2.7206926 0.5399030 16711746
0.2136508 -2.8320880 0.5518012 16711746
-0.6221451 -2.1979878 0.4731669 16711746
-0.0081170 -2.7076578 0.2552286 16711746
-0.3524936 -3.1922224 0.3033185 16711746
-0.1592254 -3.3944092 0.1115288 16711746
0.2107219 -1.8963869 1.0821433 16711746
0.1851033 -2.9033999 0.2800905 16711746
0.9370230 -2.6360242 0.4986623 16711746
1.7417808 -3.0646577 -0.1047019 16711746
-1.5693113 -2.9576204 0.4155478 16711746
-0.8654512 -2.8587301 0.1634470 16711746
-1.4027909 -2.6517644 0.4408349 16711746
-0.6816629 -2.4728343 0.4840245 16711746
-0.6972539 -2.5710270 0.4234363 16711746
1.9600531 -2.4718471 2.5112462 16711746
0.4503425 -1.9001665 0.5282672 16711746
0.5332528 -1.5139270 0.2688735 16711746
0.9162953 -2.7180269 0.3230153 16711746
0.9167106 -3.2491839 0.3889913 16711746
-0.2946033 -2.5461817 0.4955784 16711746
-0.4492906 -2.7658172 0.4937487 16711746
-0.7879590 -3.2108383 0.0727625 16711746
1.5808595 -2.9948170 -0.0611211 16711746
1.4298459 -3.0786972 -0.0033902 16711746
1.8820179 -3.7280273 -0.1390339 16711746
0.5609643 -2.7153432 0.6059965 16711746
-1.0859292 -2.9084594 0.6778607 16711746
-0.3352484 -2.4361694 1.0584769 16711746
0.7189097 -3.2575407 0.6585903 16711746
-0.6677946 -2.4970529 0.2675672 16711746
1.1902585 -2.2889328 0.5905241 16711746
0.4913093 -2.3189678 1.0095752 16711746
1.6413944 -3.4471891 0.3217932 16711746
-0.3694243 -0.5135252 0.4440827 16711746
-0.6018355 -1.6626680 0.9590794 16711746
1.2252835 -2.9959216 2.8389175 16711746
0.3335240 -1.7812513 0.8832589 16711746
0.2740770 -1.5847162 0.9762252 16711746
-0.0359870 -0.8436654 0.8812612 16711746
-0.6219063 -2.9662344 0.7283913 16711746
-0.5507100 -2.5824182 1.4919436 16711746
0.5330564 -2.2707450 1.6240009 16711746
-0.3475017 -2.8494048 0.1667565 16711746
-0.3094689 -2.4592736 0.9808028 16711746
0.2142744 -2.8012798 0.2244184 16711746
-1.2713912 -2.0978839 0.7316159 16711746
-1.2266531 -2.1909688 0.6524893 16711746
-0.1733744 -2.8047738 0.1147703 16711746
-0.7154231 -2.9092145 0.0604831 16711746
-0.2645238 -2.1082790 1.0148675 16711746
1.7770811 -2.9761312 0.1995561 16711746
-0.9947009 -3.2333000 0.7382968 16711746
0.9849038 -2.6229100 0.6474359 16711746
0.2687002 -2.2534866 1.3552468 16711746
0.5460604 -2.8549628 0.5425185 16711746
1.1105703 -2.9974101 0.2502771 16711746
-1.1948292 -1.9577460 0.4535401 16711746
-0.9463314 -2.1448047 0.5534037 16711746
0.6179250 -3.1923485 0.8655045 16711746
-0.3230951 -2.2627816 1.0220281 16711746
-0.4503846 -2.6304462 1.1444983 16711746
-0.1846201 -2.4551313 0.5252120 16711746
1.2206101 -2.3795187 0.5113028 16711746
0.3596306 -2.2367868 0.6392124 16711746
0.1531308 -2.5915534 0.9634043 16711746
1.4291720 -2.9910145 0.2689818 16711746
-0.0810369 -2.5987818 0.4364990 16711746
0.5470638 -2.9856050 0.3595384 16711746
-0.4908126 -0.6819026 0.4039517 16711746
0.7605568 -2.2051861 1.9546756 16711746
0.1244378 -2.1266909 1.2317646 16711746
0.1661273 -1.7758329 1.0732003 16711746
0.5784773 -2.5374987 1.0403827 16711746
-0.3696309 -3.2429054 0.3067635 16711746
0.7339254 -2.1030080 1.7185256 16711746
-0.0207911 -3.0966914 0.4366092 16711746
-0.2408335 -2.9581532 0.3375525 16711746
0.5274882 -1.4533982 0.6079967 16711746
-0.7257159 -3.1228182 0.1619463 16711746
0.3790437 -3.0007246 0.2381737 16711746
-0.4097354 -2.6563258 0.4081077 16711746
-1.0540810 -2.9054365 0.2084417 16711746
1.3066384 -2.5830994 0.5617274 16711746
1.7727900 -2.4688175 1.0620311 16711746
-0.1367656 -2.4673622 0.9573155 16711746
1.6073303 -2.7358954 0.1816769 16711746
0.9580445 -2.8976936 0.2968748 16711746
0.3917498 -2.8091738 0.3587496 16711746
-0.1106413 -1.6355009 1.4682108 16711746
-0.9285637 -1.1273434 1.1203053 16711746
-0.7796900 -1.8260937 1.1557951 16711746
-0.9456309 -1.9829665 1.3048744 16711746
-0.2152783 -1.8479922 1.4292457 16711746
0.1980119 -2.1883156 1.7300373 16711746
0.8951243 -1.8811013 1.4594643 16711746
1.1911451 -2.3043280 1.0977769 16711746
2.2041397 -1.9412106 1.3305894 16711746
-0.4848804 -2.5614018 0.3645995 16711746
-0.7455595 -2.6285169 0.2724924 16711746
0.4947759 -2.1079829 0.6803598 16711746
1.5928433 -2.4105918 0.6186145 16711746
-0.1603193 -2.4461455 0.8219593 16711746
1.4003283 -2.3646204 0.1410255 16711746
-0.1041116 -1.6749142 1.4917132 16711746
-0.8801991 -2.2894015 1.3644568 16711746
-0.5633875 -2.1964476 1.1677024 16711746
0.1781249 -1.8144237 1.4004630 16711746
1.1411099 -2.3700895 1.8634498 16711746
0.3074683 -2.2000148 2.1093550 16711746
0.4916624 -2.7972441 1.4543602 16711746
0.3715572 -0.5999882 0.6406265 16711746
0.5406513 -0.9775409 0.4864771 16711746
0.6808090 -0.7859893 0.5245737 16711746
-0.0566997 -0.7278036 0.4555053 16711746
0.3532603 -1.3709003 0.4803883 16711746
0.8122644 -0.9827896 0.5485432 16711746
0.4008342 -0.9690572 0.6678946 16711746
-0.3367144 -0.3717598 0.2031437 16711746
-0.4109123 -0.4106541 0.2097248 16711746
0.3990038 -1.0999916 0.2283300 16711746
0.8439853 -0.8601482 0.5139515 16711746
0.4211341 -1.7840328 0.4217404 16711746
0.1112951 -0.6888091 0.6565630 16711746
-0.3457184 -0.3598974 0.1691510 16711746
-0.1856974 -0.7440682 0.5395011 16711746
0.1484342 -0.6179471 0.5288432 16711746
-0.1859073 -0.8466064 0.4751311 16711746
0.1381582 -0.9043624 0.6572282 16711746
0.1530813 -1.1204139 0.6112857 16711746
-0.3591933 -0.6079371 0.3743280 16711746
-0.2188782 -0.6339433 0.5818719 16711746
0.4937074 -0.8967085 0.4389523 16711746
-0.7034476 -1.0159663 0.1827493 16711746
0.9344645 -0.9509635 0.3789959 16711746
-0.7050763 -0.9771817 0.5676397 16711746
0.4279976 -0.6608212 0.6754946 16711746
-0.2639509 -1.3661222 0.5053889 16711746
-0.2688634 -0.7595808 0.6967129 16711746
0.4071406 -0.7019454 0.7018188 16711746
-0.0932209 -0.9191536 0.4421723 16711746
-0.1566880 -0.8220136 0.4602631 16711746
-0.3727098 -0.6261787 0.3878369 16711746
0.4069368 -0.6276383 0.6382803 16711746
-0.1895200 -0.7525169 0.5453455 16711746
0.1404542 -0.9698309 0.4424974 16711746
0.2531268 -0.9048975 0.6202604 16711746
0.8045686 -1.0056520 0.5210387 16711746
0.4254355 -0.5662007 0.6696967 16711746
0.5820888 -0.7233824 0.5661452 16711746
1.1886883 -1.1073663 0.8190197 16711746
0.3612162 -1.1920816 0.4427916 16711746
-0.0467127 -1.4348871 0.5200980 16711746
-0.4675207 -0.5760564 0.2375921 16711746
0.3088653 -1.4877038 0.6393465 16711746
0.1385644 -0.9783606 0.4528289 16711746
0.3725788 -0.9109689 0.6206255 16711746
0.4265547 -1.2031256 0.4110740 16711746
-0.4149982 -0.6945615 0.2403723 16711746
-0.1900288 -0.8703364 0.4813233 16711746
0.8318040 -0.7438967 0.6017417 16711746
0.5470420 -1.6052052 0.2506770 16711746
-0.0048777 -0.7330430 0.6386347 16711746
0.4304005 -1.4566654 0.1024349 16711746
0.0869539 -1.0779238 0.5644887 16711746
1.0729557 -1.1287651 0.6151606 16711746
0.8523372 -1.0298464 0.5003003 16711746
-0.8669589 -1.1518959 0.1883646 16711746
0.7362850 -1.4883713 0.4124402 16711746
-0.1415328 -0.6431310 0.5462597 16711746
0.2999930 -0.9826810 0.3249450 16711746
0.5646478 -0.8552629 0.6795163 16711746
0.4169210 -0.6454574 0.6579945 16711746
0.7264777 -1.5151894 0.6731258 16711746
0.9525170 -1.1801962 0.5894889 16711746
0.7086521 -1.5043968 0.4629892 16711746
-0.3736427 -0.5815384 0.3781051 16711746
-0.0858084 -1.2207141 0.4777258 16711746
1.6571562 -1.4853565 1.3184625 16711746
0.6116304 -0.7241730 0.5365634 16711746
-0.0641651 -1.2403103 0.3803083 16711746
0.5418191 -1.1537333 0.4404770 16711746
-0.3346194 -1.4536902 0.1662589 16711746
-0.3852623 -2.1504085 1.1409185 16711746
0.5231856 -0.5876436 0.6119860 16711746
0.6268070 -0.7413744 0.5515759 16711746
0.5556020 -0.6508760 0.5499612 16711746
0.6583199 -0.8130944 0.6594883 16711746
0.3653072 -0.5899435 0.6256619 16711746
-0.3347750 -0.6722946 0.4262214 16711746
-0.2063846 -1.0081052 0.4135741 16711746
0.1667422 -0.8785268 0.4951781 16711746
0.4993651 -0.5736553 0.6215941 16711746
0.8061267 -0.7686352 0.5250137 16711746
0.4674894 -1.3369768 0.5286167 16711746
0.2514860 -0.6810207 0.4686959 16711746
0.3466147 -0.9745363 0.3601493 16711746
0.3643458 -0.9765316 0.6587647 16711746
0.4134880 -1.3468419 0.5087640 16711746
1.0864315 -1.3245850 0.5881543 16711746
-0.6269569 -0.8367803 0.2447940 16711746
0.6181024 -1.2503077 0.7615285 16711746
0.9017255 -0.8160359 0.6375563 16711746
0.6922842 -2.1666667 0.3737576 16711746
0.5627155 -1.1314107 0.6763282 16711746
1.0885853 -1.1986777 0.5396990 16711746
0.8051578 -0.8949276 0.4761973 16711746
0.7253388 -0.8586512 0.5134326 16711746
-0.3966118 -1.4360937 0.4328816 16711746
-0.4996625 -0.7382236 0.3582908 16711746
0.1209690 -0.7677574 0.5772582 16711746
0.9150414 -0.9608894 0.6157242 16711746
-0.2515718 -0.6416996 0.3468094 16711746
0.4230306 -1.0815082 0.4161547 16711746
0.4200831 -1.0695837 0.7342486 16711746
-0.0517367 -0.7527859 0.5500834 16711746
0.5055541 -1.1309450 0.3759239 16711746
0.8837952 -0.8787453 0.5104483 16711746
-0.3658210 -0.6810321 0.4002819 16711746
-0.2247408 -0.8306879 0.4545034 16711746
-0.0324609 -0.8923109 0.7352791 16711746
0.1591073 -0.6847247 0.6001444 16711746
-0.2177233 -1.1652703 0.4763326 16711746
0.1378313 -0.5620316 0.4673681 16711746
0.4344576 -1.1465803 0.8996181 16711746
1.5200055 -1.1863918 0.5230710 16711746
1.0813687 -1.1384016 0.7349358 16711746
0.1606787 -0.8839015 0.5684865 16711746
-0.2886155 -1.2199080 0.2531968 16711746
-0.2143458 -0.8259599 0.5572743 16711746
-0.1008864 -0.7992890 0.5949816 16711746
-0.0133742 -0.6503091 0.5839348 16711746
0.4505369 -1.0066674 0.6571990 16711746
0.3364186 -0.7010487 0.5591584 16711746
-0.0285029 -0.6654594 0.5857131 16711746
-0.4286500 -0.5369295 0.2137338 16711746
-0.3722191 -0.5418008 0.2976210 16711746
0.1255815 -0.7319440 0.3961933 16711746
-0.2249253 -0.9875223 0.4709182 16711746
-0.3780800 -0.6405081 0.1242372 16711746
0.1049977 -1.4531792 0.1278514 16711746
0.6870617 -0.8465629 0.7815750 16711746
0.3650679 -1.6546441 0.6518004 16711746
0.1914043 -0.9817496 0.5599234 16711746
0.7050755 -0.8308164 0.6321400 16711746
1.0756747 -1.3633634 1.4209666 16711746
0.7850853 -1.8828181 1.0443143 16711746
0.1135540 -1.0513796 0.5835818 16711746
0.2975588 -0.8862982 0.6017577 16711746
1.0137382 -0.8948442 0.5879381 16711746
0.5786834 -1.3386116 0.3629596 16711746
-0.3571471 -0.7502717 0.1326194 16711746
-0.6777807 -0.6170272 0.3796255 16711746
0.1211643 -0.6398601 0.3782009 16711746
-0.5220745 -0.6324898 0.2779655 16711746
0.2794903 -1.3279074 0.3472972 16711746
0.1448652 -0.7647352 0.6115645 16711746
0.7703934 -0.8265332 0.3400095 16711746
0.7693471 -0.9478087 0.6286273 16711746
0.3603548 -0.7539924 0.6110743 16711746
-0.3271832 -1.3884150 0.3775347 16711746
-0.1658424 -1.3166934 0.3613593 16711746
1.1870049 -1.3286364 0.3949489 16711746
0.3258852 -1.6899393 0.5133469 16711746
0.8220080 -0.8141543 0.5423273 16711746
0.2388681 -1.2364497 0.2642421 16711746
0.4392577 -0.6069911 0.6844033 16711746
1.0761895 -0.9146060 0.5243015 16711746
0.4332978 -0.8898892 0.5429078 16711746
-0.0801597 -0.7273808 0.3459505 16711746
-0.1913379 -0.9314957 0.5005219 16711746
-0.1701572 -0.7340297 0.0397718 16711746
0.2786445 -0.7537259 0.4872796 16711746
-0.1542105 -0.6456548 0.1143431 16711746
0.4827897 -0.8657625 0.7006254 16711746
0.4265855 -1.4517810 0.3361086 16711746
-0.0773790 -0.5725368 0.4815740 16711746
-0.0856347 -0.6340439 0.5133197 16711746
0.7783137 -1.7427754 0.5463448 16711746
0.9578719 -0.9601147 0.5117074 16711746
-0.0013437 -0.7397147 0.6453176 16711746
-0.3585851 -1.4144884 0.3379379 16711746
-0.1669866 -1.4693264 0.5222327 16711746
0.9209861 -1.7150002 0.6288776 16711746
0.4547273 -1.9921073 0.3564454 16711746
0.4868562 -1.6033301 0.6184269 16711746
1.0978307 -0.8210702 0.5186982 16711746
0.2995104 -1.8805481 0.5679508 16711746
0.3781577 -1.7265252 0.6844581 16711746
-0.1920231 -1.9858871 0.4857371 16711746
0.7648073 -1.5006665 0.4542285 16711746
0.6365575 -2.0289595 0.1468675 16711746
0.6480955 -1.4395955 0.4652266 16711746
0.4568167 -0.7559470 0.8087830 16711746
1.1552386 -1.3612988 0.6123381 16711746
0.5396063 -2.2033331 0.3971693 16711746
-0.2775029 -1.3646601 0.3630178 16711746
0.1795525 -0.6460425 0.3792876 16711746
0.3812866 -0.8308916 0.2498952 16711746
0.1098906 -1.0876220 0.6036289 16711746
-0.1822318 -0.4870108 0.4162623 16711746
0.3597597 -1.2523504 0.3901152 16711746
0.8642148 -0.7909289 0.5145049 16711746
1.3222487 -1.1384250 0.6218320 16711746
-0.3379934 -0.3913591 -0.0184347 16711746
0.2169446 -1.7798504 0.0711440 16711746
-0.0523254 -0.8328587 0.0583048 16711746
0.1313781 -0.7225284 0.6147352 16711746
-0.4849144 -0.6270615 0.1104302 16711746
0.0916517 -0.8640985 0.4311808 16711746
0.1503746 -0.8414406 0.5332277 16711746
0.3722372 -0.9017597 0.1591118 16711746
0.4331193 -1.1746501 0.3994845 16711746
0.4755729 -1.1688287 0.4688247 16711746
-0.0028378 -0.5262385 0.4999117 16711746
-0.0934082 -0.6501408 0.5686511 16711746
0.0011087 -0.7410607 0.6441027 16711746
0.1381419 -0.7654024 0.5871279 16711746
0.4198692 -0.6394431 0.4769467 16711746
-0.0918329 -0.7725252 0.3577524 16711746
0.1441684 -0.7511504 0.4972644 16711746
-0.1998102 -0.9596289 0.5498604 16711746
-0.7754847 -0.7981058 0.1268147 16711746
-0.1186961 -0.9796590 0.3450094 16711746
0.5287206 -0.6139390 0.5164790 16711746
0.5812160 -0.6773251 0.5816303 16711746
0.4474567 -1.5274842 0.3015729 16711746
0.3845954 -0.5331786 0.5823144 16711746
0.3642975 -1.3993032 0.2547114 16711746
0.4940236 -0.9695901 0.5010688 16711746
-0.2611098 -1.1494423 0.2972795 16711746
0.4759710 -1.0211406 0.4119293 16711746
0.9819703 -0.8652341 0.5473449 16711746
0.1290534 -0.7074823 0.5084603 16711746
0.9781544 -1.0452073 -0.0825018 16711746
0.6299546 -0.7035692 0.5198396 16711746
0.8215129 -0.8080119 0.4771262 16711746
0.6261919 -0.7430145 0.5253601 16711746
0.5982491 -0.5396462 0.6013196 16711746
0.7273622 -0.8497554 0.4775159 16711746
0.3027575 -0.9146391 0.6776678 16711746
1.2701913 -1.2317697 0.6243070 16711746
0.2227729 -0.8491107 0.2557644 16711746
0.1130149 -0.7223123 0.5460857 16711746
-0.3028686 -0.5699564 0.0314074 16711746
0.8899559 -1.1707377 0.5841262 16711746
-0.7184458 -0.9730228 0.0508630 16711746
1.0893399 -0.9245247 0.3472988 16711746
0.2740116 -0.8182922 0.6007393 16711746
1.1499759 -1.3333436 0.6730292 16711746
0.3657243 -1.1822487 -0.0027300 16711746
1.2019050 -2.1669817 0.3811521 16711746
0.3692642 -0.7784884 0.5697910 16711746
1.3180554 -1.8444828 0.4283054 16711746
1.4142548 -1.4240957 0.0666722 16711746
1.0765616 -1.1793919 -0.0812863 16711746
0.7170436 -0.7922217 0.4282072 16711746
1.3709785 -1.1535920 0.6497359 16711746
0.6808905 -0.5823026 0.3315572 16711746
0.5568091 -1.1509825 0.3316511 16711746
-0.8406377 -0.8648605 0.0881144 16711746
1.7701260 -2.0892334 0.4072693 16711746
1.2811158 -2.2851720 0.4123916 16711746
0.5308001 -0.8654257 0.6711360 16711746
-0.4540994 -0.7821314 0.0357497 16711746
0.1496875 -0.8308471 0.0827696 16711746
1.1536310 -1.7816534 0.5129486 16711746
0.9595134 -1.0859698 0.5618102 16711746
0.7609730 -1.0619549 0.4776467 16711746
0.9849131 -1.2362568 0.2989699 16711746
1.2778823 -1.0927572 0.5949224 16711746
-1.3100796 -1.2702357 0.1380708 16711746
1.4408382 -1.5827652 0.3539160 16711746
1.0010233 -0.8341524 0.5408362 16711746
1.2987063 -1.3127075 0.3467509 16711746
0.8724483 -0.9805675 0.5906060 16711746
1.5359181 -1.4021341 0.4766875 16711746
-0.9206944 -1.7656971 0.3150879 16711746
1.0129588 -1.3147775 0.2589909 16711746
-0.6835924 -1.3684498 0.2238878 16711746
-0.8513300 -1.3574091 0.1204065 16711746
0.7184724 -1.0324117 0.1074707 16711746
-0.8888943 -1.7257737 0.3013408 16711746
1.3025602 -1.1797470 0.4035352 16711746
1.1552569 -1.5010569 0.3608954 16711746
-0.9554510 -1.6977929 0.2682391 16711746
-1.0766356 -1.2901189 0.1013409 16711746
0.1493057 -0.6264283 0.5371352 16711746
-0.4209635 -1.2034839 0.2143609 16711746
1.2818192 -1.3302299 -0.0907939 16711746
-0.8971461 -1.5427673 0.1352428 16711746
1.5913982 -1.4110155 0.2642556 16711746
-0.9068221 -1.5963470 0.1956960 16711746
0.3581181 -1.1760461 0.1551558 16711746
1.1532266 -1.3191456 -0.1074506 16711746
1.3300818 -1.5966685 0.3399462 16711746
0.5216882 -1.9703779 0.8329972 16711746
1.3976222 -1.3028216 0.4402026 16711746
0.1103039 -2.4247475 0.2371335 16711746
0.9615602 -1.0152030 0.6483835 16711746
1.5043867 -1.4054643 0.3958102 16711746
-0.3122458 -1.5273683 0.6032962 16711746
-0.0257930 -1.4578598 0.5487940 16711746
-0.7189626 -1.2744520 0.2188428 16711746
0.1403004 -1.3651829 0.9681979 16711746
-0.7477545 -1.3555118 0.3315357 16711746
1.2701310 -1.2623507 0.4021122 16711746
1.8024138 -1.9022052 0.5035248 16711746
1.4501642 -1.2579470 0.7532408 16711746
1.4544686 -1.6257160 0.5061132 16711746
1.3024546 -1.2928337 0.3026562 16711746
1.5981984 -1.4362017 0.2768646 16711746
0.8323068 -1.2848611 0.1242911 16711746
-0.8744042 -1.2703756 0.0954957 16711746
1.5654066 -1.6626065 0.9562274 16711746
1.1506630 -1.0202786 0.2658923 16711746
1.0195084 -1.3477559 0.4884875 16711746
